ply
format ascii 1.0
element vertex 701
property float x
property float y
property float z
property uchar red
property uchar green
property uchar blue
end_header
0.08260102570056915 0.0443301759660244 0.30059999227523804 0 65 161
0.058096855878829956 0.06453768163919449 0.3050999939441681 8 62 145
0.09866802394390106 0.06446444988250732 0.2938999831676483 0 65 157
0.09636983275413513 0.09752871096134186 0.2953000068664551 0 59 147
0.08610684424638748 0.08078502118587494 0.29649999737739563 0 59 145
0.08232453465461731 0.04020854830741882 0.29789999127388 0 63 151
0.08485996723175049 0.10644261538982391 0.296999990940094 1 59 147
0.038085438311100006 0.059046030044555664 0.30140000581741333 0 59 149
0.0493159256875515 0.05787688493728638 0.31290000677108765 0 62 159
0.04796048253774643 0.06579474359750748 0.3042999804019928 0 60 154
0.09182033687829971 0.1092267632484436 0.296999990940094 0 58 146
0.0873292088508606 0.047847408801317215 0.29909998178482056 0 63 154
0.08344285935163498 0.06889547407627106 0.30539998412132263 0 60 156
0.06276063621044159 0.0658596083521843 0.3046000003814697 76 105 154
0.07094775885343552 0.0794278085231781 0.29319998621940613 0 57 148
0.08451709896326065 0.07920785248279572 0.29580000042915344 0 61 153
0.053838614374399185 0.06589995324611664 0.3025999963283539 0 61 148
0.08002413064241409 0.07264123857021332 0.3050999939441681 0 60 154
0.07542899996042252 0.07520431280136108 0.2945999801158905 0 60 154
0.09745422005653381 0.08236876130104065 0.2971999943256378 0 60 152
0.10050474852323532 0.0635460913181305 0.2938999831676483 0 61 157
0.04353117197751999 0.055887460708618164 0.3100000023841858 0 62 158
0.10741604119539261 0.09977800399065018 0.29649999737739563 0 55 146
0.061814434826374054 0.08992218971252441 0.30230000615119934 0 61 146
0.047921087592840195 0.06464719027280807 0.3102000057697296 0 61 154
0.07237865775823593 0.06661700457334518 0.2953000068664551 0 60 152
0.03998301550745964 0.06501435488462448 0.3050999939441681 1 62 145
0.04993212968111038 0.058514971286058426 0.31369999051094055 0 60 156
0.09854841232299805 0.09599576145410538 0.2976999878883362 0 57 150
0.07606960088014603 0.07676712423563004 0.2953000068664551 0 57 152
0.08592729270458221 0.04083782061934471 0.29909998178482056 16 72 154
0.05167887359857559 0.06568663567304611 0.30379998683929443 0 62 151
0.07440007477998734 0.06677491962909698 0.29600000381469727 0 59 156
0.10371009260416031 0.11182233691215515 0.29649999737739563 0 57 148
0.08523187041282654 0.04494885727763176 0.30159997940063477 0 67 163
0.10414251685142517 0.1085280105471611 0.29510000348091125 0 57 150
0.08545998483896255 0.04223974421620369 0.29909998178482056 0 67 163
0.8316762447357178 -0.6035676598548889 3.91759991645813 83 117 157
0.08709423989057541 0.04282127693295479 0.29989999532699585 0 64 160
0.10159566253423691 0.06641397625207901 0.29440000653266907 1 60 151
0.102625772356987 0.08498279005289078 0.29339998960494995 0 58 146
0.07728254050016403 0.06540761888027191 0.29819998145103455 0 63 159
0.09277873486280441 0.08364135771989822 0.3000999987125397 0 58 151
0.07842952013015747 0.07404902577400208 0.2954999804496765 0 60 154
0.07070604711771011 0.07921212166547775 0.29409998655319214 0 58 149
0.09412667900323868 0.1105218306183815 0.2954999804496765 0 58 149
0.10449722409248352 0.08584888279438019 0.2947999835014343 0 59 151
0.07358790189027786 0.0775056928396225 0.2945999801158905 0 59 153
0.055674463510513306 0.06630692631006241 0.30230000615119934 0 62 148
0.060587916523218155 0.06835043430328369 0.3008999824523926 0 61 148
0.06507748365402222 0.06673504412174225 0.3021000027656555 58 100 156
0.04808657243847847 0.06549103558063507 0.3050999939441681 0 61 154
1.8766918182373047 0.08714880794286728 3.8762998580932617 76 115 160
0.07741212844848633 0.06598397344350815 0.2987000048160553 0 59 155
0.08105703443288803 0.048007380217313766 0.3000999987125397 0 64 161
0.07892322540283203 0.07410725951194763 0.2938999831676483 0 58 152
0.10287061333656311 0.06588680297136307 0.29409998655319214 0 62 157
0.10720530152320862 0.09954923391342163 0.2971999943256378 0 57 148
-0.0656038373708725 -0.26329633593559265 4.6031999588012695 108 136 167
0.08560285717248917 0.04979974776506424 0.2996000051498413 0 63 160
0.07291579991579056 0.07362299412488937 0.2994000017642975 0 59 153
0.052033353596925735 0.06600883603096008 0.30309998989105225 1 62 145
0.09527340531349182 0.08523187041282654 0.29909998178482056 0 60 148
0.08233312517404556 0.07842624187469482 0.2945999801158905 0 60 154
0.084111787378788 0.07047462463378906 0.29600000381469727 0 61 154
0.08240867406129837 0.051255278289318085 0.29989999532699585 0 63 155
0.07303756475448608 0.0704660564661026 0.29989999532699585 0 60 154
0.0556221529841423 0.09203404188156128 0.3046000003814697 1 59 145
0.07870432734489441 0.08492771536111832 0.2947999835014343 0 60 152
0.0980849638581276 0.09693311899900436 0.2962999939918518 0 60 152
0.10562757402658463 0.10724125057458878 0.29409998655319214 0 55 146
0.09038831293582916 0.08316754549741745 0.29839998483657837 0 59 152
0.07087433338165283 0.07755830883979797 0.2947999835014343 0 57 150
0.050133343786001205 0.06341102719306946 0.30889999866485596 0 61 154
0.0887364074587822 0.07509924471378326 0.29600000381469727 0 58 148
0.058001644909381866 0.09488943964242935 0.3046000003814697 0 57 148
0.09860087931156158 0.08323420584201813 0.2936999797821045 0 58 148
0.04727604612708092 0.059362463653087616 0.3155999779701233 0 60 156
0.0704137459397316 0.0752553641796112 0.2947999835014343 0 57 150
0.05476009473204613 0.09456851333379745 0.3050999939441681 0 55 144
0.048048123717308044 0.05860823765397072 0.3141999840736389 0 62 158
0.07430709153413773 0.07955893874168396 0.2919999957084656 0 57 150
-0.16878314316272736 -0.01286573987454176 5.114599704742432 108 136 167
0.05224023386836052 0.06304152309894562 0.30709999799728394 0 61 154
0.09738149493932724 0.0813026949763298 0.29839998483657837 2 62 148
0.044614680111408234 0.06477222591638565 0.3107999861240387 0 59 153
0.08262360841035843 0.06900826841592789 0.305899977684021 0 59 155
0.08016759157180786 0.07855935394763947 0.29510000348091125 0 59 153
0.09021901339292526 0.10979943722486496 0.2947999835014343 0 57 148
0.08305976539850235 0.07122466713190079 0.2971999943256378 0 57 150
0.08068329095840454 0.079073965549469 0.2953000068664551 0 57 152
0.08469196408987045 0.07157067209482193 0.2947999835014343 0 60 153
0.05933178961277008 0.09853462129831314 0.30410000681877136 0 55 146
0.08054383844137192 0.03978314250707626 0.29819998145103455 12 75 153
0.07161962240934372 0.06953069567680359 0.29789999127388 0 60 154
0.04132166877388954 0.05666274577379227 0.311599999666214 0 61 155
0.1072796955704689 0.09911831468343735 0.2987000048160553 0 58 149
0.07271668314933777 0.07433419674634933 0.2947999835014343 0 57 152
0.042974017560482025 0.059550561010837555 0.3165999948978424 0 61 157
0.0912025198340416 0.09329260140657425 0.29649999737739563 0 55 146
0.08036704361438751 0.06736276298761368 0.3027999997138977 0 61 159
0.0857013612985611 0.10679865628480911 0.29670000076293945 0 58 146
0.10125056654214859 0.08177398890256882 0.29339998960494995 0 58 152
0.04226469248533249 0.0582653172314167 0.3149999976158142 0 61 157
0.10442633181810379 0.06461799144744873 0.2945999801158905 0 63 156
0.047256797552108765 0.05323658138513565 0.305899977684021 0 61 153
0.08031962066888809 0.050651244819164276 0.29909998178482056 0 59 150
0.06745985895395279 0.06910645216703415 0.3000999987125397 0 64 155
0.1065920740365982 0.10959847271442413 0.2954999804496765 0 59 147
0.0881248265504837 0.09528634697198868 0.2954999804496765 0 58 144
0.09505004435777664 0.0680471658706665 0.2954999804496765 0 60 148
0.09043323248624802 0.09620971232652664 0.2954999804496765 0 59 145
0.0437411405146122 0.0582653172314167 0.3149999976158142 0 61 157
0.08285804092884064 0.0753050222992897 0.29319998621940613 0 59 153
0.06275904178619385 0.08992218971252441 0.30230000615119934 0 61 146
0.06271751970052719 0.08891871571540833 0.3021000027656555 1 62 145
0.07655903697013855 0.06518828123807907 0.2971999943256378 0 63 159
0.09831392019987106 0.11020784080028534 0.29839998483657837 0 60 146
0.08419858664274216 0.05120400711894035 0.2996000051498413 0 63 158
0.10598673671483994 0.08363097161054611 0.29510000348091125 0 56 148
0.09267888218164444 0.06846248358488083 0.2953000068664551 0 65 153
0.09987661242485046 0.10941064357757568 0.29749998450279236 3 64 147
0.07886344194412231 0.07007361203432083 0.3042999804019928 0 63 156
0.041793111711740494 0.0636867955327034 0.30789998173713684 0 59 151
0.05790159851312637 0.0670958012342453 0.30159997940063477 0 63 149
0.09414046257734299 0.10969078540802002 0.296999990940094 0 58 144
0.08139006793498993 0.05120400711894035 0.2996000051498413 0 62 153
0.05109857767820358 0.06244578957557678 0.30889999866485596 0 61 154
0.09168798476457596 0.0839700922369957 0.2996000051498413 0 58 153
0.0881248265504837 0.07404902577400208 0.2954999804496765 0 56 146
0.08668345212936401 0.04378757253289223 0.3000999987125397 0 64 160
0.07304277271032333 0.08008554577827454 0.2906000018119812 0 58 149
2.045616626739502 -0.657794713973999 4.184700012207031 87 116 157
0.06366150826215744 0.06862302124500275 0.3021000027656555 0 59 151
0.07082677632570267 0.0802069753408432 0.29269999265670776 0 54 145
0.05446133017539978 0.05948853865265846 0.3060999810695648 71 99 145
0.056768905371427536 0.06600883603096008 0.30309998989105225 0 61 152
0.04404390603303909 0.05592351779341698 0.3102000057697296 0 62 158
-0.0 0.0 0.0 101 127 156
0.10111252963542938 0.08257804811000824 0.2929999828338623 0 58 150
0.04696238040924072 0.06544054299592972 0.30709999799728394 0 59 153
0.0972902700304985 0.08315729349851608 0.29670000076293945 0 60 152
0.0822712853550911 0.06379973888397217 0.2994000017642975 38 90 158
0.08535177260637283 0.07410725951194763 0.2938999831676483 0 60 154
0.09506851434707642 0.11015480756759644 0.296999990940094 0 58 146
0.10531384497880936 0.10046674311161041 0.29580000042915344 0 58 146
0.04723110795021057 0.0637395828962326 0.31529998779296875 0 60 153
0.08662847429513931 0.089647077023983 0.29670000076293945 0 56 144
0.08909615129232407 0.08608345687389374 0.2971999943256378 0 55 146
0.0745590403676033 0.07479478418827057 0.2947999835014343 0 60 154
0.04236641898751259 0.05357403680682182 0.3050999939441681 2 66 157
0.04714122787117958 0.05870150029659271 0.3146999776363373 0 62 158
1.8451943397521973 0.07425624132156372 3.8359999656677246 77 115 158
0.099812813103199 0.11358541250228882 0.2987000048160553 0 60 147
0.0806286484003067 0.08040357381105423 0.29510000348091125 0 57 150
0.10576242953538895 0.10233219712972641 0.29319998621940613 0 59 147
0.07533642649650574 0.07039428502321243 0.30159997940063477 0 61 154
0.08414971083402634 0.04769692197442055 0.3010999858379364 0 64 161
0.06333593279123306 0.09338252991437912 0.3027999997138977 62 91 144
0.07481195777654648 0.06534335017204285 0.29580000042915344 4 65 157
0.10686052590608597 0.10158895701169968 0.2936999797821045 0 56 144
0.05106549337506294 0.06288766115903854 0.30869999527931213 0 61 154
0.09006290882825851 0.09399665147066116 0.29580000042915344 0 58 151
0.0684763491153717 0.06824876368045807 0.29839998483657837 0 61 145
0.07364890724420547 0.07388617843389511 0.29670000076293945 0 58 152
0.08760382235050201 0.07584438472986221 0.2953000068664551 0 60 152
0.08018125593662262 0.06673504412174225 0.3021000027656555 0 60 156
0.10103264451026917 0.06542730331420898 0.29409998655319214 0 62 157
0.05482036992907524 0.09811338782310486 0.3027999997138977 2 57 144
0.0737128034234047 0.07809829711914062 0.29510000348091125 0 59 153
0.08770877122879028 0.04523935168981552 0.3003999888896942 0 63 158
0.06359828263521194 0.08835887908935547 0.3017999827861786 0 58 144
0.0792473629117012 0.08131559193134308 0.29339998960494995 0 55 148
0.08975567668676376 0.0450887568295002 0.2994000017642975 87 113 160
0.04275684058666229 0.06171034649014473 0.3149999976158142 0 62 153
0.11033496260643005 0.1018310934305191 0.29440000653266907 77 106 157
0.08326241374015808 0.05448061227798462 0.2996000051498413 20 71 144
0.07213472574949265 0.08008554577827454 0.2906000018119812 0 57 148
0.07348134368658066 0.0737195760011673 0.29789999127388 0 59 154
0.04327841103076935 0.06519342213869095 0.30820000171661377 0 59 151
0.0853731781244278 0.04596736282110214 0.3021000027656555 0 67 163
0.07563036680221558 0.06704562902450562 0.2971999943256378 0 61 157
0.08288420736789703 0.07121119648218155 0.3050999939441681 0 60 153
0.0716978907585144 0.06776846200227737 0.2962999939918518 0 61 152
0.0406586118042469 0.0629388839006424 0.30660000443458557 0 60 152
0.08124290406703949 0.07000987231731415 0.3060999810695648 0 61 154
0.06370365619659424 0.0677238404750824 0.30230000615119934 0 60 152
0.10488660633563995 0.10788384079933167 0.2945999801158905 0 57 148
1.2591770887374878 -0.2612823247909546 5.84529972076416 79 110 147
0.07011926174163818 0.0786658301949501 0.2954999804496765 0 57 148
0.06187577545642853 0.09142974764108658 0.3025999963283539 0 54 145
0.04324878379702568 0.06681140512228012 0.3046000003814697 0 60 150
0.10378005355596542 0.060906607657670975 0.29670000076293945 70 102 150
0.10460490733385086 0.09686639904975891 0.3003999888896942 5 66 149
0.09245917946100235 0.06737963855266571 0.2945999801158905 2 68 158
0.08892765641212463 0.11129434406757355 0.29510000348091125 0 58 144
0.09123294055461884 0.09515737742185593 0.29510000348091125 0 58 149
0.07093051075935364 0.07258149236440659 0.3008999824523926 0 59 151
0.08858650922775269 0.09159290045499802 0.2954999804496765 0 58 149
0.05988556146621704 0.0903346911072731 0.3021000027656555 6 66 152
0.07123537361621857 0.07923818379640579 0.29249998927116394 0 58 149
0.06938324123620987 0.0784158781170845 0.2962999939918518 0 59 147
0.10686052590608597 0.10571877658367157 0.2936999797821045 0 58 146
0.08320683240890503 0.06379973888397217 0.2994000017642975 70 103 148
0.10447961837053299 0.09958498924970627 0.2987000048160553 0 58 146
0.0915716364979744 0.10855396091938019 0.2976999878883362 0 58 144
0.07087433338165283 0.07847948372364044 0.2947999835014343 0 57 150
0.10093063116073608 0.10857963562011719 0.29649999737739563 2 63 144
1.222041130065918 0.155297189950943 3.0687999725341797 103 131 164
0.0845770537853241 0.0728534534573555 0.29440000653266907 0 60 154
0.0910487249493599 0.06954969465732574 0.29600000381469727 0 60 146
0.08965088427066803 0.0843111202120781 0.29749998450279236 0 59 154
0.04156037047505379 0.05747972056269646 0.313400000333786 0 59 156
0.10647410899400711 0.1011989638209343 0.2938999831676483 0 58 146
0.08603143692016602 0.044403910636901855 0.3010999858379364 0 67 163
0.08709423989057541 0.04750683158636093 0.29989999532699585 0 64 160
0.10680016130208969 0.10841767489910126 0.2947999835014343 0 58 149
0.08755558729171753 0.10818932205438614 0.29670000076293945 0 57 148
0.060930222272872925 0.09237530082464218 0.3025999963283539 2 59 150
0.0934431254863739 0.0969029888510704 0.2947999835014343 0 59 145
0.05933178961277008 0.09473367780447006 0.30410000681877136 0 55 146
0.09083341062068939 0.06800111383199692 0.2953000068664551 1 67 155
0.10208801925182343 0.09576805680990219 0.29989999532699585 0 59 145
0.08766315132379532 0.07312565296888351 0.2954999804496765 0 60 154
0.09452435374259949 0.0675397515296936 0.2953000068664551 0 64 154
0.044317539781332016 0.06330713629722595 0.3155999779701233 0 62 153
0.08762118220329285 0.0428498350083828 0.3000999987125397 6 62 144
0.09312312304973602 0.09196389466524124 0.29819998145103455 62 99 149
0.051197826862335205 0.056280869990587234 0.30949997901916504 0 62 158
0.09181828051805496 0.06897053122520447 0.2954999804496765 0 59 148
0.07407806068658829 0.08204255998134613 0.29109999537467957 0 59 149
0.08180414140224457 0.04157691448926926 0.2976999878883362 0 66 165
0.08188597112894058 0.07388032227754593 0.2929999828338623 0 58 152
0.0786418542265892 0.07378656417131424 0.2962999939918518 0 60 154
0.044725432991981506 0.06367893517017365 0.3149999976158142 0 61 152
0.07993242144584656 0.0436854362487793 0.2994000017642975 0 65 161
0.041031405329704285 0.059870585799217224 0.3130999803543091 0 63 154
0.045433539897203445 0.0670001283288002 0.30329999327659607 0 60 150
0.09606120735406876 0.0939771831035614 0.2971999943256378 1 61 149
2.3007190227508545 0.44655367732048035 3.646099805831909 67 102 144
0.0792788490653038 0.04311661794781685 0.2987000048160553 0 65 159
0.060003574937582016 0.06549103558063507 0.3050999939441681 10 64 145
0.09924473613500595 0.08138527721166611 0.296999990940094 0 59 150
0.10734358429908752 0.06499087065458298 0.2962999939918518 97 116 157
0.08556100726127625 0.044403910636901855 0.3010999858379364 0 67 163
0.05743132159113884 0.0966341495513916 0.30410000681877136 0 55 146
0.09590845555067062 0.06661700457334518 0.2953000068664551 1 67 159
0.0880572497844696 0.06685012578964233 0.29839998483657837 92 113 144
0.08693587779998779 0.07428376376628876 0.2945999801158905 0 56 148
0.06163040176033974 0.06799311190843582 0.30140000581741333 0 60 152
0.09623323380947113 0.0950813964009285 0.2962999939918518 0 58 151
0.08827394247055054 0.06862477213144302 0.29600000381469727 2 68 156
0.07007180899381638 0.079073965549469 0.2953000068664551 0 58 149
0.09469622373580933 0.09585157781839371 0.29440000653266907 0 57 150
0.08564359694719315 0.06874068826436996 0.29649999737739563 0 62 155
0.06486211717128754 0.07079107314348221 0.30329999327659607 0 63 145
-0.15382742881774902 0.16306255757808685 4.661399841308594 97 128 165
0.08312345296144485 0.05579160898923874 0.29909998178482056 60 100 160
0.11019551008939743 0.0988515242934227 0.29649999737739563 93 118 152
0.07563036680221558 0.06379526853561401 0.2971999943256378 52 93 156
-0.08717957884073257 -0.27048826217651367 4.6031999588012695 96 122 151
0.09162677824497223 0.08251070976257324 0.2994000017642975 1 61 149
0.07070604711771011 0.07875262945890427 0.29409998655319214 0 57 148
0.071451336145401 0.06890297681093216 0.2971999943256378 0 60 151
0.043248988687992096 0.0582653172314167 0.3149999976158142 0 62 158
0.10043635219335556 0.06487944722175598 0.2936999797821045 0 63 158
0.07888072729110718 0.07354635000228882 0.2971999943256378 0 60 154
0.04784383997321129 0.055833373218774796 0.30969998240470886 0 61 159
0.08447962254285812 0.06546439230442047 0.30059999227523804 52 95 146
0.05157829821109772 0.05864771082997322 0.3118000030517578 0 60 156
0.07087433338165283 0.07709772884845734 0.2947999835014343 0 57 150
0.10680016130208969 0.08262477070093155 0.2947999835014343 58 95 154
0.081339031457901 0.04064667224884033 0.2976999878883362 0 63 157
0.09987661242485046 0.09825529903173447 0.29749998450279236 0 58 149
0.08611715584993362 0.04680264741182327 0.30140000581741333 0 63 159
0.053592249751091 0.05766962096095085 0.30660000443458557 55 92 149
0.04922135919332504 0.0631331130862236 0.3122999966144562 0 62 155
0.10417333990335464 0.11089585721492767 0.29649999737739563 0 54 145
0.09506851434707642 0.09391394257545471 0.296999990940094 0 59 147
0.09951861947774887 0.08231646567583084 0.2936999797821045 0 58 152
0.0838143453001976 0.05266094580292702 0.29989999532699585 22 73 144
0.08754449337720871 0.07533195614814758 0.29510000348091125 0 60 152
0.08003175258636475 0.08302898705005646 0.2945999801158905 0 58 150
0.1033301129937172 0.1063222587108612 0.29409998655319214 0 58 144
0.07997742295265198 0.08251266926527023 0.29440000653266907 0 57 150
0.07608579844236374 0.07299809157848358 0.3046000003814697 0 59 153
0.09221751242876053 0.09476049989461899 0.2953000068664551 0 55 148
0.09132073819637299 0.07617436349391937 0.29839998483657837 74 104 148
0.08145417273044586 0.07216455787420273 0.3050999939441681 0 62 155
0.06816967576742172 0.06887616962194443 0.29909998178482056 0 64 155
0.09320332109928131 0.09482467174530029 0.2954999804496765 0 57 150
0.03946749120950699 0.06495043635368347 0.30480000376701355 0 61 144
0.09543603658676147 0.11050710827112198 0.29670000076293945 0 56 144
0.082326240837574 0.05260826647281647 0.2996000051498413 0 64 155
0.04932640865445137 0.06093811243772507 0.31610000133514404 0 61 157
0.06598343700170517 0.07097779959440231 0.30410000681877136 0 61 148
0.06065724045038223 0.0964752584695816 0.3035999834537506 0 56 144
0.08644440770149231 0.04672500118613243 0.3008999824523926 0 65 161
0.08105703443288803 0.044256437569856644 0.3000999987125397 0 65 161
0.08800554275512695 0.09423526376485825 0.29510000348091125 0 58 146
0.09606120735406876 0.10976465046405792 0.2971999943256378 0 60 146
0.06528909504413605 0.08621491491794586 0.3008999824523926 2 61 144
0.10228298604488373 0.09831643104553223 0.29909998178482056 0 58 149
0.08292891830205917 0.04260709881782532 0.29839998483657837 0 64 163
0.07942516356706619 0.0410841703414917 0.29749998450279236 1 70 161
0.0781356543302536 0.06441095471382141 0.29789999127388 0 60 146
0.0864812582731247 0.042749885469675064 0.2994000017642975 0 68 164
0.04527096450328827 0.05267241969704628 0.30539998412132263 7 65 151
0.08397421985864639 0.07364808022975922 0.2938999831676483 0 59 153
0.058285560458898544 0.09789825975894928 0.3035999834537506 0 54 145
0.08863180875778198 0.10837164521217346 0.2971999943256378 0 55 146
0.10157740116119385 0.09901876002550125 0.29839998483657837 0 59 145
0.06784199923276901 0.07091248780488968 0.3017999827861786 0 59 149
0.10481540858745575 0.08251266926527023 0.29440000653266907 0 52 144
0.051313627511262894 0.056892819702625275 0.3102000057697296 0 61 159
0.07868202775716782 0.06943808495998383 0.3035999834537506 0 63 156
0.09738149493932724 0.11347132921218872 0.29839998483657837 0 58 146
0.08265615254640579 0.04317435249686241 0.29909998178482056 0 63 162
0.0838143453001976 0.050318166613578796 0.29989999532699585 0 63 160
0.07271668314933777 0.07801889628171921 0.2947999835014343 0 60 152
0.09636314958333969 0.0947461947798729 0.29670000076293945 0 58 149
0.10317721217870712 0.10989518463611603 0.2962999939918518 0 57 150
0.08996424078941345 0.07117673009634018 0.296999990940094 4 67 149
0.0822712853550911 0.054444245994091034 0.2994000017642975 0 62 147
0.07841639965772629 0.07354635000228882 0.2971999943256378 0 60 154
1.8392009735107422 0.08024951070547104 3.8359999656677246 76 118 164
1.2268357276916504 0.13611875474452972 3.0687999725341797 70 99 148
0.07699234783649445 0.07630574703216553 0.2953000068664551 0 59 153
0.07821553200483322 0.07327011227607727 0.3017999827861786 0 56 150
0.06002432480454445 0.09290944039821625 0.3027999997138977 0 58 149
0.08362337946891785 0.07062768936157227 0.3025999963283539 0 60 153
0.03950633481144905 0.06310763955116272 0.3050999939441681 0 59 149
0.10249290615320206 0.11061883717775345 0.296999990940094 0 55 148
0.10378960520029068 0.08334756642580032 0.29409998655319214 0 59 151
0.08273842185735703 0.044874340295791626 0.3010999858379364 0 65 161
0.10357604920864105 0.10795708000659943 0.2947999835014343 0 58 149
0.0917275920510292 0.09335552901029587 0.29670000076293945 0 55 146
0.0756574347615242 0.08461081981658936 0.2936999797821045 0 60 150
0.05794451758265495 0.09669769555330276 0.3042999804019928 0 55 146
0.09474842250347137 0.11070884764194489 0.29600000381469727 0 58 149
0.07961203902959824 0.04257854074239731 0.29819998145103455 0 65 161
0.07980940490961075 0.07308201491832733 0.2971999943256378 0 60 154
0.10163963586091995 0.0821763351559639 0.29319998621940613 0 58 152
0.05455029383301735 0.0629388839006424 0.30660000443458557 0 63 154
0.07803688943386078 0.08101072162389755 0.2922999858856201 0 54 147
0.06878504902124405 0.07185553759336472 0.3017999827861786 0 60 150
0.09377630054950714 0.0963115468621254 0.29440000653266907 0 57 148
0.04687610641121864 0.055833373218774796 0.30969998240470886 0 62 160
0.04956810176372528 0.06161239370703697 0.31450000405311584 0 60 153
0.09337972849607468 0.09545641392469406 0.2945999801158905 0 55 148
0.07210002094507217 0.07872731238603592 0.2922999858856201 0 57 150
0.07963069528341293 0.06848940998315811 0.3035999834537506 0 60 158
0.05285736918449402 0.06128152087330818 0.30789998173713684 0 60 153
0.09775394201278687 0.08368765562772751 0.2953000068664551 0 61 151
0.10428366810083389 0.11283023655414581 0.2954999804496765 68 97 150
0.11059730499982834 0.10022899508476257 0.29510000348091125 96 119 154
0.08997155725955963 0.06850884854793549 0.2954999804496765 1 67 157
0.09289857000112534 0.10978392511606216 0.29600000381469727 1 59 147
0.07886951416730881 0.07497456669807434 0.2936999797821045 0 59 153
0.09847865253686905 0.11132650077342987 0.29889997839927673 0 59 147
0.04340001568198204 0.05896265059709549 0.31610000133514404 0 62 158
0.10245398432016373 0.09801270067691803 0.2996000051498413 0 58 148
0.1069813072681427 0.10029692202806473 0.2953000068664551 0 58 146
0.06977545469999313 0.07972386479377747 0.29600000381469727 0 58 149
0.07970575988292694 0.0753563866019249 0.29339998960494995 0 58 152
0.08185910433530807 0.072323277592659 0.29789999127388 0 61 154
0.08433910459280014 0.05363379791378975 0.3000999987125397 59 97 151
0.08322428166866302 0.06776320189237595 0.3046000003814697 0 60 156
0.044528551399707794 0.05592351779341698 0.3102000057697296 0 62 158
0.0525483638048172 0.054706115275621414 0.3060999810695648 94 116 156
0.08147156238555908 0.04891250282526016 0.29989999532699585 0 63 158
0.08040878921747208 0.04157691448926926 0.2976999878883362 0 66 165
0.08192843198776245 0.07894007116556168 0.2947999835014343 0 57 152
0.07295386493206024 0.0764031633734703 0.2938999831676483 0 58 153
0.09032773226499557 0.0835776999592781 0.29819998145103455 0 58 153
0.04412802681326866 0.066701740026474 0.30410000681877136 0 59 149
0.09907089173793793 0.06657189130783081 0.29510000348091125 0 65 154
0.08743754774332047 0.06915725022554398 0.2962999939918518 6 67 161
0.07897497713565826 0.04581519961357117 0.3010999858379364 0 64 156
0.08479376882314682 0.06871497631072998 0.29839998483657837 0 61 154
0.07650751620531082 0.07952918112277985 0.296999990940094 0 55 148
0.07803688943386078 0.08192408829927444 0.2922999858856201 0 55 148
0.09309224784374237 0.08209774643182755 0.2996000051498413 0 60 148
0.07335103303194046 0.07404902577400208 0.2954999804496765 0 57 152
0.08265615254640579 0.07168000191450119 0.29909998178482056 0 59 152
0.07961203902959824 0.06354402005672455 0.29819998145103455 0 61 148
0.04445677623152733 0.06502684950828552 0.30969998240470886 1 62 156
0.08607371896505356 0.07295243442058563 0.2947999835014343 0 60 154
0.08870647102594376 0.04245157912373543 0.30059999227523804 82 104 146
0.056190136820077896 0.09456851333379745 0.3050999939441681 0 56 144
0.07778315246105194 0.08538829535245895 0.2947999835014343 0 60 147
0.0729178711771965 0.06850772351026535 0.29749998450279236 0 62 155
0.05803598836064339 0.0908668041229248 0.30230000615119934 3 61 147
0.07065260410308838 0.07458634674549103 0.29580000042915344 0 55 148
0.04252130538225174 0.06357524544000626 0.30969998240470886 0 62 153
0.10139387100934982 0.10950612276792526 0.29649999737739563 0 59 149
0.04817166179418564 0.06481688469648361 0.30869999527931213 0 62 155
0.08432755619287491 0.04027603566646576 0.29839998483657837 8 67 150
0.0970877856016159 0.10941064357757568 0.29749998450279236 9 68 149
0.06926615536212921 0.07735925167798996 0.29580000042915344 0 55 146
0.09160077571868896 0.1116417869925499 0.2947999835014343 0 58 144
0.07484011352062225 0.08329413831233978 0.2922999858856201 0 59 149
0.10050474852323532 0.06262772530317307 0.2938999831676483 0 61 151
0.079783134162426 0.04667842015624046 0.30059999227523804 0 64 159
0.07338356971740723 0.07362299412488937 0.2994000017642975 0 56 150
0.09841276705265045 0.11218538135290146 0.2987000048160553 0 55 146
0.09353822469711304 0.06795506179332733 0.29510000348091125 0 64 154
0.09804899990558624 0.06558303534984589 0.2947999835014343 0 64 158
0.050402943044900894 0.0641053318977356 0.3075999915599823 0 60 153
0.10144488513469696 0.08091944456100464 0.2953000068664551 0 59 150
0.08078692853450775 0.05298777297139168 0.29909998178482056 0 60 148
0.08671606332063675 0.06746453791856766 0.296999990940094 42 89 156
0.06975790113210678 0.06953069567680359 0.29789999127388 0 59 153
0.08367928117513657 0.044403910636901855 0.3010999858379364 0 65 161
0.10424909740686417 0.1063222587108612 0.29409998655319214 0 58 146
0.04416307434439659 0.06357786059379578 0.31450000405311584 0 62 153
0.100196972489357 0.08395137637853622 0.2929999828338623 0 56 144
0.05518246069550514 0.09257068485021591 0.30480000376701355 4 59 148
0.04800001159310341 0.06506650149822235 0.3075999915599823 0 61 155
0.0883634090423584 0.09045208990573883 0.2962999939918518 0 55 146
0.0838613361120224 0.04027603566646576 0.29839998483657837 4 68 159
0.05476009473204613 0.0921851098537445 0.3050999939441681 2 57 144
0.06882704049348831 0.08209732919931412 0.29789999127388 0 61 144
0.07976055890321732 0.0795353353023529 0.2953000068664551 0 58 152
0.07988996058702469 0.04154898226261139 0.29749998450279236 0 68 164
0.040831003338098526 0.061762575060129166 0.30789998173713684 0 63 152
0.06012343615293503 0.09401059150695801 0.30329999327659607 0 54 145
0.07099615782499313 0.08177398890256882 0.29339998960494995 0 60 147
0.060539718717336655 0.06507828086614609 0.30539998412132263 68 98 144
0.1004088819026947 0.11041443049907684 0.2976999878883362 0 57 148
0.059452902525663376 0.0913391038775444 0.30230000615119934 0 57 148
0.10577599704265594 0.08660224825143814 0.29580000042915344 0 60 150
0.0688963532447815 0.06820301711559296 0.29819998145103455 0 61 145
0.9523808360099792 0.1455911099910736 2.876999855041504 102 130 163
0.0702379122376442 0.08296110481023788 0.29600000381469727 0 59 144
0.043824452906847 0.06281405687332153 0.3155999779701233 0 62 153
0.08728999644517899 0.109247587621212 0.29580000042915344 0 58 146
0.0838143453001976 0.04984961077570915 0.29989999532699585 0 64 161
0.0854676365852356 0.06804291903972626 0.29749998450279236 0 62 155
0.09537170827388763 0.11228559166193008 0.29649999737739563 0 59 147
0.07680691033601761 0.08067815005779266 0.29109999537467957 0 57 150
0.08662847429513931 0.10726220905780792 0.29670000076293945 0 55 146
0.0940549224615097 0.08078230917453766 0.29819998145103455 13 67 148
0.05686255171895027 0.09173189103603363 0.3035999834537506 0 56 144
0.08279433101415634 0.050735920667648315 0.2996000051498413 0 63 158
0.07288935035467148 0.06573875993490219 0.2954999804496765 5 67 152
0.08590355515480042 0.06996485590934753 0.29580000042915344 0 60 153
0.0 0.0 0.0 0 62 151
0.05803973227739334 0.06495043635368347 0.30480000376701355 0 60 149
0.07425619661808014 0.08269575238227844 0.29179999232292175 0 57 150
0.09941263496875763 0.11226048320531845 0.29889997839927673 0 57 148
0.05523677170276642 0.09456851333379745 0.3050999939441681 0 55 144
0.07778315246105194 0.07433419674634933 0.2947999835014343 0 59 153
0.07897130399942398 0.0796699970960617 0.29580000042915344 0 58 152
0.050912365317344666 0.05998532101511955 0.31369999051094055 0 62 158
0.0822063460946083 0.07227560132741928 0.29580000042915344 0 60 154
0.06565796583890915 0.06920937448740005 0.3025999963283539 1 62 154
0.059136681258678436 0.09252793341875076 0.30309998989105225 0 54 145
0.07649696618318558 0.08452439308166504 0.29339998960494995 0 59 149
0.0742904469370842 0.0726386085152626 0.30309998989105225 0 61 155
0.08238902688026428 0.07894007116556168 0.2947999835014343 0 58 153
0.041725244373083115 0.0640636533498764 0.3073999881744385 0 58 150
0.08139006793498993 0.05214018002152443 0.2996000051498413 1 62 154
0.0869746208190918 0.08998914808034897 0.2962999939918518 0 58 146
0.04740703105926514 0.06616128236055374 0.30379998683929443 0 60 152
0.043277181684970856 0.06733148545026779 0.30480000376701355 1 61 149
0.04367474094033241 0.06554708629846573 0.3075999915599823 0 59 151
0.08161225914955139 0.0393831692636013 0.2987000048160553 38 88 154
0.10378960520029068 0.08518554270267487 0.29409998655319214 0 57 148
0.04393554478883743 0.06247894838452339 0.3163999915122986 0 63 154
0.11040990799665451 0.10097971558570862 0.2945999801158905 85 113 157
0.10882677882909775 0.08414902538061142 0.2953000068664551 98 121 156
0.09324760735034943 0.08457908779382706 0.3000999987125397 0 57 152
0.08362369239330292 0.07070101797580719 0.3008999824523926 0 60 153
0.08604875952005386 0.08998914808034897 0.2962999939918518 0 58 144
0.0548139363527298 0.09275290369987488 0.30539998412132263 0 55 144
0.09982357919216156 0.08164816349744797 0.2945999801158905 0 59 153
0.10104341804981232 0.09895239025354385 0.29819998145103455 0 59 145
0.08489306271076202 0.07035557180643082 0.2954999804496765 0 61 154
0.07191567122936249 0.0740106925368309 0.2971999943256378 0 56 150
0.08503671735525131 0.0792614072561264 0.29600000381469727 4 65 157
0.074701689183712 0.0675099715590477 0.2971999943256378 0 60 157
0.055766548961400986 0.09669412672519684 0.3027999997138977 0 56 144
0.0738876536488533 0.06534335017204285 0.29580000042915344 5 67 154
0.07123496383428574 0.06684259325265884 0.2962999939918518 4 67 149
0.09116771817207336 0.09047508239746094 0.29789999127388 54 97 159
1.8585231304168701 0.06292390823364258 3.8762998580932617 80 114 152
0.09058625996112823 0.09406020492315292 0.29600000381469727 0 55 148
0.04761211574077606 0.06519342213869095 0.30820000171661377 0 60 154
0.08185910433530807 0.04207027703523636 0.29789999127388 0 67 163
0.07002435624599457 0.0767151266336441 0.29510000348091125 0 58 151
0.07819065451622009 0.07428376376628876 0.2945999801158905 0 60 154
0.08686190843582153 0.049249328672885895 0.29909998178482056 0 64 158
0.10467447340488434 0.08645585924386978 0.2953000068664551 0 59 149
0.08662568032741547 0.04844394698739052 0.29989999532699585 0 63 159
0.06908313184976578 0.07952918112277985 0.296999990940094 0 58 144
0.04051633179187775 0.058365751057863235 0.31290000677108765 0 61 155
0.0846666768193245 0.05026783421635628 0.2996000051498413 0 62 159
0.07075994461774826 0.07006661593914032 0.29819998145103455 0 60 152
0.10495781153440475 0.08492771536111832 0.2947999835014343 0 58 150
0.09947864711284637 0.08111197501420975 0.2976999878883362 1 61 147
0.0689668282866478 0.07800555974245071 0.29649999737739563 0 55 146
0.0834803432226181 0.07090777158737183 0.30379998683929443 0 61 154
1.8706356287002563 0.08714880794286728 3.8762998580932617 78 117 162
0.08743754774332047 0.08582276850938797 0.2962999939918518 0 57 148
0.07868024706840515 0.06447581946849823 0.29819998145103455 0 63 156
0.05879860743880272 0.097013458609581 0.30379998683929443 0 55 146
0.08253104984760284 0.07185707241296768 0.30379998683929443 0 61 154
0.08067889511585236 0.055250320583581924 0.2987000048160553 0 60 146
0.09752220660448074 0.0650782659649849 0.2945999801158905 1 67 159
0.04840179160237312 0.06496074050664902 0.30709999799728394 0 62 155
0.07999737560749054 0.06254923343658447 0.29789999127388 1 61 147
0.10094176977872849 0.11328119784593582 0.29789999127388 0 59 146
0.06307044625282288 0.06616128236055374 0.30379998683929443 61 95 146
0.07916490733623505 0.0766371339559555 0.2947999835014343 0 57 152
0.08699489384889603 0.0941394567489624 0.2947999835014343 1 59 147
0.07640194892883301 0.06731633096933365 0.29839998483657837 0 60 156
0.048011310398578644 0.06214134022593498 0.3172000050544739 0 61 154
0.10552568733692169 0.08501414209604263 0.29510000348091125 0 59 151
2.3121120929718018 0.44655367732048035 3.646099805831909 85 120 162
0.08480797708034515 0.04378757253289223 0.3000999987125397 0 67 163
0.0922483503818512 0.08358561247587204 0.29989999532699585 0 59 152
0.0666329562664032 0.08659861236810684 0.30059999227523804 0 59 145
0.07399791479110718 0.0788329690694809 0.29440000653266907 0 58 150
0.10096393525600433 0.06262772530317307 0.2938999831676483 1 62 152
0.09522082656621933 0.09591668844223022 0.2945999801158905 0 58 151
2.045616626739502 -0.644718587398529 4.184700012207031 88 117 154
0.05311322584748268 0.06341790407896042 0.30660000443458557 0 61 154
0.10849510133266449 0.10643072426319122 0.29440000653266907 0 58 146
0.09422224760055542 0.11202050000429153 0.29580000042915344 0 59 147
0.09048916399478912 0.07308201491832733 0.2971999943256378 72 100 144
0.09987661242485046 0.08105748146772385 0.29749998450279236 2 62 148
0.0922483503818512 0.08405417203903198 0.29989999532699585 0 59 154
0.08475145697593689 0.049381058663129807 0.29989999532699585 0 64 161
0.0946793183684349 0.08138444274663925 0.2987000048160553 2 62 148
0.08348473906517029 0.04805537313222885 0.3003999888896942 0 64 161
0.07036598026752472 0.08210843801498413 0.2945999801158905 0 60 147
0.07635209709405899 0.08249737322330475 0.29109999537467957 0 58 151
0.07005832344293594 0.06797430664300919 0.2971999943256378 2 67 153
0.03819916397333145 0.06111156567931175 0.30230000615119934 0 59 147
0.07926071435213089 0.0447700172662735 0.3003999888896942 0 64 158
0.08775215595960617 0.08336719870567322 0.29580000042915344 0 58 149
0.07791508734226227 0.07630574703216553 0.2953000068664551 0 59 153
0.0846666768193245 0.05120400711894035 0.2996000051498413 0 59 150
0.08147440105676651 0.08449097722768784 0.29649999737739563 20 68 144
0.07412895560264587 0.07982334494590759 0.2912999987602234 0 58 149
0.050571542233228683 0.06201793625950813 0.311599999666214 0 62 155
0.045037802308797836 0.06313250958919525 0.3172000050544739 0 62 153
0.06966423243284225 0.06850772351026535 0.29749998450279236 4 68 159
0.07397181540727615 0.07327011227607727 0.3017999827861786 0 59 153
0.08218884468078613 0.07214730232954025 0.29909998178482056 0 60 153
0.0794646367430687 0.048363178968429565 0.2994000017642975 0 64 156
0.07511544972658157 0.06421636044979095 0.296999990940094 44 90 153
0.04996396228671074 0.0614948496222496 0.3138999938964844 0 61 154
0.08414971083402634 0.044403910636901855 0.3010999858379364 0 66 165
0.04711127281188965 0.0640692263841629 0.31450000405311584 0 61 154
0.07859408855438232 0.07264123857021332 0.3050999939441681 0 59 153
0.038927312940359116 0.062466733157634735 0.3042999804019928 1 59 145
0.06909593939781189 0.07310016453266144 0.3010999858379364 0 58 146
0.09199890494346619 0.09591668844223022 0.2945999801158905 0 58 149
0.0997125580906868 0.09622147679328918 0.29839998483657837 0 58 151
0.08825647085905075 0.06711330264806747 0.29749998450279236 72 105 148
0.10734358429908752 0.06545380502939224 0.2962999939918518 98 116 154
0.0879160687327385 0.09229710698127747 0.2947999835014343 0 55 146
0.05585863068699837 0.09874926507472992 0.30329999327659607 0 58 144
0.08986182510852814 0.10780448466539383 0.29819998145103455 1 59 147
0.08334578573703766 0.050318166613578796 0.29989999532699585 0 64 159
0.0526857003569603 0.0634799599647522 0.3068999946117401 0 60 153
0.10856880247592926 0.10097971558570862 0.2945999801158905 0 58 146
0.05841994658112526 0.06579474359750748 0.3042999804019928 0 62 153
0.09583675116300583 0.08297848701477051 0.2994000017642975 0 59 151
0.10135409235954285 0.06350284069776535 0.2936999797821045 0 60 156
0.0902368575334549 0.08675163984298706 0.29789999127388 0 57 148
0.08586934208869934 0.07507667690515518 0.29409998655319214 0 58 152
0.08146785199642181 0.07894007116556168 0.2947999835014343 0 57 152
0.10413556545972824 0.09780506789684296 0.3003999888896942 0 55 146
0.07832204550504684 0.04430067911744118 0.3003999888896942 3 67 160
0.08025278896093369 0.07297877967357635 0.30059999227523804 0 59 153
0.06622933596372604 0.08668503910303116 0.3008999824523926 0 59 145
0.08018125593662262 0.07287095487117767 0.3021000027656555 0 59 153
0.09390370547771454 0.06742538511753082 0.2947999835014343 0 64 154
0.041620660573244095 0.05592351779341698 0.3102000057697296 0 60 157
0.08775215595960617 0.07273775339126587 0.29580000042915344 0 61 154
0.05307857692241669 0.06385524570941925 0.30640000104904175 0 62 155
0.08662237972021103 0.09100787341594696 0.29510000348091125 0 55 148
-0.14471490681171417 0.21856196224689484 4.6031999588012695 84 115 152
0.07152345776557922 0.07408539205789566 0.29749998450279236 0 56 148
0.0731276273727417 0.08440981805324554 0.2945999801158905 0 59 145
0.09636983275413513 0.09614460170269012 0.2953000068664551 0 59 152
0.060182902961969376 0.06659206002950668 0.3035999834537506 0 62 153
0.04241228476166725 0.06044424697756767 0.31610000133514404 0 62 155
0.07796784490346909 0.07404902577400208 0.2954999804496765 0 60 154
0.09042827039957047 0.09205784648656845 0.296999990940094 0 58 144
0.08437594771385193 0.074515700340271 0.2936999797821045 0 60 154
0.08499268442392349 0.04270704835653305 0.29909998178482056 0 67 163
0.0794692412018776 0.07018876075744629 0.30480000376701355 0 63 156
0.06712061911821365 0.07067437469959259 0.3027999997138977 0 60 150
0.08718009293079376 0.06746453791856766 0.296999990940094 42 89 156
0.08114466071128845 0.07999670505523682 0.2953000068664551 0 57 150
0.04458434507250786 0.06021589785814285 0.3174999952316284 0 61 157
0.06423964351415634 0.06920937448740005 0.3025999963283539 0 60 150
0.10442633181810379 0.0650782659649849 0.2945999801158905 0 63 156
0.0871424525976181 0.07307616621255875 0.2953000068664551 0 60 154
0.05661109834909439 0.09352310746908188 0.30480000376701355 0 55 146
-0.16079223155975342 -0.05282030254602432 5.114599704742432 98 124 153
0.10836541652679443 0.10029692202806473 0.2953000068664551 0 60 146
0.06329409778118134 0.09095697849988937 0.3025999963283539 0 59 146
0.0751468613743782 0.07768985629081726 0.2953000068664551 0 56 150
0.07485887408256531 0.08053957670927048 0.2906000018119812 0 58 149
0.07034119218587875 0.07430952042341232 0.29839998483657837 0 58 148
0.08315587043762207 0.07000987231731415 0.3060999810695648 0 63 156
0.10234148055315018 0.06538281589746475 0.2938999831676483 0 63 158
0.06728118658065796 0.06987671554088593 0.30140000581741333 0 62 153
0.049386776983737946 0.06579474359750748 0.3042999804019928 0 61 154
0.05299195647239685 0.06422896683216095 0.305899977684021 0 62 155
0.06781554967164993 0.06899131089448929 0.2996000051498413 0 64 155
-0.10342075675725937 0.39715078473091125 5.044600009918213 90 124 162
0.07989592105150223 0.08150959014892578 0.29409998655319214 0 55 148
0.05898059904575348 0.0913391038775444 0.30230000615119934 0 55 146
0.07385134696960449 0.07362299412488937 0.2994000017642975 0 56 150
0.1018042340874672 0.1122749075293541 0.2976999878883362 0 57 148
0.0877378061413765 0.04828241094946861 0.29889997839927673 0 60 151
0.07053317874670029 0.07768985629081726 0.2953000068664551 0 57 150
-0.09424757957458496 0.3840065002441406 4.976399898529053 94 130 169
0.08677446097135544 0.10697862505912781 0.2971999943256378 0 56 144
0.05850829556584358 0.0913391038775444 0.30230000615119934 0 55 146
0.0887364074587822 0.07556170225143433 0.29600000381469727 0 61 148
0.07786137610673904 0.07335338741540909 0.30410000681877136 0 56 150
0.09358903020620346 0.08078230917453766 0.29819998145103455 12 66 147
0.04302565008401871 0.054281022399663925 0.30640000104904175 0 64 157
0.06191029027104378 0.06549103558063507 0.3050999939441681 72 104 152
0.08188597112894058 0.07571142166852951 0.2929999828338623 0 59 153
0.06059730425477028 0.09448446333408356 0.30329999327659607 0 55 146
0.08911678940057755 0.043831344693899155 0.3003999888896942 49 91 158
0.8119821548461914 -0.29694241285324097 2.8111000061035156 95 128 171
0.062245529145002365 0.08891871571540833 0.3021000027656555 5 66 145
0.08063273876905441 0.06989551335573196 0.30559998750686646 0 61 154
0.0407647006213665 0.06214255094528198 0.3073999881744385 0 61 150
0.08097042143344879 0.07388032227754593 0.2929999828338623 0 60 154
0.08023396134376526 0.07044205814599991 0.305899977684021 0 61 154
0.08395719528198242 0.07003899663686752 0.3021000027656555 0 61 154
0.07162503153085709 0.07645516097545624 0.29409998655319214 0 58 153
0.07634955644607544 0.07520431280136108 0.2945999801158905 0 60 154
0.06999027729034424 0.07211137562990189 0.3008999824523926 0 60 152
0.04520450159907341 0.055081430822610855 0.30820000171661377 0 62 160
0.07730822265148163 0.08395137637853622 0.2929999828338623 0 58 151
0.0722588375210762 0.07976853847503662 0.29109999537467957 0 58 149
0.10442633181810379 0.06323716789484024 0.2945999801158905 0 60 154
0.1067277044057846 0.10788384079933167 0.2945999801158905 0 58 146
0.09043323248624802 0.09482467174530029 0.2954999804496765 0 55 146
0.10157030820846558 0.08395137637853622 0.2929999828338623 0 58 149
0.08743754774332047 0.07008311152458191 0.2962999939918518 0 61 154
0.09791596978902817 0.06503409147262573 0.29440000653266907 0 64 159
0.04424268379807472 0.06445211917161942 0.311599999666214 0 60 153
0.08227995038032532 0.07007849216461182 0.30640000104904175 0 61 154
0.061433613300323486 0.06549103558063507 0.3050999939441681 65 97 145
0.0919407457113266 0.08610886335372925 0.29889997839927673 0 55 146
0.09735845029354095 0.06712380796670914 0.2954999804496765 0 64 154
0.09929586201906204 0.08205270022153854 0.29440000653266907 0 59 151
0.07571478933095932 0.08139157295227051 0.2903999984264374 0 57 148
0.09484444558620453 0.09461846202611923 0.2962999939918518 0 58 151
0.07550313323736191 0.06461505591869354 0.29670000076293945 14 76 161
0.0492636039853096 0.06401774287223816 0.30949997901916504 0 61 154
0.09239642322063446 0.11103034764528275 0.29440000653266907 0 55 146
0.8591732978820801 -0.6100538372993469 3.959699869155884 83 119 158
0.08919886499643326 0.06862477213144302 0.29600000381469727 0 65 153
0.04804467037320137 0.056553639471530914 0.3109999895095825 0 62 159
0.08631012588739395 0.0675099715590477 0.2971999943256378 23 75 154
0.0822712853550911 0.0605253130197525 0.2994000017642975 49 95 156
0.07905367016792297 0.046331748366355896 0.30140000581741333 0 64 154
0.10647410899400711 0.10670913755893707 0.2938999831676483 0 56 144
0.102625772356987 0.06297957897186279 0.29339998960494995 0 61 157
0.08848270028829575 0.09011063724756241 0.29670000076293945 0 58 146
0.10396604984998703 0.1074235662817955 0.2945999801158905 0 57 148
0.06512057036161423 0.09039449691772461 0.30230000615119934 33 78 144
0.09147649258375168 0.0668739452958107 0.29440000653266907 4 69 153
0.04994414001703262 0.06542664766311646 0.30480000376701355 0 62 155
0.07708818465471268 0.07209359854459763 0.30480000376701355 0 60 153
0.11048486828804016 0.10058768838644028 0.2947999835014343 91 118 158
0.10378005355596542 0.1114342212677002 0.29670000076293945 0 54 145
0.07962550222873688 0.07709772884845734 0.2947999835014343 0 58 152
0.08456393331289291 0.06882055103778839 0.3008999824523926 0 62 155
0.09476055204868317 0.09683724492788315 0.2945999801158905 0 58 146
0.09884723275899887 0.09676320850849152 0.2971999943256378 0 57 150
0.0892978385090828 0.11118119210004807 0.2947999835014343 0 58 144
0.1078309640288353 0.08316990733146667 0.29510000348091125 83 112 153
0.07551129162311554 0.07339150458574295 0.30230000615119934 0 60 154
0.06987398117780685 0.07339955866336823 0.3003999888896942 0 56 144
0.06828363984823227 0.06945940107107162 0.2996000051498413 0 63 154
0.08894626051187515 0.0840844064950943 0.29670000076293945 0 58 153
0.08056759834289551 0.07622119039297104 0.29319998621940613 0 59 153
0.08940981328487396 0.07064128667116165 0.29670000076293945 0 63 152
0.05216493457555771 0.05821508914232254 0.30949997901916504 0 62 155
2.045616626739502 -0.6381805539131165 4.184700012207031 90 115 147
0.05050261318683624 0.05959003046154976 0.3141999840736389 0 60 156
0.05128062516450882 0.06352132558822632 0.30709999799728394 0 61 154
0.1032598465681076 0.0635460913181305 0.2938999831676483 0 62 158
0.07469000667333603 0.07162054628133774 0.3027999997138977 0 61 154
0.0621425025165081 0.0680382251739502 0.30159997940063477 0 61 153
0.08775215595960617 0.109247587621212 0.29580000042915344 0 58 146
0.10619868338108063 0.0989488735795021 0.2996000051498413 0 57 148
