ply
format ascii 1.0
element vertex 689
property float x
property float y
property float z
property uchar red
property uchar green
property uchar blue
end_header
0.037964152673153014 0.07848684953187185 0.20583426097813917 244 208 63
0.06053629209214051 0.03283343843844022 0.20086378216611633 255 0 0
0.05796412005157964 0.018029033976720725 0.20112576554248576 255 0 0
0.07186168571313492 0.018654029926539677 0.2018940450529268 255 0 0
0.061332354886025967 0.06801937295218417 0.19351856730038794 0 0 255
0.0661574841034562 0.03202141108029889 0.20143736034350032 255 0 0
0.06914158187529534 0.0033497616367000396 0.187737496720776 0 255 0
0.04319096832897977 0.062002440354942 0.2054049532495317 244 208 63
0.07041702142105268 0.03390095490814436 0.19053231689223635 0 255 0
0.04364993721716864 0.04464954312068433 0.1911662409617094 0 0 255
0.053764034894905846 0.05582463608262983 0.20075668376636863 244 208 63
0.06392556603373604 0.05518734825368736 0.20511465949384688 244 208 63
0.07931972029254815 0.029470926610285497 0.2013743660845582 255 0 0
0.06590070447980902 0.05484093530068595 0.19660086499136065 0 0 255
0.09128451630860136 0.05761986122303925 0.20408792913008794 244 208 63
-0.003657498186117305 0.020049150507094247 0.20051847723575505 244 208 63
0.08329381949104138 0.032204044789503686 0.20320974788089802 255 0 0
-0.003216962937344135 0.015351210524024607 0.18790012625252545 0 255 0
0.03687391425413304 0.02055002273197986 0.2016173537680031 255 0 0
0.04850817212283457 0.03194399348199825 0.20280291027793118 255 0 0
0.06308701901273375 0.030356356506263317 0.20278232713961067 255 0 0
0.027829289526407678 0.07644771814068682 0.20652147455650036 244 208 63
0.07014440862473137 0.0019635706433380057 0.18762430373863428 0 255 0
0.0868024353469044 0.05945056005012251 0.20256607620943307 244 208 63
0.07415125242305287 0.036259150389293164 0.20346117689345802 255 0 0
0.03199205589896625 0.04144467703909552 0.20345493142911306 244 208 63
0.08044756455917901 0.030139690528213362 0.20272897903213918 255 0 0
0.07456468443632988 0.03685230077041836 0.19402058235483624 0 255 0
0.06793250582174419 0.06805651885135086 0.19677328509272074 0 0 255
0.06892408589810911 0.03638677446605768 0.19390583999247088 0 255 0
0.05548533919944522 0.049938541805031066 0.20235455229088145 244 208 63
0.055949607387840626 0.055928549683261004 0.20079418918355177 244 208 63
0.06446190726202096 0.06658564319300352 0.20402596111402235 244 208 63
0.07902105870866973 0.05934165476544356 0.1977063659741585 0 0 255
0.07484587773041533 0.0633780960840441 0.19643655405806446 0 0 255
0.04431113595050188 0.026684357029530162 0.20220736419393476 255 0 0
0.05541288038967494 0.05585030568194582 0.19233587821308668 0 0 255
0.04809613467136399 0.07664801584486579 0.19413338395739493 0 0 255
0.058816292134987985 0.02850109750226777 0.20155602475338694 255 0 0
0.0798315556400731 0.05825669539762813 0.20399882947191386 244 208 63
0.039265388032395966 0.008997978439824802 0.1995313677703573 255 0 0
0.0762259072127882 0.059633629323444154 0.20403027022161632 244 208 63
0.021881048243979507 0.057142719774570944 0.20468944602306546 244 208 63
0.0713135363495974 0.006128848241781351 0.20068458008801984 255 0 0
-0.00493614942799454 0.017590064014976956 0.19314825516119333 0 255 0
0.04806829871039148 0.02977271815871977 0.19831430460167712 255 0 0
0.048290960090158874 0.032016600756646446 0.20280672523266044 255 0 0
0.07615943619936831 0.06101509639331397 0.19307189811566575 0 0 255
0.0699983777675064 0.03225206609537723 0.20304344821485862 255 0 0
0.0723109934112943 0.06517105255070074 0.2039980673516303 244 208 63
0.047827106550853024 -0.0008324165220102153 0.1998133496566159 255 0 0
0.04865717159232531 0.030986101274944135 0.20265436994048242 255 0 0
0.07441593499574177 0.009485519639618113 0.2000269166606431 255 0 0
0.024478149792340583 0.05209855923343561 0.19159758573144278 0 0 255
0.06482620616579587 0.05688712233115295 0.20421470990070986 244 208 63
0.06743363705192978 0.0011761477758791897 0.19385112652682251 255 0 0
0.06812575487820281 0.02234544308830117 0.20218180069438618 255 0 0
0.0888033019711242 0.0560883928570466 0.20338375735937894 244 208 63
0.06486103984924636 0.06650663537323731 0.20585148737739262 244 208 63
0.042592701549092886 0.02481135227560781 0.1999461156040019 255 0 0
0.06772875886194321 0.06738933322930986 0.2040987598586944 244 208 63
0.07362110210553001 0.008172270211577792 0.20090003813797705 255 0 0
0.06245870957485002 0.055575872670745985 0.20506782574988677 244 208 63
0.053512671611779625 0.05177290414985078 0.19700725787621712 0 0 255
0.06463841964431115 0.06916259787438588 0.20639477526441202 244 208 63
0.04639483019994675 0.030415886468733368 0.20257347177844032 255 0 0
0.06302343102456684 0.03378551603324462 0.20315671081862086 255 0 0
0.06429017049167067 0.06652565266064576 0.2040183008357378 244 208 63
0.06831384854888059 0.037608049934990444 0.20350891940043353 255 0 0
0.019654855278338934 0.03921873718180767 0.20096193931918319 244 208 63
0.06227833941331692 0.05363568905392964 0.19697252468845103 0 0 255
0.0686672773500614 0.022171093870301983 0.20210955751841655 255 0 0
0.06150411370110087 0.06525675878556608 0.20493323415865608 244 208 63
0.07067439428346568 0.034651651769601464 0.1948260480709714 0 255 0
0.07568848410480608 0.059701911600844704 0.20354403690203582 244 208 63
0.0028334272322579554 0.03226292381092691 0.20117951636432616 244 208 63
0.07673802153110405 0.03625816193874222 0.1992721357092098 255 0 0
0.02674881200946386 0.016070686373973193 0.19468344488750614 255 0 0
-0.0023981596914330293 0.02193895763173487 0.20123955316245842 244 208 63
0.02444431075511149 0.07704901831328381 0.20606300254759094 244 208 63
0.004950895757242205 0.032298810744426656 0.18954625566324665 0 0 255
0.06017410731663447 0.020066354457314046 0.18914265971496727 0 255 0
0.06478433606998145 0.06656745129725113 0.20501839186310103 244 208 63
0.08213975263413176 0.03164527722081219 0.2025677978840008 255 0 0
0.06829401743078602 0.03125660872397655 0.1944867335422944 0 255 0
0.06824942405833836 0.06833827967605074 0.19363636090353825 0 0 255
0.057614895985770784 0.020168795242706507 0.19861896923822525 255 0 0
0.06844683730927165 0.06677210863450111 0.20516016640918505 244 208 63
0.07437112793670285 0.06215097646813927 0.2058820441988076 244 208 63
0.044283666335875764 0.02345977703152616 0.18924729354800662 0 255 0
2.818598209484817e-05 0.01551759810573948 0.20068671476666347 255 0 0
0.03975765280005095 0.08033276214407276 0.2070279144488566 244 208 63
0.04880516826777255 0.052851821292341256 0.2004226695881111 244 208 63
0.06376427001935386 0.06657882593500386 0.19848536238563527 0 0 255
0.04954024824366117 0.07385069296153964 0.19600860008514984 0 0 255
0.07318827888700274 0.06535883068939759 0.2018731009223432 244 208 63
0.0505825338078983 0.06406538895650778 0.20361859653540243 244 208 63
0.04099404858207312 0.0779007697857937 0.2047537589580943 244 208 63
0.06826421283965532 0.002200839900693058 0.19821935727761575 255 0 0
0.04366361649299491 0.060906718758035466 0.20501934574633413 244 208 63
0.06063120593783788 0.031878011981855636 0.20268600506261994 255 0 0
0.042645370977235066 0.02479741562461778 0.20030088795569875 255 0 0
0.043518116371159515 0.044644386754448706 0.2033608363204638 244 208 63
0.055304956511439476 0.057698153061718084 0.20389972688391028 244 208 63
0.06620849609620863 0.06678634648287754 0.20444738050817954 244 208 63
0.07926071219171602 0.058211997836365596 0.2045204879036704 244 208 63
0.06355754221159804 -0.003838082498829741 0.19814278008922087 255 0 0
0.05346894995651152 0.05242985798057198 0.19748865582124825 0 0 255
0.0560106165786145 0.05076301728718939 0.20301154689728654 244 208 63
0.09194398641738522 0.05224583153170809 0.20360765861281305 255 0 0
0.06719107023309644 0.030228439089223985 0.20071229713083774 255 0 0
0.07160978812356564 0.06565727387820336 0.2043886489634243 244 208 63
0.0633015286257406 0.06481018668184571 0.19641860509963496 0 0 255
0.07099058429874419 0.038030233945509494 0.1993595180729168 255 0 0
0.07938855639486583 0.05863057417745121 0.2055629525022343 244 208 63
0.046075535953313734 0.030174980359662047 0.20254746419102604 255 0 0
0.04260353616384608 0.02458746257418548 0.20134735186693475 255 0 0
0.046698072820830584 0.00038837056204834436 0.1977776903285343 255 0 0
0.051863821140131994 0.06550730048073924 0.19316856654103912 0 0 255
0.05733660687669758 0.03126978616276183 0.19329173790684895 0 255 0
0.07498304778457297 0.060972537607617755 0.20507199600419113 244 208 63
0.06106470922415606 0.05371508178096459 0.20352258365160905 244 208 63
0.06948389408774172 0.03990766007945117 0.19106661265349545 0 255 0
0.08436779257321614 0.03934162495498559 0.19753942328421248 255 0 0
0.07473116803385957 0.03504874121426854 0.20235578500027404 255 0 0
0.06909330624590705 0.01825904663766813 0.20136569218798006 255 0 0
0.06855507092088191 0.0690729628017844 0.20320694382739515 244 208 63
0.04370925017887485 0.05927321364447799 0.20094124300726895 244 208 63
0.0154597990261209 0.039766566120332136 0.20302676259474284 244 208 63
0.06898337775705699 0.018312095808899174 0.1996938110381534 255 0 0
0.05348971640432182 0.05174081495083059 0.19700404489133147 0 0 255
0.056590238485617714 -0.0026262168365279656 0.18703290198206696 0 255 0
0.02235462885330231 0.016118770553280374 0.19889579138687385 255 0 0
0.06944102203687866 0.022941493047700455 0.1926897078489557 0 255 0
0.07092503558275061 0.0329514175422657 0.20176082484889885 255 0 0
0.06799851678490976 0.017143920777599558 0.20064102518370058 255 0 0
0.08860913798349895 0.050474815490296455 0.20071743874388182 255 0 0
0.0774480447037967 0.02634373953667353 0.20159899243290755 255 0 0
0.04905871750375768 0.030500196867747346 0.20054648294071922 255 0 0
0.0491908203659893 0.03101827209439148 0.2023721205295003 255 0 0
0.015472641274315396 0.012938378404957453 0.1942538336962462 255 0 0
0.06785939812566102 -0.001743673110039451 0.19998762080762744 255 0 0
0.08955485524310462 0.05876339190273515 0.20416972360297717 244 208 63
-0.004912787276550727 0.01915966750864046 0.18822471415217795 0 0 255
0.061083010571071156 0.03333602825595458 0.19669435517797956 255 0 0
0.06013289800690191 0.0347031068685909 0.20313971747389523 255 0 0
0.018399870149025572 0.04189815292797294 0.19059189606249735 0 0 255
0.08636895138800328 0.0383352438855295 0.19430697260031493 0 255 0
0.05971099769216486 0.030445711590958567 0.20254393367142268 255 0 0
0.0627878216725496 0.05605915297174344 0.1956161568132569 0 0 255
0.06424968925613522 0.05561714800288209 0.19453918612523188 0 0 255
0.07059488818654222 0.03805282812752779 0.19724541906921259 255 0 0
0.08569024623593395 0.04146381830377608 0.1914161687340024 0 255 0
0.04457793086831021 0.027544551224447468 0.19384471264522102 0 255 0
0.055159508012614135 0.057604826270814216 0.2041558942190526 244 208 63
0.042253514066012396 0.05615923869505042 0.20439181005277743 244 208 63
0.0722705022466867 0.011046281934806577 0.18847761351279232 0 255 0
0.06425838044480585 0.06620197641167397 0.20585412421002414 244 208 63
0.07190421819553702 0.008398230800738968 0.19456531831754784 255 0 0
0.06766665353230286 0.0571410010826959 0.20320816521786897 244 208 63
0.06891376798341921 0.01811519791171224 0.20135030536554657 255 0 0
0.021965355552246508 0.07058909578675814 0.2059767339853256 244 208 63
0.06027899977307474 -0.00211493077194036 0.1902933679333438 0 255 0
0.04188804574470438 0.01119890043506256 0.19976519418142194 255 0 0
0.039548823640503716 0.015743119961351467 0.20014843630187087 255 0 0
0.0722413224580763 0.03852529291383836 0.19308736888995617 0 255 0
0.06154765448133619 0.052857864140760075 0.20451691906473493 244 208 63
0.06999935117719894 0.0688557713578158 0.2032057310679412 244 208 63
0.06285884058364309 0.03430384811615271 0.1904719370396898 0 255 0
0.07651475384163912 0.032130846024886396 0.20311607142658653 255 0 0
0.06104718104530245 0.033082183273015535 0.19948557788650623 255 0 0
0.09167151938353026 0.057149357764675876 0.20458315846187655 244 208 63
0.06229104871477492 0.052288008831131105 0.20305317442025234 244 208 63
0.0006374264492940962 0.015227070622416993 0.1974381577949637 255 0 0
0.07432257799860385 0.012157779128252354 0.20026874427450728 255 0 0
0.023451759873550363 0.040603327517425146 0.20320544982316463 244 208 63
0.08256015587046359 0.0438459032958905 0.2024567580416402 255 0 0
0.07911573913147812 0.029740085576120415 0.2019292771142743 255 0 0
0.05085870280700228 0.06379194529249181 0.2057294632752048 244 208 63
0.06080767004532152 0.035948585691362105 0.2022588915051011 255 0 0
0.0628951455070205 0.02998453144797897 0.20174329237808902 255 0 0
0.06751408285816456 0.03265207398528494 0.20204518037224453 255 0 0
0.08631278335792267 0.03635856592561061 0.203626329612992 255 0 0
0.041644429451631985 0.08051748759257418 0.20553312617280114 244 208 63
0.08235001734215182 0.03164163247770474 0.19681325393109306 255 0 0
0.048655472513013935 0.030929435416151008 0.20264919470988527 255 0 0
0.06538921945414135 0.05745729517407847 0.19472116406354537 0 0 255
0.06438068649632507 0.05487499842201501 0.2050287568895828 244 208 63
0.06083635006982227 0.031771344400367434 0.20283884929417872 255 0 0
0.04776578239101077 0.05048890705356273 0.20447992937886272 244 208 63
0.05253086127739411 0.06573852493036708 0.20592795769067287 244 208 63
0.04825160354124643 0.07597431179169462 0.2064485467500904 244 208 63
0.07903437849745909 0.03042893147363914 0.20163551542050526 255 0 0
0.07126635512602052 0.0061894571671930396 0.197522869124506 255 0 0
0.08788712556914922 0.05650321266496227 0.2039427660329328 244 208 63
0.06089587465701155 0.0318802256230207 0.20125037313256477 255 0 0
0.08166620270358495 0.030781321088646733 0.19989284944321856 255 0 0
0.07705151876946219 0.06197419253304733 0.20161487883209847 244 208 63
0.07089195543633661 0.020757222701165118 0.19250968645127536 0 255 0
0.055130622289890734 0.05243044474531859 0.20046554459594507 244 208 63
0.0599267904646463 0.015958407663502133 0.20114032834691362 255 0 0
0.06793445911596384 0.06677085731798957 0.2053819248958201 244 208 63
0.07917567102803083 0.029389470318211198 0.20243121120630173 255 0 0
0.0879593790200061 0.049348434013474135 0.20060666046691086 255 0 0
0.0863368653949601 0.036077142452848265 0.19410119993165126 0 255 0
0.07067307023003694 0.017097817212352966 0.19534068995302023 255 0 0
0.02073350946771601 0.06978895962707175 0.19315835359342443 0 0 255
0.06554488091415 0.053371926828329315 0.2028381543644397 244 208 63
0.061267902751656174 0.03366294035099068 0.19109692210514964 0 255 0
0.046221779388403564 0.06469836825508114 0.20575237515327333 244 208 63
0.0683734573468903 0.03304407735149967 0.19992800126480015 255 0 0
0.06910378457688632 0.018274351694123697 0.20121491772773367 255 0 0
0.07749941650777956 0.0583072817951461 0.2042400226426129 244 208 63
0.08085502236805865 0.030640640872335086 0.19353641501422775 0 255 0
0.07929102967020758 0.02943242266584336 0.2016903266918456 255 0 0
0.06892553552137502 0.03522142650438664 0.20013310487620212 255 0 0
0.05641608506889763 0.028333644972330145 0.1961795114063102 255 0 0
0.058128937330464016 0.028283889023283326 0.19303035919930642 0 255 0
0.056690622201946414 -0.003184346003590084 0.1933166630488997 255 0 0
0.023187438417554024 0.05587529778920658 0.20252209971359458 244 208 63
0.07176703696065026 0.014062675314101658 0.1950787046832742 255 0 0
0.07108568607354986 0.01962132920555528 0.19874209825715475 255 0 0
0.05879930035037646 -0.004194584032349985 0.1900852417694126 0 255 0
-0.004372231106731887 0.017149049139892313 0.19944598269258396 255 0 0
0.046934000477986966 0.03183561503085786 0.19004304684375617 0 255 0
0.07101780466818064 0.03587336901176946 0.20302277107527494 255 0 0
0.07828877262034505 0.027421148576455223 0.19321067981738832 0 255 0
0.08941775756395726 0.05330140758132001 0.20367122899792098 255 0 0
0.06696095339077675 0.06681926014508303 0.2046123299719102 244 208 63
0.0740019704187579 0.013430175929405423 0.1993142508295794 255 0 0
0.07908779182270301 0.029988171035380946 0.20159611653933368 255 0 0
0.06423037368458709 0.06645357628023547 0.20401097833913676 244 208 63
0.04435108617708724 0.05843324010440571 0.2051585861323986 244 208 63
0.05556966752217336 0.054195573784627575 0.20349574442679183 244 208 63
0.07202558545677781 0.013993644062566226 0.1887425145664927 0 255 0
0.07884898261541065 0.02727605339372852 0.19637128964129225 255 0 0
0.06332090388042419 0.06727391638193128 0.1972762378062633 0 0 255
0.05340374129246559 0.05274838097407303 0.19751678652830446 0 0 255
-0.0032014176656741775 0.025473134707544233 0.1888208541627481 0 0 255
0.04745710081823337 0.07345497052979039 0.20439017612595198 244 208 63
0.04978579194584444 -0.002031539542708384 0.19333287004759844 255 0 0
0.04210591521068188 0.003626882732352333 0.19374888692828104 255 0 0
0.04368327053727316 0.04295746228837903 0.20320954064793711 244 208 63
0.07104638809320121 0.035844213065608546 0.2023808287276995 255 0 0
0.06093864680760838 0.03172961543855876 0.20230331997908965 255 0 0
0.06492868292104101 0.01797365416578753 0.20067707854695602 255 0 0
0.07764182694871494 0.026264151423999668 0.20159424185635 255 0 0
0.07333317757218931 0.013661786523771084 0.20139558081570758 255 0 0
-0.00435223565629312 0.023886856238688157 0.18866181916623662 0 0 255
0.04008276582653318 0.017813256970403535 0.20034355680851978 255 0 0
0.05061122273410529 0.04953914313898829 0.20283093356549584 244 208 63
0.06108015745021453 0.03356216508177383 0.1946038093783594 0 255 0
0.06686081060207441 0.03267187120080667 0.19037488979816927 0 255 0
0.08302573792414754 0.04108175649656755 0.20301092482893926 255 0 0
0.05791084222389681 0.05613595348912398 0.20299153170451112 244 208 63
0.07134734892512082 0.06585964269795448 0.20404832067925047 244 208 63
0.043812817500603 0.043181561704897585 0.20216548190501166 244 208 63
0.06421799291277522 -0.0028226966126630795 0.1966127914405296 255 0 0
0.05535283711448619 0.05778813872091678 0.20310895222455463 244 208 63
0.04108382356663565 0.06297718540909637 0.20552989052358347 244 208 63
0.043522362453756853 0.005145274622088938 0.18757192680122656 0 255 0
0.04770031305985807 0.07301865566567764 0.2043536178965973 244 208 63
0.04778329554597137 0.032394176013649544 0.190104746593527 0 255 0
0.06182631821879673 0.0362097291021505 0.19063201152544526 0 255 0
0.06844095282670973 0.03801049646311472 0.20354715107493854 255 0 0
0.06698367776186222 -0.0011072676974174592 0.1936376876679238 255 0 0
0.0011390672305974783 0.0264752655915823 0.20116446500759338 244 208 63
0.07436023714712703 0.03639418738606534 0.20030952299090224 255 0 0
0.021188511391732265 0.06037552370418141 0.20450485504166674 244 208 63
0.044352156259445996 0.053269563888068035 0.20255680469264528 244 208 63
0.07347893035436893 0.0638278601369128 0.2049569991017264 244 208 63
0.06253740380941072 0.056684612057831485 0.20310081776456995 244 208 63
0.07137179944449068 0.06881862869578192 0.20538383141962274 244 208 63
0.0018407523665013516 0.02876555549576284 0.19235162068433093 0 0 255
0.0838252087603074 0.045272591444473195 0.20233622373367044 255 0 0
0.06367559420505824 0.06365446992168841 0.20265152896755795 244 208 63
0.07764635041636189 0.026296199282379907 0.20124185076697382 255 0 0
0.06744766743161686 0.030862121789822804 0.19443999314863966 0 255 0
0.059417461818142406 0.029852214866998752 0.2027527126243536 255 0 0
0.0644006467061459 0.05581402893399235 0.203312082856666 244 208 63
0.03689440311644318 0.046761969378366484 0.2040014362832188 244 208 63
0.06367362990852936 0.014958118356602528 0.2003867231454283 255 0 0
0.06098804774301985 0.0364477469732585 0.19064289736723958 0 255 0
0.07167674330569683 0.007532980577561382 0.19448370901246734 255 0 0
0.07237993123047612 0.06794539803943608 0.2031534963807328 244 208 63
0.08628296264602033 0.035700995094732624 0.20039952735148642 255 0 0
0.058041729062184515 0.03279776639172288 0.20264756954988997 255 0 0
0.05275478010984505 -0.002407173575357968 0.18700358879915077 0 255 0
0.019170954806658373 0.0710626373605053 0.20598392943380245 244 208 63
-0.006324674321695983 0.020916872685294595 0.20003010303366256 244 208 63
0.06267113668368315 0.06455364353761238 0.2058870270440419 244 208 63
0.06999719505009387 0.016699514830879544 0.20062626515561985 255 0 0
0.07609818144699919 0.06058822890805844 0.197782214914894 0 0 255
0.06614641458819999 0.06740043554183942 0.20302391878021955 244 208 63
0.056171663740105 0.05611595182936631 0.2008140827120068 244 208 63
0.06487073298883098 0.06657530931741301 0.2050963640330273 244 208 63
0.051056767414729747 0.06376910874831554 0.20546340698727575 244 208 63
0.03738418764862189 0.04418438692292587 0.2037099693082558 244 208 63
0.0444914682639657 0.026786941444383396 0.20221900846732474 255 0 0
0.06369059187707077 0.052751901229731134 0.20482681552110127 244 208 63
0.06814859866812101 0.036077588054048884 0.20343095024309657 255 0 0
0.06867219296772667 0.039116623536791 0.19309533174250124 0 255 0
0.06234706327333017 0.0344680387623057 0.1980801748260354 255 0 0
0.02650076522014609 0.07758944661959497 0.20660825432138402 244 208 63
0.056754994043882054 0.05612154382345673 0.20504423553691564 244 208 63
0.050174479037245846 0.0725837339293787 0.1937904405306456 0 0 255
0.03796094724275007 0.04642362740262643 0.20398435679950125 244 208 63
0.05157928077242148 0.06377112720199131 0.20440420286779665 244 208 63
0.05961631892716211 0.020764263039389337 0.20032962451533326 255 0 0
0.012145962487882113 0.014438083992064372 0.19861189948400237 255 0 0
0.06552529862265744 0.02992133252708517 0.20066298495433274 255 0 0
0.08689774898253733 0.03777118963842692 0.20311491544981045 255 0 0
0.06528968758223393 0.031919940049081254 0.2024830948641421 255 0 0
0.06291001225113992 0.031740333539232245 0.1902394576121325 0 255 0
0.05851525769959632 0.029861532598632858 0.1900121786629372 0 255 0
0.08361678877805724 0.039203798573892855 0.2028477228301703 255 0 0
0.06381562833770615 0.03274363204196038 0.20165066810793822 255 0 0
0.048518887688417056 0.03041023891367738 0.2026002236276469 255 0 0
0.050953500625947154 0.07096020267636682 0.205671859062317 244 208 63
0.06879179617331681 0.03558272317685916 0.20333086323955474 255 0 0
0.06464376965218709 0.06613404133366649 0.19338961465510368 0 0 255
-0.0008636514326387202 0.015256467983760943 0.20058818006552878 255 0 0
0.04889959664454512 0.03187285151881364 0.20066927510291702 255 0 0
0.07117399900648219 0.03880857511333867 0.19098835248956575 0 255 0
0.06423872015461898 0.06648949421351935 0.20401435199943124 244 208 63
0.056378795814016794 0.028176798929145062 0.18983153753952167 0 255 0
0.0648865829578723 0.05952906836126838 0.20445575409066744 244 208 63
0.047929757963273416 0.07684395880670605 0.19414906810152352 0 0 255
0.04593404727373558 0.07645286527408263 0.19408788255077103 0 0 255
0.0278237586205956 0.016536420936657872 0.19473959920616496 255 0 0
0.055822080486863206 0.05139229548537267 0.20466550180191 244 208 63
0.08780055580490446 0.048803365533948595 0.20477720736834717 255 0 0
0.06084189621422136 0.033164701169919375 0.2001941375558656 255 0 0
0.06074750821445398 0.033066318339424694 0.20088767247332318 255 0 0
0.04238550331828767 0.04526418259307213 0.20233656208148526 244 208 63
0.06869135900143081 0.018000153378441425 0.19981399404966033 255 0 0
0.05534282501926997 0.05252177192019361 0.19414334726679258 0 0 255
0.07142904127545273 0.03827125854924412 0.1972759916122087 255 0 0
0.024341585670923066 0.054190140631738104 0.203449754807657 244 208 63
0.02989005675289282 0.07979116558479915 0.20478314275742962 244 208 63
0.04654715123485216 0.07381913973074603 0.20498688534523146 244 208 63
0.05563403471885915 0.049237573805253024 0.20286798295920644 244 208 63
0.05832608541960948 0.022377796126767033 0.2019956111568404 255 0 0
0.07179390908879957 0.014253058936693597 0.19298528891213093 0 255 0
0.08253955911919188 0.04281483685363462 0.20387302845123778 255 0 0
0.05728269324435045 0.05850863550626752 0.20399882262095043 244 208 63
0.0793156491302522 0.029442083244335678 0.20169152129124124 255 0 0
0.04776943468463951 0.029832603327068455 0.1898716089793113 0 255 0
0.06102541212634797 0.01870434241815209 0.20069342593668424 255 0 0
0.08510673236021812 0.031158884122680922 0.20106911688452628 255 0 0
0.053421306339349675 0.051125599572868156 0.20412487435887566 244 208 63
0.06424861837480375 0.06633827951878989 0.2059806159105428 244 208 63
0.04850273899605313 0.07472791287497438 0.20663044327162236 244 208 63
0.05316541008306981 0.053564970655066116 0.20476565283516276 244 208 63
0.056692343121746175 0.058306102825363554 0.20370629631751952 244 208 63
0.029790773252403254 0.016423752365379393 0.20008507654333052 255 0 0
0.09057396358202416 0.05852612629360221 0.19303057325404 0 0 255
0.04428050448470536 0.05861801626078407 0.19455576270697156 0 0 255
0.055742215021639126 0.027106149586712425 0.20192275334529797 255 0 0
0.07122682762925463 0.037191515827029314 0.20186601641738966 255 0 0
0.05832316184282716 0.05867905976287887 0.2050937725871585 244 208 63
0.06505830444677473 0.0665971047618461 0.2051769025820862 244 208 63
0.0720621642018635 0.013227989534884185 0.1928955084476191 0 255 0
0.08971986941918951 0.0525993525318365 0.20514706690988907 255 0 0
0.0661871711151926 0.06663526328191258 0.2061086576251337 244 208 63
0.06255096621983089 0.03481776629010406 0.20146769695716635 255 0 0
0.0767671641212818 0.06345703633021652 0.2060315792331671 244 208 63
0.06301177760756041 0.06886959109062275 0.20581420387085242 244 208 63
0.044146095854416076 0.07605014276855132 0.2067581065277192 244 208 63
0.07356127243198594 0.06376566458327536 0.2044193487345207 244 208 63
0.06781361567409087 0.03721086816871486 0.20281898412281724 255 0 0
0.07419789468139529 0.039060542787149634 0.19738331466724407 255 0 0
0.05925812794891243 0.017544049990048723 0.19840135772694836 255 0 0
0.04222083868190673 0.008638787034678238 0.19847054426916536 255 0 0
0.05645487572183788 -0.005817174414288563 0.1978716201695112 255 0 0
0.020647395915582664 0.06094477463487094 0.2018527670176658 244 208 63
0.09016973135784381 0.050355931741554914 0.19228235408142216 0 255 0
0.07187196180639044 0.0022976174962327303 0.2004066592438028 255 0 0
0.06934038472726531 0.0306593884230382 0.2015320371640694 255 0 0
0.05062602563058507 -0.0051918642537946355 0.19785366635759533 255 0 0
0.0431178501168193 0.06537617433354902 0.2057108355608089 244 208 63
0.05429700800671455 -0.004244259375865082 0.1868563136575938 0 255 0
0.06675180196607639 0.05623574910362948 0.19568310080005824 0 0 255
0.06162280848622506 0.01596760426945517 0.19828834365113193 255 0 0
0.05257626425367717 0.0521338886209316 0.19407255865178114 0 0 255
0.03059751059390125 0.07991687833511335 0.2064028027747815 244 208 63
-0.0005686307864841873 0.025161527037721624 0.20149277287666256 244 208 63
0.08377751576272235 0.03850167598329732 0.20385202708631314 255 0 0
0.0704036080163662 0.021681396016319607 0.19258746580664068 0 255 0
0.07215585762166107 0.010327493534656666 0.19791061683821679 255 0 0
0.0869105293568109 0.06031171769936408 0.19314593642730948 0 0 255
0.041452742679556176 0.06410952774040146 0.2045715109766552 244 208 63
0.04408584504773469 0.059361904200239624 0.2031074480409831 244 208 63
0.07047750481277633 0.03714260244645799 0.192938980233397 0 255 0
0.04920515808210551 0.03094947955640087 0.2016553171261162 255 0 0
0.06296384206553587 0.055719793005837445 0.19495423201933182 0 0 255
0.0004816596036480076 0.01552317365627945 0.19962694791537242 255 0 0
0.010210349265598712 0.03829996037025438 0.19015953723485346 0 0 255
0.053019849268689426 -0.003166715453325551 0.1996677157872247 255 0 0
0.04873760671045457 0.03156875827279655 0.19637516080421968 255 0 0
0.060164417312883384 0.017375767337553912 0.1920644593187654 0 255 0
0.04103021100486059 0.02064558813211574 0.19954720740518658 255 0 0
0.05797471378843296 -0.005774000125098572 0.19949420197711082 255 0 0
0.04938287314381187 0.07437635718364519 0.20489628159537432 244 208 63
0.05062494650828906 -0.0017892073358702215 0.18703244952078488 0 255 0
0.04168760226210699 0.02413065732137624 0.20040563596460906 255 0 0
0.06450133694613433 0.06593567196783988 0.20529997299355818 244 208 63
0.06353006593272924 0.06384780166054599 0.2026672432575121 244 208 63
0.05192496673116766 0.06634289060159335 0.20591180515185475 244 208 63
-0.006247080822798468 0.015102325148235028 0.19950230079933187 255 0 0
0.062363695116100744 0.05218160240723126 0.20375516103561941 244 208 63
0.06951822552877751 0.06920158796602999 0.205927917005838 244 208 63
0.06068548328137589 0.06689177624764486 0.20507142085327904 244 208 63
0.08313728400164348 0.04062694380520905 0.20368172538078033 255 0 0
0.021268224269228156 0.054551575257323404 0.20444593043898399 244 208 63
0.04561761750459132 0.05581136458386142 0.20440335629483222 244 208 63
0.0648960324863377 0.05924989163132447 0.20549658086611866 244 208 63
0.06122107762319874 0.06726608033638792 0.20611509323972385 244 208 63
0.08623960778447463 0.03320284532127489 0.20126954506357564 255 0 0
0.04375061289683144 0.04314542683181248 0.20162835337136129 244 208 63
0.06763103489847681 0.021758108380029263 0.20078941882452975 255 0 0
0.06848901744272284 0.019510393328536695 0.18919883271144616 0 255 0
0.02162966395566863 0.055349178384146325 0.1918566454847035 0 0 255
0.05351804606588139 0.05181098107608689 0.1965885725039454 0 0 255
0.0638982216545559 0.05252635089887234 0.20274011696064362 244 208 63
0.021091387249668747 0.07403796696378945 0.20450234341942503 244 208 63
0.09243913231728344 0.05383621260986851 0.20322560638919882 255 0 0
0.07902181620182107 0.030626729948958882 0.20129797534978416 255 0 0
0.06470404656457776 0.03150591961418015 0.20290762998871176 255 0 0
0.0810853231271922 0.03065943845899519 0.20278443357942266 255 0 0
0.04333641698269891 0.0007528601368278418 0.19983653793042275 255 0 0
0.08134098997583421 0.030887262973708054 0.20270182815465748 255 0 0
0.06103631684942479 -0.003272398673719916 0.18703120769299525 0 255 0
0.009773047844563922 0.03541925920359424 0.19939178576288905 244 208 63
0.048021033226901155 0.03197578576906648 0.1964029792221177 255 0 0
0.06891674840531496 0.0228125507637664 0.19583786570991826 255 0 0
0.07997601480623977 0.02978236705338689 0.20269042955521405 255 0 0
0.040159366977670655 0.0787659166312948 0.20372395849946653 244 208 63
0.07007235684306361 0.031375210341030156 0.20231726033255495 255 0 0
0.04816361596268564 0.029945692428188335 0.19833125911493932 255 0 0
0.04801749483349714 0.02968223807410805 0.1983054238361706 255 0 0
0.03486088172198383 0.022365736420245447 0.20175664176105662 255 0 0
0.05532217076320769 0.05483527807801268 0.20490886493975405 244 208 63
0.04867525257670807 0.07550061334736204 0.20534480998884927 244 208 63
0.0633798214016711 0.06705496413098463 0.198523729327927 0 0 255
0.01957244053094734 0.040590965723389 0.190488066915491 0 0 255
0.04046018370413927 0.023251876135538148 0.20030996032426618 255 0 0
0.038798251590567545 0.07905548330046518 0.2037328208977565 244 208 63
0.0491835863691921 0.030748509675635124 0.2019032851112939 255 0 0
0.06824806960172139 0.02260616415843739 0.2006079358406855 255 0 0
0.03966951801776601 0.007562269353908555 0.19887293520615773 255 0 0
0.058847733464152605 0.028639353055785795 0.20076942892901894 255 0 0
0.043806032229570524 0.043133489424494145 0.20269407395815842 244 208 63
0.0406330214320296 0.006369659663591976 0.2003126500641619 255 0 0
0.08649724134836265 0.039279297298434004 0.20360229509185826 255 0 0
0.04351145329567023 0.0037109154798572047 0.2001078021953118 255 0 0
-0.0073307679560844306 0.018212493974146367 0.200837336200308 244 208 63
0.026207997426244217 0.07803400354683361 0.2067082644086965 244 208 63
0.051586066043453956 0.06381919948239476 0.2038756108146499 244 208 63
0.07613782154343977 0.05895051533535877 0.20348146983265694 244 208 63
0.04764327943883843 -0.003881017630807733 0.19793459198793611 255 0 0
0.05499802600772733 0.052339648431890866 0.20467774149129522 244 208 63
0.04678029211283166 0.07755080658123127 0.20586230183928575 244 208 63
-0.0014609577070084849 0.023262750698779824 0.2008389308085915 244 208 63
0.06995720888663583 0.039562462857105886 0.2030603638019602 255 0 0
0.06815410088476173 0.01734030164447628 0.2003055182864773 255 0 0
0.06749776081601108 0.01729398436426531 0.20165100113083936 255 0 0
0.0724130435915489 0.004437677058553448 0.2005448920237518 255 0 0
0.061047295009749376 0.033951619443344724 0.19112034390818253 0 255 0
0.05360057834331386 0.05630879614416421 0.20366265312988635 244 208 63
0.05358024222339487 0.05237379939691901 0.19326283325170768 0 0 255
0.00789898597099005 0.011885778965730896 0.19939136115801964 255 0 0
0.045338951897378486 0.06453391271967888 0.20359389673402004 244 208 63
0.060469869082500564 0.031748020063084685 0.20213906094263423 255 0 0
0.06496894813179202 0.05568619290711778 0.20511008138761172 244 208 63
0.00436344547559998 0.030031860989357846 0.20099625464384857 244 208 63
0.06506005040494296 0.06076931362274573 0.20557353019756425 244 208 63
0.04464697452024983 0.06391551720052699 0.2056609645598399 244 208 63
0.04984925741995945 0.06918920333475195 0.193477553603161 0 0 255
0.04949409382017537 -0.0018877065941507662 0.19334220641004013 255 0 0
0.02629661205772988 0.07666821690291524 0.19385539158594264 0 0 255
0.01905664518630145 0.060376570698212874 0.2017806726046193 244 208 63
0.042127050977014927 0.06519158655316888 0.204678573500356 244 208 63
0.06439008495485916 0.0661653884378916 0.20451986330902422 244 208 63
0.05544909075902299 0.05181268448190461 0.19619130159927803 0 0 255
0.06456419628109766 0.06599739396150356 0.2039737764034852 244 208 63
0.0475774256773589 -0.003790420040974629 0.19740894217011853 255 0 0
0.060103609545118945 0.059035520872551095 0.19268576698902776 0 0 255
0.05617517161222913 0.02604280713173506 0.19913469440835058 255 0 0
0.07897854712416214 0.030899417643286357 0.20221063043372225 255 0 0
0.0507347882096873 -0.002466790556409436 0.19916899378659217 255 0 0
0.04368626668524933 0.061179538897939416 0.2032676218401665 244 208 63
0.06471381034063739 0.029412489043027 0.20064851900438826 255 0 0
0.05882692879949713 0.0587080674685545 0.20456982613444238 244 208 63
0.06433402987101432 0.030027201081696396 0.20065732134571165 255 0 0
0.052130239206574835 0.06507552751275257 0.20579918105157893 244 208 63
0.08300404294939112 0.02997347805560217 0.19666994067907329 255 0 0
0.06083603530765709 0.032970674377501716 0.2022874950173465 255 0 0
0.06499992046037764 0.06526446266928668 0.20577838172906798 244 208 63
0.04081607342929318 0.004501036809997815 0.19860925220301698 255 0 0
0.06805071409336226 0.06681032831655428 0.20493010799705086 244 208 63
0.061109882699220464 0.033526411878546526 0.19460093940683632 0 255 0
0.06495019433717938 0.06650051285393349 0.20608052443060407 244 208 63
0.05534107007632187 0.05817608939567412 0.19254647251495402 0 0 255
0.05162175051744088 0.06730191099950084 0.20599513007705375 244 208 63
0.06321314735473153 0.06525204540373492 0.19329103822857302 0 0 255
0.08292628850855349 0.0325559471042057 0.20330037188875127 255 0 0
0.025105422469965544 0.07413826506314547 0.20633981713159705 244 208 63
0.018873183841094224 0.058481298299446344 0.20376981475770814 244 208 63
0.0698205846635266 0.017045369454405077 0.20101081528177503 255 0 0
0.04378517725693477 0.0622634873233265 0.20478892873226545 244 208 63
0.08946942195806672 0.051991860836384185 0.20508860431128265 255 0 0
0.06594181438319159 0.0666217293303543 0.20602812868055198 244 208 63
0.06892152256028108 0.018170137528940547 0.2007462016112398 255 0 0
0.04009285444781496 0.08100539029126391 0.20502453741603624 244 208 63
0.07913418858709237 0.02980724297362097 0.20086952667133945 255 0 0
0.050888137246765 0.05264138373872231 0.19409704265272218 0 0 255
0.03992031336805012 0.009609767729652784 0.194264939000416 255 0 0
0.08695018664471012 0.03678935985366791 0.20160483841763532 255 0 0
0.040302842029080334 0.023138657691901432 0.20029764406896008 255 0 0
0.026700265081537847 0.07532070113784137 0.2054017298755164 244 208 63
0.05634398995467313 0.056583855330043266 0.19663669837558623 0 0 255
0.07916346112705737 0.029426931472472807 0.20243446134147552 255 0 0
0.07081618324966282 0.014744931680128637 0.2001036567532118 255 0 0
0.07359097431255447 0.014453298396205929 0.20046811676978976 255 0 0
0.053479078113121664 0.051569238230877196 0.19909937891486484 244 208 63
0.06443365345785865 0.0661651707767689 0.20398735898693285 244 208 63
0.04315139761401775 0.024622754388875012 0.19567175600094797 255 0 0
0.06660254436622715 0.06951355984110637 0.2043197158765379 244 208 63
0.07184813560068035 0.013783133235829394 0.19505432302857173 255 0 0
0.04461475941344341 0.027666223844022925 0.1921673900051804 0 255 0
0.06904867900444353 0.01828307933885061 0.20075810523569837 255 0 0
0.06662028903786824 0.03222376011432758 0.2009286597765139 255 0 0
0.06307037413125635 0.05578736588651169 0.19242844962175648 0 0 255
0.04758724004194808 0.05078983695921246 0.20237281553239989 244 208 63
-0.0030088205701132714 0.021848813212963652 0.20116017790879248 244 208 63
0.06604877384618284 0.018693237093283556 0.19542642405989638 255 0 0
0.05368546606458292 0.05631972125757273 0.20508619500779054 244 208 63
0.06461896897949572 0.056091387073491705 0.19247597706255765 0 0 255
0.06599424862282963 0.031891089885296854 0.2024895152112435 255 0 0
0.06658331335426572 0.05420862943656974 0.20505976705016704 244 208 63
0.0611861065391462 0.033569873125354255 0.19319848674511877 0 255 0
0.05600035389384563 0.022517281326526195 0.2015087368684641 255 0 0
0.011933338134728605 0.03576370600744934 0.20268079745082979 244 208 63
0.04421897910826464 0.06347935198650709 0.2049050728358161 244 208 63
0.06743024878503322 0.0691147647987387 0.203196306691058 244 208 63
-0.004750289467420902 0.017953197631402754 0.18811707884774795 0 255 0
0.020783573855895986 0.06749789228497194 0.205680437607617 244 208 63
0.05483554546271682 -0.005131235879960047 0.19628240585331383 255 0 0
0.019713812046103004 0.058468338017955826 0.20161556599602867 244 208 63
0.0432635175953361 0.044511556868070505 0.20064857612352235 244 208 63
0.08364379566809257 0.03316019735374476 0.19696796589212695 255 0 0
0.07913712212517127 0.02953771351835797 0.20244419820429116 255 0 0
0.0633595828811054 0.05305161782264416 0.20009990356611895 244 208 63
0.01004911634382812 0.03715765755161607 0.202720043771092 244 208 63
0.06657556070586707 0.032092818039991644 0.20224879395354192 255 0 0
0.07311446800311248 0.03963912441578116 0.20275250008383833 255 0 0
0.0667434501025595 0.0006377877886758476 0.19379330632768133 255 0 0
0.04150585663428074 0.0028583331063639188 0.1995348147153583 255 0 0
0.04420136445151347 0.02658586430468967 0.19586376698427457 255 0 0
0.062478320915744616 0.05658728152035257 0.20469035368361346 244 208 63
0.06068811349443475 0.03203993106663419 0.20104901001934516 255 0 0
0.06085871299693417 0.03602304000550542 0.19482476863804174 0 255 0
0.0620057498540406 0.017920294039146818 0.2013454367178148 255 0 0
0.061206748740617795 0.06727757547184561 0.20294933738027957 244 208 63
0.02903695823334186 0.04967012806901506 0.20410171540320718 244 208 63
0.04980269275330452 0.06878508683160604 0.19766235993135062 0 0 255
0.05161004482741266 0.06915639080856519 0.20622697205676654 244 208 63
0.030608895572001298 0.04639912373194533 0.2038877537381145 244 208 63
0.08397102658752846 0.0599242788231135 0.20573943006027864 244 208 63
0.009778303576870253 0.03467081731752938 0.2004215529145291 244 208 63
0.05011692272604502 0.04963273833858349 0.20336615144507839 244 208 63
0.07586819027555931 0.060306513329524455 0.2040868731577921 244 208 63
0.041231395889894995 0.07933130403206672 0.19428929373403336 0 0 255
0.05340693553058228 0.05110160073731283 0.20412250733769707 244 208 63
0.00013787445547076317 0.015643013320903103 0.19910038257923998 255 0 0
0.06560346324823355 0.05421928232823522 0.2007626632630336 244 208 63
0.06309077019636712 0.05531881648828626 0.19618603898407533 0 0 255
0.0634782201442595 0.06665692456830438 0.20102208123766693 244 208 63
0.07367612934723483 0.014224163191353383 0.2004483713881372 255 0 0
0.04358521620780865 0.02590348505371759 0.1894605684982716 0 255 0
0.07298149136907765 0.006042121465439976 0.19753148616873045 255 0 0
0.07977886732604504 0.029720384511614933 0.20172277722379747 255 0 0
0.047717285191804466 0.03208451360981682 0.20120639155710185 255 0 0
0.06784019731185842 0.03713232882954835 0.2024568188764803 255 0 0
0.08355613240742606 0.033721291275929446 0.2018152919839185 255 0 0
0.04404475207428251 0.043783466505245804 0.203289300939978 244 208 63
0.07162399884140341 0.013973811612832843 0.1992909394253048 255 0 0
0.043877692384481644 0.05991296307178179 0.2035102553081754 244 208 63
0.0680713576145211 0.01719394578894026 0.20100187345909415 255 0 0
0.023350543789519604 0.04009594533985687 0.20215525067762216 244 208 63
0.012753967162509625 0.03916210035446592 0.2019343001322508 244 208 63
0.01880072063086892 0.06124923830729945 0.20185675132031536 244 208 63
0.042144701921686636 0.044986121365607784 0.20067737324584647 244 208 63
0.07438440951960835 0.06353567106558444 0.20277818861373526 244 208 63
0.06283432989935095 0.06357667677551883 0.20533056721687798 244 208 63
0.09054354678206383 0.05823345968102332 0.19617018330237862 0 0 255
0.014628760473540444 0.03759842032142624 0.20281891509880678 244 208 63
0.06434025229437915 0.05344725105687246 0.20014847239983907 244 208 63
0.07587142276660809 0.06103167179343345 0.19781963260119007 0 0 255
0.019198095707581266 0.07125492518413426 0.20386957549356646 244 208 63
0.050341917901208066 0.07240156254370782 0.2054397277471906 244 208 63
0.05830621615838586 0.028728864197882203 0.1994063303560283 255 0 0
0.07098035111721403 0.03677328050154222 0.20310413186139378 255 0 0
0.07856462600249353 0.028248231333277297 0.2027892840620548 255 0 0
0.0708513225622637 0.017175015330183376 0.191127846323253 0 255 0
-0.003512940801258764 0.016955346945494037 0.19120883029877073 0 255 0
-0.006501459605801603 0.020640240551316698 0.19893658086208613 244 208 63
0.07036932272964826 0.03755125375125226 0.2014190608858927 255 0 0
0.06597915052573441 0.01574162985808666 0.20013220991850011 255 0 0
0.07096005257665632 0.03657265230646366 0.20159308958963307 255 0 0
0.053532711836538446 0.05204542893952644 0.19365457754027932 0 0 255
0.04147914504546707 0.042550079764372827 0.20207809622308784 244 208 63
0.04002576178462095 0.08097073239059858 0.20555356804688066 244 208 63
0.02564422934338695 0.015617207239920558 0.19462802470348706 255 0 0
0.08319140896436306 0.03309234879973679 0.2014868897647929 255 0 0
0.08891382223744375 0.047946282352423555 0.19838032042584103 255 0 0
0.07524348833474136 0.03796753807118613 0.2004639476621016 255 0 0
0.07998144297720333 0.02982082455278364 0.20226755948551034 255 0 0
0.0678654618905781 0.022018275902986564 0.19100221575456505 0 255 0
0.052597612830894626 0.06491123254247758 0.20514284611207428 244 208 63
0.07399083282616425 0.06386402159467777 0.20596961532106767 244 208 63
0.052991323292806675 0.05517716585603484 0.20319655003224635 244 208 63
0.04066654419914939 0.0780147452449895 0.20475992033379364 244 208 63
0.04016626504170614 0.016319617493419425 0.1948783167955328 255 0 0
0.0666451456419436 0.0010804009933179787 0.18749906646649295 0 255 0
0.08278599078289071 0.032079213943681045 0.19685864571620845 255 0 0
0.056434165067485643 0.028558895930575486 0.18986699771996546 0 255 0
0.04242063512885888 0.007702373614073294 0.18779033731377862 0 255 0
0.0596673886411704 -0.005372408880818268 0.19955245231281862 255 0 0
0.04453039465550396 0.058037352020963225 0.19450616248792998 0 0 255
0.05547395832827763 0.052869429241495916 0.20372927467028237 244 208 63
0.007062259814701439 0.0358284729658572 0.20262416002872302 244 208 63
0.057280798673149454 0.02094052028440081 0.19868486436769983 255 0 0
0.08065752458421765 0.05813711071434851 0.2050646586820684 244 208 63
0.08109617942180096 0.030736353122547584 0.20193869712625162 255 0 0
-0.0008063217888524873 0.028293882416909617 0.20183792912354512 244 208 63
0.025987250309114696 0.05265633528317713 0.20226529413949312 244 208 63
0.07749949454570534 0.0280638922717809 0.19009238517046265 0 255 0
0.004505254519896907 0.03186067433007498 0.1895006893082458 0 0 255
0.06752141808337792 0.06757481786771927 0.2020018890305744 244 208 63
0.017721727556420673 0.06404538196951845 0.20426105416597498 244 208 63
0.06067831026622003 0.0320298749764811 0.20115458348142715 255 0 0
0.044424831281071914 0.06469169968249872 0.20249874641315527 244 208 63
0.05350057583246542 0.051721545248147587 0.19742464498728843 0 0 255
0.0768036385088029 0.058466902737820695 0.20344603492266164 244 208 63
0.04167803191034893 0.015112118386956062 0.19478790777896388 255 0 0
-0.005351585304125534 0.014605133891112823 0.19840248442767477 255 0 0
0.026023560149000913 0.04322411167896923 0.20354014576288856 244 208 63
0.04938422350643994 -0.003063838282121492 0.18690060293382244 0 255 0
0.06834543660209212 0.06671638993797616 0.20583914581397555 244 208 63
0.0708022571523668 0.06889005243445122 0.20644911097965807 244 208 63
-0.005419922533407114 0.015132096303661934 0.20051838263975122 255 0 0
5.622609149030832e-05 0.029426189982131735 0.1998197880474218 244 208 63
0.05641510042707784 0.028398369340033487 0.1930187708336263 0 255 0
0.08996045176232251 0.05359445472558464 0.19890742292280028 255 0 0
0.011487857812198967 0.012218476392650546 0.20047044305950623 255 0 0
0.06180955146338739 0.035592841886531675 0.2029501305667981 255 0 0
0.08941097229292479 0.05325333530091657 0.20419982105106774 255 0 0
0.06039661588017843 0.05485913929861077 0.20326268544844825 244 208 63
0.04096835555028812 0.062273464072566787 0.20333221931914655 244 208 63
0.048502594087834645 -0.004394670151354779 0.19843195999778215 255 0 0
0.0482820124742391 0.07185224700155105 0.2042550070002159 244 208 63
0.05722532688181699 0.030433620803607175 0.20271411026303177 255 0 0
0.0709860978791909 0.020198146936660364 0.1956266645460742 255 0 0
0.009113526238756345 0.03422857835038674 0.20037280051672865 244 208 63
0.054553761983464934 0.05736477722670084 0.19457366077827284 0 0 255
0.06443304632576406 0.0665182972475968 0.20470481052950648 244 208 63
0.05918964829957693 -0.0054112039803589015 0.19847669669020346 255 0 0
0.07110325284946215 0.015487049548233087 0.19942187479453946 255 0 0
0.04294871786387451 0.07681384350368496 0.20681219039356494 244 208 63
0.07829476113827331 0.031667881745067294 0.20309681665976173 255 0 0
0.0769897123969771 0.0584353266661116 0.20344555180527765 244 208 63
0.06346941374943871 0.014876832644989312 0.20108744045681462 255 0 0
0.07056105617037882 0.03984919749738691 0.20167273327290092 255 0 0
0.07213414276305968 0.0116760433590564 0.1980329806227468 255 0 0
0.07650944170050253 0.02772081771972956 0.20064608623526034 255 0 0
0.04859804775577795 0.03146019251304343 0.20058564842235782 255 0 0
0.07611833555767067 0.06073101672815351 0.19621215195230998 0 0 255
0.05605608997145094 0.0503082675234472 0.20297077384984374 244 208 63
0.04702451337728051 0.07294839437781105 0.20651296989622436 244 208 63
0.049248895300289315 0.06448958701409872 0.20399541927438275 244 208 63
0.07662427111582706 0.027296294553950433 0.20060895240428284 255 0 0
-0.004585212854261622 0.018203421706161776 0.19927260847971456 244 208 63
0.06451025835752552 0.06628569329820086 0.19340169267520377 0 0 255
0.05413635326850509 0.05032830557269835 0.19392837777102015 0 0 255
0.05326458964811488 0.05424518074463465 0.20482878698595075 244 208 63
0.05590547315610341 0.05489857631890135 0.2028532577473039 244 208 63
-0.006572011373973825 0.020494953846705268 0.19892246226906637 244 208 63
