ply
format ascii 1.0
element vertex 688
property float x
property float y
property float z
property uchar red
property uchar green
property uchar blue
end_header
0.0039005116743372975 0.03097968863460549 0.19260013795712314 0 0 255
-0.003258937882881605 0.02541562968163741 0.20050352871343613 244 208 63
0.0024236494698258964 0.030957885958202185 0.20207694831362102 244 208 63
0.024342635391379194 0.07357804108774532 0.20519358439423824 244 208 63
0.06714154647993877 0.016978966614320787 0.20162216845507952 255 0 0
0.05500076126582575 0.04891756573151364 0.2038833175463529 244 208 63
0.05621429228351806 0.02610370766375044 0.19597790437391338 255 0 0
0.07095376342067992 0.036703027001713136 0.20223388758573518 255 0 0
0.04791478381144154 0.03139687746391398 0.20268355777329577 255 0 0
0.03559277602606932 0.0785489286670813 0.20471656661496646 244 208 63
0.053572802542051615 0.05229828497258121 0.19324353667569377 0 0 255
0.07927668816674517 0.059627159506036496 0.19454181740002377 0 0 255
-0.0034544045187370562 0.025166207881595477 0.20047858535803087 244 208 63
0.03418094629255234 0.022308421472045505 0.18902935020477668 0 255 0
0.058384892117572584 0.025720007424757448 0.20129931633403933 255 0 0
0.06330372513529528 0.06710295625529271 0.20187639999405696 244 208 63
0.066434673746409 0.06672370924114816 0.20532808555584492 244 208 63
0.07097205141993132 0.03637623773072862 0.20135199143410096 255 0 0
0.06737704174716051 0.02130446150718218 0.20154584957615956 255 0 0
0.06820864686998418 0.03069203350615856 0.20076240782178856 255 0 0
0.04903113331106474 0.03150802828707478 0.20241555817001508 255 0 0
0.06430760265947606 0.06635918415224863 0.2061060912999275 244 208 63
0.07106599455216596 0.03698148139788951 0.20289989192326374 255 0 0
0.07061729417420136 0.005834628555074606 0.1985915857151527 255 0 0
0.0684308659720228 0.022855084950111924 0.19108843359242308 0 255 0
0.07634610743862957 0.02895966312098337 0.2012826179314448 255 0 0
0.05706567454278353 -0.003705160001317917 0.1996301098386199 255 0 0
0.061211973120563395 0.05353534071550413 0.20277872943115705 244 208 63
0.0522834495356419 -0.005740170901295083 0.19945019208663115 255 0 0
0.030669959394489618 0.04953299107839612 0.20203689720974427 244 208 63
0.07127888753227118 0.0378939678692242 0.20145055610021384 255 0 0
0.03901733552038992 0.0790069595357355 0.2037031226357899 244 208 63
0.022660071926600158 0.042734419238370666 0.201323579987663 244 208 63
0.0669388546239005 0.06185660265075133 0.1930063513008715 0 0 255
0.07662486525304965 0.06000364009901624 0.1945427378799114 0 0 255
0.06390605236923029 0.018084490095403038 0.19112917287826986 0 255 0
-0.006561568978331768 0.01550749607587613 0.19850248822882643 255 0 0
0.0530957822170722 0.055450578532437705 0.2032056597668295 244 208 63
0.04039011790013109 0.07957286700068802 0.19427411401174688 0 0 255
0.04961962958680799 0.07337018218512992 0.19805041159969747 0 0 255
0.08642995808140759 0.03964250928631642 0.20219465983119736 255 0 0
0.05700291090412064 0.02283140286013033 0.1893609927853687 0 255 0
0.06891064705421922 0.018111417798992394 0.20150521163602542 255 0 0
0.06525982649560755 0.057166610113963935 0.19256221309940477 0 0 255
0.055648954986536166 0.057925520554176074 0.20310554940912567 244 208 63
0.06923111786319389 0.018278183452014127 0.20005244221584942 255 0 0
0.05526479105675828 0.04984586157412376 0.20021897471180466 244 208 63
0.039379895377447655 0.04610481666557667 0.20290190489867319 244 208 63
0.049919839456177985 0.06496426355606522 0.20151659553581228 244 208 63
0.03818818656500376 0.04263244006290243 0.20357619038999955 244 208 63
0.0607215420735472 0.03198347322773663 0.20157389911760934 255 0 0
0.056442557370599125 -0.00319671399209015 0.19333676645098546 255 0 0
0.07675028850982589 0.058870739322393714 0.20393925629880819 244 208 63
0.027692086175667402 0.07892946778392765 0.19722351895636903 0 0 255
0.04777691201570496 -0.0001833097429675204 0.18716922173222617 0 255 0
0.06259039535214117 0.056550678321612424 0.20360089957980212 244 208 63
0.04913861778961771 0.03149055485585927 0.2006389925682594 255 0 0
0.08594987097935562 0.057244525850094465 0.20448756187861744 244 208 63
0.07748979418829247 0.028066062130150345 0.19008869899841604 0 255 0
0.05802316872283557 0.05873295772952712 0.20400735112827037 244 208 63
0.07671747303123083 0.03306026410840229 0.1905297348256154 0 255 0
0.06644349266267513 0.00043244662345922474 0.19378890160807674 255 0 0
0.05867578170491335 0.030315485116946452 0.19005718459710813 0 255 0
0.05774257092360309 -0.003117218363748342 0.19975492137986217 255 0 0
0.001103380502059599 0.013713242971246792 0.19417292970496502 255 0 0
0.058938004123184916 0.05878832209645625 0.20349084765447872 244 208 63
0.06792613230695382 0.0668070179688964 0.20497354882447577 244 208 63
0.05885068987475271 0.030707065701802747 0.19009469970055745 0 255 0
0.04409528209413853 0.06336427451744485 0.20345232278126768 244 208 63
0.0553031727014223 0.05774534587201203 0.2033514284657646 244 208 63
0.026765101427166368 0.01660268490695948 0.18842205126827616 0 255 0
0.06842609105542546 0.06671968365848537 0.20573318678311117 244 208 63
0.04761079987649253 0.029422555767258402 0.19194918411803708 0 255 0
0.07105880485389289 0.0334399487921606 0.2010881107292839 255 0 0
0.0850674664167996 0.046507118958474356 0.1939576998432812 0 255 0
0.07284360118803553 0.03744658471136492 0.2014296879810693 255 0 0
0.06488133040966002 0.057364333102497236 0.20423577710697483 244 208 63
0.07195012275011889 0.013398343666997607 0.19502753962523628 255 0 0
0.06055967422999825 0.03546212277198547 0.19898702366328255 255 0 0
0.06385949467501953 0.03277587443209107 0.20093845527325133 255 0 0
0.07664431121252581 0.03247113075913163 0.1968071190782085 255 0 0
0.05925956457548266 0.021580331658442718 0.1998708697677527 255 0 0
0.04141937872898984 0.020467045937752 0.19528486669774628 255 0 0
0.077825193711654 0.058337215478270296 0.20368554885256474 244 208 63
0.04297545843225763 0.04487585472722474 0.20390161813706048 244 208 63
0.04443485932459883 0.0272821109757523 0.19593742251469373 255 0 0
0.07367345212805171 0.03750647269903085 0.19511398104160943 0 255 0
0.07023177988233278 0.036632442280999655 0.2034341560116517 255 0 0
0.04144577327151089 0.061584170525829166 0.20216120968617912 244 208 63
0.0676321639748063 0.02179027951533824 0.2005270644859225 255 0 0
0.06547822814678622 0.06671313648903765 0.20447779591700757 244 208 63
0.0781655526955087 0.026138936691692313 0.20193892738514935 255 0 0
0.05180181696061575 0.06878836855488994 0.2043930944775458 244 208 63
0.04785792694384128 0.07245195245352051 0.20638753709938 244 208 63
0.048450280560435106 -0.0006611591095784519 0.18713449481185554 0 255 0
0.04391511115580635 0.06286438919832588 0.20411550110743754 244 208 63
0.06477711463573876 0.05667367570459495 0.2047050571886205 244 208 63
0.06171295005018287 0.06804394737116523 0.2029967284729771 244 208 63
0.01928007625264245 0.07133324223357376 0.20528318555329494 244 208 63
0.02353444234261636 0.05422216795101431 0.20443937044724725 244 208 63
0.09248342407985648 0.05415464040130907 0.20322437689699174 255 0 0
0.06732180479488846 0.06831902387020883 0.1935942740365237 0 0 255
0.06096770736257652 0.033786608600018794 0.1932129590427286 0 255 0
0.05929287732483051 0.05871934738986094 0.20348904667991732 244 208 63
0.05479751411917476 0.057095730596249214 0.20086735726638624 244 208 63
0.05509645980624776 0.0522397200952535 0.20254337827281113 244 208 63
0.04260830684640992 0.02464883153115755 0.20029548697145202 255 0 0
0.0903935311993725 0.05601662125330462 0.19277170507327146 0 255 0
0.06478309722187503 0.056753906405684604 0.20311367330852462 244 208 63
0.04453792723580768 0.027167470690821233 0.19803884572663208 255 0 0
0.07499636798704593 0.06194254166944434 0.2057774494467157 244 208 63
0.044947167549430206 0.06428366011882636 0.20390116742530437 244 208 63
0.0652366390316557 0.029352004721758133 0.2006466600096301 255 0 0
-0.003420316959296062 0.016586468477896202 0.1999712473044013 255 0 0
0.00029131297634078703 0.026910065324409607 0.19218792261149054 0 0 255
0.07643159758730504 0.02779814697881966 0.20277756993152807 255 0 0
0.08844931199789946 0.04712359490958516 0.2014421769097728 255 0 0
0.048655650896138415 0.0309486545053324 0.2005418582864939 255 0 0
0.04942056848715879 0.07283688299449696 0.20644174866886483 244 208 63
0.04434986608536003 0.06361514386444697 0.20560972636628067 244 208 63
0.07721549971258207 0.028673537002999964 0.19014009695178075 0 255 0
0.07873597638770335 0.03249981614267569 0.20269766154561866 255 0 0
0.06359640462662747 0.03007653353108701 0.20275986774504756 255 0 0
0.0665437250175271 0.06313272335264183 0.2042441176046395 244 208 63
0.06056683337897846 0.03334663972909273 0.19457525071312992 0 255 0
0.07124370155343007 0.06817901927067849 0.20629343786058868 244 208 63
0.06524516466612501 0.06658491015724755 0.20560525125793586 244 208 63
0.06442398581235145 -0.002985195606523515 0.19978679041629677 255 0 0
0.04420253176583576 0.07604837355376176 0.20619693316484175 244 208 63
0.061261241082675943 0.03134126163224632 0.20248189069285616 255 0 0
0.03154428102550655 0.02025346328044115 0.2015372898350471 255 0 0
0.05554677011228409 0.05040291351903936 0.20027275597811312 244 208 63
0.08108381760686775 0.030709134942624398 0.20235217461801608 255 0 0
0.04394584800324087 0.06293992426383353 0.20447796448630623 244 208 63
0.0823125855474735 0.031844770777981785 0.20257654661218952 255 0 0
0.043312780668456265 0.05982525207767572 0.2051914910033105 244 208 63
0.05317458649654677 0.05349371484327473 0.20263258102913548 244 208 63
0.0642469986827907 0.06637481824184975 0.20424160121189844 244 208 63
0.06458381392685683 0.056072731259602944 0.20438196585823062 244 208 63
0.060225202214756496 0.01968614892465247 0.20077777628042312 255 0 0
0.06349550287861692 0.06263257452482197 0.2057596912031677 244 208 63
0.04964058669245098 0.04983609752536397 0.2028335908607815 244 208 63
0.056624259751015524 0.022824526402936623 0.1988528374417248 255 0 0
0.03588595902288155 0.04730085429566762 0.20190048742711267 244 208 63
0.07256076995503127 0.037796128774351866 0.19934721768164762 255 0 0
0.08473494947370408 0.03237698363144602 0.19056800651292805 0 255 0
0.056865143368231195 0.058354402595414405 0.20395875794534585 244 208 63
0.0720325847559665 0.01304490758305345 0.1949966743999403 255 0 0
0.09107978799516872 0.057743292097417756 0.2045965077477042 244 208 63
0.06718075852923983 0.05543351605179004 0.20302440937588107 244 208 63
-0.005816746801140004 0.021854681329858943 0.19908452274364866 244 208 63
0.09135424320064749 0.05754721079625831 0.2040493329401766 244 208 63
0.06933552062553518 0.02208146904785108 0.20210994855082035 255 0 0
0.06367403679029597 0.014966513237322291 0.2003948762492961 255 0 0
0.04894798554993107 -0.004645275217708696 0.19897452483842684 255 0 0
0.042137509631035186 0.008802380811268346 0.19992547878403996 255 0 0
0.052090359800138264 -0.005103689650781652 0.1994418989381444 255 0 0
0.07736087704070968 0.060982074239016595 0.20360976342410636 244 208 63
0.049701380610735445 0.06464565883239703 0.20570609694782158 244 208 63
0.02593336030274536 0.0764237809574142 0.19380976251030066 0 0 255
0.044366938180938 -0.0012233855449671621 0.19762751013099997 255 0 0
0.05266705327825438 0.05210233482518093 0.19405876054383653 0 0 255
0.06816245670621456 -2.9488262833957113e-05 0.19060291532552587 0 255 0
0.0032307476787283847 0.028819836956720978 0.20089160094406447 244 208 63
0.052528087643253965 0.06435310548278207 0.20497890106488162 244 208 63
0.062277589344266186 0.053302100436612584 0.20009064586186515 244 208 63
0.07687088940877518 0.06187897902264553 0.20579507755778473 244 208 63
0.04293420938320225 0.00615045386141249 0.20040663890127922 255 0 0
0.07772404276777413 0.061553992076784116 0.19311346994366957 0 0 255
0.06595566257590726 0.053639731752253686 0.20338016870698333 244 208 63
0.06872732351249229 0.002652395604305559 0.19085196099094748 0 255 0
0.07299029928475755 0.016130587487207096 0.19955023931540747 255 0 0
0.06205492251727958 -0.0018604602043211307 0.1999220761472681 255 0 0
0.04565658462432236 0.0644939384405975 0.20570531296456845 244 208 63
0.008830059831334157 0.013907382180831932 0.20061821026197127 255 0 0
0.0841160293967679 0.03406145147955133 0.19704375151519246 255 0 0
0.0698417764224474 0.06760856262762205 0.19778254663961797 0 0 255
0.04424723884511603 0.026584399902700007 0.19713841408153207 255 0 0
0.06886319159953441 0.023071523244300802 0.19269621584339466 0 255 0
0.06079066097359284 0.03180223927524576 0.2029439405212243 255 0 0
0.042821560047055354 0.055045546470621945 0.20481738273214958 244 208 63
-0.0070171510850952565 0.019382597244049636 0.19884648752244505 244 208 63
0.06200481847202206 0.0645390327593154 0.2055578803636016 244 208 63
0.039704574605838074 0.007544223861674183 0.1983605619998165 255 0 0
0.07869311733799292 0.026962940669067074 0.19950133930523595 255 0 0
-0.0038914176031185424 0.024674635504413126 0.19936298410728837 244 208 63
0.06365319834274362 0.055120617746512314 0.2042844508801003 244 208 63
0.05839532019077177 0.03328424322649705 0.20304781690745 255 0 0
0.06955265691764463 0.01752389161606251 0.20176471334381146 255 0 0
0.048973965220885554 0.031709248323023874 0.20136720672818936 255 0 0
0.06491536670557321 0.057781535671810616 0.20454029572615792 244 208 63
0.06782065073278247 0.02173640333309893 0.19414560854510424 0 255 0
0.04529609652067048 0.0019233950215635717 0.19898884352036592 255 0 0
0.0704920572643148 0.03203832579905003 0.20202036489942982 255 0 0
0.03128561916994148 0.017064659727843923 0.20124631774602256 255 0 0
0.04464872188530963 0.02792286887415677 0.18966645038559615 0 255 0
0.06555994478997362 0.05912731258266006 0.19590861186226394 0 0 255
0.06100157264160188 0.06785038363982457 0.2040678539645853 244 208 63
0.07148929193408246 0.01838291187139821 0.20180304609378374 255 0 0
0.06430642786136553 0.06620507591660948 0.20502637395270323 244 208 63
0.06387993855203722 0.05238979441626682 0.20430731017188286 244 208 63
0.01636044412092015 0.03805181897476366 0.20082251822974695 244 208 63
0.02855753640431742 0.049208749911483704 0.19138666639413476 0 0 255
0.010891326258372854 0.014386816000144185 0.19435570674330777 255 0 0
0.07120398342294189 0.03704843886742791 0.2035471324162189 255 0 0
0.03998156699135078 0.022904898402935282 0.2002830105801815 255 0 0
0.04830736228925515 0.07635093233719847 0.19408205580759177 0 0 255
0.03336447214337691 0.08073767602931764 0.2064849975815017 244 208 63
-0.0020199535819891094 0.013181701886394401 0.2004808144094789 255 0 0
0.0532292284818298 -0.003045565770172433 0.19810643509898443 255 0 0
0.0026270435198804676 0.0281653762426116 0.20082501985583925 244 208 63
0.07941668992330951 0.029408758494820723 0.2028535321996004 255 0 0
0.060785300642458635 0.032916180572192894 0.20298107178599845 255 0 0
0.06106704819449919 0.055960796546750756 0.1924011457681469 0 0 255
0.08475682247293047 0.05750114308543839 0.20556164467399732 244 208 63
0.06197366181104489 0.018593659630206868 0.18904054628469824 0 255 0
0.058979881689055845 0.022160165986563538 0.20098550270006113 255 0 0
0.05831191767167986 0.05597211615686626 0.20509406363080626 244 208 63
0.06096609807662148 0.05802451275551239 0.1973347053779394 0 0 255
0.06643814267231642 0.029338684183630122 0.20208149402664788 255 0 0
0.04867889643256518 0.0679458768874 0.19332823933511492 0 0 255
0.06920107929682681 0.06655450070084679 0.20618470780463155 244 208 63
0.05810012327064878 0.0574107859589449 0.19460549654964118 0 0 255
0.09252538301469544 0.054507284853499136 0.20378961600486833 255 0 0
0.09015196664099667 0.05035840147576119 0.19225811329999515 0 255 0
0.02016017603015474 0.055559024287518674 0.2024496758329146 244 208 63
0.04839330651676307 0.07591879940530874 0.20499404009644298 244 208 63
0.06373630490385591 0.03271684245626198 0.20270792150546196 255 0 0
0.04255890885007825 0.05561596693600168 0.20379978569095997 244 208 63
0.06424904926689734 0.061445417047815254 0.20512906320463128 244 208 63
0.06290901757009475 0.055664020936821164 0.19619619908651034 0 0 255
0.06013110907463123 0.019788284863374323 0.2011410842402351 255 0 0
0.07735764885085421 0.034805291014633956 0.2012476080471264 255 0 0
0.0706237226055734 0.032226476243768905 0.20274951628301618 255 0 0
0.056485905280780555 0.02292100027220645 0.2020255492533569 255 0 0
0.07298847832067142 0.016317633057698847 0.18897245179229688 0 255 0
0.05748589628495902 -0.003657319147987448 0.1996396644496571 255 0 0
0.062084864232540365 0.03568217947188403 0.1918502420253901 0 255 0
0.053522721399363045 0.05203842691281815 0.1936415631738103 0 0 255
0.045284184613045696 0.05642609379480393 0.20390685664956051 244 208 63
0.0706305221957189 0.021489085390397705 0.2010701585997499 255 0 0
0.07898073632920402 0.030973515126924644 0.20149717965879058 255 0 0
0.04242376377800689 0.00774747871833479 0.19983385539168125 255 0 0
0.07184528531936878 0.013790271341599113 0.1950615993326308 255 0 0
0.02207340300360021 0.05803580231524817 0.2032299137090522 244 208 63
0.07146488526176568 0.006902753350174491 0.19443534891164663 255 0 0
0.08740857341313885 0.048425393279714846 0.2026019191538 255 0 0
0.08629562069797743 0.039945932009311375 0.20293089755234334 255 0 0
0.0486116945387161 0.06741328068478648 0.20493978144316624 244 208 63
0.0721489635147153 0.009950561685433318 0.19471890035133874 255 0 0
0.04374346537698349 0.06039444931062414 0.20353521379477071 244 208 63
-0.005408836262275191 0.02251305410906367 0.19914901649625624 244 208 63
0.06790782918807389 0.017007846831222254 0.2013423818052445 255 0 0
0.08384763583742785 0.061110536548814536 0.19314977758125793 0 0 255
0.040624467877251685 0.006811622503219011 0.197208461039638 255 0 0
0.07212654039916923 0.03777039988022238 0.20144997073809034 255 0 0
0.0837312986249516 0.03404881623751933 0.20343259437211939 255 0 0
0.04508217361751193 0.056707949617037734 0.20499556907549796 244 208 63
0.057125465456826084 0.058499157531847784 0.20344216303368579 244 208 63
0.04707895160715292 0.054164633044844326 0.20479095535177647 244 208 63
0.059600314446965015 0.05849690721815498 0.20507150442645675 244 208 63
0.06833878223341913 0.02251218319987745 0.19422207054561075 255 0 0
0.06178264093264222 0.03571864280898351 0.19564864137803736 0 255 0
0.005243420853070106 0.03231018483719251 0.19273693584397134 0 0 255
0.06686491565860704 0.0009117129494144796 0.19916638357171274 255 0 0
0.05939872615156015 -0.005392708903869239 0.19903733545025146 255 0 0
-0.004162824339975078 0.015698824241099335 0.1879550075228559 0 255 0
0.06269160678483703 0.05604099373898008 0.19717722505380653 0 0 255
0.08415971023634856 0.0356988894067627 0.20198813351789932 255 0 0
0.06326224004382587 0.06777348502152465 0.19349444829213067 0 0 255
0.04289884814851694 0.0426128424488794 0.20369645577136478 244 208 63
0.053308076157097144 0.0545617066371779 0.19217818913296225 0 0 255
0.0684319866027548 0.037833146619132146 0.19507813011310943 0 255 0
0.043598601905218644 0.04469150939928755 0.2022940519232305 244 208 63
0.04636994122773589 0.025586243927060645 0.20060459118169222 255 0 0
0.06835468017088918 0.035239610084586995 0.20228259926387426 255 0 0
0.0047331578121904815 0.03206287295616264 0.18954252913737515 0 0 255
0.08978716459076601 0.05330692642700687 0.19674060646431274 0 255 0
-0.004481352629438432 0.018392463984727055 0.2003874449604193 244 208 63
0.01340177496125792 0.03951256493576335 0.2009174550991822 244 208 63
0.06469996513533963 0.06662840432484732 0.204155940675655 244 208 63
0.039449813456589516 0.042757303326669 0.2036031824497414 244 208 63
0.053239391786303665 0.049093466378268585 0.20227853856874223 244 208 63
0.0626340291464005 0.05209878119622715 0.2037326192483208 244 208 63
0.0576195289900748 -0.004971274222134572 0.1963570318999734 255 0 0
0.06094655863983526 0.06599284450558629 0.20567587798938566 244 208 63
0.063022803789515 0.05471429927886079 0.20244337476586088 244 208 63
0.06182046587863536 0.034856291876164576 0.20316904384383808 255 0 0
0.0009514710222884731 0.01603013606512532 0.1880486480958679 0 255 0
0.048967832361916104 -0.0012896827111693737 0.190249959573058 0 255 0
0.06601316669789957 0.02978025983109296 0.2027632551260609 255 0 0
0.04838881709922376 0.03209186796985839 0.2017497041891386 255 0 0
0.023664166261659687 0.054921144744722705 0.2045673815775906 244 208 63
0.0882877317157606 0.056210057081750836 0.20495625519934374 244 208 63
0.04618104740545525 0.030763680500119232 0.19627335328779263 255 0 0
0.042039363203537614 0.023090680114462022 0.2008583248918609 255 0 0
0.06238800581027217 0.052897580019806795 0.20322124634144484 244 208 63
0.06988046370683028 0.031199386039964583 0.2015817744192511 255 0 0
0.04843927031842501 0.03200913266508026 0.19641388541655252 255 0 0
0.07032104399898693 0.005042101405472427 0.20064797076793503 255 0 0
-0.004923550490259393 0.018085644263972928 0.1881609054683125 0 255 0
0.03798875736055702 0.07837879991215443 0.20686267070782643 244 208 63
0.009160555167831983 0.014379497060820354 0.2001953578896646 255 0 0
0.04800328625862034 0.07562598919298985 0.20456527722610285 244 208 63
0.06119087952989082 0.03315649335447265 0.19667635439985368 255 0 0
0.06594907521279528 0.05359204002725767 0.20390868483434857 244 208 63
0.04195123740293169 0.07967092508532958 0.20696533545387227 244 208 63
0.04875071607742222 0.029784570676206625 0.20181245847784773 255 0 0
0.07343033794281942 0.013319037664720014 0.20137029010137364 255 0 0
0.06284005597593484 0.017656459073804923 0.20133774651506428 255 0 0
0.009914275623692185 0.014435697456856127 0.19914401985251895 255 0 0
0.08056631538779904 0.030250215019430714 0.20273063079154516 255 0 0
0.06419594374847987 0.06631853748259355 0.20556813721259337 244 208 63
0.06075929830702065 0.06738898074608836 0.2047337307810246 244 208 63
0.060822104705695955 0.05409514158613511 0.20389018126426375 244 208 63
0.03976304477194028 0.04241929281937804 0.20150831336637723 244 208 63
0.0031951269879338523 0.032595723921314025 0.20123188179264218 244 208 63
0.07879277313266381 0.026341122544565575 0.20054392901570073 255 0 0
0.05256797871582952 0.06577747448734661 0.2037756854747804 244 208 63
0.027618451240383843 0.015905091995966673 0.20103265397009187 255 0 0
0.07627153635324203 0.034065459151844946 0.19378061269564403 0 255 0
0.02121590717432574 0.054638515439630664 0.2044480424567681 244 208 63
0.07789933096752467 0.05907171259543444 0.20080598607827635 244 208 63
0.048614415610178555 0.06960193931380856 0.20567021529631815 244 208 63
0.043567462644170364 0.044891389852928724 0.1943498927714652 0 0 255
0.06542447124891111 0.05323869170606223 0.2036038138548321 244 208 63
0.06950317105989708 0.06664095118797589 0.2044199455191253 244 208 63
0.06051231066472534 0.01682401007282283 0.1951941020330485 255 0 0
0.06778208395757504 0.03315927644563223 0.190427299761833 0 255 0
0.056410455391614656 0.057665534892938825 0.20515985242531123 244 208 63
-0.004414467473776218 0.014153296067057985 0.19840705046534166 255 0 0
0.06031850641746592 0.03239202889288342 0.20292795582727757 255 0 0
0.04896298632620974 0.03162976243212374 0.20224806342276733 255 0 0
0.06767482196168073 0.057320391911249324 0.2053324261713514 244 208 63
0.05471185337627901 0.05669004194559328 0.20505065566356656 244 208 63
0.04589551766071164 0.0012505350316474213 0.19044088830401715 0 255 0
0.07587437441948265 0.06045290815176252 0.2024882419832233 244 208 63
0.08019557407404797 0.029944586734509556 0.20291159166871897 255 0 0
0.055410500747005174 0.053530761544181536 0.20377180368823755 244 208 63
0.07676958544652437 0.026873394480081206 0.20163253921939342 255 0 0
0.07677974729127833 0.06365348754700269 0.20388579585197172 244 208 63
0.07112300695853586 0.037143091993783184 0.20163622863376204 255 0 0
0.06404964503386779 0.05331326525159134 0.2001137400361688 244 208 63
0.06711609083282626 0.0616103004379768 0.20571257081119165 244 208 63
0.06806057571517347 0.031487996406263416 0.1902799595054701 0 255 0
0.06196604115731285 0.057166173445655874 0.20418155994451298 244 208 63
0.07630749586258359 0.029587072149938984 0.2013387522078862 255 0 0
0.06854767863061322 0.017862302845379586 0.19965113186050634 255 0 0
0.08259564693116625 0.03216766983773159 0.2027157961315515 255 0 0
0.047816116493735475 0.07396463084863769 0.1938606002214286 0 0 255
0.05538820458709516 0.0489776987513485 0.20442646736861897 244 208 63
0.06305618770392403 0.0553537418451369 0.19617003473449562 0 0 255
0.042520096094469925 0.02435169799773596 0.20097810719733603 255 0 0
0.0740654042947777 0.03974722567925378 0.19110009129521602 0 255 0
0.05431975073591908 -0.0031710417882452324 0.198108704657584 255 0 0
0.06834754773217877 0.06682794109347026 0.20460004570932164 244 208 63
0.05756502883620387 -0.0033686164338156827 0.19650097169340838 255 0 0
0.07197596250395583 0.008632907129391486 0.20092930044025353 255 0 0
0.04195435717334248 0.012904407389207298 0.1999380864015815 255 0 0
0.06327060127340484 0.06718123979357363 0.2008278110485234 244 208 63
0.06075095926770697 0.016068615745609655 0.20146036956698776 255 0 0
0.08880719213514959 0.051166085574522915 0.19653520908477964 0 255 0
0.07920396715864815 0.029495737521279826 0.20101135106032564 255 0 0
0.06167644454798141 0.05375215216231745 0.20328949157622803 244 208 63
0.05936813151016004 0.021151308645440698 0.20143220739777162 255 0 0
0.03908372520722104 0.011730922889323377 0.19873061908627893 255 0 0
0.06000522877424925 0.05528145838100267 0.20363178530256548 244 208 63
0.04878091077395589 0.03187057272222568 0.19007418256969982 0 255 0
0.06284444755186634 0.01768825356092577 0.20098540238815174 255 0 0
-0.0021120513082658263 0.022312791597933573 0.20130362891930254 244 208 63
0.044583907037571965 0.057978000252108954 0.2040381678995284 244 208 63
0.06222849850831026 0.016685037924887142 0.18887149418769258 0 255 0
0.017712018347458537 0.0655430719430002 0.2043858894180119 244 208 63
0.02052801595949537 0.06864634909438307 0.20253776321966105 244 208 63
0.07291582198041272 0.03720042485441852 0.2035188626578332 255 0 0
0.08958557814375896 0.05376492667317393 0.20475179010216846 255 0 0
0.05600783256140523 0.05054749686055183 0.20404294970723466 244 208 63
0.06345672142373453 0.055184263249842755 0.20375485064686344 244 208 63
0.04015706373031457 0.04394822693115507 0.19105654758061985 0 0 255
0.044200279780102006 0.026244421860402142 0.20090602530380355 255 0 0
-0.00538401894576808 0.014516574736046391 0.19949354361715094 255 0 0
0.07167545263750243 0.007540995371388276 0.19449556646239347 255 0 0
0.055649761647412775 0.0258720461731662 0.20234474194849553 255 0 0
0.04406183118259378 0.04392202589145994 0.2016974951042032 244 208 63
0.08762223491289642 0.045164572945882865 0.2039512488552725 255 0 0
0.0024434873622623827 0.015261830224156723 0.1985925580398568 255 0 0
0.04381323720284651 0.04435023035687845 0.20386462933210225 244 208 63
0.06780327212385287 0.0017504234179764183 0.19075905243252683 0 255 0
0.06690007470055735 0.05630659196505619 0.20200223610951834 244 208 63
0.060513268531334256 0.03189094014678474 0.20108334173645512 255 0 0
0.055598946788367055 0.05078066644455017 0.19608652632698326 0 0 255
0.05797173476572696 0.018083418848570045 0.20060506372606038 255 0 0
0.010126581016060147 0.03487713486837196 0.2004583460290368 244 208 63
0.08266650097424484 0.032258580083880536 0.20272488271854425 255 0 0
0.06263151341028662 0.034685414686021446 0.20145072531596162 255 0 0
0.04009766365832109 0.042357568530536946 0.20257271054065212 244 208 63
0.06845036526819355 0.0331790002226794 0.19993459358790364 255 0 0
0.04362234593088269 0.06658568631697355 0.20373711878958678 244 208 63
0.06569553489643577 0.06664213333781745 0.20553989731410618 244 208 63
0.061194159592232344 0.06727599923296393 0.20292096497122084 244 208 63
0.05844650408454824 0.01734537520182045 0.20161017876483597 255 0 0
0.06713982522582744 0.06174204371963418 0.2041260565297527 244 208 63
0.03690523636242274 0.02074149053118348 0.1995165535080879 255 0 0
0.05339887706226638 0.05176056564362981 0.20374527543149665 244 208 63
0.055923448726608684 0.05094555992544786 0.2046107125342896 244 208 63
0.07767957426687881 0.03549167802486541 0.2018886677226936 255 0 0
0.02196255702383841 0.0411663031207824 0.1926892282909594 0 0 255
0.04351913322842777 0.00371595238977453 0.20013092646665895 255 0 0
0.07002861712884031 0.019252801959261268 0.18920042134970502 0 255 0
0.06366086215241472 0.014871130426921095 0.20145190141612876 255 0 0
0.045350414274725456 0.05630317322246986 0.2038965901410835 244 208 63
0.06634031165649497 0.06346750438023688 0.19314425411715289 0 0 255
0.05346218131916505 0.05146611306650172 0.20034271387570526 244 208 63
0.06249773098821664 0.017702967932017713 0.20169294088797254 255 0 0
0.041255830014028785 0.020013655240691347 0.19524191561633825 255 0 0
0.05181814996266847 0.06667206309578268 0.20591533681294538 244 208 63
0.055390134228300365 0.052297592003890746 0.19411032013352714 0 0 255
0.061796930572573856 0.06559296661717559 0.20594233670576143 244 208 63
0.07686159607567619 0.02669559941194534 0.20215054421675666 255 0 0
0.052419817422636926 0.06395701717551305 0.20387601342545572 244 208 63
0.049874505946543586 0.07326428128890589 0.19382305828311314 0 0 255
0.062123145035021136 0.03530108659700778 0.20256574187964346 255 0 0
0.021438026308918102 0.04119423052765063 0.1905747232378376 0 0 255
0.02152661324128933 0.05549581357514758 0.19186635973605118 0 0 255
0.03600308909326114 0.08005819988693245 0.1942632295961284 0 0 255
0.05500280528689849 -0.0029401164272974886 0.19017624853403997 0 255 0
0.08599293889196283 0.03960743453020993 0.19756759812747654 255 0 0
0.08135514848903433 0.031051382803289673 0.20100090605256882 255 0 0
0.049413106850161995 0.07409898979708014 0.19600311652443117 0 0 255
0.06792519122838155 0.06680020467202698 0.20504905327050532 244 208 63
0.049205959580108774 0.030915762266406258 0.20129849645458375 255 0 0
0.06309000066285372 0.018295269464361236 0.18902753435941902 0 255 0
0.014839089429756619 0.040099959993686936 0.20098837440312756 244 208 63
0.07229917256500004 0.06513648952200189 0.20431903640376717 244 208 63
0.05175399745023884 -0.002760114973774659 0.19864670801496342 255 0 0
0.020239785909617225 0.057871094918945716 0.19523038936037393 0 0 255
0.07163012081711481 0.015041609642618359 0.19095086427177244 0 255 0
0.03140818184689176 0.0195643557905157 0.2014100898208646 255 0 0
0.06561064475216499 0.05489993441688037 0.19236204757695308 0 0 255
0.05353001102634258 0.05195719207433484 0.19490061306110915 0 0 255
0.048877656168157854 0.03169542317606069 0.202608185505632 255 0 0
0.04421593277350368 0.02635774766983236 0.19965015716450701 255 0 0
0.06070506863104086 0.06715729906593061 0.20613320925615977 244 208 63
0.05255734193239561 0.06460530927586 0.2058013729687106 244 208 63
0.08968522917988962 0.05305505847862641 0.1967166081379833 0 255 0
0.06324067063634926 0.03149627095850331 0.19022063144408066 0 255 0
0.043708331093907996 0.04475431537502025 0.19117354918722607 0 0 255
0.023762297858244942 0.07658122390526288 0.2054573494295315 244 208 63
0.08315736885574167 0.04463347089213443 0.20224897598991692 255 0 0
0.06351618084099125 0.03295150563571244 0.20308161746328618 255 0 0
0.0886452180514051 0.05151422021077039 0.20400407061394926 255 0 0
0.06131642423443695 0.03586066501284168 0.2033167138530174 255 0 0
0.06838931650434973 0.037752598635200585 0.197180813759722 255 0 0
0.09021156117442687 0.05454100009411977 0.19685725523464292 0 255 0
0.047570618979717046 -0.0005053388525463054 0.19879803117340653 255 0 0
0.060811734525135816 0.03297944295441047 0.2022836129676262 255 0 0
0.05830591179596459 0.05666355240186397 0.2029825739896936 244 208 63
0.04265344294632281 0.02392345958824895 0.18928068665174902 0 255 0
0.06344500776493907 0.016600542807368723 0.18887903202823908 0 255 0
0.0420551314027251 0.009280684664385846 0.19925708424943958 255 0 0
0.0664459663186295 0.06680546612014236 0.2044220619411594 244 208 63
0.08923137273762788 0.05229497627808139 0.19242138988157553 0 255 0
0.011413643745457731 0.03714369130013059 0.19008427188276603 0 0 255
0.05658254376584289 0.05824322069398998 0.20394520293256088 244 208 63
0.09162414476305446 0.05730954084702188 0.20349835578254483 244 208 63
0.08223514929808905 0.03181945547930762 0.2018272417241097 255 0 0
0.04939042923042069 0.0734052421472193 0.20227168585682823 244 208 63
0.047415316507297633 0.028808309204881803 0.19611229017747622 255 0 0
0.06620069601352625 0.05552985084307793 0.19242624369344832 0 0 255
0.04981321252499485 0.050155984396825254 0.20439998563864037 244 208 63
0.06229377868257006 0.035303759416244765 0.19181869840917548 0 255 0
0.061344550055409584 0.03554360920836504 0.20111464629928144 255 0 0
0.052410103035706326 0.06395987491429331 0.20360970294580863 244 208 63
0.06633040027945324 0.019466920408735204 0.19976829188407003 255 0 0
0.029281628224692643 0.04759478265308356 0.2039129671411056 244 208 63
0.05279592528938003 -0.003016730466006888 0.19863653826196245 255 0 0
0.05832417587203669 0.058751561277454116 0.20427922884953661 244 208 63
0.005924261413339118 0.014797074996345586 0.19859400386909534 255 0 0
0.06121238465725484 0.018501637040671592 0.20103845785585098 255 0 0
0.0644068873437782 0.06657393120732 0.20399511413331595 244 208 63
0.05742863112553603 0.055998414980480825 0.203309099021493 244 208 63
0.06016470030197409 0.015782983387128784 0.2014906085661071 255 0 0
0.007433879842304324 0.01297856215092658 0.19418553689298984 255 0 0
0.0632009405702261 0.03365789593394315 0.20136510235018834 255 0 0
0.048757303351013574 0.029832261753083924 0.20128394953288564 255 0 0
0.0313293631350305 0.046170168177431206 0.20280746113393328 244 208 63
0.03965613143131256 0.012711825221651697 0.20089453930032802 255 0 0
0.07063208238868283 0.034435588011313065 0.199019933532155 255 0 0
0.04397406756985147 0.02609174814904361 0.19709055387627739 255 0 0
0.049059882688957064 0.03143636432906307 0.2025870800550126 255 0 0
0.07728914673451188 0.062375044192238285 0.1931821387538183 0 0 255
0.059233093033868665 0.05875675296277659 0.20322522962875372 244 208 63
0.06487144940857445 0.05729279583053469 0.20502854780132643 244 208 63
0.05881193908780662 0.033872249655433936 0.2027508052993544 255 0 0
0.06424704553267632 0.06641481756115604 0.2051206875837891 244 208 63
0.05599083192886496 0.049752094380696776 0.20290515937948825 244 208 63
0.08957930172471877 0.05371820378059015 0.20528039028765926 255 0 0
0.044005420246043224 0.059293591039978555 0.2052154691470827 244 208 63
0.049364471893543316 0.07418569093475641 0.20662608258597542 244 208 63
0.06095057224317309 0.018907711069122413 0.19222186384337003 0 255 0
0.043110575069694484 0.0653719692988151 0.205689490017931 244 208 63
0.0748290073965367 0.06265294878525293 0.20267373778104464 244 208 63
0.04267312804695274 0.05547245329060778 0.2032553572696541 244 208 63
0.08416616045580994 0.036266298354646447 0.2036381134366719 255 0 0
0.07443071489316731 0.03696755115306289 0.19401954507199914 0 255 0
0.07203836253460935 0.06598315409589446 0.20399470681365073 244 208 63
0.09169341581420565 0.05344205018269263 0.19888704281499925 255 0 0
0.05330051325615459 0.05122492716636312 0.20242942190662042 244 208 63
0.05875654386522408 0.05610830530738316 0.2029803019284255 244 208 63
0.061450882003703765 0.01793938739285431 0.19847217546674162 255 0 0
0.05577604168864694 0.02737755582415632 0.20194927405679997 255 0 0
0.05642871427953608 0.028555006510931458 0.18987031705325497 0 255 0
0.06407655477041165 0.03250126060832166 0.20198217668943336 255 0 0
0.07328030216985544 0.037377663104494134 0.19931842474820738 255 0 0
0.04157709507325716 0.06297086530907561 0.20228797768280135 244 208 63
0.06338947202339448 0.017768252008869858 0.19957835370943908 255 0 0
0.059949654457084285 0.035138170974991396 0.19472922072392837 0 255 0
0.05869465410409162 0.017163785002487667 0.2005310890821894 255 0 0
0.08350246098500491 0.04492421109469544 0.20307886177539655 255 0 0
0.07437227207565784 0.038949784329965785 0.19736341509723673 255 0 0
0.02240291576461432 0.0520723470300605 0.2042945944577445 244 208 63
0.0828262329528224 0.03257072389484002 0.20142278957736126 255 0 0
0.06454038308864958 0.06651610980327868 0.20505735671703848 244 208 63
0.04286720888810881 0.04497327421432715 0.20337616522343635 244 208 63
0.07553590005584704 0.0382783854134888 0.2021134134132232 255 0 0
0.06770391444171941 0.0588597894398932 0.2049388048866668 244 208 63
0.03172130856347948 0.07748293557170322 0.2067037138237868 244 208 63
0.06419406168321175 0.06630491155402918 0.20571913873323872 244 208 63
0.04187729757900104 0.07738337134541057 0.206288417952414 244 208 63
0.04766675556707283 0.029080032190619422 0.19825042694360825 255 0 0
0.018262278802671686 0.040101389570333275 0.19043652637194344 0 0 255
0.07237815527998354 0.06839580173091112 0.20532466360624832 244 208 63
0.046566726651745396 0.00022498521823057643 0.193522439223677 255 0 0
0.04829822494559884 -0.004229406703555691 0.19793814936004778 255 0 0
0.01996315932141931 0.06496636582847516 0.20536438288702943 244 208 63
0.060662679496064284 0.03588311469881063 0.1948053292927513 0 255 0
0.05840940948644216 0.018321768265960506 0.20163450255358076 255 0 0
0.04226006138684389 0.02223744784665593 0.2017865582612878 255 0 0
0.06090067820868745 0.03294139606277254 0.20228128831282524 255 0 0
0.06556188829289379 0.05386175646173901 0.2049306731494116 244 208 63
0.08187055017464967 0.03147202342576055 0.19361637421390587 0 255 0
0.07022641136624411 0.031703481248433626 0.20092104220262358 255 0 0
-0.005850730721813631 0.014908396505296705 0.19845728706840995 255 0 0
0.04366074298373355 0.025414042156623122 0.19892493189460972 255 0 0
0.08654703160482122 0.0340967932173849 0.20240622220293292 255 0 0
0.0834374235942246 0.044209992483821965 0.2021720379646154 255 0 0
0.061001108738202484 0.03171122674040589 0.2018725543814056 255 0 0
0.08137892316377858 0.06084127571168236 0.20475515014116716 244 208 63
0.06421304266493359 0.06644903458759521 0.20420981324152956 244 208 63
0.07055879378991727 0.03208252630389122 0.2030909816532798 255 0 0
0.07968034854575214 0.02969461873733456 0.20139049573320475 255 0 0
0.07900003741650657 0.030873672162938893 0.2009555161438221 255 0 0
0.060813747764476005 0.06642536056035257 0.20429218730720156 244 208 63
0.043084511228583255 0.07993502666229618 0.20546791463883524 244 208 63
0.05738404070124614 0.056723484008155314 0.20086600500468949 244 208 63
0.08021797097583978 0.030106737638119916 0.20111464748957514 255 0 0
0.07558672900901608 0.03764244381306019 0.20042630827748795 255 0 0
-0.004175211342578436 0.024294463714039347 0.199325141362568 244 208 63
0.04992590688066945 0.07324017685528353 0.20548196342931474 244 208 63
0.061920782829166826 0.017937706871092318 0.20170693201809115 255 0 0
0.0766016138648711 0.02722114313426482 0.20166182544658837 255 0 0
0.04384825201940659 0.06260588771219121 0.20444660559546984 244 208 63
0.0686483182406909 -0.00040444251049134156 0.2000723214923343 255 0 0
0.029379315264846724 0.016140075982075824 0.20113912610733778 255 0 0
0.05754026860808541 0.05850988414904015 0.20504699925607803 244 208 63
0.0405497084908651 0.042496399333362425 0.2015250761135579 244 208 63
0.07697450226463183 0.028419414173791915 0.19961134652980864 255 0 0
0.0675873699951477 0.06729394548615128 0.20511275580931485 244 208 63
0.0653413546461276 0.05741647938220543 0.192585776717074 0 0 255
0.04175029663437865 0.002324351644590491 0.20004662665558048 255 0 0
0.06102264265599528 0.06774699593435224 0.20583511570461507 244 208 63
0.047350028895727855 0.06749876642912124 0.20546467205626756 244 208 63
0.06315744168616735 0.017520446545009793 0.19740039837854317 255 0 0
0.025447742328961506 0.07447675852360941 0.2052884559088044 244 208 63
0.06723391507717494 0.017306391634015508 0.19848713485715574 255 0 0
0.06090739928854374 0.05759954051532891 0.20204421594058422 244 208 63
0.06290695104121884 0.03285041302398166 0.20300158111994138 255 0 0
0.09183791510021545 0.053934161611577776 0.20209897736546814 255 0 0
0.0730205237567767 0.0063362724532300685 0.19440362065465178 255 0 0
0.07833500222828264 0.027152549787383767 0.1963482587087971 255 0 0
0.06137584341967858 0.036519595292535546 0.19065067831856342 0 255 0
0.04660449345603497 -0.0032563628503220615 0.19853774526636825 255 0 0
0.04461850128917377 0.057566779059572706 0.19656202597965408 0 0 255
0.048933641343591974 0.052384962864713974 0.20459015916060824 244 208 63
0.06422174029303915 0.06647845189719329 0.20406032157303966 244 208 63
0.017811718513074896 0.0666566753913064 0.20342182399552017 244 208 63
0.08251594823602422 0.0607444620068178 0.20476058570742772 244 208 63
0.06901351991696748 0.0029694503172950776 0.19088413818467476 0 255 0
0.06146377145144826 0.03279198187329355 0.19506399970517224 0 255 0
0.06840686149404997 0.033332921023436025 0.19678221386256542 255 0 0
0.06232592623442355 0.034356979932025335 0.199331415787243 255 0 0
0.047166575670707436 0.07389829102589204 0.2043989462141017 244 208 63
0.04850428007196372 -0.004435412697255323 0.1989879319156141 255 0 0
0.05587800266844691 0.049535200227247264 0.2023512866557884 244 208 63
0.037373661538979794 0.02428470423043016 0.19984212098118126 255 0 0
0.0695597567083974 0.03906163042762947 0.20153449545485735 255 0 0
0.06069725347597239 0.06670327158111174 0.20502634532238403 244 208 63
0.05235262416011949 0.06375001784273421 0.20545519515818397 244 208 63
0.07650603046738738 0.027561935040828656 0.20169138615539756 255 0 0
0.07919819013545959 0.029412382355064378 0.20189191978574778 255 0 0
0.07343817371896398 0.0646504245647581 0.20600237960261175 244 208 63
0.0676247514141412 0.03284740800407632 0.20099183996925712 255 0 0
0.0596078930171444 0.055494223102147244 0.20506709286639557 244 208 63
0.031331642488788315 0.08020837932351309 0.20587899658235748 244 208 63
0.08954086762525523 0.05371361480254295 0.20314790437832325 255 0 0
0.06032102236266615 0.03563799489412164 0.20221841775537347 255 0 0
0.05823383443707565 0.03310852920195734 0.20231941610310436 255 0 0
0.04177455742876985 0.022408859994195784 0.20114876324393083 255 0 0
0.07194963547435862 0.018701083858802304 0.19976922255862042 255 0 0
0.08418378459060626 0.0360090859114438 0.20201642478875173 255 0 0
0.043300470459900674 0.005334885264505523 0.19980471490044593 255 0 0
0.021842273365819648 0.014782173024399225 0.1881964161327364 0 255 0
0.058333304296560466 -0.0023984250345527383 0.18710090994693748 0 255 0
0.023488415170019497 0.0726536158217237 0.20616531653949308 244 208 63
0.0476218370654348 0.032083313546228884 0.2006735763739604 255 0 0
0.0591148903168937 0.033927452460806376 0.19672004857250833 255 0 0
0.04845076298149566 0.06476144976186465 0.20398795014620053 244 208 63
0.03762216706259619 0.07918275443298656 0.203701596628736 244 208 63
0.06337038145471346 0.05466307316990203 0.20117679527470866 244 208 63
0.06102881848385705 0.03367817569742085 0.19390742882901696 0 255 0
0.04905089526769029 0.03165110250125526 0.200830020435517 255 0 0
0.05999644571269214 0.05521787006056495 0.20433646631098382 244 208 63
0.0711597210523881 0.033926097718927246 0.20184376929323095 255 0 0
0.07678158486744695 0.03664260144921545 0.19507476726921835 0 255 0
0.0766230661138338 0.059161863285630084 0.20238107353607326 244 208 63
0.02572878252759691 0.01617757435388474 0.1883707739976723 0 255 0
0.0819443081852159 0.03157926046891932 0.20116246368951465 255 0 0
0.041474733941747256 0.058367916326892574 0.20296880405817475 244 208 63
0.04402891793964863 0.059202826432993884 0.19459182310223935 0 0 255
0.014968337394078341 0.040631440450767616 0.19044330128856407 0 0 255
0.05349564840222702 0.0516567727522451 0.19909404614835846 244 208 63
0.054192957586355256 0.04955615721960997 0.20228996038651628 244 208 63
0.02318700753043906 0.05574662183164625 0.20357012649131606 244 208 63
0.040453114351540635 0.005401123310050302 0.19870939923442738 255 0 0
0.01911512553286544 0.012957357271765611 0.20066067469123278 255 0 0
0.022100859990766518 0.05663402095506127 0.20463914089365465 244 208 63
0.08171891475858299 0.03136812234305357 0.2011406019351026 255 0 0
0.07393827429542803 0.03926617734750051 0.20324843987942362 255 0 0
0.024446554281065083 0.054489947727772034 0.19181198719377027 0 0 255
0.0902008024013913 0.054248782690877205 0.20316220652678052 255 0 0
0.023968678530410008 0.05403176051789064 0.2012618701849844 244 208 63
0.042043754733923536 0.023122474271838257 0.2005059844191535 255 0 0
-0.0016032714657208081 0.026491161260748287 0.20162369327763224 244 208 63
0.04367322538383464 0.06128564937737125 0.2043252896993668 244 208 63
0.06553396773875997 0.018487495023677022 0.1996699848055007 255 0 0
0.05882072219490931 0.03393583830561627 0.20204612063673094 255 0 0
0.08688232385171313 0.036052006758358734 0.2029420981888462 255 0 0
0.04196076307195134 0.07873246251252508 0.19738358490371993 0 0 255
0.06486339607233277 0.0669958038321651 0.2061071446347512 244 208 63
0.08266652305962731 0.04222473802504597 0.20380182977354205 255 0 0
0.07630162399416583 0.06423068809092224 0.19650300833642273 0 0 255
0.05109382148643071 -0.002643101643353428 0.1997148350297184 255 0 0
0.06117299756128482 0.015426612790420121 0.2000499573873587 255 0 0
0.06833437300477689 0.06673255763495034 0.20565707805855743 244 208 63
0.05786254047829272 0.019652062097258255 0.19858199747482627 255 0 0
0.04871967412824843 0.03155487641208447 0.19215541927623672 0 255 0
0.06322763609055261 0.06670229768820986 0.20352768912915628 244 208 63
0.012408462094766197 0.014432829085408052 0.1986419537182145 255 0 0
0.06051463335453935 0.03573769614447744 0.20294035982979672 255 0 0
0.06276031686350741 0.030101026831510898 0.20139391707139867 255 0 0
-0.0052225372416586 0.01432649076575788 0.2005442001288842 255 0 0
0.06865988686296667 0.033590952971225566 0.19997437843254862 255 0 0
0.07125621752212993 0.013331015536552283 0.2010523293939207 255 0 0
0.06477378366542681 0.06658209321432734 0.20483783447599707 244 208 63
0.07209181179669291 0.011428432636338838 0.2011830042878971 255 0 0
0.003442178279366957 0.01506092579643748 0.19911977113690066 255 0 0
0.06882984458319003 0.022522078086341366 0.198977674384113 255 0 0
0.06512171701306327 0.06510745262979972 0.2057368385179426 244 208 63
0.08534115178534839 0.03331787831548054 0.19066046568822498 0 255 0
0.06878534870082366 0.03380655625542045 0.20316112830418992 255 0 0
0.061651217026915894 0.06505142583189175 0.20488917775994206 244 208 63
0.05761453915666723 0.020173173211351647 0.19862592993399958 255 0 0
0.08631200336611732 0.03599453460569815 0.1972455575552445 255 0 0
0.030820810959153882 0.0777292123543881 0.2066513927346805 244 208 63
0.06617856271049856 0.06666467011015123 0.2057763368648021 244 208 63
0.0622580231276427 0.05316044335675287 0.2016604790198726 244 208 63
0.025540764420299213 0.01723540107490837 0.20012432530572252 255 0 0
0.04209954518206055 0.007833107915757514 0.19415329518385482 255 0 0
0.05777815581912085 -0.003017929036808059 0.19869852804430138 255 0 0
0.08969569996949861 0.047790953426088356 0.20261539082544372 255 0 0
0.04163116277364351 0.0026841987522452093 0.19901181688351965 255 0 0
0.016082290997407538 0.014498650369095633 0.20082527618392837 255 0 0
0.07209035694212274 0.012736353835658725 0.19496955149231832 255 0 0
0.06311064435974635 0.05214418782152769 0.20400910435799582 244 208 63
0.06950306979097805 0.0013376192496003525 0.18757725813145804 0 255 0
0.048380635004743114 0.03063826942695861 0.19417896807493176 0 255 0
0.06399314114494109 0.030914652507801885 0.19228801407743673 0 255 0
0.04727092909825917 0.07465379742269784 0.19602648086350252 0 0 255
