ply
format ascii 1.0
element vertex 725
property float x
property float y
property float z
end_header
0.005095757566880043 -0.003375412196833082 0.002141553908586502
0.004596595872324486 -0.003464692313478618 0.0023415498435497284
0.004100834866300215 -0.0035646989059037663 0.00244155153632164
0.0036060944739850333 -0.003664475955792743 0.0025415532290935516
0.0031120349621500255 -0.0037526076043985918 0.002741556614637375
0.0026196755076812336 -0.0038633423876767107 0.002741556614637375
0.00212731559889964 -0.003974077273132677 0.002741556614637375
0.0016361467070854648 -0.0040730520243541235 0.0028415508568286896
0.0011459985085701839 -0.0041717962605526395 0.002941552549600601
0.0006546592134976799 -0.004282301603472436 0.002941552549600601
0.00016331991842517588 -0.004392806946392231 0.002941552549600601
-0.00033125141667722903 -0.004515532417244493 0.0028415508568286896
-0.0008193586149307317 -0.004613817619459591 0.002941552549600601
-0.0013149499390621238 -0.004736772492353484 0.0028415508568286896
-0.0018067998817237738 -0.004847392683174751 0.0028415508568286896
-0.002298649370072622 -0.0049580127718181705 0.0028415508568286896
-0.0027904988584214704 -0.005068632860461589 0.0028415508568286896
-0.0032823490282395213 -0.005179253102371781 0.0028415508568286896
-0.003774198062275568 -0.005289873088837352 0.0028415508568286896
-0.004273360943697067 -0.005413630273171007 0.002741556614637375
-0.004765719716696656 -0.005524364903182353 0.002741556614637375
-0.005274747661842435 -0.00566183402480566 0.0025415532290935516
-0.005794660148639578 -0.005813244370810171 0.0022415556013584137
-0.006317634703720392 -0.005965343395512121 0.0019415506394580007
-0.006833804446109388 -0.006104418752910463 0.0017415547044947743
-0.007362390877272884 -0.00625777896976882 0.0014415570767596364
-0.007915808460022778 -0.006439710314087024 0.0009415560634806752
-0.008462932786295606 -0.006608733043358787 0.0005415567429736257
0.013109228748400452 -0.0012608298245633416 0.0002415516646578908
0.012584274893748078 -0.001356981808663236 0.00044155505020171404
0.012070770857971926 -0.0014615144447344495 0.0005415567429736257
0.011549389923548065 -0.0015568638108610377 0.000741552677936852
0.011030048444892583 -0.0016517525811976209 0.0009415560634806752
0.010512748148053872 -0.0017461841858909164 0.0011415519984439015
0.009990120647213586 -0.001830855259696903 0.0014415570767596364
0.009484270373606794 -0.0019336684249871212 0.001541551318950951
0.00898578837266547 -0.002045780208037647 0.001541551318950951
0.008481468474532013 -0.002148248227531391 0.0016415530117228627
0.00798349621255423 -0.0022602453670361416 0.0016415530117228627
0.005485307415939937 -0.0027892337377972342 0.0019415506394580007
0.004487157520219426 -0.002980852832734988 0.0022415556013584137
0.003991001373175978 -0.0030814857270985096 0.0023415498435497284
0.0034958654311302273 -0.0031818872616746524 0.00244155153632164
0.0030017500799928614 -0.003282060213429152 0.0025415532290935516
0.0025089406733141907 -0.003370982706051518 0.002741556614637375
0.002016580764532597 -0.003481717591507485 0.002741556614637375
0.0015255265162641973 -0.0035812020816924734 0.0028415508568286896
0.0010354931656503881 -0.003680456965480136 0.002941552549600601
0.0005441538705778843 -0.003790962308399931 0.002941552549600601
5.2814575505380276e-05 -0.003901467651319727 0.002941552549600601
-0.0004385251170908252 -0.00401197308364514 0.002941552549600601
-0.0009298639578505273 -0.004122478324387087 0.002941552549600601
-0.0014212032529230313 -0.0042329836673068826 0.002941552549600601
-0.0019125430023083372 -0.0043434891124045265 0.002941552549600601
-0.002403882297380841 -0.004453994455324322 0.002941552549600601
-0.002895221592453345 -0.004564499798244118 0.002941552549600601
-0.004376667287132882 -0.004908643132641273 0.0028415508568286896
-0.004876454551063699 -0.00503200522155716 0.002741556614637375
-0.005385711987656725 -0.005168453956627779 0.0025415532290935516
-0.005905968813802587 -0.005318333268490455 0.0022415556013584137
-0.006429287503876424 -0.005468902167676174 0.0019415506394580007
-0.006945686942068364 -0.005606956229896223 0.0017415547044947743
-0.007474617508224882 -0.005758786321238349 0.0014415570767596364
-0.00801760932786221 -0.005924736576695575 0.00104155030567199
-0.008553172860924007 -0.006078058464622656 0.000741552677936852
0.013005939253272822 -0.0007638163741530619 0.00014154997188597918
0.012480704946748456 -0.000861102479725817 0.0003415533574298024
0.011966806224265929 -0.0009662613155575557 0.00044155505020171404
0.01144514392934447 -0.0010627450075127007 0.0006415509851649404
0.010917248187500315 -0.0011502094205982298 0.0009415560634806752
0.010400177177753156 -0.0012456605032186107 0.0011415519984439015
0.00987789401626159 -0.001331862611166432 0.0014415570767596364
0.009372158386200572 -0.0014351855154201927 0.001541551318950951
0.008873676385259247 -0.0015472972984707186 0.001541551318950951
0.008369471335027263 -0.0016502759655536087 0.0016415530117228627
0.007866286466992273 -0.0017530242325636482 0.0017415547044947743
0.007368824852603636 -0.001864906524166927 0.0017415547044947743
0.004377489881022815 -0.002495993874064273 0.002141553908586502
0.0038809379798931012 -0.002597250344489357 0.0022415556013584137
0.0033854068740274703 -0.002698279140718401 0.0023415498435497284
0.002890896200315936 -0.002799076526071142 0.00244155153632164
0.0023974056860006903 -0.0028996444710655605 0.0025415532290935516
0.0019058459301655544 -0.002989357909882292 0.002741556614637375
0.0014149065297986265 -0.003089353047656427 0.0028415508568286896
0.000923057268606179 -0.003199973085210922 0.0028415508568286896
0.0004336485276580887 -0.0032996230133274275 0.002941552549600601
-5.769076741441532e-05 -0.003410128356247223 0.002941552549600601
-0.0005455686673886758 -0.00350943494304623 0.003041554242372513
-0.0010363973148720337 -0.0036198254380645535 0.003041554242372513
-0.001527226416668193 -0.0037302160352607255 0.003041554242372513
-0.0020230483452281325 -0.003852149817332023 0.002941552549600601
-0.002514387640300636 -0.003962655160251819 0.002941552549600601
-0.0030057269353731403 -0.004073160503171614 0.002941552549600601
-0.00350358920552636 -0.004195554125674085 0.0028415508568286896
-0.003995438239562406 -0.0043061741121396555 0.0028415508568286896
-0.004494830612431153 -0.004428910909920621 0.002741556614637375
-0.005505239834500707 -0.004687421099838143 0.00244155153632164
-0.006026351647584435 -0.004835884225460456 0.002141553908586502
-0.0065505237117006255 -0.004985035621068815 0.001841556397266686
-0.007077757639744789 -0.005134876604000216 0.001541551318950951
-0.007618657225937784 -0.0052982113469304945 0.0011415519984439015
-0.008152523212261623 -0.005449543922091154 0.0008415543707087636
0.012902420766612155 -0.00026578051558319004 4.155572969466448e-05
0.012367216215014446 -0.0003564981594683598 0.0003415533574298024
0.011853432136077695 -0.0004621667342636411 0.00044155505020171404
0.011331999332603485 -0.0005596708127714749 0.0006415509851649404
0.010804447930108048 -0.0006486662599988388 0.0009415560634806752
0.010287606411808134 -0.0007451377291719083 0.0011415519984439015
0.009765667589665288 -0.0008328708712615644 0.0014415570767596364
0.009260046603150045 -0.0009367035144788678 0.001541551318950951
0.008755446003187494 -0.001040306666248924 0.0016415530117228627
0.008257474195522512 -0.0011523037035758264 0.0016415530117228627
0.007754404175388994 -0.0012555626181750118 0.0017415547044947743
0.007252354996120963 -0.0013585919391491017 0.001841556397266686
0.004267592750378956 -0.0020101145288408686 0.0020415522158145905
0.0037706455038743706 -0.0021119963925787227 0.002141553908586502
0.0032752244354347106 -0.002223419752376431 0.002141553908586502
0.00277980822307196 -0.002324957276765566 0.0022415556013584137
0.0022854121473047926 -0.002426266320510905 0.0023415498435497284
0.001792036276535322 -0.002527344004468866 0.00244155153632164
0.0012996809398851364 -0.0026281931183774142 0.0025415532290935516
0.000810391675759026 -0.002718467909763416 0.002741556614637375
0.0003180319941338334 -0.002829202744130459 0.002741556614637375
-0.00017126169455708855 -0.002929364228461714 0.0028415508568286896
-0.0006595358029304163 -0.003029294493500132 0.002941552549600601
-0.0011508746436901184 -0.003139799734242079 0.002941552549600601
-0.0016422139387626223 -0.0032503050771618748 0.002941552549600601
-0.0021335536881479282 -0.0033608105222595187 0.002941552549600601
-0.0026305095338250315 -0.003482464761084427 0.0028415508568286896
-0.003128486174766217 -0.0036043466741053757 0.002741556614637375
-0.0036208460835478098 -0.003715081559561343 0.002741556614637375
-0.004113205765173003 -0.0038258163939283857 0.002741556614637375
-0.004613222520551068 -0.003948158096291584 0.0026415549218654633
-0.005114260571107423 -0.004070729494457726 0.0025415532290935516
-0.005642353206384357 -0.004229039871112717 0.002141553908586502
-0.00616533927997734 -0.004376317006211821 0.001841556397266686
-0.00669138742185399 -0.004524282820008365 0.001541551318950951
-0.007230705217836103 -0.004685117806938771 0.0011415519984439015
-0.007784823702065512 -0.004859166306351761 0.0006415509851649404
0.012788587695529426 0.00024035483881610197 4.155572969466448e-05
0.01225372727892474 0.00014810706941470087 0.0003415533574298024
0.011740057843533765 4.192875565587692e-05 0.00044155505020171404
0.011218854735862498 -5.659661803024898e-05 0.0006415509851649404
0.010691647468360084 -0.00014712219077384425 0.0009415560634806752
0.010175035645863114 -0.00024461495512520585 0.0011415519984439015
0.009653440958713289 -0.00033387822273109335 0.0014415570767596364
0.00914793482009952 -0.00043822151353754287 0.001541551318950951
0.008643448863682743 -0.0005423344042711416 0.0016415530117228627
0.008145477056017762 -0.000654331441598044 0.0016415530117228627
0.007642521883785715 -0.0007581010037863757 0.0017415547044947743
0.007145060269397078 -0.0008699832953896545 0.0017415547044947743
0.006643635472638367 -0.0009734077117815118 0.001841556397266686
0.003660123536408392 -0.0016257220541153995 0.0020415522158145905
0.0031645832183031537 -0.0017465204995546874 0.0019415506394580007
0.002668141763310805 -0.0018581733507996433 0.0019415506394580007
0.0021717003083184566 -0.001969826202044599 0.0019415506394580007
0.001676398716700777 -0.0020718744251118043 0.0020415522158145905
0.0011821172504909892 -0.0021736922608783893 0.002141553908586502
0.0006888564547793912 -0.0022752805413365725 0.0022415556013584137
0.00019661579566337668 -0.0023766403411509597 0.0023415498435497284
-0.00029460402258714723 -0.002477770547340252 0.00244155153632164
-0.0007848040561643807 -0.0025786704428623105 0.0025415532290935516
-0.0012739826469967254 -0.0026793415639792596 0.0026415549218654633
-0.0017668525218982624 -0.002790191144069926 0.0026415549218654633
-0.0022597228511126014 -0.002901040826338441 0.0026415549218654633
-0.0027525927260141385 -0.003011890406429107 0.0026415549218654633
-0.0032579468974618065 -0.0031442452703290473 0.00244155153632164
-0.00375858937548689 -0.003266191224093496 0.0023415498435497284
-0.004282039060894875 -0.0034213133704068728 0.0019415506394580007
-0.004786252210385165 -0.0035440623909699137 0.001841556397266686
-0.0052914864506980516 -0.003667042015961502 0.0017415547044947743
-0.00633292586699603 -0.003948011623909303 0.0012415536912158132
-0.0068525659044941425 -0.004083579470248552 0.00104155030567199
-0.007405216537788537 -0.004254617361716827 0.0005415567429736257
-0.00791963537005692 -0.004379661705463733 0.00044155505020171404
0.01268472436960583 0.0007399197099209052 -5.844596307724714e-05
0.012149699462011923 0.0006460264671875907 0.0002415516646578908
0.01162668375534553 0.0005460233369497915 0.00044155505020171404
0.01109727051947861 0.0004533921949984883 0.000741552677936852
0.010578847210967815 0.00035442096982554684 0.0009415560634806752
0.010047626183837512 0.00027019706059481775 0.0013415553839877248
0.009541214302216829 0.0001651145393775781 0.0014415570767596364
0.009035823011504532 6.0260600981982484e-05 0.001541551318950951
0.008531451902989227 -4.436293734076237e-05 0.0016415530117228627
0.008033480095324246 -0.00015635997466766476 0.0016415530117228627
0.007535507833346463 -0.00026835711417241555 0.0016415530117228627
0.0070375360256814835 -0.00038035415149931815 0.0016415530117228627
0.006535715679192203 -0.0004844030525783414 0.0017415547044947743
0.0030532064883119527 -0.0012588288504693493 0.001841556397266686
0.00255625484004326 -0.0013705964474379287 0.001841556397266686
0.0020593031917745673 -0.001482364044406508 0.001841556397266686
0.0015623515435058749 -0.0015941316413750875 0.001841556397266686
0.0010653998384480819 -0.0017058992511158981 0.001841556397266686
0.0005684481901793891 -0.0018176668480844775 0.001841556397266686
7.149676906709722e-05 -0.0019294343939641326 0.001841556397266686
-0.0004221596219764784 -0.002031649078538537 0.0019415506394580007
-0.0009186012473361275 -0.002143301968100186 0.0019415506394580007
-0.001415042475172075 -0.0022549547682562177 0.0019415506394580007
-0.0019114837030080223 -0.0023666075684122493 0.0019415506394580007
-0.002413262096956469 -0.002488272519301571 0.001841556397266686
-0.0029102135180687607 -0.0026000400651812264 0.001841556397266686
-0.003413521606021341 -0.00272205000860025 0.0017415547044947743
-0.003924717190600348 -0.0028546475975329646 0.001541551318950951
-0.004437953956996125 -0.002987702352108967 0.0013415553839877248
-0.004961118740422844 -0.0031318037975824305 0.00104155030567199
-0.005478946587637222 -0.003265892070118801 0.0008415543707087636
-0.006016631133069497 -0.0034220707714168823 0.00044155505020171404
-0.006539561617317226 -0.0035573076141707884 0.0002415516646578908
-0.007034748542588426 -0.0036598646164870087 0.0003415533574298024
-0.007539352862845883 -0.0037733533482210177 0.0003415533574298024
-0.008043958091728944 -0.0038868422843107236 0.0003415533574298024
0.011504474222282261 0.0010564071546188003 0.0005415567429736257
0.010975915768997509 0.0009623607350527373 0.0008415543707087636
0.010450417566745222 0.0008690025854727199 0.0011415519984439015
0.009935284909339738 0.0007696994480888314 0.0013415553839877248
0.009422193933665238 0.0006708554979551334 0.001541551318950951
0.00892371102409831 0.0005587435105489109 0.001541551318950951
0.008419454763484477 0.00045360932463701996 0.0016415530117228627
0.007921482955819495 0.00034161228731011757 0.0016415530117228627
0.00742826411264873 0.00022240795704163603 0.001541551318950951
0.006929782111707405 0.00011029617399111012 0.001541551318950951
0.006431299656453279 -1.815711237264232e-06 0.001541551318950951
0.005932817201199152 -0.00011392759646563858 0.001541551318950951
0.002941761926136478 -0.0007783587501149212 0.0016415530117228627
0.0019458178564937148 -0.0010023529269465744 0.0016415530117228627
0.0014478455945159325 -0.0011143500664513252 0.0016415530117228627
0.000949873502905451 -0.0012263471676393829 0.0016415530117228627
0.00045190146808406944 -0.0013383442560552094 0.0016415530117228627
-4.607033958091111e-05 -0.001450341293382112 0.0016415530117228627
-0.0005440426015586934 -0.0015623384328868628 0.0016415530117228627
-0.0010459351279510133 -0.0016834935298625626 0.001541551318950951
-0.0015444171288923382 -0.0017956053129130887 0.001541551318950951
-0.0020428995841464646 -0.001907717198141463 0.001541551318950951
-0.0025468329404332623 -0.0020293312907838884 0.0014415570767596364
-0.0030577480275388686 -0.0021607928388146873 0.0012415536912158132
-0.003577175402491613 -0.002302445119690203 0.0009415560634806752
-0.004099663051277524 -0.002444786630266291 0.0006415509851649404
-0.00461772150292045 -0.0025778538119800654 0.00044155505020171404
-0.0051298172929602585 -0.0027013046426482236 0.0003415533574298024
-0.00564293549115966 -0.002824984464849419 0.0002415516646578908
-0.006157072962930449 -0.002948894482767768 0.00014154997188597918
-0.006662697669740595 -0.0030626127059490246 0.00014154997188597918
-0.0071783654713833125 -0.003186865950234793 4.155572969466448e-05
-0.007673948900612094 -0.003290049561022931 0.00014154997188597918
-0.008168510330392675 -0.003393002363026825 0.0002415516646578908
0.01191326054728901 0.0016619224153292815 0.0003415533574298024
0.011391214675461954 0.001559992451261974 0.0005415567429736257
0.010863000472120304 0.0014644153950777777 0.0008415543707087636
0.010353246274699655 0.0013575091650646362 0.0009415560634806752
0.009837322824366581 0.00125695569536801 0.0011415519984439015
0.009316760950907216 0.0011631002339622216 0.0014415570767596364
0.008811599049464316 0.001057226363326739 0.001541551318950951
0.008313117048522991 0.0009451145802762132 0.001541551318950951
0.007814634593268865 0.0008330026950478388 0.001541551318950951
0.007316152138014739 0.0007208908098194643 0.001541551318950951
0.006817670137073414 0.0006087790267689384 0.001541551318950951
0.005823813319819522 0.0003775140216539324 0.0014415570767596364
0.005324820671289051 0.0002652873907019345 0.0014415570767596364
0.002829904691567241 -0.0003035758762819316 0.0013415553839877248
0.0023304020769168263 -0.0004159172018686291 0.0013415553839877248
0.0018318732673577582 -0.0005202987705174307 0.0014415570767596364
0.0013313966204595961 -0.0006405999041309481 0.0013415553839877248
0.0008318939490200814 -0.0007529412424898766 0.0013415553839877248
0.00033239133436966685 -0.000865282568076574 0.0013415553839877248
-0.00017012608563387287 -0.000986042684584586 0.0012415536912158132
-0.0006736638921901012 -0.001107032292539845 0.0011415519984439015
-0.0011822570954371794 -0.001236899156136956 0.0009415560634806752
-0.0016883454140623278 -0.001358462390532485 0.0008415543707087636
-0.00220051037916787 -0.0014891330434578425 0.0006415509851649404
-0.0027091506877504235 -0.0016112696997252838 0.0005415567429736257
-0.0032188108136227836 -0.0017336362563640263 0.00044155505020171404
-0.003729492461829838 -0.0018562325598946367 0.0003415533574298024
-0.0042411933608075755 -0.0019790580994278736 0.0002415516646578908
-0.0047539155549636055 -0.002102113334764054 0.00014154997188597918
-0.005267656420598967 -0.002225397198523287 4.155572969466448e-05
-0.005782419387860374 -0.002348911416753962 -5.844596307724714e-05
-0.0063073400935001285 -0.002482450917125606 -0.0002584493486210704
-0.006824652766382701 -0.002606538103128053 -0.0003584435908123851
-0.007322671961956779 -0.0027108055336328048 -0.0002584493486210704
-0.00779833410122103 -0.0027945627582926257 4.155572969466448e-05
-0.008293292137137042 -0.002898141714455636 0.00014154997188597918
0.011818004172824423 0.0021562182434436746 0.00014154997188597918
0.011286561369444633 0.0020583076203279874 0.00044155505020171404
0.010766276125384508 0.0019557011547439085 0.0006415509851649404
0.010255616287134795 0.0018480552400071753 0.000741552677936852
0.00973890183951843 0.0017462523466234149 0.0009415560634806752
0.009224229277988742 0.0016449077318642419 0.0011415519984439015
0.008711596376583133 0.0015440228042694704 0.0013415553839877248
0.00820100525908635 0.0014435966096120881 0.001541551318950951
0.007702522803832224 0.0013314847243837138 0.001541551318950951
0.007208564275937868 0.0012131860349442975 0.0014415570767596364
0.006713585463668672 0.0010946573997448323 0.0013415553839877248
0.005723560027002951 0.0008503806136222478 0.00104155030567199
0.005222526605367103 0.0007376949997757553 0.00104155030567199
0.004723465690396502 0.0006182487509222548 0.0009415560634806752
0.004221922075484308 0.0005054483913521388 0.0009415560634806752
0.0022151697126097138 4.69122373115951e-05 0.0008415543707087636
0.0017131159044211763 -6.600286798214456e-05 0.0008415543707087636
0.0012110618690762383 -0.00017891802436480832 0.0008415543707087636
0.000709008004098601 -0.00029183314243077895 0.0008415543707087636
0.0002069542030087013 -0.0004047482461279897 0.0008415543707087636
-0.00029822893619882126 -0.0005255718995743041 0.000741552677936852
-0.0008044324548603951 -0.000646625042871337 0.0006415509851649404
-0.0013158061159364424 -0.0007760452485338773 0.00044155505020171404
-0.001819900697230357 -0.0008894193367221114 0.00044155505020171404
-0.0023291653755499967 -0.0010111609543608858 0.0003415533574298024
-0.002833771058745859 -0.00112464999262844 0.0003415533574298024
-0.003344566771207334 -0.0012467359496159335 0.0002415516646578908
-0.003856382636678981 -0.0013690513753563001 0.00014154997188597918
-0.0043692188722887285 -0.0014915953044348366 4.155572969466448e-05
-0.004898518325535965 -0.0016322523540792367 -0.0002584493486210704
-0.005422647329622523 -0.0017645413177824467 -0.0004584452835842967
-0.005931334104716338 -0.0018789482196611413 -0.0004584452835842967
-0.006449272977359435 -0.0020026407189572136 -0.0005584469763562083
-0.006958469491416794 -0.0021171622643816838 -0.0005584469763562083
-0.007457393521372181 -0.002222168720941529 -0.0004584452835842967
-0.007944515748157122 -0.002317316612312226 -0.0002584493486210704
-0.008418302616108668 -0.0024022600774523607 4.155572969466448e-05
-0.008912636065159664 -0.0025062350376587423 0.00014154997188597918
0.010677073337509155 0.0024441542647022155 0.0003415533574298024
0.010164998119466835 0.0023356540216961153 0.00044155505020171404
0.0096539423793516 0.002227383065781566 0.0005415567429736257
0.009143908946016372 0.002119341552163536 0.0006415509851649404
0.008628954115363486 0.00201686240722011 0.0008415543707087636
0.008116041170797278 0.0019148415409012706 0.00104155030567199
0.007610088272071089 0.0018077182465786538 0.0011415519984439015
0.00710515621421039 0.0017008245458811325 0.0012415536912158132
0.006609042269664882 0.0015825766125107646 0.0011415519984439015
0.006115296177159493 0.001458193437446158 0.0009415560634806752
0.005616631266232263 0.001339371775457672 0.0008415543707087636
0.00511931402514816 0.0012141844717020968 0.0006415509851649404
0.004618098044863096 0.0010947895389576132 0.0005415567429736257
0.004114513202532724 0.0009815300943151544 0.0005415567429736257
0.0036117667453947383 0.0008617904665376796 0.00044155505020171404
0.003107671936944423 0.0007484163272605214 0.00044155505020171404
8.3103945177671e-05 6.817168477756676e-05 0.00044155505020171404
-0.00042099064321488114 -4.520240500719616e-05 0.00044155505020171404
-0.0009288399417419133 -0.0001660896943766037 0.0003415533574298024
-0.0014334451138358737 -0.0002795786176940786 0.0003415533574298024
-0.0019428241857441838 -0.00040080948556585864 0.0002415516646578908
-0.002447939607903589 -0.0005144131673791882 0.0002415516646578908
-0.002958850520401489 -0.0006359890332681856 0.00014154997188597918
-0.0034707810130043225 -0.0007577937319359321 4.155572969466448e-05
-0.003983732017138397 -0.0008798284274526514 -5.844596307724714e-05
-0.004512355423181664 -0.0010187249515079696 -0.0003584435908123851
-0.0050283674619952526 -0.001141447615964705 -0.0004584452835842967
-0.0055537471505295016 -0.0012729463432309717 -0.0006584486691281199
-0.006072310610037613 -0.0013962428384836731 -0.0007584429113194346
-0.006582527510647661 -0.0015109938753553904 -0.0007584429113194346
-0.00710262190211976 -0.0016346351642696128 -0.0008584446040913463
-0.0076029622204933575 -0.0017404961534545217 -0.0007584429113194346
-0.008080487203932544 -0.0018278888228811772 -0.0004584452835842967
-0.0085663594505397 -0.0019238280636701167 -0.0002584493486210704
-0.009038271955804141 -0.0020099579736462623 4.155572969466448e-05
-0.009531980113720218 -0.0021143278249147143 0.00014154997188597918
0.011126822475955355 0.0030325070723580404 -0.0003584435908123851
0.010579317199860319 0.00294003191497136 0.00014154997188597918
0.010066335432363328 0.002830791782885972 0.0002415516646578908
0.00955437496004463 0.0027217813466035275 0.0003415533574298024
0.00904976973116157 0.0026082924105138216 0.0003415533574298024
0.008539339384359105 0.0024996261092244 0.00044155505020171404
0.008035244803065191 0.002386252021036166 0.00044155505020171404
0.00752154096339354 0.0022829812767173907 0.0006415509851649404
0.00700987769247157 0.002180170423918714 0.0008415543707087636
0.00651160822909706 0.0020619737009301958 0.000741552677936852
0.006012318379169862 0.0019435474864944304 0.0006415509851649404
0.0055120075861993245 0.0018248921327463715 0.0005415567429736257
0.005010676860988901 0.0017060073897289133 0.00044155505020171404
0.004508325397090835 0.001586892598773558 0.0003415533574298024
0.0040037206225205756 0.0014734037648617003 0.0003415533574298024
0.0034998385787934766 0.0013539447367354744 0.0002415516646578908
0.0029947231566340715 0.0012403410549221448 0.0002415516646578908
0.001984492993784464 0.001013133844562258 0.0002415516646578908
0.0014793780259378607 0.0008995302649267769 0.0002415516646578908
0.0009760908393170179 0.0007924705059459338 0.0003415533574298024
-0.0005377235411828592 0.00045200399143812987 0.0003415533574298024
-0.001555692346000448 0.00021079082912974013 0.00014154997188597918
-0.0020613175071233954 9.707250377063521e-05 0.00014154997188597918
-0.0025723419045843624 -2.3992407995671258e-05 4.155572969466448e-05
-0.0030784781676092576 -0.0001378256834340963 4.155572969466448e-05
-0.003591034507837663 -0.0002592351389048185 -5.844596307724714e-05
-0.0041115410735865126 -0.00038856586911538795 -0.0002584493486210704
-0.0046340882874621875 -0.000518355076818726 -0.0004584452835842967
-0.005158676274443241 -0.0006486032674165585 -0.0006584486691281199
-0.005685305040915786 -0.0007793104125143353 -0.0008584446040913463
-0.006196032589114979 -0.0008941762972875245 -0.0008584446040913463
-0.006706760137314172 -0.0010090421820607137 -0.0008584446040913463
-0.007207495442541574 -0.0011155280364622923 -0.0007584429113194346
-0.007707212082675762 -0.0012217852340462684 -0.0006584486691281199
-0.00819489389586769 -0.0013192029812581964 -0.0004584452835842967
-0.008692058308859598 -0.001424885689377708 -0.0003584435908123851
-0.00916413712236447 -0.0015126614813971602 -5.844596307724714e-05
-0.010164375627919756 -0.0017314892405704604 4.155572969466448e-05
0.010504354077345535 0.0034263921113001903 -0.0003584435908123851
0.009974454843809316 0.0033240036595787227 -5.844596307724714e-05
0.00946107808307241 0.0032141386906712147 4.155572969466448e-05
0.008948721913243885 0.0031045023045853503 0.00014154997188597918
0.008443097206433738 0.0029907840814040938 0.00014154997188597918
0.00793227095776575 0.0028814927389368555 0.0002415516646578908
0.007422466004276055 0.0027724310922725612 0.0003415533574298024
0.006917860775392994 0.0026589421561828554 0.0003415533574298024
0.0064095864017323315 0.002550224746689432 0.00044155505020171404
0.0059054918204384165 0.002436850658501198 0.00044155505020171404
0.005404045997369416 0.002318475552269434 0.0003415533574298024
0.004899441222799157 0.0022049867183575765 0.0003415533574298024
0.004396464819901123 0.0020862673749549423 0.0002415516646578908
0.0038935864588033856 0.0019619742956941116 4.155572969466448e-05
0.0033874511044040935 0.0018481412246113833 4.155572969466448e-05
0.0028813152956919997 0.0017343080513508066 4.155572969466448e-05
0.002375179714136307 0.001620474929179154 4.155572969466448e-05
0.0018690443597370152 0.0015066418580964255 4.155572969466448e-05
0.001362908778181322 0.0013928087359247729 4.155572969466448e-05
0.0008587161550871105 0.0012850083835947348 0.00014154997188597918
-0.0006581600665400353 0.0009438532414784167 0.00014154997188597918
-0.0016739044839964344 0.0007098100539837814 4.155572969466448e-05
-0.002185043979315978 0.0005892547790031691 -5.844596307724714e-05
-0.0026972043155010124 0.00046846991039746147 -0.00015844765584915876
-0.0032164102243801744 0.0003405046614471309 -0.0003584435908123851
-0.00373112152694693 0.00021914606422330515 -0.0004584452835842967
-0.004246853443222776 9.755792446330813e-05 -0.0005584469763562083
-0.004763605518894909 -2.4259655655012087e-05 -0.0006584486691281199
-0.0052894434860537454 -0.0001537164968346013 -0.0008584446040913463
-0.005800171034252939 -0.0002685823816077905 -0.0008584446040913463
-0.006301812793143276 -0.0003758085510069089 -0.0007584429113194346
-0.007291928271134436 -0.0005817020956607858 -0.0004584452835842967
-0.0077899974163298065 -0.0006881242841481924 -0.0003584435908123851
-0.00829817445246008 -0.0008024165424811119 -0.0003584435908123851
-0.008783077068583596 -0.0009002817084739571 -0.00015844765584915876
-0.009290232809535576 -0.001014344271003933 -0.00015844765584915876
0.011536267978785035 0.004116449985741004 -0.0018584466306492686
0.010955265357254999 0.004026262324847692 -0.0010584479896351695
0.010412972028548673 0.003924539101414055 -0.0006584486691281199
0.009889011647852032 0.0038168180715730643 -0.0004584452835842967
0.008853321194909544 0.0035990664232526362 -0.00015844765584915876
0.00834056902103765 0.003488805450301758 -5.844596307724714e-05
0.0078288380401662 0.003378774627466625 4.155572969466448e-05
0.007322702685766908 0.0032649415563838964 4.155572969466448e-05
0.006812501932589538 0.0031552544142289837 0.00014154997188597918
0.006306876771466591 0.003041536088869879 0.00014154997188597918
0.005801251610343642 0.0029278177635107742 0.00014154997188597918
0.005295625994907893 0.002814099335973821 0.00014154997188597918
0.004790000833784946 0.002700381010614716 0.00014154997188597918
0.004284375218349196 0.002586662583077763 0.00014154997188597918
0.003780757274705716 0.002463274690333196 -5.844596307724714e-05
0.003274604637091743 0.002344377469089042 -0.00015844765584915876
0.0027674319422593303 0.002225250353173763 -0.0002584493486210704
0.00225923853153998 0.002105894149035114 -0.0003584435908123851
0.0017520993923334774 0.001996895583399792 -0.0002584493486210704
0.0012459807646582164 0.0018881270146134425 -0.00015844765584915876
0.0007408823985570914 0.0017795874318726145 -5.844596307724714e-05
0.000234236566935954 0.0016656395512051074 -5.844596307724714e-05
-0.0002693310872589478 0.0015574447126334048 4.155572969466448e-05
-0.0007754664487568773 0.0014436116399541476 4.155572969466448e-05
-0.0012816018031561694 0.0013297785688714191 4.155572969466448e-05
-0.0017923467027594956 0.0012098480413073093 -5.844596307724714e-05
-0.002309230125900731 0.0010834766575706803 -0.0002584493486210704
-0.0028281543221473438 0.0009566462909395569 -0.0004584452835842967
-0.0033491206544377394 0.0008293566348803941 -0.0006584486691281199
-0.0038654773847350003 0.0007081644480748436 -0.0007584429113194346
-0.004382854274428549 0.0005867428209109702 -0.0008584446040913463
-0.004893581822627742 0.0004718769361377809 -0.0008584446040913463
-0.005404309370826935 0.0003570110513645917 -0.0008584446040913463
-0.006887937215297691 4.8635951310922714e-05 -0.0003584435908123851
-0.007365449771599103 -4.357840336288067e-05 -5.844596307724714e-05
-0.007872095773587542 -0.00015752632234708114 -5.844596307724714e-05
-0.00837874177557598 -0.00027147424133128136 -5.844596307724714e-05
-0.008885387777564419 -0.0003854221603154818 -5.844596307724714e-05
-0.00989867887291569 -0.0006133177939281859 -5.844596307724714e-05
0.01085623349648384 0.004532574401940711 -0.0012584439245983958
0.01032090041797323 0.004425747841877693 -0.0009584462968632579
0.009795638494582001 0.004316662086135294 -0.0007584429113194346
0.009272419263725207 0.004208035267685981 -0.0005584469763562083
0.008757231221330167 0.00409669092933129 -0.0004584452835842967
0.008243063565487818 0.003985576082423846 -0.0003584435908123851
0.007734887437983148 0.003871284028446623 -0.0003584435908123851
0.0072267104018528755 0.0037569917701137036 -0.0003584435908123851
0.006718534274348206 0.0036426997161364805 -0.0003584435908123851
0.0062103581468435365 0.003528407662159258 -0.0003584435908123851
0.005702181565026066 0.0034141155060041866 -0.0003584435908123851
0.005191585920786624 0.003303803072714353 -0.0002584493486210704
0.004682010458744176 0.00319372103949737 -0.00015844765584915876
0.004174854263479393 0.003079658374789546 -0.00015844765584915876
0.003161299564564313 0.0028426549295845274 -0.0003584435908123851
0.0026529915102991874 0.0027238084644094214 -0.0004584452835842967
0.002144304735205372 0.0026094015625307268 -0.0004584452835842967
0.0016356181872679574 0.002494994711740956 -0.0004584452835842967
0.0011269316393305426 0.0023805878609511853 -0.0004584452835842967
0.0006204173369461598 0.002271194302075944 -0.0003584435908123851
0.00011224092549598926 0.0021569021842375658 -0.0003584435908123851
-0.00039593542206644357 0.0020426100807679477 -0.0003584435908123851
-0.0009004087540883898 0.0019336745945650684 -0.0002584493486210704
-0.0014122880816981214 0.0018140258818113558 -0.0003584435908123851
-0.0019204651178283943 0.0016997336234784363 -0.0003584435908123851
-0.0024391085100680617 0.0015740379348108235 -0.0005584469763562083
-0.0029540494062599136 0.001453700178452488 -0.0006584486691281199
-0.003476265162237443 0.0013272015196766152 -0.0008584446040913463
-0.003993757024811017 0.0012062900347001619 -0.0009584462968632579
-0.004504995447755756 0.0010913092509365766 -0.0009584462968632579
-0.005016232734918491 0.0009763287226176122 -0.0009584462968632579
-0.006972752571676007 0.0005770151996758606 -5.844596307724714e-05
-0.007469061997730051 0.0004699163053159862 4.155572969466448e-05
-0.007975197352129343 0.0003560832342332577 4.155572969466448e-05
-0.008481332706528635 0.00024225016315052923 4.155572969466448e-05
-0.008987468060927928 0.00012841709206780095 4.155572969466448e-05
-0.010025513752180895 -0.00011409501089534571 -0.00015844765584915876
-0.010559464055692193 -0.00024323236700175987 -0.0003584435908123851
0.010756742729451572 0.005040926911404506 -0.001458447310142219
0.010220733501559146 0.0049323402800652075 -0.0011584496824070811
0.009694681642777004 0.004822004623522168 -0.0009584462968632579
0.00917705697649999 0.004709576033938766 -0.0008584446040913463
0.008660453605401268 0.004597377140158307 -0.0007584429113194346
0.008144870671944159 0.004485407510668694 -0.0006584486691281199
0.00763516260167205 0.004370770912987056 -0.0006584486691281199
0.007125455440025546 0.0042561345196611144 -0.0006584486691281199
0.006619583731397071 0.004138372481782197 -0.0007584429113194346
0.006106041571045339 0.004026861835187079 -0.0006584486691281199
0.005599149475864175 0.003908870305860914 -0.0007584429113194346
0.005088932120941326 0.003794119166811348 -0.0007584429113194346
0.004580509497020054 0.0036757831731579114 -0.0008584446040913463
0.004069781948820861 0.003560917288384722 -0.0008584446040913463
0.0035590544006216685 0.003446051403611533 -0.0008584446040913463
0.0030480629284063334 0.0033351146617020097 -0.0007584429113194346
0.0025378455734834846 0.0032203635226524443 -0.0007584429113194346
0.0020268717560240897 0.0031014537492919654 -0.0008584446040913463
0.0015161444349812972 0.0029865879156077 -0.0008584446040913463
0.0010054168867821044 0.002871722030834511 -0.0008584446040913463
0.0004946893385829115 0.0027568561460613217 -0.0008584446040913463
-1.3240803607056802e-05 0.0026466079168102332 -0.0007584429113194346
-0.0005201504478169932 0.002536588965420487 -0.0006584486691281199
-0.0010260397636618025 0.002426799731037859 -0.0005584469763562083
-0.0015352366752428622 0.002312278096207772 -0.0005584469763562083
-0.0020492718795167243 0.0021926797974166274 -0.0006584486691281199
-0.0025696754962994447 0.0020676609396000347 -0.0008584446040913463
-0.003086261666955029 0.0019474889121907724 -0.0009584462968632579
-0.0035975003170561695 0.001832508077338263 -0.0009584462968632579
-0.004108737604218905 0.0017175275490192985 -0.0009584462968632579
-0.004619976027163644 0.0016025467652557132 -0.0009584462968632579
-0.00513121331432638 0.0014875662369367487 -0.0009584462968632579
-0.005634041012651003 0.0013784655798719755 -0.0008584446040913463
-0.006118008709105098 0.0012815834210536787 -0.0005584469763562083
-0.006598915245901128 0.0011853897365771235 -0.0002584493486210704
-0.007076759765502412 0.0010898849579544076 4.155572969466448e-05
-0.007582895119901704 0.0009760518868716791 4.155572969466448e-05
-0.008089030474300995 0.0008622188157889506 4.155572969466448e-05
-0.008595165828700287 0.0007483857447062221 4.155572969466448e-05
-0.009113283487810509 0.0006278692757703922 -5.844596307724714e-05
-0.009644912668522285 0.0005003254783441347 -0.0002584493486210704
-0.010165579073539143 0.0003792360188358291 -0.0003584435908123851
-0.010687267631270973 0.0002579164320124822 -0.0004584452835842967
0.009593264848362983 0.005329387956815125 -0.0011584496824070811
0.008045988242166381 0.004988300575685115 -0.0009584462968632579
0.007534750046378041 0.004873319843010455 -0.0009584462968632579
0.007027742802249376 0.004755838177626385 -0.0010584479896351695
0.006515994867497495 0.004640742801405948 -0.0010584479896351695
0.006004246932745613 0.0045256474251855125 -0.0010584479896351695
0.005492498997993731 0.004410552048965076 -0.0010584479896351695
0.0049807510632418495 0.004295456672744639 -0.0010584479896351695
0.004469003128489968 0.004180361296524203 -0.0010584479896351695
0.003958424985739695 0.004062076513252616 -0.0011584496824070811
0.003446166857711468 0.003946866391308556 -0.0011584496824070811
0.002933759324234323 0.0038350751678628936 -0.0010584479896351695
0.0024220113894824415 0.0037199797916424573 -0.0010584479896351695
0.0019102632275741589 0.0036048843643330967 -0.0010584479896351695
0.001398515519978678 0.0034897890392015843 -0.0010584479896351695
0.0008867675852267964 0.0033746936629811476 -0.0010584479896351695
0.0003750194233185138 0.0032595982356717875 -0.0010584479896351695
-0.0001338163597005195 0.0031486103216971074 -0.0009584462968632579
-0.0006416316958284451 0.0030378519127401697 -0.0008584446040913463
-0.0011523587932641551 0.0029229861293465645 -0.0008584446040913463
-0.001663086284674248 0.002808120257345606 -0.0008584446040913463
-0.0021738142871862427 0.0026932542703945687 -0.0008584446040913463
-0.002684541381072634 0.0025783884877992277 -0.0008584446040913463
-0.0032012422974518418 0.0024587266536663095 -0.0009584462968632579
-0.0037124809475529825 0.0023437458188138 -0.0009584462968632579
-0.004223718234715718 0.002228765290494836 -0.0009584462968632579
-0.004727451801025806 0.002118924897617547 -0.0008584446040913463
-0.005230164753626806 0.0020093140472764296 -0.0007584429113194346
-0.005731858177211795 0.0018999322568704618 -0.0006584486691281199
-0.006703547884129226 0.0016986550673869438 -0.00015844765584915876
-0.007200648256377636 0.0015903065221835341 -5.844596307724714e-05
-0.007696728242073356 0.001482187468427372 4.155572969466448e-05
-0.008202863596472649 0.0013683543973446435 4.155572969466448e-05
-0.008720585353717347 0.0012484629695866298 -5.844596307724714e-05
-0.009263518923595952 0.0011159964814513451 -0.0003584435908123851
-0.010292988615592531 0.000881009677472895 -0.0004584452835842967
-0.010828928885051235 0.0007535685279667385 -0.0006584486691281199
0.009491388917787695 0.0058388127446826615 -0.0013584456173703074
0.008971953020941476 0.0057249045584956745 -0.0012584439245983958
0.008459184699636906 0.005609579690827991 -0.0012584439245983958
0.007941280745558122 0.00549601604834542 -0.0011584496824070811
0.006916763580876066 0.0052655956001016035 -0.0011584496824070811
0.00640450545284784 0.0051503854781575435 -0.0011584496824070811
0.005892247324819614 0.005035175356213483 -0.0011584496824070811
0.005379989196791388 0.004919965234269423 -0.0011584496824070811
0.004867731068763162 0.004804755112325363 -0.0011584496824070811
0.004357038129200341 0.004686980749486522 -0.0012584439245983958
0.003845324348772029 0.004568976793022585 -0.0013584456173703074
0.0033325902328799526 0.004450743117955 -0.001458447310142219
0.0028187670924537988 0.004338097515151046 -0.0013584456173703074
0.0023054885778728837 0.004222657901759739 -0.0013584456173703074
0.0017931958412082862 0.004110356257881331 -0.0012584439245983958
0.0012804277470601167 0.003995031441302571 -0.0012584439245983958
0.0007696655902245524 0.0038830740345950346 -0.0011584496824070811
0.0002574072350399255 0.00376786386156205 -0.0011584496824070811
-0.0002518239955318286 0.003656251008587402 -0.0010584479896351695
-0.0007635719267343916 0.0035411556331652306 -0.0010584479896351695
-0.001271272524237331 0.00342988702933542 -0.0009584462968632579
-0.0017825097546109666 0.0033149065137886864 -0.0009584462968632579
-0.0022937479503993053 0.003199925781114025 -0.0009584462968632579
-0.002799407265845823 0.0030891160359984206 -0.0008584446040913463
-0.003310134814045016 0.0029742501512252315 -0.0008584446040913463
-0.003814264509377028 0.002863784666081202 -0.0007584429113194346
-0.0052961424173555045 0.00254799915459735 -0.00015844765584915876
-0.006301304120296035 0.0023248481349839724 -5.844596307724714e-05
-0.0068176105488370504 0.002205811262651726 -0.00015844765584915876
-0.007314596124272912 0.0020969522970155714 -5.844596307724714e-05
-0.007831922030741012 0.001977686137591775 -0.00015844765584915876
-0.008339077771692993 0.0018636235750617994 -0.00015844765584915876
-0.008869634952246354 0.0017384651172460393 -0.0003584435908123851
-0.009390021967283595 0.0016185102563241 -0.0004584452835842967
-0.010971047355563708 0.0012512620328941659 -0.0008584446040913463
0.009959855074087094 0.00645961182397705 -0.0023584477603435516
0.009415264568231187 0.006346651467013265 -0.001958448439836502
0.008892882257450524 0.006231544613208192 -0.0018584466306492686
0.008371520333222549 0.006116667250850367 -0.001758444937877357
0.007856201499849058 0.006000768756742414 -0.001758444937877357
0.0073363695989594685 0.005886235983690412 -0.0016584432451054454
0.00682156050454952 0.005770452133128234 -0.0016584432451054454
0.006299768978445255 0.005657858412013941 -0.001458447310142219
0.005785980270587996 0.00554230405289901 -0.001458447310142219
0.005269720733436268 0.005428574249955269 -0.0013584456173703074
0.004758402400560677 0.005311195232491301 -0.001458447310142219
0.004244613692703418 0.00519564087337637 -0.001458447310142219
0.0037317647799987937 0.00507791761874153 -0.0015584490029141307
0.0032178954807414806 0.004959964872659443 -0.0016584432451054454
0.0027030863863315327 0.0048441810220972645 -0.0016584432451054454
0.0021888676222851814 0.004730910202048019 -0.0015584490029141307
0.0016756694719479196 0.004617868924534943 -0.001458447310142219
0.0011634917081633465 0.004505057138469115 -0.0013584456173703074
0.0006523345580878629 0.004392474894939458 -0.0012584439245983958
0.00014219711309586543 0.0042801219895902765 -0.0011584496824070811
-0.00036691942284118915 0.004167999170495685 -0.0010584479896351695
-0.0008786673540437521 0.004052903795073513 -0.0010584479896351695
-0.001386253154734144 0.0039411247708109574 -0.0009584462968632579
-0.0018974903851077794 0.0038261442552642235 -0.0009584462968632579
-0.002403546056732621 0.0037147093667929546 -0.0008584446040913463
-0.0029142731506190123 0.0035998435841976136 -0.0008584446040913463
-0.003412594877385833 0.0034925283707257036 -0.0006584486691281199
-0.003908875933225125 0.0033856725944610895 -0.0004584452835842967
-0.00438866962142129 0.003287285455286743 -5.844596307724714e-05
-0.004879847960850087 0.0031815768352123357 0.00014154997188597918
-0.005377229438151471 0.0030720928283983645 0.0002415516646578908
-0.005891099191721585 0.0029541399801384293 0.00014154997188597918
-0.0064059875145931824 0.0028359580491426396 4.155572969466448e-05
-0.006921898041268674 0.00271754621798821 -5.844596307724714e-05
-0.007449113763558749 0.0025942110374562546 -0.0002584493486210704
-0.007978369452506446 0.0024704175326983034 -0.0004584452835842967
-0.008487055318974658 0.002356010835175305 -0.0004584452835842967
-0.009007558039450051 0.002236566190330415 -0.0005584469763562083
-0.00952908013567468 0.002116891804081172 -0.0006584486691281199
-0.010038787297321185 0.00200225541075523 -0.0006584486691281199
-0.010561839723417744 0.001882237798138568 -0.0007584429113194346
-0.011085913240336897 0.0017619895810933588 -0.0008584446040913463
0.009337762361365593 0.006860612304304303 -0.002558443695306778
0.00881243454527609 0.006744306987236842 -0.0024584494531154633
0.008293542996029786 0.006627604966529979 -0.0024584494531154633
0.007769745203278665 0.006511644238768341 -0.0023584477603435516
0.007251364301621506 0.0063950570659629495 -0.0023584477603435516
0.006732983399964345 0.0062784698931575575 -0.0023584477603435516
0.006214602043994383 0.006161882618174318 -0.0023584477603435516
0.005693355319802835 0.006046495164717996 -0.00225844606757164
0.005173128982163975 0.005931337202708922 -0.0021584443747997284
0.004653922576765002 0.005816408629969246 -0.0020584501326084137
0.004135737012231519 0.005701709650854667 -0.001958448439836502
0.003619397337992538 0.005585581563121618 -0.001958448439836502
0.0031030572094407553 0.005469453373210721 -0.001958448439836502
0.0025869124180126503 0.005355213376990636 -0.0018584466306492686
0.002071787910959385 0.005241203326530599 -0.001758444937877357
0.0015601151128329888 0.005131657632392202 -0.001458447310142219
0.0010497780117247496 0.005020568083911712 -0.0012584439245983958
0.0005370096904201792 0.004905243216244029 -0.0012584439245983958
2.6986991151805414e-05 0.004792380117618502 -0.0011584496824070811
-0.0004820146968837773 0.004679746650934765 -0.0010584479896351695
-0.0009937626280863403 0.004564651275512593 -0.0010584479896351695
-0.0015012337852309567 0.004452362512286494 -0.0009584462968632579
-0.0020124710156045923 0.004337381996739761 -0.0009584462968632579
-0.0025131146716186894 0.004228472565919196 -0.0007584429113194346
-0.0030117166459018054 0.004120022322348821 -0.0005584469763562083
-0.003514595605697202 0.004008766373611448 -0.0004584452835842967
-0.003995971436239204 0.00390787892194658 -5.844596307724714e-05
-0.004487941352242644 0.003800920270605464 0.00014154997188597918
-0.004985718049940349 0.003690811375880449 0.0002415516646578908
-0.005490833017786952 0.0035772077962449677 0.0002415516646578908
-0.0065198205856759105 0.0033420934035419316 4.155572969466448e-05
-0.0070655137948232895 0.0032119864739891687 -0.0003584435908123851
-0.007584089579291326 0.003093511209670814 -0.0004584452835842967
-0.00809277635438514 0.002979104307792119 -0.0004584452835842967
-0.008624303114333218 0.0028558715480238635 -0.0006584486691281199
-0.00913400936735412 0.0027412353590536183 -0.0006584486691281199
-0.009668596480512508 0.0026173147836121196 -0.0008584446040913463
-0.0101793240287117 0.0025024488988389304 -0.0008584446040913463
-0.010690051576910893 0.002387583014065741 -0.0008584446040913463
-0.011214750589320664 0.0022677305967082058 -0.0009584462968632579
-0.01225221782085716 0.0020325528573701857 -0.0010584479896351695
0.009246237233344862 0.007380468777196104 -0.0029584430158138275
0.008713170699091975 0.007263195233510939 -0.002758447080850601
0.008192749024329437 0.007146149077811053 -0.002758447080850601
0.007667535045337956 0.00702933336311155 -0.0026584453880786896
0.007147623109538961 0.006912401850957439 -0.0026584453880786896
0.006627711173739966 0.006795470338803329 -0.0026584453880786896
0.006107800146566574 0.006678539031004915 -0.0026584453880786896
0.0055878886650803814 0.006561607621028652 -0.0026584453880786896
0.005067977183594188 0.00644467621105239 -0.0026584453880786896
0.004548065702107995 0.006327744801076127 -0.0026584453880786896
0.00402693372364007 0.006211847154343461 -0.002558443695306778
0.0035075324354302204 0.0060950304900908225 -0.002558443695306778
0.0029877304720494833 0.005980740233042023 -0.0023584477603435516
0.002469969406752676 0.005866909464289444 -0.0021584443747997284
0.001955069265706339 0.005755029919167725 -0.0018584466306492686
0.001444560753718058 0.0056454463402494616 -0.001458447310142219
0.0009344530418792176 0.005533336859529085 -0.0012584439245983958
0.00042403512221452405 0.005419848872992515 -0.0011584496824070811
-8.53621837410802e-05 0.005306590428992116 -0.0010584479896351695
-0.0005971101752820621 0.005191495039999448 -0.0010584479896351695
-0.0011049766707029135 0.005078580885057109 -0.0009584462968632579
