ply
format ascii 1.0
element vertex 747
property float x
property float y
property float z
end_header
-0.003496713237836957 0.006867341697216034 -0.09769999980926514
-0.002988835098221898 0.006874370388686657 -0.09779999405145645
-0.002479911083355546 0.006881399545818567 -0.09789999574422836
-0.0014604126336053014 0.006902486551553011 -0.0982000008225441
-0.0009468637290410697 0.006902486551553011 -0.0982000008225441
-0.0004337559803389013 0.006909515243023634 -0.09829999506473541
8.03158909548074e-05 0.006909515243023634 -0.09829999506473541
0.0021387769374996424 0.006916544400155544 -0.09839999675750732
0.002653371775522828 0.006916544400155544 -0.09839999675750732
0.0031679668463766575 0.006916544400155544 -0.09839999675750732
0.003682561684399843 0.006916544400155544 -0.09839999675750732
0.004197156522423029 0.006916544400155544 -0.09839999675750732
0.0047165397554636 0.006923573557287455 -0.09849999845027924
0.0052369688637554646 0.006930602714419365 -0.09860000014305115
0.005764278117567301 0.006944660563021898 -0.09879999607801437
0.006280964706093073 0.006944660563021898 -0.09879999607801437
0.006804531440138817 0.006951689720153809 -0.09889999777078629
0.00732174189761281 0.006951689720153809 -0.09889999777078629
0.007846877910196781 0.006958718877285719 -0.0989999994635582
0.008373059332370758 0.006965748034417629 -0.09910000115633011
0.008900286629796028 0.006972776260226965 -0.09919999539852142
0.009447550401091576 0.006993863731622696 -0.09950000047683716
0.009987933561205864 0.007007921580225229 -0.09969999641180038
0.010509327054023743 0.007007921580225229 -0.09969999641180038
0.011041784659028053 0.00701495073735714 -0.0997999981045723
0.011563700623810291 0.00701495073735714 -0.0997999981045723
0.012073506601154804 0.007007921580225229 -0.09969999641180038
0.012569635175168514 0.006993863731622696 -0.09950000047683716
0.01305051427334547 0.006972776260226965 -0.09919999539852142
0.013555615209043026 0.006965748034417629 -0.09910000115633011
-0.0066429199650883675 0.00643448019400239 -0.09889999777078629
-0.006119516212493181 0.006427973974496126 -0.09879999607801437
-0.005597158335149288 0.0064214677549898624 -0.09869999438524246
-0.005075847264379263 0.006414962001144886 -0.09860000014305115
-0.004550956189632416 0.0064019495621323586 -0.09839999675750732
-0.004028157331049442 0.006388938054442406 -0.0982000008225441
-0.0035110292956233025 0.006382431834936142 -0.09809999912977219
-0.0029949473682790995 0.006375925615429878 -0.09799999743700027
-0.002484977478161454 0.006382431834936142 -0.09809999912977219
-0.0019759717397391796 0.006395443342626095 -0.09829999506473541
-0.0014633869286626577 0.0064019495621323586 -0.09839999675750732
-0.000950720626860857 0.006414962001144886 -0.09860000014305115
-0.00043552101124078035 0.0064214677549898624 -0.09869999438524246
8.064271241892129e-05 0.0064214677549898624 -0.09869999438524246
0.0005974111263640225 0.006427973974496126 -0.09879999607801437
0.0011140978895127773 0.006427973974496126 -0.09879999607801437
0.004214217886328697 0.006427973974496126 -0.09879999607801437
0.004730904474854469 0.006427973974496126 -0.09879999607801437
0.005252902861684561 0.00643448019400239 -0.09889999777078629
0.005770112853497267 0.00643448019400239 -0.09889999777078629
0.006293679121881723 0.006440985947847366 -0.0989999994635582
0.006811412051320076 0.006440985947847366 -0.0989999994635582
0.007336548529565334 0.00644749216735363 -0.09910000115633011
0.007862729951739311 0.0064539979211986065 -0.09919999539852142
0.008389957249164581 0.00646050414070487 -0.09929999709129333
0.008936175145208836 0.006480022333562374 -0.09959999471902847
0.009466540068387985 0.0064865280874073505 -0.09969999641180038
0.010007970035076141 0.006499540526419878 -0.09989999979734421
0.010540950112044811 0.006506046280264854 -0.09999999403953552
0.011063911952078342 0.006506046280264854 -0.09999999403953552
0.01159846130758524 0.006512552499771118 -0.10009999573230743
0.01210983656346798 0.006506046280264854 -0.09999999403953552
0.012594900093972683 0.0064865280874073505 -0.09969999641180038
0.0130899827927351 0.006473516579717398 -0.09950000047683716
0.013569293543696404 0.0064539979211986065 -0.09919999539852142
0.014073871076107025 0.00644749216735363 -0.09910000115633011
-0.007210807874798775 0.005959152244031429 -0.09959999471902847
-0.006656353827565908 0.0059292372316122055 -0.09910000115633011
-0.006131903734058142 0.005923253949731588 -0.0989999994635582
-0.005608500447124243 0.005917270667850971 -0.09889999777078629
-0.005091290920972824 0.005917270667850971 -0.09889999777078629
-0.004569455981254578 0.005911287385970354 -0.09879999607801437
-0.004052768927067518 0.005911287385970354 -0.09879999607801437
-0.0035289244260638952 0.005899321753531694 -0.09860000014305115
-0.003007171442732215 0.00588735518977046 -0.09839999675750732
-0.0024951098021119833 0.005893338471651077 -0.09849999845027924
-0.0019820022862404585 0.005899321753531694 -0.09860000014305115
-0.0014678484294563532 0.005905304569751024 -0.09869999438524246
-0.0009526489884592593 0.005911287385970354 -0.09879999607801437
-0.0004364035266917199 0.005917270667850971 -0.09889999777078629
8.080612315097824e-05 0.005917270667850971 -0.09889999777078629
0.0005986204487271607 0.005923253949731588 -0.0989999994635582
0.0011163532035425305 0.005923253949731588 -0.0989999994635582
0.0021518184803426266 0.005923253949731588 -0.0989999994635582
0.002669550944119692 0.005923253949731588 -0.0989999994635582
0.0031840642914175987 0.005917270667850971 -0.09889999777078629
0.004735692869871855 0.005917270667850971 -0.09889999777078629
0.005781781394034624 0.0059292372316122055 -0.09910000115633011
0.006300036795437336 0.0059292372316122055 -0.09910000115633011
0.006825171876698732 0.005935220047831535 -0.09919999539852142
0.0073439511470496655 0.005935220047831535 -0.09919999539852142
0.007870656438171864 0.005941202864050865 -0.09929999709129333
0.00840685609728098 0.0059531694278120995 -0.09950000047683716
0.008945147506892681 0.005965135525912046 -0.09969999641180038
0.00948553066700697 0.005977101624011993 -0.09989999979734421
0.010028005577623844 0.00598906772211194 -0.10009999573230743
0.01055149082094431 0.00598906772211194 -0.10009999573230743
0.011074976064264774 0.00598906772211194 -0.10009999573230743
0.011586873792111874 0.005983084440231323 -0.09999999403953552
0.012097727507352829 0.005977101624011993 -0.09989999979734421
0.012594900093972683 0.005965135525912046 -0.09969999641180038
0.013103137724101543 0.005959152244031429 -0.09959999471902847
0.013582971878349781 0.005941202864050865 -0.09929999709129333
0.01460685022175312 0.005935220047831535 -0.09919999539852142
-0.006689937319606543 0.00543828122317791 -0.09959999471902847
-0.00615048548206687 0.005421901121735573 -0.09929999709129333
-0.005625512916594744 0.005416440777480602 -0.09919999539852142
-0.005101586692035198 0.005410981364548206 -0.09910000115633011
-0.004583331290632486 0.005410981364548206 -0.09910000115633011
-0.004060973413288593 0.005405521020293236 -0.0989999994635582
-0.0035396614111959934 0.005400060676038265 -0.09889999777078629
-0.0030224518850445747 0.005400060676038265 -0.09889999777078629
-0.002502709161490202 0.005394600331783295 -0.09879999607801437
-0.00198602257296443 0.005394600331783295 -0.09879999607801437
-0.0014708228409290314 0.005400060676038265 -0.09889999777078629
-0.0009536132565699518 0.005400060676038265 -0.09889999777078629
-0.0004368447989691049 0.005405521020293236 -0.0989999994635582
8.105123561108485e-05 0.005416440777480602 -0.09919999539852142
0.0005998297710902989 0.005416440777480602 -0.09919999539852142
0.001118608401156962 0.005416440777480602 -0.09919999539852142
0.001637386973015964 0.005416440777480602 -0.09919999539852142
0.0021561654284596443 0.005416440777480602 -0.09919999539852142
0.0026749440003186464 0.005416440777480602 -0.09919999539852142
0.0031905032228678465 0.005410981364548206 -0.09910000115633011
0.004745270125567913 0.005410981364548206 -0.09910000115633011
0.0057876151986420155 0.005416440777480602 -0.09919999539852142
0.006312750745564699 0.005421901121735573 -0.09929999709129333
0.006838932633399963 0.005427361465990543 -0.09939999878406525
0.0073735639452934265 0.00543828122317791 -0.09959999471902847
0.007902360521256924 0.00544374156743288 -0.09969999641180038
0.008432202972471714 0.005449201911687851 -0.0997999981045723
0.008963091298937798 0.0054546622559428215 -0.09989999979734421
0.009504520334303379 0.005465582013130188 -0.10009999573230743
0.010028005577623844 0.005465582013130188 -0.10009999573230743
0.010540950112044811 0.005460122134536505 -0.09999999403953552
0.0115521140396595 0.00544374156743288 -0.09969999641180038
0.01206139661371708 0.00543828122317791 -0.09959999471902847
0.012582267634570599 0.00543828122317791 -0.09959999471902847
0.013076826930046082 0.005427361465990543 -0.09939999878406525
0.013596651144325733 0.005427361465990543 -0.09939999878406525
-0.007848119363188744 0.004991468507796526 -0.10109999775886536
-0.007261486258357763 0.004951971583068371 -0.10029999911785126
-0.006710088346153498 0.00493222288787365 -0.09989999979734421
-0.006175260525196791 0.004922348540276289 -0.09969999641180038
-0.005117030348628759 0.004907536786049604 -0.09939999878406525
-0.00459258072078228 0.004902599845081568 -0.09929999709129333
-0.004069176968187094 0.004897662438452244 -0.09919999539852142
-0.0035503986291587353 0.004897662438452244 -0.09919999539852142
-0.003028564155101776 0.004892725497484207 -0.09910000115633011
-0.0025103085208684206 0.004892725497484207 -0.09910000115633011
-0.0019920531194657087 0.004892725497484207 -0.09910000115633011
-0.0014737972524017096 0.004892725497484207 -0.09910000115633011
-0.0009555417345836759 0.004892725497484207 -0.09910000115633011
-0.0004372860712464899 0.004892725497484207 -0.09910000115633011
8.113293733913451e-05 0.004902599845081568 -0.09929999709129333
0.000601039151661098 0.004907536786049604 -0.09939999878406525
0.0011219913139939308 0.004912474192678928 -0.09950000047683716
0.0016439893515780568 0.004917411133646965 -0.09959999471902847
0.0021626863162964582 0.004912474192678928 -0.09950000047683716
0.002680337056517601 0.004907536786049604 -0.09939999878406525
0.0031969421543180943 0.004902599845081568 -0.09929999709129333
0.003716243663802743 0.004902599845081568 -0.09929999709129333
0.004231279715895653 0.004897662438452244 -0.09919999539852142
0.004750058054924011 0.004897662438452244 -0.09919999539852142
0.00526883639395237 0.004897662438452244 -0.09919999539852142
0.005793449934571981 0.004902599845081568 -0.09929999709129333
0.006325465627014637 0.004912474192678928 -0.09950000047683716
0.006859573069959879 0.004922348540276289 -0.09969999641180038
0.007395773660391569 0.00493222288787365 -0.09989999979734421
0.007926139049232006 0.004937159828841686 -0.09999999403953552
0.008457549847662449 0.004942096769809723 -0.10009999573230743
0.008981035090982914 0.004942096769809723 -0.10009999573230743
0.009504520334303379 0.004942096769809723 -0.10009999573230743
0.01101965643465519 0.004917411133646965 -0.09959999471902847
0.011505765840411186 0.004902599845081568 -0.09929999709129333
0.012025067582726479 0.004902599845081568 -0.09929999709129333
0.012544369325041771 0.004902599845081568 -0.09929999709129333
0.013063671067357063 0.004902599845081568 -0.09929999709129333
0.014102273620665073 0.004902599845081568 -0.09929999709129333
-0.00727596553042531 0.004436268471181393 -0.10049999505281448
-0.006730238441377878 0.004423025995492935 -0.10019999742507935
-0.006193841807544231 0.004414197523146868 -0.09999999403953552
-0.005659538321197033 0.004405369516462088 -0.0997999981045723
-0.0051324740052223206 0.00440095504745841 -0.09969999641180038
-0.004606455564498901 0.004396540578454733 -0.09959999471902847
-0.004085585009306669 0.004396540578454733 -0.09959999471902847
-0.0035647146869450808 0.004396540578454733 -0.09959999471902847
-0.0030438443645834923 0.004396540578454733 -0.09959999471902847
-0.002522974042221904 0.004396540578454733 -0.09959999471902847
-0.0020021037198603153 0.004396540578454733 -0.09959999471902847
-0.001479745958931744 0.00439212704077363 -0.09950000047683716
-0.0009584343642927706 0.004387712571769953 -0.09939999878406525
-0.00043860982987098396 0.004387712571769953 -0.09939999878406525
0.0006022484158165753 0.004396540578454733 -0.09959999471902847
0.0011242465116083622 0.00440095504745841 -0.09969999641180038
0.001645639888010919 0.00440095504745841 -0.09969999641180038
0.002167033264413476 0.00440095504745841 -0.09969999641180038
0.002688426524400711 0.00440095504745841 -0.09969999641180038
0.003206600435078144 0.004396540578454733 -0.09959999471902847
0.0037274707574397326 0.004396540578454733 -0.09959999471902847
0.004248341079801321 0.004396540578454733 -0.09959999471902847
0.004764423239976168 0.00439212704077363 -0.09950000047683716
0.005290081724524498 0.004396540578454733 -0.09959999471902847
0.005810952745378017 0.004396540578454733 -0.09959999471902847
0.006344537250697613 0.004405369516462088 -0.0997999981045723
0.00687333382666111 0.004409783519804478 -0.09989999979734421
0.007410579826682806 0.004418611992150545 -0.10009999573230743
0.007941991090774536 0.004423025995492935 -0.10019999742507935
0.008465999737381935 0.004423025995492935 -0.10019999742507935
0.00899000745266676 0.004423025995492935 -0.10019999742507935
0.010986465029418468 0.004383298102766275 -0.09929999709129333
0.011494179256260395 0.004378884099423885 -0.09919999539852142
0.012012957595288754 0.004378884099423885 -0.09919999539852142
0.012531735934317112 0.004378884099423885 -0.09919999539852142
0.01305051427334547 0.004378884099423885 -0.09919999539852142
0.014116475358605385 0.004387712571769953 -0.09939999878406525
0.014665748924016953 0.004396540578454733 -0.09959999471902847
-0.007290445268154144 0.0039184740744531155 -0.1006999984383583
-0.006743672303855419 0.003906800411641598 -0.10040000081062317
-0.006206229794770479 0.003899018047377467 -0.10019999742507935
-0.005676550790667534 0.00389512674883008 -0.10009999573230743
-0.005147917661815882 0.003891235450282693 -0.09999999403953552
-0.00462033087387681 0.0038873443845659494 -0.09989999979734421
-0.004097891040146351 0.0038873443845659494 -0.09989999979734421
-0.0035754519049078226 0.0038873443845659494 -0.09989999979734421
-0.0030560684390366077 0.003891235450282693 -0.09999999403953552
-0.0025305734016001225 0.0038873443845659494 -0.09989999979734421
-0.0020101440604776144 0.003891235450282693 -0.09999999403953552
-0.001487181754782796 0.003891235450282693 -0.09999999403953552
-0.0009651838336139917 0.00389512674883008 -0.10009999573230743
-0.0004416986193973571 0.00389512674883008 -0.10009999573230743
8.17865802673623e-05 0.00389512674883008 -0.10009999573230743
0.0006046671187505126 0.003891235450282693 -0.09999999403953552
0.001127629424445331 0.003891235450282693 -0.09999999403953552
0.0016522422665730119 0.00389512674883008 -0.10009999573230743
0.002175727393478155 0.00389512674883008 -0.10009999573230743
0.0026992126367986202 0.00389512674883008 -0.10009999573230743
0.0032226978801190853 0.00389512674883008 -0.10009999573230743
0.003742440603673458 0.003891235450282693 -0.09999999403953552
0.004261137451976538 0.0038873443845659494 -0.09989999979734421
0.004778788425028324 0.0038834530860185623 -0.0997999981045723
0.0053007048554718494 0.0038834530860185623 -0.0997999981045723
0.005828455556184053 0.0038873443845659494 -0.09989999979734421
0.0063636088743805885 0.00389512674883008 -0.10009999573230743
0.0068939742632210255 0.003899018047377467 -0.10019999742507935
0.007417983375489712 0.003899018047377467 -0.10019999742507935
0.007941991090774536 0.003899018047377467 -0.10019999742507935
0.008465999737381935 0.003899018047377467 -0.10019999742507935
0.00899000745266676 0.003899018047377467 -0.10019999742507935
0.009504520334303379 0.00389512674883008 -0.10009999573230743
0.009997951798141003 0.0038834530860185623 -0.0997999981045723
0.010488245636224747 0.0038717794232070446 -0.09950000047683716
0.010975400917232037 0.0038601055275648832 -0.09919999539852142
0.011494179256260395 0.0038601055275648832 -0.09919999539852142
0.012012957595288754 0.0038601055275648832 -0.09919999539852142
0.012531735934317112 0.0038601055275648832 -0.09919999539852142
0.013063671067357063 0.0038639968261122704 -0.09929999709129333
0.013610330410301685 0.0038717794232070446 -0.09950000047683716
0.014144877903163433 0.003875670488923788 -0.09959999471902847
0.014680473133921623 0.003879561787471175 -0.09969999641180038
-0.006218617781996727 0.0033817465882748365 -0.10040000081062317
-0.0046342057175934315 0.0033750098664313555 -0.10019999742507935
-0.0041101970709860325 0.0033750098664313555 -0.10019999742507935
-0.003589767962694168 0.003378378227353096 -0.10029999911785126
-0.00306523684412241 0.003378378227353096 -0.10029999911785126
-0.0025407057255506516 0.003378378227353096 -0.10029999911785126
-0.0020161746069788933 0.003378378227353096 -0.10029999911785126
-0.0014916433719918132 0.003378378227353096 -0.10029999911785126
-0.0009671123116277158 0.003378378227353096 -0.10029999911785126
-0.00044302240712568164 0.0033817465882748365 -0.10040000081062317
8.203170000342652e-05 0.0033817465882748365 -0.10040000081062317
0.0006064811605028808 0.003378378227353096 -0.10029999911785126
0.0011310123372823 0.003378378227353096 -0.10029999911785126
0.00165554357226938 0.003378378227353096 -0.10029999911785126
0.0021800745744258165 0.003378378227353096 -0.10029999911785126
0.002704605692997575 0.003378378227353096 -0.10029999911785126
0.0032291370443999767 0.003378378227353096 -0.10029999911785126
0.0037499256432056427 0.0033750098664313555 -0.10019999742507935
0.0042696683667600155 0.003371641505509615 -0.10009999573230743
0.004793153144419193 0.003371641505509615 -0.10009999573230743
0.005316638387739658 0.003371641505509615 -0.10009999573230743
0.005840124096721411 0.003371641505509615 -0.10009999573230743
0.0063636088743805885 0.003371641505509615 -0.10009999573230743
0.0068939742632210255 0.0033750098664313555 -0.10019999742507935
0.007417983375489712 0.0033750098664313555 -0.10019999742507935
0.007941991090774536 0.0033750098664313555 -0.10019999742507935
0.008457549847662449 0.003371641505509615 -0.10009999573230743
0.008972062729299068 0.0033682731445878744 -0.09999999403953552
0.00948553066700697 0.0033649050164967775 -0.09989999979734421
0.010477704927325249 0.003348063677549362 -0.09939999878406525
0.010986465029418468 0.0033446953166276217 -0.09929999709129333
0.011494179256260395 0.003341326955705881 -0.09919999539852142
0.012012957595288754 0.003341326955705881 -0.09919999539852142
0.012544369325041771 0.0033446953166276217 -0.09929999709129333
0.013103137724101543 0.0033548001665621996 -0.09959999471902847
0.014159080572426319 0.00335816852748394 -0.09969999641180038
0.014709923416376114 0.0033649050164967775 -0.09989999979734421
-0.0062310053035616875 0.0028623826801776886 -0.1005999967455864
-0.0056992340832948685 0.0028595374897122383 -0.10049999505281448
-0.005173657089471817 0.0028595374897122383 -0.10049999505281448
-0.004643455613404512 0.002856692299246788 -0.10040000081062317
-0.0035933470353484154 0.002856692299246788 -0.10040000081062317
-0.0030682929791510105 0.002856692299246788 -0.10040000081062317
-0.0025432389229536057 0.002856692299246788 -0.10040000081062317
-0.002018184866756201 0.002856692299246788 -0.10040000081062317
-0.0014931305777281523 0.002856692299246788 -0.10040000081062317
-0.000969040731433779 0.0028595374897122383 -0.10049999505281448
-0.0004439048934727907 0.0028623826801776886 -0.1005999967455864
8.227681246353313e-05 0.0028652281034737825 -0.1006999984383583
0.0006082951440475881 0.0028623826801776886 -0.1005999967455864
0.001134395133703947 0.0028623826801776886 -0.1005999967455864
0.0016588446451351047 0.0028595374897122383 -0.10049999505281448
0.0021844215225428343 0.0028595374897122383 -0.10049999505281448
0.002707302337512374 0.002856692299246788 -0.10040000081062317
0.0032323566265404224 0.002856692299246788 -0.10040000081062317
0.003753668162971735 0.002853846875950694 -0.10029999911785126
0.004278199281543493 0.002853846875950694 -0.10029999911785126
0.004797942005097866 0.0028510014526546 -0.10019999742507935
0.00532194972038269 0.0028510014526546 -0.10019999742507935
0.005845958366990089 0.0028510014526546 -0.10019999742507935
0.0063636088743805885 0.00284815626218915 -0.10009999573230743
0.006887094117701054 0.00284815626218915 -0.10009999573230743
0.007403176743537188 0.002845310838893056 -0.09999999403953552
0.00891823135316372 0.0028282389976084232 -0.09939999878406525
0.009947861544787884 0.002825393807142973 -0.09929999709129333
0.010477704927325249 0.0028282389976084232 -0.09939999878406525
0.010986465029418468 0.002825393807142973 -0.09929999709129333
0.011517353355884552 0.0028282389976084232 -0.09939999878406525
0.012037177570164204 0.0028282389976084232 -0.09939999878406525
0.012582267634570599 0.0028339296113699675 -0.09959999471902847
0.013116293586790562 0.0028367750346660614 -0.09969999641180038
0.014739371836185455 0.00284815626218915 -0.10009999573230743
-0.006824273616075516 0.002359506208449602 -0.10159999877214432
-0.006268168333917856 0.0023502169642597437 -0.10119999945163727
-0.005733259487897158 0.0023478944785892963 -0.10109999775886536
-0.00519939698278904 0.0023455722257494926 -0.10099999606609344
-0.004671205300837755 0.0023455722257494926 -0.10099999606609344
-0.004138910677284002 0.0023432497400790453 -0.10089999437332153
-0.0036112419329583645 0.0023432497400790453 -0.10089999437332153
-0.003077461151406169 0.002338605234399438 -0.1006999984383583
-0.0025508382823318243 0.002338605234399438 -0.1006999984383583
-0.002022205153480172 0.0023362827487289906 -0.1005999967455864
-0.0014975921949371696 0.002338605234399438 -0.1006999984383583
-0.0009709692094475031 0.002338605234399438 -0.1006999984383583
-0.0004447874380275607 0.0023409274872392416 -0.10080000013113022
8.244021591963246e-05 0.0023432497400790453 -0.10089999437332153
0.0006101091275922954 0.0023432497400790453 -0.10089999437332153
0.0011366504477337003 0.0023409274872392416 -0.10080000013113022
0.001662145834416151 0.002338605234399438 -0.1006999984383583
0.002186595229431987 0.0023362827487289906 -0.1005999967455864
0.0027099985163658857 0.002333960495889187 -0.10049999505281448
0.0032323566265404224 0.002331638243049383 -0.10040000081062317
0.003753668162971735 0.002329315757378936 -0.10029999911785126
0.004278199281543493 0.002329315757378936 -0.10029999911785126
0.004797942005097866 0.002326993504539132 -0.10019999742507935
0.00532194972038269 0.002326993504539132 -0.10019999742507935
0.005840124096721411 0.0023246710188686848 -0.10009999573230743
0.0063636088743805885 0.0023246710188686848 -0.10009999573230743
0.00687333382666111 0.0023200265131890774 -0.09989999979734421
0.007380967028439045 0.0023153815418481827 -0.09969999641180038
0.007870656438171864 0.0023060922976583242 -0.09929999709129333
0.008373059332370758 0.002301447559148073 -0.09910000115633011
0.008882342837750912 0.0022991253063082695 -0.0989999994635582
0.009409571066498756 0.002301447559148073 -0.09910000115633011
0.009937843307852745 0.002303769811987877 -0.09919999539852142
0.010467163287103176 0.0023060922976583242 -0.09929999709129333
0.011008593253791332 0.0023107370361685753 -0.09950000047683716
0.0115521140396595 0.0023153815418481827 -0.09969999641180038
0.012073506601154804 0.0023153815418481827 -0.09969999641180038
0.012607533484697342 0.00231770402751863 -0.0997999981045723
0.013142605312168598 0.0023200265131890774 -0.09989999979734421
0.01366504468023777 0.0023200265131890774 -0.09989999979734421
0.014201684854924679 0.0023223485331982374 -0.09999999403953552
0.014739371836185455 0.0023246710188686848 -0.10009999573230743
-0.006305331364274025 0.0018317754147574306 -0.10179999470710754
-0.005767285358160734 0.0018299760995432734 -0.10170000046491623
-0.005235432647168636 0.0018299760995432734 -0.10170000046491623
-0.004698954988270998 0.0018281766679137945 -0.10159999877214432
-0.004167625214904547 0.0018281766679137945 -0.10159999877214432
-0.0036362954415380955 0.0018281766679137945 -0.10159999877214432
-0.003104965668171644 0.0018281766679137945 -0.10159999877214432
-0.0025711029302328825 0.0018263773526996374 -0.1014999970793724
-0.0020382863003760576 0.0018245779210701585 -0.1013999953866005
-0.0015065153129398823 0.0018227786058560014 -0.10130000114440918
-0.0009757903171703219 0.0018209791742265224 -0.10119999945163727
-0.0004465524689294398 0.0018209791742265224 -0.10119999945163727
8.268533565569669e-05 0.0018209791742265224 -0.10119999945163727
0.0006113184499554336 0.0018191797425970435 -0.10109999775886536
0.0011389056453481317 0.0018173803109675646 -0.10099999606609344
0.001662145834416151 0.0018119822489097714 -0.1006999984383583
0.0021844215225428343 0.0018083833856508136 -0.10049999505281448
0.0027099985163658857 0.0018083833856508136 -0.10049999505281448
0.0032323566265404224 0.0018065840704366565 -0.10040000081062317
0.003753668162971735 0.0018047847552224994 -0.10029999911785126
0.004278199281543493 0.0018047847552224994 -0.10029999911785126
0.004797942005097866 0.0018029853235930204 -0.10019999742507935
0.00532194972038269 0.0018029853235930204 -0.10019999742507935
0.005834289826452732 0.0017993864603340626 -0.09999999403953552
0.006344537250697613 0.0017957877134904265 -0.0997999981045723
0.006859573069959879 0.0017939882818609476 -0.09969999641180038
0.007351354695856571 0.0017867907881736755 -0.09929999709129333
0.007854804396629333 0.0017831920413300395 -0.09910000115633011
0.008364610373973846 0.0017813927261158824 -0.0989999994635582
0.008882342837750912 0.0017813927261158824 -0.0989999994635582
0.009937843307852745 0.0017849913565441966 -0.09919999539852142
0.010498786345124245 0.0017921889666467905 -0.09959999471902847
0.011030720546841621 0.0017939882818609476 -0.09969999641180038
0.0115521140396595 0.0017939882818609476 -0.09969999641180038
0.012097727507352829 0.0017975871451199055 -0.09989999979734421
0.012620165944099426 0.0017975871451199055 -0.09989999979734421
0.01316891610622406 0.0018011858919635415 -0.10009999573230743
0.013692401349544525 0.0018011858919635415 -0.10009999573230743
0.01421588659286499 0.0018011858919635415 -0.10009999573230743
0.0147540969774127 0.0018029853235930204 -0.10019999742507935
0.015817884355783463 0.0018047847552224994 -0.10029999911785126
-0.006330106407403946 0.0013045055093243718 -0.1021999940276146
-0.005784297827631235 0.0013019527541473508 -0.10199999809265137
-0.0052508763037621975 0.0013019527541473508 -0.10199999809265137
-0.004712829831987619 0.0013006762601435184 -0.10189999639987946
-0.004179930780082941 0.0013006762601435184 -0.10189999639987946
-0.0036470324266701937 0.0013006762601435184 -0.10189999639987946
-0.0031141338404268026 0.0013006762601435184 -0.10189999639987946
-0.0025812354870140553 0.0013006762601435184 -0.10189999639987946
-0.002048336900770664 0.0013006762601435184 -0.10189999639987946
-0.0015154383145272732 0.0013006762601435184 -0.10189999639987946
-0.0009815755765885115 0.001299399766139686 -0.10179999470710754
-0.00044919998617842793 0.001299399766139686 -0.10179999470710754
8.301215711981058e-05 0.001296847010962665 -0.10159999877214432
0.0006131324335001409 0.0012942941393703222 -0.1013999953866005
0.0011400333605706692 0.0012904648901894689 -0.10109999775886536
0.001662145834416151 0.0012853591470047832 -0.1006999984383583
0.0021844215225428343 0.0012828062754124403 -0.10049999505281448
0.002707302337512374 0.0012815298978239298 -0.10040000081062317
0.0032291370443999767 0.0012802535202354193 -0.10029999911785126
0.003753668162971735 0.0012802535202354193 -0.10029999911785126
0.004273933824151754 0.001278977026231587 -0.10019999742507935
0.004797942005097866 0.001278977026231587 -0.10019999742507935
0.005316638387739658 0.0012777006486430764 -0.10009999573230743
0.005828455556184053 0.0012751477770507336 -0.09989999979734421
0.006331822369247675 0.0012713185278698802 -0.09959999471902847
0.006838932633399963 0.0012687656562775373 -0.09939999878406525
0.0073439511470496655 0.0012662127846851945 -0.09919999539852142
0.007846877910196781 0.0012636600295081735 -0.0989999994635582
0.008364610373973846 0.0012636600295081735 -0.0989999994635582
0.009937843307852745 0.0012662127846851945 -0.09919999539852142
0.01051986776292324 0.001273871399462223 -0.0997999981045723
0.01159846130758524 0.0012777006486430764 -0.10009999573230743
0.012121946550905704 0.0012777006486430764 -0.10009999573230743
0.01264543179422617 0.0012777006486430764 -0.10009999573230743
0.01316891610622406 0.0012777006486430764 -0.10009999573230743
0.013706080615520477 0.001278977026231587 -0.10019999742507935
0.014230088330805302 0.001278977026231587 -0.10019999742507935
0.0147540969774127 0.001278977026231587 -0.10019999742507935
0.015278104692697525 0.001278977026231587 -0.10019999742507935
0.015817884355783463 0.0012802535202354193 -0.10029999911785126
-0.005818323232233524 0.0007730519864708185 -0.10260000079870224
-0.005261171609163284 0.0007700380519963801 -0.1021999940276146
-0.0047220797277987 0.0007692846702411771 -0.10209999978542328
-0.004192236810922623 0.0007700380519963801 -0.1021999940276146
-0.003657769411802292 0.0007700380519963801 -0.1021999940276146
-0.003123302012681961 0.0007700380519963801 -0.1021999940276146
-0.0025888346135616302 0.0007700380519963801 -0.1021999940276146
-0.002054367447271943 0.0007700380519963801 -0.1021999940276146
-0.0009835041128098965 0.0007685311720706522 -0.10199999809265137
-0.00045008250162936747 0.0007685311720706522 -0.10199999809265137
8.325726957991719e-05 0.0007677776739001274 -0.10189999639987946
0.0006149464752525091 0.0007662707939743996 -0.10170000046491623
0.0011411609593778849 0.0007625034777447581 -0.10119999945163727
0.001662145834416151 0.0007587361615151167 -0.1006999984383583
0.002182248281314969 0.000756475783418864 -0.10040000081062317
0.002707302337512374 0.000756475783418864 -0.10040000081062317
0.0032291370443999767 0.0007557223434560001 -0.10029999911785126
0.003753668162971735 0.0007557223434560001 -0.10029999911785126
0.004273933824151754 0.0007549688452854753 -0.10019999742507935
0.004793153144419193 0.0007542153471149504 -0.10009999573230743
0.0053060161881148815 0.0007527084671892226 -0.09989999979734421
0.005816787015646696 0.0007512015290558338 -0.09969999641180038
0.0068320524878799915 0.0007481877109967172 -0.09929999709129333
0.0073439511470496655 0.0007474342128261924 -0.09919999539852142
0.009997951798141003 0.0007519550272263587 -0.0997999981045723
0.01055149082094431 0.0007542153471149504 -0.10009999573230743
0.011086040176451206 0.0007549688452854753 -0.10019999742507935
0.01161004789173603 0.0007549688452854753 -0.10019999742507935
0.01213405653834343 0.0007549688452854753 -0.10019999742507935
0.012658064253628254 0.0007549688452854753 -0.10019999742507935
0.013182072900235653 0.0007549688452854753 -0.10019999742507935
0.01371975988149643 0.0007557223434560001 -0.10029999911785126
0.014230088330805302 0.0007549688452854753 -0.10019999742507935
0.014768822118639946 0.0007557223434560001 -0.10029999911785126
0.015293353237211704 0.0007557223434560001 -0.10029999911785126
0.015817884355783463 0.0007557223434560001 -0.10029999911785126
-0.00528176361694932 0.00023649267677683383 -0.10260000079870224
-0.004735954571515322 0.00023603167210239917 -0.10239999741315842
-0.0041963388212025166 0.00023580116976518184 -0.1022999957203865
-0.0036649275571107864 0.00023603167210239917 -0.10239999741315842
-0.0015228742267936468 0.00023603167210239917 -0.10239999741315842
-0.0009873609524220228 0.00023603167210239917 -0.10239999741315842
-0.000450965017080307 0.0002355706674279645 -0.1021999940276146
8.333897130796686e-05 0.00023510967730544508 -0.10199999809265137
0.0006161557976156473 0.00023487917496822774 -0.10189999639987946
0.0011434161569923162 0.0002337266632821411 -0.1013999953866005
0.001662145834416151 0.00023211317602545023 -0.1006999984383583
0.0021844215225428343 0.00023165217135101557 -0.10049999505281448
0.002707302337512374 0.00023142168356571347 -0.10040000081062317
0.0032291370443999767 0.00023119118122849613 -0.10029999911785126
0.003753668162971735 0.00023119118122849613 -0.10029999911785126
0.004273933824151754 0.0002309606788912788 -0.10019999742507935
0.004793153144419193 0.00023073017655406147 -0.10009999573230743
0.0053060161881148815 0.00023026918643154204 -0.09989999979734421
0.005816787015646696 0.00022980818175710738 -0.09969999641180038
0.006331822369247675 0.00022957766486797482 -0.09959999471902847
0.007366161327809095 0.00022934719163458794 -0.09950000047683716
0.007886508479714394 0.00022934719163458794 -0.09950000047683716
0.008423754014074802 0.00022980818175710738 -0.09969999641180038
0.008981035090982914 0.00023073017655406147 -0.10009999573230743
0.010593654587864876 0.00023165217135101557 -0.10049999505281448
0.011097104288637638 0.00023119118122849613 -0.10029999911785126
0.011633221991360188 0.00023142168356571347 -0.10040000081062317
0.01215827651321888 0.00023142168356571347 -0.10040000081062317
0.012683330103754997 0.00023142168356571347 -0.10040000081062317
0.013195228762924671 0.00023119118122849613 -0.10029999911785126
0.01371975988149643 0.00023119118122849613 -0.10029999911785126
0.014244291000068188 0.00023119118122849613 -0.10029999911785126
0.014768822118639946 0.00023119118122849613 -0.10029999911785126
0.015293353237211704 0.00023119118122849613 -0.10029999911785126
0.015833655372262 0.00023142168356571347 -0.10040000081062317
-0.004212746862322092 -0.0003003590682055801 -0.10269999504089355
-0.0036649275571107864 -0.0002994817041326314 -0.10239999741315842
-0.0031294142827391624 -0.0002994817041326314 -0.10239999741315842
-0.0025939010083675385 -0.0002994817041326314 -0.10239999741315842
-0.0020583877339959145 -0.0002994817041326314 -0.10239999741315842
0.0006167604587972164 -0.00029831184656359255 -0.10199999809265137
0.0011479266686365008 -0.0002977269177790731 -0.10179999470710754
0.001672049518674612 -0.000296264624921605 -0.10130000114440918
0.0021887687034904957 -0.0002945098385680467 -0.1006999984383583
0.0027099985163658857 -0.00029392490978352726 -0.10049999505281448
0.0032323566265404224 -0.00029363244539126754 -0.10040000081062317
0.003753668162971735 -0.0002933399809990078 -0.10029999911785126
0.004273933824151754 -0.0002930475166067481 -0.10019999742507935
0.004797942005097866 -0.0002930475166067481 -0.10019999742507935
0.005311327055096626 -0.00029246258782222867 -0.09999999403953552
0.005828455556184053 -0.00029217012342996895 -0.09989999979734421
0.006350894458591938 -0.00029217012342996895 -0.09989999979734421
0.00687333382666111 -0.00029217012342996895 -0.09989999979734421
0.007410579826682806 -0.0002927550522144884 -0.10009999573230743
0.007949917577207088 -0.0002933399809990078 -0.10029999911785126
0.008482897654175758 -0.00029363244539126754 -0.10040000081062317
0.009016923606395721 -0.00029392490978352726 -0.10049999505281448
0.009551995433866978 -0.00029421737417578697 -0.1005999967455864
0.011119231581687927 -0.00029392490978352726 -0.10049999505281448
0.011633221991360188 -0.00029363244539126754 -0.10040000081062317
0.01215827651321888 -0.00029363244539126754 -0.10040000081062317
0.012683330103754997 -0.00029363244539126754 -0.10040000081062317
0.01320838462561369 -0.00029363244539126754 -0.10040000081062317
0.013733438216149807 -0.00029363244539126754 -0.10040000081062317
0.0142584927380085 -0.00029363244539126754 -0.10040000081062317
0.014783546328544617 -0.00029363244539126754 -0.10040000081062317
0.015308600850403309 -0.00029363244539126754 -0.10040000081062317
0.015833655372262 -0.00029363244539126754 -0.10040000081062317
-0.003135526552796364 -0.0008366259280592203 -0.10260000079870224
-0.0025939010083675385 -0.0008349950658157468 -0.10239999741315842
-0.002054367447271943 -0.0008333642035722733 -0.1021999940276146
-0.0015184127259999514 -0.0008325488306581974 -0.10209999978542328
-0.00045052377390675247 -0.0008325488306581974 -0.10209999978542328
8.342068031197414e-05 -0.0008325488306581974 -0.10209999978542328
0.0011490543838590384 -0.000830917910207063 -0.10189999639987946
0.001678651780821383 -0.0008292871061712503 -0.10170000046491623
0.0021996365394443274 -0.0008252099505625665 -0.10119999945163727
0.002715391805395484 -0.0008211328531615436 -0.1006999984383583
0.003235575743019581 -0.0008195019909180701 -0.10049999505281448
0.0037574106827378273 -0.0008186865597963333 -0.10040000081062317
0.004278199281543493 -0.0008178711286745965 -0.10029999911785126
0.0048027304001152515 -0.0008178711286745965 -0.10029999911785126
0.00532194972038269 -0.0008170556975528598 -0.10019999742507935
0.005845958366990089 -0.0008170556975528598 -0.10019999742507935
0.006369966082274914 -0.0008170556975528598 -0.10019999742507935
0.006900854874402285 -0.0008178711286745965 -0.10029999911785126
0.007432790007442236 -0.0008186865597963333 -0.10040000081062317
0.008508245460689068 -0.0008211328531615436 -0.1006999984383583
0.009043839760124683 -0.0008219482842832804 -0.10080000013113022
0.009570986032485962 -0.0008219482842832804 -0.10080000013113022
0.010604195296764374 -0.0008203174220398068 -0.1005999967455864
0.011644808575510979 -0.0008195019909180701 -0.10049999505281448
0.01217038556933403 -0.0008195019909180701 -0.10049999505281448
0.012695962563157082 -0.0008195019909180701 -0.10049999505281448
0.01320838462561369 -0.0008186865597963333 -0.10040000081062317
0.013747116550803185 -0.0008195019909180701 -0.10049999505281448
0.014272693544626236 -0.0008195019909180701 -0.10049999505281448
0.014798270538449287 -0.0008195019909180701 -0.10049999505281448
0.015323847532272339 -0.0008195019909180701 -0.10049999505281448
0.01586519554257393 -0.0008203174220398068 -0.1005999967455864
-0.002054367447271943 -0.0013678314862772822 -0.1021999940276146
-0.0015169255202636123 -0.0013651548651978374 -0.10199999809265137
-0.00045052377390675247 -0.0013664931757375598 -0.10209999978542328
8.342068031197414e-05 -0.0013664931757375598 -0.10209999978542328
0.0006173651781864464 -0.0013664931757375598 -0.10209999978542328
0.002734267385676503 -0.0013571244198828936 -0.1013999953866005
0.0032484536059200764 -0.0013504325179383159 -0.10089999437332153
0.003768637776374817 -0.0013477557804435492 -0.1006999984383583
0.004290995188057423 -0.0013464173534885049 -0.1005999967455864
0.004812306724488735 -0.0013450789265334606 -0.10049999505281448
0.005337883718311787 -0.0013450789265334606 -0.10049999505281448
0.005863461177796125 -0.0013450789265334606 -0.10049999505281448
0.006401752587407827 -0.0013477557804435492 -0.1006999984383583
0.006935255602002144 -0.0013490942073985934 -0.10080000013113022
0.007477208506315947 -0.0013517709448933601 -0.10099999606609344
0.008021253161132336 -0.0013544476823881269 -0.10119999945163727
0.008558940142393112 -0.0013557861093431711 -0.10130000114440918
0.009097672067582607 -0.0013571244198828936 -0.1013999953866005
0.009608966298401356 -0.0013544476823881269 -0.10119999945163727
0.010118167847394943 -0.0013517709448933601 -0.10099999606609344
0.010625277645885944 -0.0013490942073985934 -0.10080000013113022
0.011141359806060791 -0.0013477557804435492 -0.1006999984383583
0.01165639515966177 -0.0013464173534885049 -0.1005999967455864
0.01217038556933403 -0.0013450789265334606 -0.10049999505281448
0.012695962563157082 -0.0013450789265334606 -0.10049999505281448
0.013221539556980133 -0.0013450789265334606 -0.10049999505281448
0.013747116550803185 -0.0013450789265334606 -0.10049999505281448
0.014272693544626236 -0.0013450789265334606 -0.10049999505281448
0.014812995679676533 -0.0013464173534885049 -0.1005999967455864
0.015339095145463943 -0.0013464173534885049 -0.1005999967455864
0.015880966559052467 -0.0013477557804435492 -0.1006999984383583
-0.0020583877339959145 -0.0019060218473896384 -0.10239999741315842
-0.0015184127259999514 -0.0019004378700628877 -0.10209999978542328
-0.00045052377390675247 -0.0019004378700628877 -0.10209999978542328
8.35023820400238e-05 -0.0019022991182282567 -0.1021999940276146
0.0006185744423419237 -0.0019041604828089476 -0.1022999957203865
0.002219198504462838 -0.0019004378700628877 -0.10209999978542328
0.003277428913861513 -0.0018948536599054933 -0.10179999470710754
0.0037985772360116243 -0.0018892696825787425 -0.1014999970793724
0.004320853389799595 -0.0018855470698326826 -0.10130000114440918
0.004845825489610434 -0.0018836857052519917 -0.10119999945163727
0.0053750635124742985 -0.0018836857052519917 -0.10119999945163727
0.005915969610214233 -0.0018874083179980516 -0.1013999953866005
0.006990297231823206 -0.0018911310471594334 -0.10159999877214432
0.008060883730649948 -0.0018929924117401242 -0.10170000046491623
0.008584287017583847 -0.0018911310471594334 -0.10159999877214432
0.009115616790950298 -0.0018911310471594334 -0.10159999877214432
0.00963745079934597 -0.0018892696825787425 -0.1014999970793724
0.01013820432126522 -0.0018836857052519917 -0.10119999945163727
0.010656900703907013 -0.0018818243406713009 -0.10109999775886536
0.011152423918247223 -0.0018762402469292283 -0.10080000013113022
0.011667982675135136 -0.0018743788823485374 -0.1006999984383583
0.01219460554420948 -0.0018743788823485374 -0.1006999984383583
0.01270859595388174 -0.0018725175177678466 -0.1005999967455864
0.013234695419669151 -0.0018725175177678466 -0.1005999967455864
0.013760795816779137 -0.0018725175177678466 -0.1005999967455864
0.014301097020506859 -0.0018743788823485374 -0.1006999984383583
0.014827719889581203 -0.0018743788823485374 -0.1006999984383583
0.015384837985038757 -0.0018781014950945973 -0.10089999437332153
0.015944048762321472 -0.0018818243406713009 -0.10109999775886536
-0.001525848638266325 -0.002446303842589259 -0.10260000079870224
-0.0009854324162006378 -0.0024367664009332657 -0.1021999940276146
-0.000450965017080307 -0.0024367664009332657 -0.1021999940276146
8.358408376807347e-05 -0.002439150819554925 -0.1022999957203865
0.0006203884840942919 -0.002446303842589259 -0.10260000079870224
0.0032903070095926523 -0.0024367664009332657 -0.1021999940276146
0.003817289602011442 -0.0024319977965205908 -0.10199999809265137
0.004346445668488741 -0.002429613610729575 -0.10189999639987946
0.004879343789070845 -0.002429613610729575 -0.10189999639987946
0.006478039547801018 -0.002429613610729575 -0.10189999639987946
0.007543837185949087 -0.002429613610729575 -0.10189999639987946
0.008076735772192478 -0.002429613610729575 -0.10189999639987946
0.00860118493437767 -0.002427229192107916 -0.10179999470710754
0.009133560582995415 -0.002427229192107916 -0.10179999470710754
0.00964694656431675 -0.002422460587695241 -0.10159999877214432
0.010168257169425488 -0.0024200764019042253 -0.1014999970793724
0.010688522830605507 -0.002417691983282566 -0.1013999953866005
0.011196679435670376 -0.002412923378869891 -0.10119999945163727
0.011702743358910084 -0.0024081547744572163 -0.10099999606609344
0.012218824587762356 -0.002405770355835557 -0.10089999437332153
0.012733861804008484 -0.0024033861700445414 -0.10080000013113022
0.013261007145047188 -0.0024033861700445414 -0.10080000013113022
0.013801831752061844 -0.002405770355835557 -0.10089999437332153
0.014329500496387482 -0.002405770355835557 -0.10089999437332153
0.014886618591845036 -0.0024105391930788755 -0.10109999775886536
0.015430581755936146 -0.002412923378869891 -0.10119999945163727
0.016022901982069016 -0.002422460587695241 -0.10159999877214432
8.391090523218736e-05 -0.0029857701156288385 -0.10269999504089355
0.0006222024676389992 -0.0029915848281234503 -0.10289999842643738
0.0011614583199843764 -0.002994492184370756 -0.10300000011920929
0.0017001094529405236 -0.002994492184370756 -0.10300000011920929
0.0022387607023119926 -0.002994492184370756 -0.10300000011920929
0.0033096238039433956 -0.0029886774718761444 -0.10279999673366547
0.0038397442549467087 -0.0029828629922121763 -0.10260000079870224
0.004367772489786148 -0.0029770485125482082 -0.10239999741315842
0.004903285764157772 -0.0029770485125482082 -0.10239999741315842
0.006503468379378319 -0.0029741411563009024 -0.1022999957203865
0.007031578570604324 -0.0029712338000535965 -0.1021999940276146
0.007558643817901611 -0.0029683266766369343 -0.10209999978542328
0.00808466225862503 -0.0029654193203896284 -0.10199999809265137
0.008609633892774582 -0.0029625119641423225 -0.10189999639987946
0.00914253294467926 -0.0029625119641423225 -0.10189999639987946
0.00966593623161316 -0.0029596046078950167 -0.10179999470710754
0.010198310948908329 -0.0029596046078950167 -0.10179999470710754
0.01072014681994915 -0.0029566974844783545 -0.10170000046491623
0.011240934953093529 -0.0029537903610616922 -0.10159999877214432
0.011760677210986614 -0.0029508830048143864 -0.1014999970793724
0.012279374524950981 -0.0029479756485670805 -0.1013999953866005
0.012784392572939396 -0.0029421611689031124 -0.10119999945163727
0.01331363059580326 -0.0029421611689031124 -0.10119999945163727
0.013856546953320503 -0.0029450685251504183 -0.10130000114440918
0.014400509186089039 -0.0029479756485670805 -0.1013999953866005
0.014945517294108868 -0.0029508830048143864 -0.1014999970793724
0.015491572208702564 -0.0029537903610616922 -0.10159999877214432
0.0011648412328213453 -0.0035434337332844734 -0.10329999774694443
0.0017050612950697541 -0.0035434337332844734 -0.10329999774694443
0.0022452811244875193 -0.0035434337332844734 -0.10329999774694443
0.0027855010703206062 -0.0035434337332844734 -0.10329999774694443
0.0038621986750513315 -0.003540003439411521 -0.10319999605417252
0.004397630225867033 -0.0035365731455385685 -0.1030999943614006
0.004936804063618183 -0.0035365731455385685 -0.1030999943614006
0.0054706670343875885 -0.0035331433173269033 -0.10300000011920929
0.006003484129905701 -0.003529713023453951 -0.10289999842643738
0.006535254884511232 -0.0035262827295809984 -0.10279999673366547
0.007065979298204184 -0.003522852435708046 -0.10269999504089355
0.007580853067338467 -0.0035125617869198322 -0.10239999741315842
0.008100513368844986 -0.0035057011991739273 -0.1021999940276146
0.008634980767965317 -0.0035057011991739273 -0.1021999940276146
0.009151504375040531 -0.003498840844258666 -0.10199999809265137
0.009684925898909569 -0.003498840844258666 -0.10199999809265137
0.010208329185843468 -0.0034954105503857136 -0.10189999639987946
0.010730686597526073 -0.003491980256512761 -0.10179999470710754
0.011263062246143818 -0.003491980256512761 -0.10179999470710754
0.011783851310610771 -0.0034885501954704523 -0.10170000046491623
0.012303594499826431 -0.0034851199015975 -0.10159999877214432
0.012834923341870308 -0.0034851199015975 -0.10159999877214432
0.01336625311523676 -0.0034851199015975 -0.10159999877214432
0.01389758288860321 -0.0034851199015975 -0.10159999877214432
0.014428912661969662 -0.0034851199015975 -0.10159999877214432
0.014989690855145454 -0.003491980256512761 -0.10179999470710754
0.015537314116954803 -0.0034954105503857136 -0.10189999639987946
0.0017067118315026164 -0.0040876069106161594 -0.10339999943971634
0.002247454831376672 -0.0040876069106161594 -0.10339999943971634
0.0027881977148354053 -0.0040876069106161594 -0.10339999943971634
0.0033289408311247826 -0.0040876069106161594 -0.10339999943971634
0.00441042659804225 -0.0040876069106161594 -0.10339999943971634
0.004951169714331627 -0.0040876069106161594 -0.10339999943971634
0.005491912364959717 -0.0040876069106161594 -0.10339999943971634
0.006026821676641703 -0.004083653911948204 -0.10329999774694443
0.006560683716088533 -0.004079700447618961 -0.10319999605417252
0.007093500345945358 -0.004075747448951006 -0.1030999943614006
0.007617868948727846 -0.004067840985953808 -0.10289999842643738
0.008668778464198112 -0.004055981524288654 -0.10260000079870224
0.009187392890453339 -0.004048075061291456 -0.10239999741315842
0.009703915566205978 -0.004040168598294258 -0.1021999940276146
0.010228365659713745 -0.004036215599626303 -0.10209999978542328
