ply
format ascii 1.0
element vertex 761
property float x
property float y
property float z
end_header
0.0006669478607363999 -0.013809684664011002 0.11029999703168869
0.0009544953354634345 -0.013797164894640446 0.11019999533891678
0.0012426476459950209 -0.013797164894640446 0.11019999533891678
0.0015307997819036245 -0.013797164894640446 0.11019999533891678
0.001817301381379366 -0.013784644193947315 0.11009999364614487
0.0021051920484751463 -0.013784644193947315 0.11009999364614487
0.0029553817585110664 -0.013722044415771961 0.1096000000834465
0.0032330909743905067 -0.013684483245015144 0.10929999500513077
0.0035060120280832052 -0.013634403236210346 0.10889999568462372
0.0037838032003492117 -0.013609363697469234 0.10869999974966049
0.004068033304065466 -0.013609363697469234 0.10869999974966049
0.004348258953541517 -0.013596842996776104 0.10859999805688858
0.005190587602555752 -0.013571802526712418 0.10839999467134476
0.005474033299833536 -0.013571802526712418 0.10839999467134476
0.005757478531450033 -0.013571802526712418 0.10839999467134476
0.0060464972630143166 -0.013584323227405548 0.10849999636411667
0.0063360389322042465 -0.013596842996776104 0.10859999805688858
0.00662000710144639 -0.013596842996776104 0.10859999805688858
0.006903975270688534 -0.013596842996776104 0.10859999805688858
0.007187943905591965 -0.013596842996776104 0.10859999805688858
0.007471912540495396 -0.013596842996776104 0.10859999805688858
0.007755880709737539 -0.013596842996776104 0.10859999805688858
0.00804725382477045 -0.013609363697469234 0.10869999974966049
0.008331483229994774 -0.013609363697469234 0.10869999974966049
0.008615713566541672 -0.013609363697469234 0.10869999974966049
0.008916318416595459 -0.013634403236210346 0.10889999568462372
0.009243316948413849 -0.013697003945708275 0.10939999669790268
0.009572929702699184 -0.013759604655206203 0.10989999771118164
0.009887213818728924 -0.013797164894640446 0.11019999533891678
0.010221533477306366 -0.013859765604138374 0.11069999635219574
0.010577458888292313 -0.01394740678369999 0.11140000075101852
0.011837486177682877 -0.014060086570680141 0.11229999363422394
0.012141932733356953 -0.014072607271373272 0.11239999532699585
0.012435836717486382 -0.014072607271373272 0.11239999532699585
0.012741067446768284 -0.014085127040743828 0.11249999701976776
0.013035234063863754 -0.014085127040743828 0.11249999701976776
0.01332939974963665 -0.014085127040743828 0.11249999701976776
0.013611456379294395 -0.014072607271373272 0.11239999532699585
0.013905361294746399 -0.014072607271373272 0.11239999532699585
0.014199265278875828 -0.014072607271373272 0.11239999532699585
0.01448027603328228 -0.014060086570680141 0.11229999363422394
0.014773919247090816 -0.014060086570680141 0.11229999363422394
0.015067562460899353 -0.014060086570680141 0.11229999363422394
0.015347527340054512 -0.01404756773263216 0.11219999939203262
0.01564090885221958 -0.01404756773263216 0.11219999939203262
0.015920089557766914 -0.01403504703193903 0.11209999769926071
0.01621321029961109 -0.01403504703193903 0.11209999769926071
0.01650632917881012 -0.01403504703193903 0.11209999769926071
0.016784463077783585 -0.0140225263312459 0.1119999960064888
0.01707732304930687 -0.0140225263312459 0.1119999960064888
0.017370181158185005 -0.0140225263312459 0.1119999960064888
0.01766304112970829 -0.0140225263312459 0.1119999960064888
0.017939867451786995 -0.014010006561875343 0.11189999431371689
0.01823246479034424 -0.014010006561875343 0.11189999431371689
0.01852506212890148 -0.014010006561875343 0.11189999431371689
0.018817659467458725 -0.014010006561875343 0.11189999431371689
0.01911025680601597 -0.014010006561875343 0.11189999431371689
0.01940285414457321 -0.014010006561875343 0.11189999431371689
0.019695451483130455 -0.014010006561875343 0.11189999431371689
0.019988050684332848 -0.014010006561875343 0.11189999431371689
0.02028064802289009 -0.014010006561875343 0.11189999431371689
0.020573245361447334 -0.014010006561875343 0.11189999431371689
0.020865842700004578 -0.014010006561875343 0.11189999431371689
0.021177347749471664 -0.0140225263312459 0.1119999960064888
0.02147020772099495 -0.0140225263312459 0.1119999960064888
0.021763065829873085 -0.0140225263312459 0.1119999960064888
0.02205592393875122 -0.0140225263312459 0.1119999960064888
0.022348783910274506 -0.0140225263312459 0.1119999960064888
0.022661859169602394 -0.01403504703193903 0.11209999769926071
-0.0031187597196549177 -0.01368063222616911 0.11159999668598175
-0.002814281266182661 -0.01361933909356594 0.11109999567270279
-0.00251014600507915 -0.013545787893235683 0.11050000041723251
-0.0022212094627320766 -0.013545787893235683 0.11050000041723251
-0.0019287752220407128 -0.013521270826458931 0.11029999703168869
-0.0016403616173192859 -0.013521270826458931 0.11029999703168869
-0.001351947896182537 -0.013521270826458931 0.11029999703168869
-0.0010635342914611101 -0.013521270826458931 0.11029999703168869
-0.0007751205703243613 -0.013521270826458931 0.11029999703168869
-0.000486265606014058 -0.013509011827409267 0.11019999533891678
-0.00019811342644970864 -0.013509011827409267 0.11019999533891678
9.012047667056322e-05 -0.013521270826458931 0.11029999703168869
0.00037819097633473575 -0.013509011827409267 0.11019999533891678
0.0006663431413471699 -0.013509011827409267 0.11019999533891678
0.0009544953354634345 -0.013509011827409267 0.11019999533891678
0.002388735767453909 -0.013472235761582851 0.10989999771118164
0.0026712333783507347 -0.013447718694806099 0.10969999432563782
0.0035027924459427595 -0.013337390497326851 0.1087999939918518
0.0037838032003492117 -0.013325132429599762 0.10869999974966049
0.004064290784299374 -0.013312873430550098 0.10859999805688858
0.004344255197793245 -0.01330061536282301 0.10849999636411667
0.00462369667366147 -0.013288356363773346 0.10839999467134476
0.0049071419052779675 -0.013288356363773346 0.10839999467134476
0.005190587602555752 -0.013288356363773346 0.10839999467134476
0.005474033299833536 -0.013288356363773346 0.10839999467134476
0.005757478531450033 -0.013288356363773346 0.10839999467134476
0.0060409242287278175 -0.013288356363773346 0.10839999467134476
0.006330204661935568 -0.01330061536282301 0.10849999636411667
0.00662000710144639 -0.013312873430550098 0.10859999805688858
0.009226419031620026 -0.01338642556220293 0.10920000076293945
0.009555508382618427 -0.013447718694806099 0.10969999432563782
0.009869270026683807 -0.013484494760632515 0.10999999940395355
0.010898018255829811 -0.013692891225218773 0.11169999837875366
0.011220145970582962 -0.013729667291045189 0.1119999960064888
0.01154384296387434 -0.01376644242554903 0.11229999363422394
0.011858568526804447 -0.013790960423648357 0.11249999701976776
0.012163537554442883 -0.013803219422698021 0.11259999871253967
0.012469029054045677 -0.013815478421747684 0.11270000040531158
0.012763719074428082 -0.013815478421747684 0.11270000040531158
0.013058408163487911 -0.013815478421747684 0.11270000040531158
0.013353097252547741 -0.013815478421747684 0.11270000040531158
0.013635676354169846 -0.013803219422698021 0.11259999871253967
0.013917732052505016 -0.013790960423648357 0.11249999701976776
0.014211898669600487 -0.013790960423648357 0.11249999701976776
0.01448027603328228 -0.01376644242554903 0.11229999363422394
0.014773919247090816 -0.01376644242554903 0.11229999363422394
0.015067562460899353 -0.01376644242554903 0.11229999363422394
0.015920089557766914 -0.013741926290094852 0.11209999769926071
0.016198746860027313 -0.013729667291045189 0.1119999960064888
0.01649160496890545 -0.013729667291045189 0.1119999960064888
0.016784463077783585 -0.013729667291045189 0.1119999960064888
0.01707732304930687 -0.013729667291045189 0.1119999960064888
0.017354672774672508 -0.013717408291995525 0.11189999431371689
0.01764727011322975 -0.013717408291995525 0.11189999431371689
0.017923835664987564 -0.013705150224268436 0.11180000007152557
0.018216172233223915 -0.013705150224268436 0.11180000007152557
0.018491951748728752 -0.013692891225218773 0.11169999837875366
0.01878402754664421 -0.013692891225218773 0.11169999837875366
0.01907610148191452 -0.013692891225218773 0.11169999837875366
0.01936817541718483 -0.013692891225218773 0.11169999837875366
0.01966024935245514 -0.013692891225218773 0.11169999837875366
0.019952325150370598 -0.013692891225218773 0.11169999837875366
0.020244400948286057 -0.013692891225218773 0.11169999837875366
0.020554861053824425 -0.013705150224268436 0.11180000007152557
0.020847195759415627 -0.013705150224268436 0.11180000007152557
0.02115844003856182 -0.013717408291995525 0.11189999431371689
0.021451037377119064 -0.013717408291995525 0.11189999431371689
0.022348783910274506 -0.013729667291045189 0.1119999960064888
0.02264164201915264 -0.013729667291045189 0.1119999960064888
-0.0031187597196549177 -0.013388819992542267 0.11159999668598175
-0.002814281266182661 -0.013328833505511284 0.11109999567270279
-0.00251014600507915 -0.013256851583719254 0.11050000041723251
-0.0022171891760081053 -0.01323285698890686 0.11029999703168869
-0.0019305238965898752 -0.013244854286313057 0.1103999987244606
-0.0016403616173192859 -0.01323285698890686 0.11029999703168869
-0.0013507221592590213 -0.013220859691500664 0.11019999533891678
-0.0010625700233504176 -0.013220859691500664 0.11019999533891678
-0.000774417829234153 -0.013220859691500664 0.11019999533891678
-0.000486265606014058 -0.013220859691500664 0.11019999533891678
-0.00019811342644970864 -0.013220859691500664 0.11019999533891678
9.003876766655594e-05 -0.013220859691500664 0.11019999533891678
0.00037819097633473575 -0.013220859691500664 0.11019999533891678
0.002388735767453909 -0.013184868730604649 0.10989999771118164
0.0026712333783507347 -0.01316087320446968 0.10969999432563782
0.0035027924459427595 -0.01305289939045906 0.1087999939918518
0.0037803221493959427 -0.013028905726969242 0.10859999805688858
0.004064290784299374 -0.013028905726969242 0.10859999805688858
0.004344255197793245 -0.013016908429563046 0.10849999636411667
0.00462369667366147 -0.013004910200834274 0.10839999467134476
0.0049071419052779675 -0.013004910200834274 0.10839999467134476
0.005190587602555752 -0.013004910200834274 0.10839999467134476
0.005484133027493954 -0.013028905726969242 0.10859999805688858
0.005762789864093065 -0.013016908429563046 0.10849999636411667
0.006052069831639528 -0.013028905726969242 0.10859999805688858
0.0063360389322042465 -0.013028905726969242 0.10859999805688858
0.00662000710144639 -0.013028905726969242 0.10859999805688858
0.0074787926860153675 -0.013040903024375439 0.10869999974966049
0.007763022556900978 -0.013040903024375439 0.10869999974966049
0.00921796914190054 -0.01308889128267765 0.10909999907016754
0.009546798653900623 -0.013148876838386059 0.1096000000834465
0.01088826172053814 -0.013388819992542267 0.11159999668598175
0.011220145970582962 -0.013436808250844479 0.1119999960064888
0.01154384296387434 -0.013472799211740494 0.11229999363422394
0.011858568526804447 -0.013496793806552887 0.11249999701976776
0.012174339964985847 -0.01352078840136528 0.11270000040531158
0.012480093166232109 -0.013532785698771477 0.1127999946475029
0.012797694653272629 -0.01355678029358387 0.11299999803304672
0.013069993816316128 -0.013532785698771477 0.1127999946475029
0.013364944607019424 -0.013532785698771477 0.1127999946475029
0.01364778634160757 -0.01352078840136528 0.11270000040531158
0.0139424754306674 -0.01352078840136528 0.11270000040531158
0.014224532060325146 -0.013508791103959084 0.11259999871253967
0.014493170194327831 -0.01348479650914669 0.11239999532699585
0.014773919247090816 -0.013472799211740494 0.11229999363422394
0.015054145827889442 -0.013460802845656872 0.11219999939203262
0.01590588688850403 -0.013436808250844479 0.1119999960064888
0.016198746860027313 -0.013436808250844479 0.1119999960064888
0.016476880759000778 -0.013424810953438282 0.11189999431371689
0.01676947809755802 -0.013424810953438282 0.11189999431371689
0.01704682782292366 -0.01341281458735466 0.11180000007152557
0.01733916439116001 -0.01341281458735466 0.11180000007152557
0.017615729942917824 -0.013400817289948463 0.11169999837875366
0.017907803878188133 -0.013400817289948463 0.11169999837875366
0.018199877813458443 -0.013400817289948463 0.11169999837875366
0.018491951748728752 -0.013400817289948463 0.11169999837875366
0.01878402754664421 -0.013400817289948463 0.11169999837875366
0.01907610148191452 -0.013400817289948463 0.11169999837875366
0.019952325150370598 -0.013400817289948463 0.11169999837875366
0.020244400948286057 -0.013400817289948463 0.11169999837875366
0.020536474883556366 -0.013400817289948463 0.11169999837875366
0.020828548818826675 -0.013400817289948463 0.11169999837875366
0.021139532327651978 -0.01341281458735466 0.11180000007152557
0.021451037377119064 -0.013424810953438282 0.11189999431371689
0.022348783910274506 -0.013436808250844479 0.1119999960064888
0.02264164201915264 -0.013436808250844479 0.1119999960064888
-0.002811748068779707 -0.013026592321693897 0.11099999397993088
-0.002507874509319663 -0.01295617874711752 0.1103999987244606
-0.002219199202954769 -0.01295617874711752 0.1103999987244606
-0.0019270265474915504 -0.01293270755559206 0.11019999533891678
-0.0016388744115829468 -0.01293270755559206 0.11019999533891678
-0.0013507221592590213 -0.01293270755559206 0.11019999533891678
-0.0010625700233504176 -0.01293270755559206 0.11019999533891678
-0.000774417829234153 -0.01293270755559206 0.11019999533891678
-0.000486265606014058 -0.01293270755559206 0.11019999533891678
-0.0001979336520889774 -0.012920971028506756 0.11009999364614487
0.0018156509613618255 -0.0129092363640666 0.10999999940395355
0.002101368037983775 -0.012897500768303871 0.10989999771118164
0.0035060120280832052 -0.012780143879354 0.10889999568462372
0.003787284018471837 -0.012768407352268696 0.1087999939918518
0.004068033304065466 -0.01275667268782854 0.10869999974966049
0.004632227588444948 -0.012744937092065811 0.10859999805688858
0.004916196223348379 -0.012744937092065811 0.10859999805688858
0.005200164392590523 -0.012744937092065811 0.10859999805688858
0.005489183124154806 -0.01275667268782854 0.10869999974966049
0.005773412995040417 -0.01275667268782854 0.10869999974966049
0.006063215434551239 -0.012768407352268696 0.1087999939918518
0.009226419031620026 -0.012815351597964764 0.10920000076293945
0.009546798653900623 -0.012862293981015682 0.1096000000834465
0.011523284949362278 -0.013155684806406498 0.11209999769926071
0.01184802781790495 -0.013190891593694687 0.11239999532699585
0.012185142375528812 -0.01323783490806818 0.1127999946475029
0.012502220459282398 -0.01326130609959364 0.11299999803304672
0.012797694653272629 -0.01326130609959364 0.11299999803304672
0.013093167915940285 -0.01326130609959364 0.11299999803304672
0.013364944607019424 -0.01323783490806818 0.1127999946475029
0.014211898669600487 -0.013202628120779991 0.11249999701976776
0.01448027603328228 -0.013179155997931957 0.11229999363422394
0.014747608453035355 -0.013155684806406498 0.11209999769926071
0.015040728263556957 -0.013155684806406498 0.11209999769926071
0.01589168608188629 -0.013132213614881039 0.11189999431371689
0.016169819980859756 -0.013120478950440884 0.11180000007152557
0.016462156549096107 -0.013120478950440884 0.11180000007152557
0.016739506274461746 -0.01310874242335558 0.11169999837875366
0.017031580209732056 -0.01310874242335558 0.11169999837875366
0.017323654145002365 -0.01310874242335558 0.11169999837875366
0.017615729942917824 -0.01310874242335558 0.11169999837875366
0.017891772091388702 -0.01309700682759285 0.11159999668598175
0.01818358339369297 -0.01309700682759285 0.11159999668598175
0.018475396558642387 -0.01309700682759285 0.11159999668598175
0.018767209723591805 -0.01309700682759285 0.11159999668598175
0.01905902288854122 -0.01309700682759285 0.11159999668598175
0.019952325150370598 -0.01310874242335558 0.11169999837875366
0.020244400948286057 -0.01310874242335558 0.11169999837875366
0.020536474883556366 -0.01310874242335558 0.11169999837875366
0.020828548818826675 -0.01310874242335558 0.11169999837875366
0.022328829392790794 -0.013132213614881039 0.11189999431371689
-0.0031187597196549177 -0.012805193662643433 0.11159999668598175
-0.002811748068779707 -0.012736348435282707 0.11099999397993088
-0.0025056027807295322 -0.012656029313802719 0.11029999703168869
-0.0022171891760081053 -0.012656029313802719 0.11029999703168869
-0.0019270265474915504 -0.012644555419683456 0.11019999533891678
-0.0016388744115829468 -0.012644555419683456 0.11019999533891678
-0.0013494965387508273 -0.012633080594241619 0.11009999364614487
-0.0010616057552397251 -0.012633080594241619 0.11009999364614487
-0.0007737150881439447 -0.012633080594241619 0.11009999364614487
-0.000485824333736673 -0.012633080594241619 0.11009999364614487
-0.0001979336520889774 -0.012633080594241619 0.11009999364614487
0.0035156705416738987 -0.012529813684523106 0.10920000076293945
0.0037942458875477314 -0.012506864964962006 0.10899999737739563
0.004075517877936363 -0.012495391070842743 0.10889999568462372
0.00436027068644762 -0.012495391070842743 0.10889999568462372
0.004640758037567139 -0.012483916245400906 0.1087999939918518
0.004925249610096216 -0.012483916245400906 0.1087999939918518
0.005214529577642679 -0.012495391070842743 0.10889999568462372
0.005499282386153936 -0.012495391070842743 0.10889999568462372
0.0057840351946651936 -0.012495391070842743 0.10889999568462372
0.00607436103746295 -0.012506864964962006 0.10899999737739563
0.007506313268095255 -0.012518339790403843 0.10909999907016754
0.007791589479893446 -0.012518339790403843 0.10909999907016754
0.008076866157352924 -0.012518339790403843 0.10909999907016754
0.0083698071539402 -0.012529813684523106 0.10920000076293945
0.008655344136059284 -0.012529813684523106 0.10920000076293945
0.008949068374931812 -0.012541287578642368 0.10929999500513077
0.009243316948413849 -0.012552761472761631 0.10939999669790268
0.009546798653900623 -0.012575710192322731 0.1096000000834465
0.010849235579371452 -0.012759297154843807 0.1111999973654747
0.011513005010783672 -0.012851090170443058 0.1119999960064888
0.012152735143899918 -0.01290846150368452 0.11249999701976776
0.012480093166232109 -0.012942884117364883 0.1127999946475029
0.012775043025612831 -0.012942884117364883 0.1127999946475029
0.013917732052505016 -0.01290846150368452 0.11249999701976776
0.014186632819473743 -0.01288551278412342 0.11229999363422394
0.014734452590346336 -0.012851090170443058 0.1119999960064888
0.015013893134891987 -0.012839616276323795 0.11189999431371689
0.016447432339191437 -0.01281666848808527 0.11169999837875366
0.016724519431591034 -0.012805193662643433 0.11159999668598175
0.017031580209732056 -0.01281666848808527 0.11169999837875366
0.017308145761489868 -0.012805193662643433 0.11159999668598175
0.017599958926439285 -0.012805193662643433 0.11159999668598175
0.017891772091388702 -0.012805193662643433 0.11159999668598175
0.01818358339369297 -0.012805193662643433 0.11159999668598175
0.018475396558642387 -0.012805193662643433 0.11159999668598175
0.018767209723591805 -0.012805193662643433 0.11159999668598175
0.01905902288854122 -0.012805193662643433 0.11159999668598175
0.022328829392790794 -0.012839616276323795 0.11189999431371689
-0.0028066819068044424 -0.012423679232597351 0.11079999804496765
-0.0025056027807295322 -0.012367615476250648 0.11029999703168869
-0.0022151789162307978 -0.012356403283774853 0.11019999533891678
-0.001925277872942388 -0.012345190159976482 0.11009999364614487
-0.0016373872058466077 -0.012345190159976482 0.11009999364614487
-0.0013494965387508273 -0.012345190159976482 0.11009999364614487
-0.0010616057552397251 -0.012345190159976482 0.11009999364614487
-0.0007737150881439447 -0.012345190159976482 0.11009999364614487
-0.000485824333736673 -0.012345190159976482 0.11009999364614487
-0.00019775387772824615 -0.012333977967500687 0.10999999940395355
0.0012403923319652677 -0.012333977967500687 0.10999999940395355
0.0015266324626281857 -0.012322764843702316 0.10989999771118164
0.0018140003085136414 -0.012322764843702316 0.10989999771118164
0.002101368037983775 -0.012322764843702316 0.10989999771118164
0.0023843885865062475 -0.01230033952742815 0.10969999432563782
0.0026712333783507347 -0.01230033952742815 0.10969999432563782
0.0035221094731241465 -0.012266701087355614 0.10939999669790268
0.0038046888075768948 -0.012255488894879818 0.10929999500513077
0.00408674543723464 -0.012244276702404022 0.10920000076293945
0.004368278663605452 -0.012233063578605652 0.10909999907016754
0.00522410636767745 -0.012233063578605652 0.10909999907016754
0.005509382113814354 -0.012233063578605652 0.10909999907016754
0.005794658325612545 -0.012233063578605652 0.10909999907016754
0.006079934071749449 -0.012233063578605652 0.10909999907016754
0.007513193879276514 -0.012244276702404022 0.10920000076293945
0.007798731327056885 -0.012244276702404022 0.10920000076293945
0.008091672323644161 -0.012255488894879818 0.10929999500513077
0.008377471007406712 -0.012255488894879818 0.10929999500513077
0.008671196177601814 -0.012266701087355614 0.10939999669790268
0.008957256563007832 -0.012266701087355614 0.10939999669790268
0.00925176590681076 -0.012277914211153984 0.10949999839067459
0.009555508382618427 -0.01230033952742815 0.10969999432563782
0.009860297664999962 -0.012322764843702316 0.10989999771118164
0.010810209438204765 -0.012423679232597351 0.11079999804496765
0.011180073954164982 -0.01251338142901659 0.11159999668598175
0.01149244699627161 -0.012535806745290756 0.11180000007152557
0.012480093166232109 -0.012647933326661587 0.1127999946475029
0.012775043025612831 -0.012647933326661587 0.1127999946475029
0.013069993816316128 -0.012647933326661587 0.1127999946475029
0.013364944607019424 -0.012647933326661587 0.1127999946475029
0.01362356636673212 -0.012614295817911625 0.11249999701976776
0.013892989605665207 -0.012591869570314884 0.11229999363422394
0.014174000360071659 -0.012580657377839088 0.11219999939203262
0.014441593550145626 -0.012558232061564922 0.1119999960064888
0.014721295796334743 -0.012547018937766552 0.11189999431371689
0.014987059868872166 -0.012524593621492386 0.11169999837875366
0.016417982056736946 -0.01250216830521822 0.11149999499320984
0.01670953258872032 -0.01250216830521822 0.11149999499320984
0.017001084983348846 -0.01250216830521822 0.11149999499320984
0.017292635515332222 -0.01250216830521822 0.11149999499320984
0.017584187909960747 -0.01250216830521822 0.11149999499320984
0.017875738441944122 -0.01250216830521822 0.11149999499320984
0.018167290836572647 -0.01250216830521822 0.11149999499320984
0.018458841368556023 -0.01250216830521822 0.11149999499320984
0.018750393763184547 -0.01250216830521822 0.11149999499320984
0.01905902288854122 -0.01251338142901659 0.11159999668598175
0.021120622754096985 -0.012524593621492386 0.11169999837875366
0.021412698552012444 -0.012524593621492386 0.11169999837875366
0.022328829392790794 -0.012547018937766552 0.11189999431371689
0.022621426731348038 -0.012547018937766552 0.11189999431371689
-0.0028041487094014883 -0.012123007327318192 0.11069999635219574
-0.0025033310521394014 -0.012068251147866249 0.11019999533891678
-0.0022151789162307978 -0.012068251147866249 0.11019999533891678
-0.001925277872942388 -0.012057299725711346 0.11009999364614487
-0.0016373872058466077 -0.012057299725711346 0.11009999364614487
-0.0013494965387508273 -0.012057299725711346 0.11009999364614487
-0.0010606416035443544 -0.012046348303556442 0.10999999940395355
-0.0007730124052613974 -0.012046348303556442 0.10999999940395355
-0.0004853831196669489 -0.012046348303556442 0.10999999940395355
-0.00019775387772824615 -0.012046348303556442 0.10999999940395355
0.001239264733158052 -0.012035397812724113 0.10989999771118164
0.0015266324626281857 -0.012035397812724113 0.10989999771118164
0.0018123496556654572 -0.01202444639056921 0.10979999601840973
0.0020975437946617603 -0.012013494968414307 0.10969999432563782
0.0023843885865062475 -0.012013494968414307 0.10969999432563782
0.0026687984354794025 -0.012002543546259403 0.1096000000834465
0.0035221094731241465 -0.011980640701949596 0.10939999669790268
0.0038081698585301638 -0.011980640701949596 0.10939999669790268
0.004094230011105537 -0.011980640701949596 0.10939999669790268
0.005228894762694836 -0.011958738788962364 0.10920000076293945
0.005514432210475206 -0.011958738788962364 0.10920000076293945
0.005799969658255577 -0.011958738788962364 0.10920000076293945
0.006085507106035948 -0.011958738788962364 0.10920000076293945
0.007526954170316458 -0.011980640701949596 0.10939999669790268
0.007813014090061188 -0.011980640701949596 0.10939999669790268
0.00809907540678978 -0.011980640701949596 0.10939999669790268
0.008385135792195797 -0.011980640701949596 0.10939999669790268
0.008679122664034367 -0.0119915921241045 0.10949999839067459
0.008973632007837296 -0.012002543546259403 0.1096000000834465
0.009260214865207672 -0.012002543546259403 0.1096000000834465
0.009572929702699184 -0.012035397812724113 0.10989999771118164
0.009869270026683807 -0.012046348303556442 0.10999999940395355
0.010156898759305477 -0.012046348303556442 0.10999999940395355
0.010463518090546131 -0.012068251147866249 0.11019999533891678
0.010790696367621422 -0.012112055905163288 0.11059999465942383
0.011140002869069576 -0.012177763506770134 0.1111999973654747
0.011471887119114399 -0.012221568264067173 0.11159999668598175
0.01179532241076231 -0.012254421599209309 0.11189999431371689
0.012109525501728058 -0.012276324443519115 0.11209999769926071
0.012741067446768284 -0.012320129200816154 0.11249999701976776
0.013046820648014545 -0.012331080622971058 0.11259999871253967
0.01332939974963665 -0.012320129200816154 0.11249999701976776
0.01359934639185667 -0.012298226356506348 0.11229999363422394
0.013868247158825397 -0.012276324443519115 0.11209999769926071
0.014148734509944916 -0.012265373021364212 0.1119999960064888
0.0144286984577775 -0.012254421599209309 0.11189999431371689
0.014694985002279282 -0.012232519686222076 0.11169999837875366
0.01497364230453968 -0.012221568264067173 0.11159999668598175
0.015238097868859768 -0.01219966635107994 0.11140000075101852
0.015501507557928562 -0.012177763506770134 0.1111999973654747
0.018167290836572647 -0.01221061684191227 0.11149999499320984
0.018458841368556023 -0.01221061684191227 0.11149999499320984
0.018750393763184547 -0.01221061684191227 0.11149999499320984
0.01905902288854122 -0.012221568264067173 0.11159999668598175
0.022328829392790794 -0.012254421599209309 0.11189999431371689
0.022621426731348038 -0.012254421599209309 0.11189999431371689
-0.002801615744829178 -0.011822857894003391 0.11059999465942383
-0.0025010593235492706 -0.011769408360123634 0.11009999364614487
-0.0022131686564534903 -0.011769408360123634 0.11009999364614487
-0.001925277872942388 -0.011769408360123634 0.11009999364614487
-0.0016373872058466077 -0.011769408360123634 0.11009999364614487
-0.0013482708018273115 -0.011758719570934772 0.10999999940395355
-0.0010606416035443544 -0.011758719570934772 0.10999999940395355
-0.0007730124052613974 -0.011758719570934772 0.10999999940395355
-0.0004853831196669489 -0.011758719570934772 0.10999999940395355
-0.00019775387772824615 -0.011758719570934772 0.10999999940395355
8.979365520644933e-05 -0.011748029850423336 0.10989999771118164
0.0003771614283323288 -0.011748029850423336 0.10989999771118164
0.001239264733158052 -0.011748029850423336 0.10989999771118164
0.001523854210972786 -0.011726649478077888 0.10969999432563782
0.0018106990028172731 -0.011726649478077888 0.10969999432563782
0.0020956317894160748 -0.011715960688889027 0.1096000000834465
0.0023822151124477386 -0.011715960688889027 0.1096000000834465
0.0026687984354794025 -0.011715960688889027 0.1096000000834465
0.004090487491339445 -0.011683890596032143 0.10929999500513077
0.004376286640763283 -0.011683890596032143 0.10929999500513077
0.005228894762694836 -0.01167320180684328 0.10920000076293945
0.005514432210475206 -0.01167320180684328 0.10920000076293945
0.007526954170316458 -0.011694581247866154 0.10939999669790268
0.007820156402885914 -0.01170527096837759 0.10949999839067459
0.008106478489935398 -0.01170527096837759 0.10949999839067459
0.008400465361773968 -0.011715960688889027 0.1096000000834465
0.008687048219144344 -0.011715960688889027 0.1096000000834465
0.00898181926459074 -0.011726649478077888 0.10969999432563782
0.009268663823604584 -0.011726649478077888 0.10969999432563782
0.009572929702699184 -0.011748029850423336 0.10989999771118164
0.009869270026683807 -0.011758719570934772 0.10999999940395355
0.010166131891310215 -0.011769408360123634 0.11009999364614487
0.010463518090546131 -0.011780099011957645 0.11019999533891678
0.01078093983232975 -0.011812168173491955 0.11050000041723251
0.011119966395199299 -0.011865616776049137 0.11099999397993088
0.011763700284063816 -0.011929755099117756 0.11159999668598175
0.012087919749319553 -0.011961824260652065 0.11189999431371689
0.012391581200063229 -0.011972513981163502 0.1119999960064888
0.012684440240263939 -0.011972513981163502 0.1119999960064888
0.013282006606459618 -0.011983203701674938 0.11209999769926071
0.013563016429543495 -0.011972513981163502 0.1119999960064888
0.013843503780663013 -0.011961824260652065 0.11189999431371689
0.014136101119220257 -0.011961824260652065 0.11189999431371689
0.014946808107197285 -0.011908375658094883 0.11140000075101852
0.015183382667601109 -0.011865616776049137 0.11099999397993088
0.015473626554012299 -0.011865616776049137 0.11099999397993088
0.01573546789586544 -0.011844237335026264 0.11079999804496765
0.01602518931031227 -0.011844237335026264 0.11079999804496765
0.016344359144568443 -0.011865616776049137 0.11099999397993088
0.01663460209965706 -0.011865616776049137 0.11099999397993088
0.016924846917390823 -0.011865616776049137 0.11099999397993088
0.017230600118637085 -0.011876306496560574 0.11109999567270279
0.01753687672317028 -0.01188699621707201 0.1111999973654747
0.01785970851778984 -0.011908375658094883 0.11140000075101852
0.018150998279452324 -0.011908375658094883 0.11140000075101852
0.018458841368556023 -0.01191906537860632 0.11149999499320984
0.018750393763184547 -0.01191906537860632 0.11149999499320984
0.01905902288854122 -0.011929755099117756 0.11159999668598175
0.01935083605349064 -0.011929755099117756 0.11159999668598175
0.01966024935245514 -0.011940444819629192 0.11169999837875366
0.019952325150370598 -0.011940444819629192 0.11169999837875366
0.020244400948286057 -0.011940444819629192 0.11169999837875366
0.020536474883556366 -0.011940444819629192 0.11169999837875366
0.020828548818826675 -0.011940444819629192 0.11169999837875366
0.022328829392790794 -0.011961824260652065 0.11189999431371689
0.022621426731348038 -0.011961824260652065 0.11189999431371689
-0.002801615744829178 -0.011533659882843494 0.11059999465942383
-0.0025010593235492706 -0.011481517925858498 0.11009999364614487
-0.0022131686564534903 -0.011481517925858498 0.11009999364614487
-0.001925277872942388 -0.011481517925858498 0.11009999364614487
-0.0016359001165255904 -0.011471089906990528 0.10999999940395355
-0.0013482708018273115 -0.011471089906990528 0.10999999940395355
-0.0010606416035443544 -0.011471089906990528 0.10999999940395355
-0.0007730124052613974 -0.011471089906990528 0.10999999940395355
-0.0004853831196669489 -0.011471089906990528 0.10999999940395355
-0.00019775387772824615 -0.011471089906990528 0.10999999940395355
8.979365520644933e-05 -0.011460661888122559 0.10989999771118164
0.0003771614283323288 -0.011460661888122559 0.10989999771118164
0.0012370094191282988 -0.011439804919064045 0.10969999432563782
0.001522465143352747 -0.011429376900196075 0.1096000000834465
0.0018090485827997327 -0.011429376900196075 0.1096000000834465
0.0020956317894160748 -0.011429376900196075 0.1096000000834465
0.0023800416383892298 -0.011418948881328106 0.10949999839067459
0.0026639283169060946 -0.011408520862460136 0.10939999669790268
0.004094230011105537 -0.011408520862460136 0.10939999669790268
0.004376286640763283 -0.011398091912269592 0.10929999500513077
0.004662085324525833 -0.011398091912269592 0.10929999500513077
0.004943357314914465 -0.011387663893401623 0.10920000076293945
0.005228894762694836 -0.011387663893401623 0.10920000076293945
0.005514432210475206 -0.011387663893401623 0.10920000076293945
0.007827297784388065 -0.011429376900196075 0.1096000000834465
0.008121284656226635 -0.011439804919064045 0.10969999432563782
0.008408129215240479 -0.011439804919064045 0.10969999432563782
0.008702900260686874 -0.011450233869254589 0.10979999601840973
0.008990006521344185 -0.011450233869254589 0.10979999601840973
0.009285562671720982 -0.011460661888122559 0.10989999771118164
0.009572929702699184 -0.011460661888122559 0.10989999771118164
0.009869270026683807 -0.011471089906990528 0.10999999940395355
0.010166131891310215 -0.011481517925858498 0.11009999364614487
0.010454023256897926 -0.011481517925858498 0.11009999364614487
0.010751670226454735 -0.011491946876049042 0.11019999533891678
0.011069877073168755 -0.011523231863975525 0.11050000041723251
0.011389651335775852 -0.011554515920579433 0.11079999804496765
0.01174261886626482 -0.0116170858964324 0.11140000075101852
0.012358389794826508 -0.011648370884358883 0.11169999837875366
0.01266179047524929 -0.011658798903226852 0.11180000007152557
0.012954126112163067 -0.011658798903226852 0.11180000007152557
0.013246461749076843 -0.011658798903226852 0.11180000007152557
0.01353879738599062 -0.011658798903226852 0.11180000007152557
0.013818762265145779 -0.011648370884358883 0.11169999837875366
0.014110836200416088 -0.011648370884358883 0.11169999837875366
0.014629206620156765 -0.011596228927373886 0.1111999973654747
0.014866304583847523 -0.011554515920579433 0.11079999804496765
0.01512866746634245 -0.011533659882843494 0.11059999465942383
0.015403926372528076 -0.011523231863975525 0.11050000041723251
0.01569286361336708 -0.011523231863975525 0.11050000041723251
0.015996262431144714 -0.011533659882843494 0.11059999465942383
0.01628546044230461 -0.011533659882843494 0.11059999465942383
0.01658964529633522 -0.011544087901711464 0.11069999635219574
0.016894351691007614 -0.011554515920579433 0.11079999804496765
0.01721508987247944 -0.011575371958315372 0.11099999397993088
0.018150998279452324 -0.0116170858964324 0.11140000075101852
0.018442288041114807 -0.0116170858964324 0.11140000075101852
0.020536474883556366 -0.011648370884358883 0.11169999837875366
0.020828548818826675 -0.011648370884358883 0.11169999837875366
0.021120622754096985 -0.011648370884358883 0.11169999837875366
0.021412698552012444 -0.011648370884358883 0.11169999837875366
0.022308874875307083 -0.011658798903226852 0.11180000007152557
0.022621426731348038 -0.011669226922094822 0.11189999431371689
-0.0028066819068044424 -0.011264795437455177 0.11079999804496765
-0.0025033310521394014 -0.011203793808817863 0.11019999533891678
-0.0022131686564534903 -0.011193627491593361 0.11009999364614487
-0.0019235293148085475 -0.011183461174368858 0.10999999940395355
-0.0016373872058466077 -0.011193627491593361 0.11009999364614487
-0.0013482708018273115 -0.011183461174368858 0.10999999940395355
-0.0010606416035443544 -0.011183461174368858 0.10999999940395355
-0.0007730124052613974 -0.011183461174368858 0.10999999940395355
-0.0004853831196669489 -0.011183461174368858 0.10999999940395355
-0.0001975741033675149 -0.011173293925821781 0.10989999771118164
8.979365520644933e-05 -0.011173293925821781 0.10989999771118164
0.0003771614283323288 -0.011173293925821781 0.10989999771118164
0.0012370094191282988 -0.011152960360050201 0.10969999432563782
0.001522465143352747 -0.011142794042825699 0.1096000000834465
0.0018073979299515486 -0.011132626794278622 0.10949999839067459
0.00209180754609406 -0.011122460477054119 0.10939999669790268
0.0023778679315000772 -0.011122460477054119 0.10939999669790268
0.0026639283169060946 -0.011122460477054119 0.10939999669790268
0.00408674543723464 -0.01110212691128254 0.10920000076293945
0.004372282885015011 -0.01110212691128254 0.10920000076293945
0.0046578203327953815 -0.01110212691128254 0.10920000076293945
0.004943357314914465 -0.01110212691128254 0.10920000076293945
0.005228894762694836 -0.01110212691128254 0.10920000076293945
0.005514432210475206 -0.01110212691128254 0.10920000076293945
0.005799969658255577 -0.01110212691128254 0.10920000076293945
0.006085507106035948 -0.01110212691128254 0.10920000076293945
0.006961190607398748 -0.011132626794278622 0.10949999839067459
0.0072541311383247375 -0.011142794042825699 0.1096000000834465
0.007547594606876373 -0.011152960360050201 0.10969999432563782
0.007834439165890217 -0.011152960360050201 0.10969999432563782
0.008408129215240479 -0.011152960360050201 0.10969999432563782
0.008710826747119427 -0.011173293925821781 0.10989999771118164
0.008998194709420204 -0.011173293925821781 0.10989999771118164
0.009285562671720982 -0.011173293925821781 0.10989999771118164
0.009572929702699184 -0.011173293925821781 0.10989999771118164
0.009869270026683807 -0.011183461174368858 0.10999999940395355
0.010166131891310215 -0.011193627491593361 0.11009999364614487
0.010454023256897926 -0.011193627491593361 0.11009999364614487
0.010751670226454735 -0.011203793808817863 0.11019999533891678
0.011049840599298477 -0.01121396105736494 0.11029999703168869
0.011358813382685184 -0.011234295554459095 0.11050000041723251
0.011679372750222683 -0.011264795437455177 0.11079999804496765
0.012325198389589787 -0.011325796134769917 0.11140000075101852
0.012907778844237328 -0.011325796134769917 0.11140000075101852
0.01319906860589981 -0.011325796134769917 0.11140000075101852
0.013490358367562294 -0.011325796134769917 0.11140000075101852
0.013756905682384968 -0.011305462568998337 0.1111999973654747
0.014035039581358433 -0.01129529532045126 0.11109999567270279
0.014286862686276436 -0.011264795437455177 0.11079999804496765
0.014550271444022655 -0.011244460940361023 0.11059999465942383
0.014812635257840157 -0.011224128305912018 0.1103999987244606
0.01566445827484131 -0.01121396105736494 0.11029999703168869
0.01595287211239338 -0.01121396105736494 0.11029999703168869
0.0168486088514328 -0.011234295554459095 0.11050000041723251
0.017505334690213203 -0.011285128071904182 0.11099999397993088
0.01779557764530182 -0.011285128071904182 0.11099999397993088
0.01811840943992138 -0.011305462568998337 0.1111999973654747
0.018442288041114807 -0.011325796134769917 0.11140000075101852
0.018750393763184547 -0.011335962451994419 0.11149999499320984
0.01905902288854122 -0.011346129700541496 0.11159999668598175
0.01935083605349064 -0.011346129700541496 0.11159999668598175
0.019642649218440056 -0.011346129700541496 0.11159999668598175
0.019952325150370598 -0.011356296017765999 0.11169999837875366
0.020244400948286057 -0.011356296017765999 0.11169999837875366
0.020518088713288307 -0.011346129700541496 0.11159999668598175
0.020828548818826675 -0.011356296017765999 0.11169999837875366
0.021120622754096985 -0.011356296017765999 0.11169999837875366
0.021412698552012444 -0.011356296017765999 0.11169999837875366
0.022308874875307083 -0.011366463266313076 0.11180000007152557
0.022621426731348038 -0.011376629583537579 0.11189999431371689
-0.0028066819068044424 -0.010975074023008347 0.11079999804496765
-0.0025033310521394014 -0.01091564167290926 0.11019999533891678
-0.0016373872058466077 -0.010905737057328224 0.11009999364614487
-0.0013482708018273115 -0.010895831510424614 0.10999999940395355
-0.0010606416035443544 -0.010895831510424614 0.10999999940395355
-0.0007730124052613974 -0.010895831510424614 0.10999999940395355
-0.0004853831196669489 -0.010895831510424614 0.10999999940395355
-0.0001975741033675149 -0.010885925963521004 0.10989999771118164
8.979365520644933e-05 -0.010885925963521004 0.10989999771118164
0.0003771614283323288 -0.010885925963521004 0.10989999771118164
0.0006639244966208935 -0.010876021347939968 0.10979999601840973
0.0009501645690761507 -0.010866115801036358 0.10969999432563782
0.001235881820321083 -0.010856211185455322 0.1096000000834465
0.001522465143352747 -0.010856211185455322 0.1096000000834465
0.0018073979299515486 -0.010846305638551712 0.10949999839067459
0.00209180754609406 -0.010836400091648102 0.10939999669790268
0.0023778679315000772 -0.010836400091648102 0.10939999669790268
0.0026639283169060946 -0.010836400091648102 0.10939999669790268
0.0029472920577973127 -0.010826494544744492 0.10929999500513077
0.003230133093893528 -0.010816589929163456 0.10920000076293945
0.004662085324525833 -0.010826494544744492 0.10929999500513077
0.0049478840082883835 -0.010826494544744492 0.10929999500513077
0.005233683157712221 -0.010826494544744492 0.10929999500513077
0.0055194818414747715 -0.010826494544744492 0.10929999500513077
0.005805280525237322 -0.010826494544744492 0.10929999500513077
0.006096652243286371 -0.010836400091648102 0.10939999669790268
0.006382713094353676 -0.010836400091648102 0.10939999669790268
0.006674869451671839 -0.010846305638551712 0.10949999839067459
0.006961190607398748 -0.010846305638551712 0.10949999839067459
0.007547594606876373 -0.010866115801036358 0.10969999432563782
0.007834439165890217 -0.010866115801036358 0.10969999432563782
0.008128687739372253 -0.010876021347939968 0.10979999601840973
0.00842345878481865 -0.010885925963521004 0.10989999771118164
0.008710826747119427 -0.010885925963521004 0.10989999771118164
0.008998194709420204 -0.010885925963521004 0.10989999771118164
0.009285562671720982 -0.010885925963521004 0.10989999771118164
0.009581640362739563 -0.010895831510424614 0.10999999940395355
0.009869270026683807 -0.010895831510424614 0.10999999940395355
0.010156898759305477 -0.010895831510424614 0.10999999940395355
0.010454023256897926 -0.010905737057328224 0.11009999364614487
0.010741913691163063 -0.010905737057328224 0.11009999364614487
0.011039822362363338 -0.01091564167290926 0.11019999533891678
0.011327974498271942 -0.01091564167290926 0.11019999533891678
0.011637208983302116 -0.01093545276671648 0.1103999987244606
0.01194748841226101 -0.010955262929201126 0.11059999465942383
0.012247750535607338 -0.010965168476104736 0.11069999635219574
0.012537210248410702 -0.010965168476104736 0.11069999635219574
0.012826669961214066 -0.010965168476104736 0.11069999635219574
0.013127977959811687 -0.010975074023008347 0.11079999804496765
0.013417699374258518 -0.010975074023008347 0.11079999804496765
0.013682677410542965 -0.010955262929201126 0.11059999465942383
0.014772383496165276 -0.010905737057328224 0.11009999364614487
0.015046595595777035 -0.010895831510424614 0.10999999940395355
0.015348164364695549 -0.010905737057328224 0.11009999364614487
0.015636054798960686 -0.010905737057328224 0.11009999364614487
0.015923945233225822 -0.010905737057328224 0.11009999364614487
0.016514712944626808 -0.01091564167290926 0.11019999533891678
0.01681811362504959 -0.01092554721981287 0.11029999703168869
0.017137546092271805 -0.01094535831362009 0.11050000041723251
0.0174422524869442 -0.010955262929201126 0.11059999465942383
0.017763514071702957 -0.010975074023008347 0.11079999804496765
0.018053235486149788 -0.010975074023008347 0.11079999804496765
0.018376067280769348 -0.010994884185492992 0.11099999397993088
0.018699944019317627 -0.011014695279300213 0.1111999973654747
0.018990710377693176 -0.011014695279300213 0.1111999973654747
0.019316157326102257 -0.011034506373107433 0.11140000075101852
0.019625047221779823 -0.011044410988688469 0.11149999499320984
0.022308874875307083 -0.0110741276293993 0.11180000007152557
0.022601211443543434 -0.0110741276293993 0.11180000007152557
-0.0025056027807295322 -0.010637134313583374 0.11029999703168869
-0.0016373872058466077 -0.010617845691740513 0.11009999364614487
-0.0013482708018273115 -0.010608202777802944 0.10999999940395355
-0.0010606416035443544 -0.010608202777802944 0.10999999940395355
-0.0007730124052613974 -0.010608202777802944 0.10999999940395355
-0.0004853831196669489 -0.010608202777802944 0.10999999940395355
-0.0001975741033675149 -0.010598558932542801 0.10989999771118164
8.979365520644933e-05 -0.010598558932542801 0.10989999771118164
0.0003771614283323288 -0.010598558932542801 0.10989999771118164
0.0006639244966208935 -0.010588915087282658 0.10979999601840973
0.0009501645690761507 -0.01057927031069994 0.10969999432563782
0.0018073979299515486 -0.010559983551502228 0.10949999839067459
0.00209180754609406 -0.010550339706242085 0.10939999669790268
0.0023778679315000772 -0.010550339706242085 0.10939999669790268
0.0026639283169060946 -0.010550339706242085 0.10939999669790268
0.004666350781917572 -0.010550339706242085 0.10939999669790268
0.004952411167323589 -0.010550339706242085 0.10939999669790268
0.005238471552729607 -0.010550339706242085 0.10939999669790268
0.005524531938135624 -0.010550339706242085 0.10939999669790268
0.005810591857880354 -0.010550339706242085 0.10939999669790268
0.006096652243286371 -0.010550339706242085 0.10939999669790268
0.0063885473646223545 -0.010559983551502228 0.10949999839067459
0.006680964957922697 -0.010569627396762371 0.1096000000834465
0.006973905023187399 -0.01057927031069994 0.10969999432563782
0.0072607495822012424 -0.01057927031069994 0.10969999432563782
0.008136091753840446 -0.010598558932542801 0.10989999771118164
0.00842345878481865 -0.010598558932542801 0.10989999771118164
0.008710826747119427 -0.010598558932542801 0.10989999771118164
0.008998194709420204 -0.010598558932542801 0.10989999771118164
0.009294011630117893 -0.010608202777802944 0.10999999940395355
0.009581640362739563 -0.010608202777802944 0.10999999940395355
0.009869270026683807 -0.010608202777802944 0.10999999940395355
0.010156898759305477 -0.010608202777802944 0.10999999940395355
0.010444528423249722 -0.010608202777802944 0.10999999940395355
0.010741913691163063 -0.010617845691740513 0.11009999364614487
0.0110298041254282 -0.010617845691740513 0.11009999364614487
0.011317694559693336 -0.010617845691740513 0.11009999364614487
0.011616126634180546 -0.010627489537000656 0.11019999533891678
0.01190427877008915 -0.010627489537000656 0.11019999533891678
0.012192430905997753 -0.010627489537000656 0.11019999533891678
0.012480583041906357 -0.010627489537000656 0.11019999533891678
0.01276873517781496 -0.010627489537000656 0.11019999533891678
0.013056887313723564 -0.010627489537000656 0.11019999533891678
0.013345039449632168 -0.010627489537000656 0.11019999533891678
0.013620820827782154 -0.010617845691740513 0.11009999364614487
0.01390871126204729 -0.010617845691740513 0.11009999364614487
0.014758966863155365 -0.010608202777802944 0.10999999940395355
0.015032917261123657 -0.010598558932542801 0.10989999771118164
0.01533422525972128 -0.010608202777802944 0.10999999940395355
0.015621853992342949 -0.010608202777802944 0.10999999940395355
0.015909483656287193 -0.010608202777802944 0.10999999940395355
0.016197113320231438 -0.010608202777802944 0.10999999940395355
0.016499727964401245 -0.010617845691740513 0.11009999364614487
0.016802866011857986 -0.010627489537000656 0.11019999533891678
0.017699386924505234 -0.010646778158843517 0.1103999987244606
0.018599044531583786 -0.01066606491804123 0.11059999465942383
0.01890532113611698 -0.010675708763301373 0.11069999635219574
0.01921212114393711 -0.01068535353988409 0.11079999804496765
0.01953704282641411 -0.010704640299081802 0.11099999397993088
0.019827287644147873 -0.010704640299081802 0.11099999397993088
0.020135655999183655 -0.010714284144341946 0.11109999567270279
0.022308874875307083 -0.010781791061162949 0.11180000007152557
0.022621426731348038 -0.010791434906423092 0.11189999431371689
-0.00251014600507915 -0.01036748569458723 0.11050000041723251
-0.0022171891760081053 -0.010348720476031303 0.11029999703168869
-0.001925277872942388 -0.010329955257475376 0.11009999364614487
-0.0016373872058466077 -0.010329955257475376 0.11009999364614487
-0.0013482708018273115 -0.0103205731138587 0.10999999940395355
-0.0010606416035443544 -0.0103205731138587 0.10999999940395355
-0.0007730124052613974 -0.0103205731138587 0.10999999940395355
-0.0004853831196669489 -0.0103205731138587 0.10999999940395355
-0.00019775387772824615 -0.0103205731138587 0.10999999940395355
8.979365520644933e-05 -0.010311190970242023 0.10989999771118164
