ply
format ascii 1.0
element vertex 729
property float x
property float y
property float z
end_header
-0.005821927503004151 0.002374633101963479 0.0018544913036748767
-0.006092808479829604 0.002915094938584994 0.0018544913036748767
-0.007259683511700903 0.00513847959329232 0.0014544919831678271
-0.007573647918305928 0.005712516983326994 0.0012544885976240039
-0.007909855943211164 0.006304745705797294 0.000954490969888866
-0.008225927722241705 0.006882989804667524 0.0007544950349256396
-0.008542938428688276 0.0074631072519052485 0.0005544916493818164
0.0008101362243517824 -0.010784693158647381 -0.0032455057371407747
0.0006087585324961083 -0.01023275944828636 -0.002645510481670499
-0.0003427857401512984 -0.008033945612014433 -0.0014455049531534314
-0.00047392671149170854 -0.007522051664336932 -0.000445510377176106
-0.0011482338565992041 -0.005926430264358281 0.0005544916493818164
-0.0013907903453017477 -0.005392431094091348 0.0007544950349256396
-0.0016960868410484274 -0.004833353763955675 0.0005544916493818164
-0.0023422664066070848 -0.003694242963457023 -4.5511056669056416e-05
-0.0026175983166855893 -0.003144900622974308 -4.5511056669056416e-05
-0.0029097859446120767 -0.0025869487722981702 -0.0001455052988603711
-0.003168263793006235 -0.002046212637630508 -4.5511056669056416e-05
-0.0034435965442072163 -0.0014968686189398804 -4.5511056669056416e-05
-0.003683809059298607 -0.0009675461457881249 0.00015449232887476683
-0.0038875000307485425 -0.0004610452645474268 0.0005544916493818164
-0.004071288155915421 3.077063159711717e-05 0.0010544926626607776
-0.004252731883649745 0.0005179089850178454 0.0015544936759397388
-0.004468826801086717 0.0010241330423929728 0.0018544913036748767
-0.004720975878442171 0.0015522461674824183 0.0019544928800314665
-0.004972655805065416 0.0020794232428375725 0.002054494572803378
-0.006758096066938441 0.005441539168714956 0.0012544885976240039
-0.007133407922439197 0.006065241862967586 0.0007544950349256396
-0.007448546359685961 0.006643955838841158 0.0005544916493818164
-0.007764621222545185 0.007224540249986201 0.00035448826383799314
-0.008060324192714411 0.007789503834450616 0.00025449402164667845
0.0016193534425070753 -0.011062083673446752 -0.0035455108154565096
0.0013873138653525763 -0.010503689961255886 -0.00314551149494946
0.00040885030603094564 -0.008289029292303284 -0.002045507775619626
-0.0003277688531097589 -0.006199042803021972 0.0005544916493818164
-0.0006016957104728104 -0.005652503824296304 0.0005544916493818164
-0.0008756221505347878 -0.00510596567816991 0.0005544916493818164
-0.0014548469202717797 -0.003998010304931231 0.00035448826383799314
-0.0017451611553866303 -0.0034426302079075665 0.00025449402164667845
-0.0020359461021069707 -0.0028863151039015766 0.00015449232887476683
-0.00229442034012926 -0.002346748056099909 0.00025449402164667845
-0.0025690495021588426 -0.001798807838814082 0.00025449402164667845
-0.0028099658374348053 -0.0012704194197654796 0.00045448995660990477
-0.0030328510520379265 -0.000754145480058033 0.0007544950349256396
-0.0032543307881013183 -0.00024067783021589385 0.0010544926626607776
-0.0034568454796829787 0.00025880781810964275 0.0014544919831678271
-0.003675279752509846 0.0007661991584469032 0.001754489610902965
-0.003910336341590184 0.0012828982879740485 0.0019544928800314665
-0.004162718816534404 0.0018103089690677877 0.002054494572803378
-0.004414633809950709 0.0023367869308243325 0.002154488814994693
-0.004973953668862525 0.003428885080830547 0.002054494572803378
-0.0052827672384578835 0.003997315916080914 0.0018544913036748767
-0.006254636310551831 0.005745532984928033 0.0010544926626607776
-0.00662808177349759 0.006371344132776741 0.0005544916493818164
-0.006963123097465806 0.006968249609815724 0.00025449402164667845
-0.007278967353549517 0.007550705995142269 5.4490636102855206e-05
-0.007574906805136193 0.00811730744788579 -4.5511056669056416e-05
0.00242084421597624 -0.011339745368083543 -0.0039455099031329155
0.00019020745043860654 -0.005913509729558123 0.00035448826383799314
-5.515673174714219e-05 -0.005378576966933253 0.0005544916493818164
-0.0003438333471541747 -0.004825300287471624 0.00045448995660990477
-0.0006179944147448912 -0.004278294012403175 0.00045448995660990477
-0.0008921549607092652 -0.0037312887780838193 0.00045448995660990477
-0.001166315923974713 -0.0031842827111651893 0.00045448995660990477
-0.0014247898709844455 -0.002645884362952916 0.0005544916493818164
-0.002148230669019953 -0.0010663350844544973 0.0011544943554326892
-0.002387503096685564 -0.0005435586714627655 0.0013544902903959155
-0.0026258382575815088 -2.2652293516220432e-05 0.0015544936759397388
-0.0028632369948678677 0.0004963857316584767 0.001754489610902965
-0.0030996976393403448 0.0010135520736642277 0.0019544928800314665
-0.0033527817256809966 0.0015411965696478062 0.002054494572803378
-0.003587603209532751 0.0020550903792039264 0.0022544905077666044
-0.003857545989219054 0.002593680324506677 0.0022544905077666044
-0.004452927299318547 0.0037135164490651553 0.0019544928800314665
-0.004742307067034917 0.004268196058304219 0.0018544913036748767
-0.0053800758215881974 0.005427223662826111 0.0013544902903959155
-0.005729872154293594 0.006034377516662373 0.000954490969888866
-0.0060815427947719216 0.006645270990139792 0.0005544916493818164
-0.006415182021561977 0.0072428792021870395 0.00025449402164667845
-0.006730091268660489 0.007825804216619452 5.4490636102855206e-05
-0.007025562799454929 0.008392640192566444 -4.5511056669056416e-05
0.0029884213131685117 -0.011055274147187948 -0.0039455099031329155
0.0027507676009508246 -0.010495015748079031 -0.0035455108154565096
0.0025030497134341948 -0.00993620020589747 -0.0032455057371407747
0.0022567377132351662 -0.009380189690671505 -0.002945508109405637
0.0017430485213285635 -0.008269185188703163 -0.0025455087888985872
0.0014876102299939365 -0.007716488797273861 -0.002345505403354764
0.0013248814655816613 -0.007198106166749271 -0.0014455049531534314
0.0012064045175432959 -0.0067034460675978414 -0.00024550699163228273
0.0006962413964107652 -0.005621001765627235 5.4490636102855206e-05
0.0004492386376322801 -0.005085135952231144 0.00025449402164667845
0.00017460904526096538 -0.004537194876327315 0.00025449402164667845
-0.00010002065143561782 -0.003989253592273668 0.00025449402164667845
-0.0003451488937906349 -0.003457127814818371 0.00045448995660990477
-0.0006043252847960743 -0.002918496069017332 0.0005544916493818164
-0.0008325936038654674 -0.002398486313818969 0.0008544892771169543
-0.0010594564529183335 -0.0018812807529769275 0.0011544943554326892
-0.0015408085591654104 -0.0008347952176460848 0.0015544936759397388
-0.0017800787371969656 -0.0003143574525437021 0.001754489610902965
-0.0020348025257450582 0.00021539045899903977 0.0018544913036748767
-0.0023056835025705115 0.000755852295620555 0.0018544913036748767
-0.0025428446328247165 0.0012720820877282026 0.002054494572803378
-0.0027961637839555567 0.0017990253876135499 0.002154488814994693
-0.003049012223480907 0.0023250336805165717 0.0022544905077666044
-0.00331895500316721 0.002863623625819322 0.0022544905077666044
-0.00362449141557135 0.003430184194528004 0.002054494572803378
-0.003912934216088543 0.003984162485386064 0.0019544928800314665
-0.004201846063012676 0.004539076617828599 0.0018544913036748767
-0.004491226121741603 0.005094924926657056 0.001754489610902965
-0.004818543271693506 0.005683419528266893 0.0014544919831678271
-0.0058672417782574225 0.00751750837725728 0.00025449402164667845
-0.006181215183771462 0.008100902438096634 5.4490636102855206e-05
-0.006476219626372941 0.008667972519946021 -4.5511056669056416e-05
-0.006791831357905555 0.009254637448036456 -0.00024550699163228273
0.0038189339767136306 -0.011336121646006404 -0.004145505838096142
0.0035339941267121693 -0.010767609539828934 -0.004145505838096142
0.002561391740107615 -0.008542093400741378 -0.0027455047238618135
0.0023040805556244458 -0.007987994371548637 -0.0025455087888985872
0.0020725233135884358 -0.007444570049599812 -0.0021455094683915377
0.0017309285505156598 -0.006416972070068462 -0.000445510377176106
0.0009564394492654985 -0.004790287800311087 -4.5511056669056416e-05
0.00043387198480523205 -0.003706949331967216 0.00015449232887476683
0.0002018571731279953 -0.0031829668515529234 0.00045448995660990477
-4.3268820000486254e-05 -0.002653179721173891 0.000654493342153728
-0.0002579535383733273 -0.002143417386889326 0.0010544926626607776
-0.00048575110539883536 -0.0016278491547425454 0.0013544902903959155
-0.000968035969774493 -0.0005841708988461745 0.001754489610902965
-0.0012234622120987865 -5.418957020062096e-05 0.0018544913036748767
-0.001494342354322092 0.00048627060122234526 0.0018544913036748767
-0.0017490650192583535 0.0010148502304767667 0.0019544928800314665
-0.0020033186377876743 0.0015424940181467148 0.002054494572803378
-0.002257105709710751 0.002069202794828592 0.002154488814994693
-0.0025104220700283377 0.002594976564528143 0.0022544905077666044
-0.0027974604198155663 0.0031473187351683846 0.002154488814994693
-0.0030849654205343077 0.0037005961249465162 0.002054494572803378
-0.0033729411328585384 0.004254808521706973 0.0019544928800314665
-0.00366138589158971 0.004809956760051904 0.0018544913036748767
-0.0039502980295264 0.005366039592083832 0.001754489610902965
-0.004257945730784013 0.005939146764601808 0.0015544936759397388
-0.004585033608225645 0.006530684121480728 0.0012544885976240039
-0.00495099454127514 0.0071590735240931016 0.0007544950349256396
-0.005300332283030623 0.007774646956247785 0.00035448826383799314
-0.005632339098882435 0.008376000659573815 5.4490636102855206e-05
-0.005926875620691677 0.008943305264626673 -4.5511056669056416e-05
-0.006202208365372329 0.009492649270307936 -4.5511056669056416e-05
0.004377145135162153 -0.011049818085063797 -0.0042455075308680534
0.0041025062328896396 -0.010482669689827473 -0.004145505838096142
0.0038175663828881783 -0.009914157583650003 -0.004145505838096142
0.0035546326484607923 -0.009351176678412941 -0.0039455099031329155
0.003326351622666461 -0.008799766560579828 -0.003445509122684598
0.003100413742401465 -0.008253031487672705 -0.002945508109405637
0.0028651117573210536 -0.007706803971695185 -0.0025455087888985872
0.0026316853299139208 -0.007164316490657021 -0.0021455094683915377
0.0023879573308291033 -0.0066204661322784245 -0.001845511724241078
0.0022076843192362972 -0.006107275391528126 -0.0010455056326463819
0.0019932276454173773 -0.005583449704958352 -0.0005455120699480176
0.001729601735783274 -0.005038274437173828 -0.000445510377176106
0.001479558427519536 -0.0045010083585250394 -0.00024550699163228273
0.001230449877666836 -0.003965611467250245 -4.5511056669056416e-05
0.0007212323253017987 -0.002892054164226484 0.00025449402164667845
0.0004887518400559877 -0.002370642771592303 0.0005544916493818164
0.00028624750158970743 -0.0018706623109414789 0.0010544926626607776
5.704700478676443e-05 -0.0013557972311040356 0.0013544902903959155
-0.00017074635479822942 -0.0008437375935203888 0.0016544879181310534
-0.00042710787755929024 -0.0003130562334193987 0.001754489610902965
-0.0009538813502998511 0.0007571511607467245 0.0018544913036748767
-0.0012090719360283492 0.0012854962667976757 0.0019544928800314665
-0.0014637934753499065 0.0018129055312641534 0.002054494572803378
-0.0017342054057684188 0.0023524315263011956 0.002054494572803378
-0.0020046165015847836 0.0028919558561396894 0.002054494572803378
-0.0022750283276780276 0.0034314816430269126 0.002054494572803378
-0.0025454402580965397 0.0039710076380639545 0.002054494572803378
-0.002832948049628534 0.0045254545580278825 0.0019544928800314665
-0.0031035945032505167 0.005065448473857162 0.0019544928800314665
-0.003391805029790775 0.00562129749099925 0.0018544913036748767
-0.0036804846027379736 0.0061780823497258105 0.001754489610902965
-0.003987666550067865 0.006752594409233764 0.0015544936759397388
-0.004332319999417053 0.007363494215092589 0.0011544943554326892
-0.004678848797788983 0.007978133639591134 0.0007544950349256396
-0.005008517092853048 0.008578321725153578 0.00045448995660990477
-0.005320619645794542 0.009162651379006116 0.00025449402164667845
-0.005614454556207351 0.009729722169169135 0.00015449232887476683
0.004650883214770891 -0.01019359962549259 -0.004345509223639965
0.0043654747356635625 -0.009624152510329921 -0.004345509223639965
0.004101138195744386 -0.009060704807912455 -0.004145505838096142
0.0038377384987387424 -0.008499128373365734 -0.0039455099031329155
0.003597286507245066 -0.00794729180280321 -0.0035455108154565096
0.0031679004473079858 -0.006874322663469617 -0.002345505403354764
0.002713935914175247 -0.005806378498546388 -0.0014455049531534314
0.002484027870915913 -0.005275581296350816 -0.0010455056326463819
0.0022559951766793216 -0.004748523712794962 -0.0006455063121393323
0.0020298365835679966 -0.004225207415080252 -0.00024550699163228273
0.001766915367156136 -0.0036826041919607584 -0.0001455052988603711
0.0012558254245579902 -0.0026088133654325048 0.00015449232887476683
0.0010217083193072513 -0.002087638870329015 0.00045448995660990477
0.0007889975205046284 -0.0015692702338634737 0.0007544950349256396
0.000356364422100371 -0.0005619092646267862 0.0015544936759397388
-0.00014254106267230673 0.0004875711185064052 0.0018544913036748767
-0.0004134212048956122 0.0010280312899293713 0.0018544913036748767
-0.0006843021817210652 0.0015684931265508865 0.0018544913036748767
-0.0009397253324390549 0.0020961362059072047 0.0019544928800314665
-0.0012103709514588899 0.0026361284565379344 0.0019544928800314665
-0.0014810174050808725 0.003176122372367213 0.0019544928800314665
-0.001735503191258987 0.0037018931431036925 0.002054494572803378
-0.0020223093733974223 0.004256108330677404 0.0019544928800314665
-0.002292954992417257 0.004796100581308133 0.0019544928800314665
-0.00256360144603924 0.005336094497137412 0.0019544928800314665
-0.002851344884386536 0.0058921776201818965 0.0018544913036748767
-0.0031222250266098412 0.006432637791604862 0.0018544913036748767
-0.003410671201968274 0.006990125094327131 0.001754489610902965
-0.0037173863521177603 0.007566039959326874 0.0015544936759397388
-0.004043073628118171 0.008161787400511235 0.0012544885976240039
-0.00437016637901362 0.008760339033606793 0.000954490969888866
-0.004680162975953589 0.009342801043102995 0.0007544950349256396
-0.004972358184362228 0.00990776841760497 0.000654493342153728
0.005201131905839816 -0.009903591455303168 -0.004545505158603191
0.00491525479762662 -0.009333209331155301 -0.004545505158603191
0.004639444695964017 -0.00876606039633513 -0.004445510916411877
0.004099771434518207 -0.007638740328254979 -0.004145505838096142
0.003639950014905819 -0.006552762751356786 -0.00314551149494946
0.0034585157397372286 -0.006039075826098079 -0.0022455111611634493
0.003223925903872296 -0.00550360582820305 -0.001845511724241078
0.003026338669849359 -0.004991397603866751 -0.0011455073254182935
0.002808144235334908 -0.0044717850677560515 -0.0006455063121393323
0.0025801164568524603 -0.003949405610952001 -0.00024550699163228273
0.0023167273196483635 -0.003407036911035977 -0.0001455052988603711
0.0020538054573245165 -0.002865602596657133 -4.5511056669056416e-05
0.0017913535783321533 -0.0023251039147115064 5.4490636102855206e-05
0.0013212524369413017 -0.0012860324933609908 0.000654493342153728
0.0011154776889634084 -0.0007911977073972732 0.0011544943554326892
0.0008844102580187514 -0.0002796101980463769 0.0014544919831678271
0.0006406964923668968 0.00024035677723349742 0.0016544879181310534
0.00038363446426312 0.000770101626464475 0.001754489610902965
0.0001270406577446303 0.001298912279795483 0.0018544913036748767
-0.00014384031908082272 0.0018393741164169982 0.0018544913036748767
-0.00041472046130412824 0.0023798342878399645 0.0018544913036748767
-0.0006856014381295813 0.00292029612446148 0.0018544913036748767
-0.0009564815803528868 0.003460756295884446 0.0018544913036748767
-0.0012116689779274334 0.003986760881510765 0.0019544928800314665
-0.001482315431549416 0.004526754797340045 0.0019544928800314665
-0.001752961050569251 0.005066747047970774 0.0019544928800314665
-0.0020236075041912337 0.0056067409638000535 0.0019544928800314665
-0.0023108830217462933 0.0061630586100480085 0.0018544913036748767
-0.0025817631639695987 0.006703518781470974 0.0018544913036748767
-0.002852644140795052 0.00724398061809249 0.0018544913036748767
-0.003140857125212382 0.0078021686986104784 0.001754489610902965
-0.0034646732608800326 0.008397683031588547 0.0014544919831678271
-0.0037542923412655 0.008958676555361771 0.0013544902903959155
-0.0040804512071642846 0.009558867183166179 0.0010544926626607776
-0.004371476592168427 0.01012266656649427 0.000954490969888866
0.006039594713018378 -0.010183963981596565 -0.004745508544147015
0.005753248975699316 -0.0096126468484635 -0.004745508544147015
0.00547626946813656 -0.009044330754966842 -0.004645506851375103
0.005199759422278946 -0.008476949253154306 -0.004545505158603191
0.004161633807589633 -0.006248809704949643 -0.0035455108154565096
0.0039966002188255145 -0.005746975182428956 -0.0024455070961266756
0.0037816850164390735 -0.005224055408528937 -0.001845511724241078
0.0035808248346683048 -0.004713487594713709 -0.0011455073254182935
0.003371768537355012 -0.004202255432127234 -0.0005455120699480176
0.0031303946389196484 -0.0036736046544665556 -0.00024550699163228273
0.002866538413522589 -0.0031314700604529286 -0.0001455052988603711
0.0026031494630057803 -0.0025902698519764808 -4.5511056669056416e-05
0.0020904263759401708 -0.0015202230613083631 0.00025449402164667845
0.0018673234948747334 -0.00101234015920141 0.000654493342153728
0.0016460951282298909 -0.0005081952105356286 0.0010544926626607776
0.0014133902443043285 3.1570672981670277e-06 0.0013544902903959155
0.0009245625564783228 0.001041216291891251 0.001754489610902965
0.0006534478910515469 0.0015821443841064536 0.001754489610902965
0.0003823323910226236 0.0021230741415202052 0.001754489610902965
0.00011121772559584769 0.0026640022337354077 0.001754489610902965
-0.0001598969398309281 0.0032049303259506106 0.001754489610902965
-0.00043101160525770384 0.0037458584181658135 0.001754489610902965
-0.0007021261663592114 0.004286786302231197 0.001754489610902965
-0.0009577815890512628 0.004812556572803866 0.0018544913036748767
-0.001228662565876716 0.005353018409425381 0.0018544913036748767
-0.0014995427081000215 0.0058934785808483475 0.0018544913036748767
-0.001770422850323327 0.006433938752271314 0.0018544913036748767
-0.002041302992546632 0.00697439892369428 0.0018544913036748767
-0.0023121839693720854 0.0075148607603157955 0.0018544913036748767
-0.002599929032997179 0.008073283364037254 0.001754489610902965
-0.0028881446015800987 0.008632642640941024 0.0016544879181310534
-0.0031941596393224338 0.009211831038718025 0.0014544919831678271
-0.00350111527168222 0.009792894032759994 0.0012544885976240039
-0.003791202854885038 0.010355990432508535 0.0011544943554326892
0.006610911846151444 -0.009897618244277503 -0.004745508544147015
0.006324566108832382 -0.009326301111144438 -0.004745508544147015
0.006047119513076664 -0.008758219123550176 -0.004645506851375103
0.005770141546426813 -0.00819107214494111 -0.004545505158603191
0.005493630958982481 -0.007624859760019044 -0.004445510916411877
0.005207988373972757 -0.007054945556663412 -0.004445510916411877
0.004942019005814262 -0.006495242512925455 -0.0042455075308680534
0.00470719904085441 -0.005954129573662912 -0.003745506750419736
0.004546858886147142 -0.005459977883384229 -0.0025455087888985872
0.004328905383501983 -0.004937996491307774 -0.0019455059664323926
0.003934457830389917 -0.0039331944256042846 -0.000445510377176106
0.0036919159416802265 -0.003405714512394642 -0.0001455052988603711
0.0034278250677926164 -0.0028642809058287105 -4.5511056669056416e-05
0.003164203969587389 -0.00232378355664617 5.4490636102855206e-05
0.002912997461516388 -0.0017935353774401514 0.00025449402164667845
0.0022029443436046422 -0.000246156393257983 0.0011544943554326892
0.00196907188570439 0.00026402522877531253 0.0014544919831678271
0.0011943759832667498 0.0018532590495332294 0.001754489610902965
0.0008956209878864951 0.0024202953279635654 0.0015544936759397388
0.0006240372760527784 0.002962159261763241 0.0015544936759397388
0.00035245439882120955 0.003504021530364368 0.0015544936759397388
8.087068698749307e-05 0.004045885464164044 0.0015544936759397388
-0.00016119807414400862 0.004557900967657974 0.001754489610902965
-0.0004323127395707844 0.005098829059873177 0.001754489610902965
-0.0006882019781541126 0.005623898760299223 0.0018544913036748767
-0.000959082120377418 0.00616435893172219 0.0018544913036748767
-0.0012299622626007233 0.006704819103145156 0.0018544913036748767
-0.0015008424048240287 0.007245279274568122 0.0018544913036748767
-0.001771723381649482 0.007785741111189638 0.0018544913036748767
-0.0020590009407819763 0.008344398029464031 0.001754489610902965
-0.002330115606208752 0.008885326121679233 0.001754489610902965
-0.002618096942600758 0.009445386177380163 0.0016544879181310534
-0.0029065469091000677 0.0100063822833161 0.0015544936759397388
-0.00321280038647383 0.010588378496859075 0.0013544902903959155
-0.003502422550687981 0.01115171233290711 0.0012544885976240039
0.007174265554018558 -0.009608737223252633 -0.004845510236918926
0.006895882825665811 -0.009039955582475914 -0.004745508544147015
0.006617968725417493 -0.008472107909434584 -0.004645506851375103
0.0063405232542750435 -0.007905195245378452 -0.004545505158603191
0.006063545578637749 -0.007339216966358782 -0.004445510916411877
0.005787037783008107 -0.006774175152872322 -0.004345509223639965
0.005520367512768247 -0.006215408867683005 -0.004145505838096142
0.005273841129061483 -0.0056701269818731845 -0.003745506750419736
0.005117728029533169 -0.005185062803177382 -0.0024455070961266756
0.004897203189535174 -0.004664954595262028 -0.001845511724241078
0.004731022561849177 -0.004186508293067421 -0.0007455080049112439
0.004506752792138744 -0.0036722805062617786 -0.00024550699163228273
0.00398817796397923 -0.002597561836858371 5.4490636102855206e-05
0.0034953715105506306 -0.0015475495480052111 0.0005544916493818164
0.003268293235738781 -0.0010410715763309408 0.000954490969888866
0.0030311441642369005 -0.0005278526533651146 0.0012544885976240039
0.002523817685519978 0.0005244243438455173 0.0015544936759397388
0.0019806510964546923 0.00160815054624632 0.0015544936759397388
0.0017090673846209758 0.0021500144800459956 0.0015544936759397388
0.0014107783518189788 0.0027184552291666716 0.0013544902903959155
0.0011387264281804692 0.003261253339352271 0.0013544902903959155
0.0008528525895010599 0.0038182755944575755 0.0012544885976240039
0.0005946217463013022 0.00434685122492202 0.0013544902903959155
0.0003511505989819565 0.0048593306104974575 0.0015544936759397388
0.00010861493634478116 0.005369943516649415 0.001754489610902965
-0.00016249972908199484 0.005910871608864617 0.001754489610902965
-0.00041862153265481445 0.006435239282596032 0.0018544913036748767
-0.0006895016748781199 0.006975699454018999 0.0018544913036748767
-0.0009603818171014253 0.007516159625441964 0.0018544913036748767
-0.0012312627939268786 0.00805662146206348 0.0018544913036748767
-0.0015021431448007205 0.008597082049786082 0.0018544913036748767
-0.0017891879302931865 0.009156440578455471 0.001754489610902965
-0.002060302595719962 0.009697368670670675 0.001754489610902965
-0.0023314180957488854 0.010238298428084425 0.001754489610902965
-0.0026362671014308727 0.010819827637799331 0.0015544936759397388
0.00774605060794386 -0.009322156962730099 -0.004845510236918926
0.00746720079139815 -0.008753609427855778 -0.004745508544147015
0.007196783320236816 -0.008189700885261863 -0.004545505158603191
0.006097781009735598 -0.005936042810296609 -0.004045511595904827
0.005867890960250043 -0.005404250571555177 -0.003445509122684598
0.005687662996533272 -0.004910615934775329 -0.002345505403354764
0.005464567235482078 -0.004392380702370537 -0.0017455100314691663
0.005293478165281323 -0.003916979989700972 -0.0006455063121393323
0.0050671049800117265 -0.003404391905102771 -0.0001455052988603711
0.004812152686645076 -0.0028713394916196795 5.4490636102855206e-05
0.004558138068791233 -0.00234015792870626 0.00025449402164667845
0.0043158369293382765 -0.0018201608367685535 0.0005544916493818164
0.004085951378344296 -0.00131275010533562 0.000954490969888866
0.0038579411783759314 -0.0008090810750420295 0.0013544902903959155
0.0035973678979604696 -0.0002769999318402616 0.0014544919831678271
0.0030656812030200164 0.0007960078470286969 0.0015544936759397388
0.002781915704805763 0.0013499906200781237 0.0014544919831678271
0.002497681560183383 0.0019049094758859695 0.0013544902903959155
0.002225629636544873 0.0024477075860715692 0.0013544902903959155
0.0019020370889402 0.003044596585110903 0.000954490969888866
0.0016159280197451265 0.0036032552519473016 0.0008544892771169543
0.0013560578906375651 0.004133934506621446 0.000954490969888866
0.001110245325389078 0.0046487513307957055 0.0011544943554326892
0.0008653684534732979 0.005161701259246847 0.0013544902903959155
0.0006214304046482785 0.005672778047480313 0.0015544936759397388
0.0003641371106728112 0.006198314960384966 0.0016544879181310534
0.0001073141140060696 0.006722914575157134 0.001754489610902965
-0.0001638005514207064 0.007263842667372337 0.001754489610902965
-0.0004349152168474824 0.0078047707595875395 0.001754489610902965
-0.000690802206204275 0.008327501812937323 0.0018544913036748767
-0.000961682557078117 0.008867962400659925 0.0018544913036748767
-0.0012325626993014223 0.009408422572082893 0.0018544913036748767
-0.0015034428415247277 0.009948882743505858 0.0018544913036748767
-0.0017904895872340454 0.010509413302161739 0.001754489610902965
-0.002061604252660822 0.011050341394376943 0.001754489610902965
0.008597622445614048 -0.009604825555462888 -0.004945504479110241
0.008324863661850278 -0.009038580823669781 -0.004745508544147015
0.008038517924531216 -0.008467263690536716 -0.004745508544147015
0.007767165860684321 -0.00790382356839813 -0.004545505158603191
0.00721134090874041 -0.006772805101169798 -0.004345509223639965
0.006942332407723923 -0.006214040856556478 -0.004145505838096142
0.006674259915018823 -0.005657146214615356 -0.0039455099031329155
0.006441798528180433 -0.005127227160035022 -0.0033455074299126863
0.006247759605544319 -0.004629893955377207 -0.002345505403354764
0.0060127217789309115 -0.0041058535733445815 -0.001845511724241078
0.005845626781618545 -0.0036402415663532566 -0.0006455063121393323
0.005626520907997726 -0.0031369704765016175 -4.5511056669056416e-05
0.005370868962450058 -0.0026048552368653677 0.00015449232887476683
0.005136301619851916 -0.0020927727509827887 0.0005544916493818164
0.004893300701929426 -0.0015748806998820428 0.0008544892771169543
0.0046622478689747485 -0.001069810365088815 0.0012544885976240039
0.004411517154990294 -0.0005475139686960604 0.0014544919831678271
0.004150710893285703 -1.613506083946271e-05 0.0015544936759397388
0.0038791271814519867 0.000525728872960213 0.0015544936759397388
0.003607544304220418 0.0010675911415613398 0.0015544936759397388
0.003312531602157904 0.001634163273077175 0.0013544902903959155
0.0030285300225250155 0.0021897841555796535 0.0012544885976240039
0.0027318785699938777 0.002759626961957739 0.0010544926626607776
0.0024094524707491904 0.0033588569815855163 0.000654493342153728
0.002123108171038453 0.003919152060153009 0.0005544916493818164
0.0018620678024300285 0.00445099909745238 0.000654493342153728
0.0016146166585859316 0.004966751054897482 0.0008544892771169543
0.0013814579951393314 0.005465005835810873 0.0011544943554326892
0.001136114640020388 0.005976551293070957 0.0013544902903959155
0.0008917097940149631 0.006486225275812631 0.0015544936759397388
0.0006201269167833942 0.007028087544413759 0.0015544936759397388
0.0003628351647222683 0.007552454301181005 0.0016544879181310534
0.00010601287536772037 0.008075885425014315 0.001754489610902965
-0.0001651017900590552 0.008616813517229517 0.001754489610902965
-0.00042122196935551344 0.009138842751533767 0.0018544913036748767
-0.0006921021115788189 0.009679302922956734 0.0018544913036748767
-0.0009629822538021243 0.0102197630943797 0.0018544913036748767
-0.0012338640652297254 0.010760226596199764 0.0018544913036748767
-0.0015206761604456191 0.011321456059803718 0.001754489610902965
-0.0017917908258723947 0.01186238415201892 0.001754489610902965
0.009456689163308498 -0.009890264268080767 -0.004945504479110241
0.009176200351867541 -0.009320781808586141 -0.004845510236918926
0.008896181003133163 -0.00875223498202545 -0.004745508544147015
0.008058933064363807 -0.007052203308357097 -0.004445510916411877
0.007780788232052897 -0.0064873965177372015 -0.004345509223639965
0.007510844305751575 -0.005929101110880285 -0.004145505838096142
0.007241836804061276 -0.00537267509804503 -0.0039455099031329155
0.00700657039026729 -0.004844161930782298 -0.0033455074299126863
0.0065704806573291434 -0.0038263032710363957 -0.001845511724241078
0.0063888715487880965 -0.0033555897663896674 -0.0007455080049112439
0.006175864289229534 -0.002861638044796771 -4.5511056669056416e-05
0.005919277334696668 -0.002329991434266388 0.00015449232887476683
0.005682839974128128 -0.0018188462065955428 0.0005544916493818164
0.005438436126428203 -0.001301657307804134 0.0008544892771169543
0.005205513691802766 -0.0007975240225721032 0.0012544885976240039
0.004943537190597313 -0.00026497733209027846 0.0013544902903959155
0.004692573786336285 0.0002554481293679116 0.0015544936759397388
0.00441021191706125 0.0008089655800495227 0.0014544919831678271
0.0035258706083532787 0.002514294202234224 0.0008544892771169543
0.0032292169065956055 0.0030864756556885733 0.000654493342153728
0.002919672671363958 0.003674523161052461 0.00035448826383799314
0.0026330943920393405 0.004236453194803036 0.00025449402164667845
0.0023708825330282686 0.004769469471275645 0.00035448826383799314
0.00212179364519071 0.005286154896793042 0.0005544916493818164
0.0018736421198901534 0.005800970096190222 0.0007544950349256396
0.001626426913873915 0.006313917150965373 0.000954490969888866
0.0013801498006715577 0.006824992522571578 0.0011544943554326892
0.0011348086947791495 0.0073341993327553975 0.0013544902903959155
0.0008765816427202687 0.007859266160006172 0.0014544919831678271
0.0006188232207686913 0.008383396937021935 0.0015544936759397388
0.000375826094006329 0.008887928078331025 0.001754489610902965
0.00010471121992901602 0.009428856586845865 0.001754489610902965
-0.00016640344549775953 0.009969784679061067 0.001754489610902965
-0.00042252145792970216 0.01049064354957881 0.0018544913036748767
-0.0006934032693573033 0.011031107051398875 0.0018544913036748767
-0.000979748276380235 0.011592570620905225 0.001754489610902965
-0.0012508629418070106 0.012133498713120427 0.001754489610902965
0.010310366249464747 -0.010173632014332919 -0.0050455061718821526
0.010040189610904353 -0.00960852351097252 -0.004745508544147015
0.00975384387358529 -0.009037206377839455 -0.004745508544147015
0.00947359112626071 -0.00846936095402466 -0.004645506851375103
0.009193807009043433 -0.007902451580444876 -0.004545505158603191
0.008907929900830237 -0.007332069456297009 -0.004545505158603191
0.008628847684019076 -0.006766560514696835 -0.004445510916411877
0.008350235347215566 -0.006201988038629873 -0.004345509223639965
0.008079356411929046 -0.005644161260878824 -0.004145505838096142
0.007801915022940029 -0.005081926099625757 -0.004045511595904827
0.0073520171842781845 -0.004054024736539016 -0.0025455087888985872
0.007111836100933992 -0.0035313933236498013 -0.002045507775619626
0.006924614980267776 -0.003062321646151405 -0.0009455113904550672
0.006458780733162339 -0.0020460449315134028 5.4490636102855206e-05
0.006220238831419932 -0.0015353690412620552 0.00045448995660990477
0.0059648253869038995 -0.0010083990170712876 0.000654493342153728
0.005729564305202199 -0.0005042679810657921 0.0010544926626607776
0.005466651253097206 2.8980236447571992e-05 0.0011544943554326892
0.005204207247399152 0.0005612926123764635 0.0012544885976240039
0.004931920800557172 0.0011045586433542998 0.0012544885976240039
0.004638544836012959 0.0016725345135877978 0.0010544926626607776
0.004344230370505638 0.0022423818420780005 0.0008544892771169543
0.003752790475006707 0.0033876849365561614 0.00045448995660990477
0.00345566464301341 0.003963142543869797 0.00025449402164667845
0.003157601136508742 0.004540469960503292 5.4490636102855206e-05
0.002894454395802426 0.005074184433610344 0.00015449232887476683
0.0026317762832005396 0.005606964938982008 0.00025449402164667845
0.0023819857630047363 0.006122715062999494 0.00045448995660990477
0.002120478597215907 0.006653159294807074 0.0005544916493818164
0.0018723292168166172 0.007165636055277809 0.0007544950349256396
0.0016251166783294245 0.00767624258912761 0.000954490969888866
0.0013788418143536028 0.00818497931365755 0.0011544943554326892
0.0011335033739873672 0.008691847685415643 0.0013544902903959155
0.0008891028177844762 0.009196844790304429 0.0015544936759397388
0.0006315787917464157 0.009719340820787648 0.0016544879181310534
0.0003745246467174432 0.010240899344487844 0.001754489610902965
0.00010340998129066767 0.010781827436703048 0.001754489610902965
-0.0001677055187382557 0.011322757194116798 0.001754489610902965
-0.00043882018416503216 0.011863685286332002 0.001754489610902965
-0.0007099348495918077 0.012404613378547204 0.001754489610902965
0.010616664017734506 -0.009324949621138738 -0.004645506851375103
0.010335943765917326 -0.008757338511876878 -0.004545505158603191
0.010055691726906376 -0.008190662620250751 -0.004445510916411877
0.009484406139585852 -0.007050833380940215 -0.004445510916411877
0.00919876271997398 -0.0064809175123860365 -0.004445510916411877
0.008919682462378235 -0.0059165795595225446 -0.004345509223639965
0.008641071250187992 -0.005353176406993713 -0.0042455075308680534
0.008362928668105054 -0.004790709304699893 -0.004145505838096142
0.007883049207868358 -0.0037430465563870617 -0.002945508109405637
0.007462229263318562 -0.0027681168916501462 -0.0011455073254182935
0.007266349563658448 -0.002302124398445308 -0.0001455052988603711
0.006999219140613209 -0.0017616297996545518 -4.5511056669056416e-05
0.006493083830747847 -0.0007142018029281582 0.00045448995660990477
0.006237203693376677 -0.00018863479237900052 0.000654493342153728
0.0059635117765181695 0.00035743543295515667 0.000654493342153728
0.005709037110164964 0.0008801972078981824 0.0008544892771169543
0.00543581340511125 0.0014253332568464156 0.0008544892771169543
0.005152512863000092 0.001983057707376139 0.0007544950349256396
0.00486874244966034 0.002541719645174838 0.000654493342153728
0.004584504223257318 0.003101313924538467 0.0005544916493818164
0.004278235728589627 0.003689830227738008 0.00025449402164667845
0.003992590372746276 0.00425223201234101 0.00015449232887476683
0.003706477221397769 0.004815568181980473 5.4490636102855206e-05
0.0034313789999205874 0.0053644442668695 5.4490636102855206e-05
0.0031562807784434057 0.005913320351758527 5.4490636102855206e-05
0.002905087453757248 0.006429536231706607 0.00025449402164667845
0.002630458278687007 0.006977476475011161 0.00025449402164667845
0.002368248668902471 0.007508154104407508 0.00035448826383799314
0.0021191638632183456 0.00802016202712184 0.0005544916493818164
0.0018839053437382368 0.00851210168502363 0.0008544892771169543
0.0016500543797785877 0.009001234026822538 0.0011544943554326892
0.0014042493518839204 0.009506698135539391 0.0013544902903959155
0.0011593830417533087 0.010010290353438197 0.0015544936759397388
0.0008877993299195919 0.010552154287237873 0.0015544936759397388
0.0006443380735058705 0.011052942102129823 0.001754489610902965
0.00037322257347694707 0.011593871859543574 0.001754489610902965
0.00010210790805017064 0.012134799951758778 0.001754489610902965
-0.00016900675737660493 0.01267572804397398 0.001754489610902965
0.011469170864389894 -0.009607149584765662 -0.004745508544147015
0.0111922038318791 -0.009041844151760287 -0.004545505158603191
0.01091124976517208 -0.008474934653894858 -0.004445510916411877
0.010630764744872 -0.007908960997613903 -0.004345509223639965
0.010345356265764672 -0.007339513882451233 -0.004345509223639965
0.010059947786657345 -0.006770066767288565 -0.004345509223639965
0.00977453847294787 -0.006200617986927348 -0.004345509223639965
0.00948912999384054 -0.00563117087176468 -0.004345509223639965
0.0092100512771577 -0.005068002033788781 -0.0042455075308680534
0.008931441190582161 -0.0045057692460478945 -0.004145505838096142
0.008666895891223025 -0.0039588978319870455 -0.0038455084431916475
0.008424853765833512 -0.0034378752754263843 -0.0032455057371407747
0.00800171356333831 -0.0024729738376873425 -0.0013455107109621167
0.00780842500678915 -0.0020174732024700807 -0.00024550699163228273
0.007281435097762849 -0.0009469721950194755 5.4490636102855206e-05
0.007023213543463975 -0.0004190687871213075 0.00025449402164667845
0.006757256442746844 0.00011791875801922049 0.00035448826383799314
0.006491768804736292 0.0006539706702258122 0.00045448995660990477
0.0062267489622308955 0.0011890881973959432 0.0005544916493818164
0.005120963988409053 0.0033890010048189634 0.00045448995660990477
0.004826176804493456 0.0039644598201093225 0.00025449402164667845
0.004530451944063616 0.004541790527219165 5.4490636102855206e-05
0.004255353722586434 0.005090666612108192 5.4490636102855206e-05
0.0039802555011092524 0.005639542696997219 5.4490636102855206e-05
0.0037051572796320703 0.006188418781886246 5.4490636102855206e-05
0.0034300591624801574 0.006737294658625455 5.4490636102855206e-05
0.0031549609410029757 0.0072861707435144816 5.4490636102855206e-05
0.0028918164495231945 0.00781754656954527 0.00015449232887476683
0.002641326753844782 0.008330023369936755 0.00035448826383799314
0.0023917764018820367 0.008840627030611285 0.0005544916493818164
0.002168474568938058 0.009311559291639715 0.000954490969888866
0.001934156890160023 0.009798120544657073 0.0012544885976240039
0.0016749959547306475 0.010321548378014037 0.0013544902903959155
0.0014163032311060653 0.010844042034985076 0.0014544919831678271
0.0011580799701880614 0.01136560005902218 0.0015544936759397388
0.000886495423752197 0.011907465658020405 0.0015544936759397388
0.0006149125465206281 0.01244932792662153 0.0015544936759397388
0.0003433288346869114 0.012991191860421207 0.0015544936759397388
4.268357829744138e-05 0.013578338704326183 0.0013544902903959155
0.012323080932836709 -0.009889816136922455 -0.004845510236918926
0.012048463064240162 -0.00932634916769496 -0.004545505158603191
0.011771028818249327 -0.008762446748831912 -0.004345509223639965
0.011485620339141998 -0.008192999633669243 -0.004345509223639965
0.011204902336551354 -0.007627727171483645 -0.0042455075308680534
0.010919728380647495 -0.007058747977113213 -0.0042455075308680534
0.010639713114066552 -0.006494878653355588 -0.004145505838096142
0.010354772846764016 -0.0059263657145788426 -0.004145505838096142
0.010075460315191334 -0.0053638984879993785 -0.004045511595904827
0.009284650083428348 -0.003734244024596644 -0.0030455098021775484
0.008571202373518274 -0.0022122964821243056 -0.0011455073254182935
0.008351435876206122 -0.0017323542099882616 -0.00034550868440419436
0.007830311182651876 -0.0006718739735422938 5.4490636102855206e-05
0.007555212856849426 -0.0001229976805034478 5.4490636102855206e-05
0.006747266259554933 0.0014993832003622192 0.00025449402164667845
0.006481544389353467 0.002034734333771653 0.00035448826383799314
0.005374117880397285 0.004239089412480637 0.00025449402164667845
0.0050793280289526425 0.004816888748696346 5.4490636102855206e-05
0.004804229807475461 0.005365764833585374 5.4490636102855206e-05
0.004529131585998279 0.0059146409184744 5.4490636102855206e-05
0.004254033364521097 0.006463517003363428 5.4490636102855206e-05
0.0039789352473691844 0.007012392880102637 5.4490636102855206e-05
0.0037038370258920027 0.007561268964991663 5.4490636102855206e-05
0.003428738804414821 0.00811014504988069 5.4490636102855206e-05
0.003177081245752035 0.008622617811561449 0.00025449402164667845
0.0029263601106988358 0.009133222220470359 0.00045448995660990477
0.002676577484759155 0.00964195515486086 0.000654493342153728
0.002440153306593274 0.01012921701794559 0.000954490969888866
0.002192479720280531 0.01063374199560306 0.0011544943554326892
0.0010888014095691372 0.012830618667629006 0.0010544926626607776
0.0008160467509223647 0.013374818874992766 0.0010544926626607776
0.013175343864063912 -0.010170876790290858 -0.0050455061718821526
0.012898151284274725 -0.009605775034610067 -0.004745508544147015
0.012622365008102777 -0.009043478097234334 -0.004445510916411877
0.012340476349711632 -0.008477038061074046 -0.004345509223639965
0.011778104920246944 -0.007346963015709067 -0.004145505838096142
0.011493165070245483 -0.006778450909531597 -0.004145505838096142
0.011217608007205723 -0.006220628006284881 -0.0039455099031329155
0.010679626117234478 -0.005123151265953259 -0.0033455074299126863
0.010407349457935786 -0.004571873425602933 -0.00314551149494946
0.009900787587298674 -0.003521022206580827 -0.0021455094683915377
0.009626631935105946 -0.0029700110675752274 -0.002045507775619626
0.009371940114372876 -0.002445786127645005 -0.0016455083386972547
0.009151952985536477 -0.001970725659585346 -0.0007455080049112439
0.0089089822035228 -0.0014658708721981162 -0.00024550699163228273
0.008647250325057726 -0.0009356319829136692 -4.5511056669056416e-05
0.008379186851241265 -0.000396775960715649 5.4490636102855206e-05
0.008111592318505043 0.00014114546929752778 0.00015449232887476683
0.00784446652020139 0.0006781306409258763 0.00025449402164667845
0.007569836510529003 0.0012260725494289795 0.00025449402164667845
0.007295207335458761 0.001774012792733534 0.00025449402164667845
0.007020577325786373 0.002321954701236637 0.00025449402164667845
0.00674594816375679 0.0028698949185224643 0.00025449402164667845
0.006471318147564072 0.003417836840034931 0.00025449402164667845
0.005912681063111057 0.004528414112468951 0.00015449232887476683
0.005628203697542033 0.005091986761522991 5.4490636102855206e-05
0.005078007254587669 0.006189738931301045 5.4490636102855206e-05
0.004792593881708697 0.0067551801417774695 -4.5511056669056416e-05
0.004517261241353313 0.007304523939308915 -4.5511056669056416e-05
0.004241928496672661 0.007853867944990179 -4.5511056669056416e-05
0.003977614473004211 0.008385243062707336 5.4490636102855206e-05
0.003702516251527029 0.008934119147596363 5.4490636102855206e-05
0.0034503923119834756 0.009445189312435867 0.00025449402164667845
0.013753230883908773 -0.009888439837203418 -0.004845510236918926
0.013472286626727541 -0.009322202561403547 -0.004645506851375103
0.012909923881173938 -0.00819162937331618 -0.004345509223639965
0.01234661744272405 -0.007062022957057068 -0.004145505838096142
0.012069656741593226 -0.006503733673931023 -0.0039455099031329155
0.011802081076650638 -0.005958472240811996 -0.0035455108154565096
0.01154083854797234 -0.005422997055494134 -0.0030455098021775484
0.011020456095558132 -0.0043590914313900945 -0.0021455094683915377
0.010486927745989466 -0.003280351463993309 -0.0016455083386972547
0.010230365490986363 -0.0027570639909253584 -0.001245509018190205
0.00972286494755163 -0.0017217099852111122 -0.000445510377176106
0.00946559435545499 -0.0011998567874625763 -0.0001455052988603711
0.009203161573907112 -0.0006705536154769574 5.4490636102855206e-05
0.00892806335242993 -0.00012167753058793037 5.4490636102855206e-05
0.008667036771175462 0.0004048199899926368 0.00025449402164667845
0.00839240759610522 0.0009527602332971911 0.00025449402164667845
0.00811777758643283 0.0015007021418002942 0.00025449402164667845
0.007843148411362591 0.002048642385104849 0.00025449402164667845
0.007568518401690202 0.002596584293607952 0.00025449402164667845
0.0072856811696717875 0.0031580516272350146 0.00015449232887476683
0.007002375704284719 0.0037204552587757154 5.4490636102855206e-05
0.006727277476287209 0.004269331356674106 5.4490636102855206e-05
0.006452179254810027 0.004818207441563133 5.4490636102855206e-05
0.006177080198730697 0.00536708519165071 5.4490636102855206e-05
0.005901981977253516 0.005915961276539737 5.4490636102855206e-05
0.005626883755776334 0.006464837361428764 5.4490636102855206e-05
0.005341937471090323 0.007030512677807584 -4.5511056669056416e-05
0.005066604830734939 0.00757985647533903 -4.5511056669056416e-05
0.004791272086054287 0.008129200481020294 -4.5511056669056416e-05
0.004515940175975783 0.008678542821503009 -4.5511056669056416e-05
0.00424060743129513 0.009227886827184272 -4.5511056669056416e-05
0.003976294531238512 0.00975809366261311 5.4490636102855206e-05
0.014325015937834074 -0.009601859576680886 -0.004845510236918926
0.014043136671667646 -0.009036090929986881 -0.004645506851375103
0.012921705059681092 -0.0067868395502277 -0.0039455099031329155
0.012651322118556373 -0.006240645357350009 -0.0035455108154565096
0.012124161183674511 -0.0051720385495446965 -0.0025455087888985872
0.011859871670826411 -0.004637999888772787 -0.0021455094683915377
0.011588537185493597 -0.00409327019314466 -0.0019455059664323926
0.011332221095145215 -0.0035734606774114937 -0.0014455049531534314
0.011068392444456064 -0.0030420251168354743 -0.0011455073254182935
0.010811131535596694 -0.0025220120081426165 -0.0007455080049112439
0.010550348974095678 -0.001996654005970387 -0.000445510377176106
0.010285341190342606 -0.0014645473479420776 -0.00024550699163228273
0.010021270247500194 -0.0009343098752848907 -4.5511056669056416e-05
0.009752037658796139 -0.00039545539399977564 5.4490636102855206e-05
0.009476939437318957 0.00015342069088925136 5.4490636102855206e-05
0.009208409479297899 0.0006908732831460243 0.00015449232887476683
0.008940348672009048 0.001227389825668506 0.00025449402164667845
0.00866571866233666 0.0017753317341716091 0.00025449402164667845
0.008383817549874616 0.002336099440634946 0.00015449232887476683
0.008101448225607781 0.002897801323484206 5.4490636102855206e-05
0.007826350017171257 0.003446677382354506 5.4490636102855206e-05
0.0075512517891737465 0.003995553480252897 5.4490636102855206e-05
0.007276153561176235 0.004544429578151288 5.4490636102855206e-05
0.006992612455494195 0.005108469399763182 -4.5511056669056416e-05
0.006717278876211395 0.005657815070642994 -4.5511056669056416e-05
0.006441946131530743 0.006207159076324258 -4.5511056669056416e-05
0.006166614221452239 0.006756501416806973 -4.5511056669056416e-05
0.005891281476771587 0.007305845422488236 -4.5511056669056416e-05
0.005615948836416203 0.007855189220019682 -4.5511056669056416e-05
0.005340616091735551 0.008404533225700946 -4.5511056669056416e-05
0.00505520130423219 0.008972311418055086 -0.0001455052988603711
0.004779634036348068 0.009522123344528585 -0.0001455052988603711
0.014898449253592258 -0.009318054538484874 -0.004745508544147015
0.014615869501644101 -0.008753222441688972 -0.004545505158603191
0.014334226590606604 -0.008190259530264194 -0.004345509223639965
0.013500563160462109 -0.006522818473888023 -0.0035455108154565096
0.013232302441328484 -0.005985011389173505 -0.0030455098021775484
0.012966384452425992 -0.005451880599285329 -0.0025455087888985872
0.012699286413495412 -0.004916908763456554 -0.0021455094683915377
0.01163626035785908 -0.0027892701148340767 -0.0008455096976831555
0.011373137191067823 -0.0022627444144015137 -0.0005455120699480176
0.011101562997747338 -0.0017203840030780011 -0.000445510377176106
0.010835620205009068 -0.0011887459741555585 -0.00024550699163228273
0.01056521654320344 -0.0006487230862964789 -0.0001455052988603711
0.01029528192580188 -0.00010963395752224986 -4.5511056669056416e-05
0.010019949181121228 0.000439710048159014 -4.5511056669056416e-05
0.009750717196405535 0.0009773952054052792 5.4490636102855206e-05
0.009475618974928353 0.0015262712902943062 5.4490636102855206e-05
0.009200520753451171 0.0020751473751833335 5.4490636102855206e-05
0.00892542253197399 0.0026240234600723605 5.4490636102855206e-05
0.00864328660529592 0.003186427786917328 -4.5511056669056416e-05
