ply
format ascii 1.0
element vertex 732
property float x
property float y
property float z
end_header
-0.017707445410957392 0.0010703233677740731 0.001715839491225779
-0.017917477797723944 0.0016473826077693392 0.0022143484093248844
-0.018127510343756037 0.002224442285343081 0.0024830144830048084
-0.018337542730522592 0.0028015015253383467 0.0025975245516747236
-0.018547575117289147 0.003378560765333613 0.00267308228649199
-0.0187576075040557 0.003955620005328879 0.0026711553800851107
-0.018967639890822254 0.004532679245324145 0.0010640067048370838
-0.019177672596119886 0.005109739360476362 0.0014478153316304088
-0.01938770498288644 0.005686798600471628 0.0017164814053103328
-0.019597737369652993 0.006263857840466894 0.0017920384416356683
-0.008729089266910116 -0.021802017783476294 0.0010456051677465439
-0.009149154040443223 -0.02064789930348576 0.0022305650636553764
-0.009359186427209776 -0.020070840063490497 0.002232491271570325
-0.009569218813976332 -0.01949378082349523 0.0020405868999660015
-0.009779251200742885 -0.018916721583499965 0.0016951592406257987
-0.009989283587509439 -0.0183396623435047 0.002199131064116955
-0.010199315974275992 -0.017762603103509432 0.0018153225537389517
-0.010409348361042545 -0.017185543863514167 0.00365895195864141
-0.010619380747809099 -0.0166084846235189 0.003737399121746421
-0.010829413134575652 -0.016031425383523635 0.003777736099436879
-0.011039445839873287 -0.015454365268371417 0.004031029064208269
-0.01124947822663984 -0.014877306028376152 0.004147225525230169
-0.011459510613406394 -0.014300246788380886 0.0038017977494746447
-0.011669543000172948 -0.01372318754838562 0.004022048786282539
-0.011879575386939501 -0.013146128308390353 0.0038301441818475723
-0.012089607932971595 -0.012569068630816612 0.0038704811595380306
-0.01229964031973815 -0.011992009390821345 0.0038724092300981283
-0.012509672706504703 -0.01141495015082608 0.003874334739521146
-0.012719705093271257 -0.010837890910830813 0.004094585310667753
-0.01292973763930335 -0.010260831233257071 0.003980075474828482
-0.013139770026069903 -0.009683771993261805 0.003943349700421095
-0.013349802412836457 -0.00910671275326654 0.003945277538150549
-0.013559834879235781 -0.008529653294482036 0.003869718639180064
-0.013769867345635105 -0.007952593835697533 0.003677814267575741
-0.013979899732401659 -0.007375534595702266 0.0033707674592733383
-0.014189932158984597 -0.006798475246312381 0.0029869594145566225
-0.014399964605475728 -0.006221415842225186 0.0025647699367254972
-0.014609997032058668 -0.005644356492835302 0.004089721012860537
-0.014820029458641606 -0.005067297143445417 0.0040141623467206955
-0.015030061885224546 -0.0044902377940555325 0.004054500255733728
-0.015240094331715677 -0.003913178389968338 0.003978942520916462
-0.015450126758298615 -0.0033361190405784527 0.003787038382142782
-0.015660159145065168 -0.002759059800583187 0.0037503137718886137
-0.015870191611464492 -0.002182000341798683 0.0036358025390654802
-0.016080224077863817 -0.0016049408830141791 0.0033671364653855562
-0.01629025646463037 -0.001027881643018913 0.003252626396715641
-0.016500288851396924 -0.00045082240302364704 0.0030607220251113176
-0.016710321397429017 0.0001262372745500945 0.0028304364532232285
-0.016920353784195572 0.0007032965145453606 0.0025617703795433044
-0.017130386170962124 0.0012803557545406265 0.0023314852733165026
-0.01734041855772868 0.0018574149945358926 0.0020244382321834564
-0.017550451103760772 0.0024344746721096343 0.001602248870767653
-0.017760483490527324 0.0030115339121049 0.0011037398362532258
-0.01797051587729388 0.0035885931521001664 0.002505761571228504
-0.018180548264060434 0.004165652392095432 0.002313857199624181
-0.018390580650826986 0.0047427116320906985 0.0020451913587749004
-0.01860061335612462 0.005319771747242915 0.0019696331582963467
-0.018810645742891173 0.0058968309872381814 0.0013568880967795849
-0.019020678129657728 0.006473890227233448 0.0011649837251752615
-0.00815203002691485 -0.021591985396709742 0.0012590864207595587
-0.008362062413681403 -0.021014926156714474 0.001681275898590684
-0.008572094800447957 -0.02043786691671921 0.002065084408968687
-0.00878212718721451 -0.019860807676723942 0.002372131450101733
-0.008992159573981065 -0.019283748436728677 0.002564035588875413
-0.009202191960747619 -0.018706689196733413 0.002794320695102215
-0.009412224347514172 -0.018129629956738145 0.0030246060341596603
-0.009622256734280726 -0.01755257071674288 0.0032165097072720528
-0.009832289121047279 -0.016975511476747612 0.0034084138460457325
-0.010042321507813833 -0.016398452236752348 0.0037154608871787786
-0.010252353894580386 -0.01582139299675708 0.0037910195533186197
-0.010462386599878021 -0.015244332881604863 0.003866576123982668
-0.010672418986644575 -0.014667273641609599 0.004058480262756348
-0.010882451373411128 -0.014090214401614332 0.004288765601813793
-0.011092483760177681 -0.013513155161619066 0.004002360161393881
-0.011302516146944235 -0.0129360959216238 0.0022977017797529697
-0.011512548692976328 -0.012359036244050058 0.0029873771127313375
-0.011722581079742883 -0.011781977004054792 0.0034858854487538338
-0.011932613466509437 -0.011204917764059526 0.0037161705549806356
-0.01214264585327599 -0.01062785852406426 0.0039464556612074375
-0.012352678399308084 -0.010050798846490518 0.0041383602656424046
-0.012562710786074637 -0.009473739606495252 0.004252870101481676
-0.01277274317284119 -0.008896680366499987 0.00436738133430481
-0.012982775639240515 -0.008319620907715482 0.004481891635805368
-0.01319280810563984 -0.0077425614489309786 0.004479964729398489
-0.013402840492406393 -0.007165502208935712 0.0044780392199754715
-0.01361287291898933 -0.006588442859545828 0.002019736682996154
-0.013822905365480462 -0.006011383455458633 0.0029511612374335527
-0.014032937792063402 -0.005434324106068748 0.003258207580074668
-0.01424297021864634 -0.004857264756678864 0.0034501119516789913
-0.01445300264522928 -0.004280205407288979 0.002170037943869829
-0.01466303509172041 -0.0037031460032017844 0.0027445913292467594
-0.014873067518303348 -0.0031260866538118993 0.0015794942155480385
-0.015083099905069902 -0.0025490274138166335 0.0024287200067192316
-0.015293132371469226 -0.0019719679550321296 0.0028125285170972347
-0.01550316483786855 -0.0013949084962476257 0.001720316126011312
-0.015713197224635104 -0.0008178492562523597 0.002333061071112752
-0.015923229611401656 -0.00024079001625709358 0.0027168698143213987
-0.016133262157433752 0.0003362696613166479 0.0029855358880013227
-0.016343294544200304 0.000913328901311914 0.0031774400267750025
-0.01655332693096686 0.00149038814130718 0.0014495635405182838
-0.01676335931773341 0.0020674473813024462 0.002257868880406022
-0.016973391863765504 0.0026445070588761877 0.0011297237360849977
-0.01718342425053206 0.0032215662988714536 0.0016282327705994248
-0.017393456637298615 0.00379862553886672 0.002518526278436184
-0.017603489024065166 0.004375684778861986 0.0009113775449804962
-0.01781352141083172 0.004952744018857252 0.0016010530525818467
-0.01823358650289591 0.006106863374004735 0.0010307560442015529
-0.007574970786919585 -0.021381953009943187 0.0013209610478952527
-0.007785003173686139 -0.020804893769947923 0.0031645921990275383
-0.007995035560452692 -0.020227834529952655 0.0032430393621325493
-0.008205067947219246 -0.01965077528995739 0.003051134990528226
-0.0084151003339858 -0.019073716049962122 0.002859230153262615
-0.008625132720752354 -0.018496656809966858 0.0019278062973171473
-0.008835165107518908 -0.017919597569971593 0.0034527555108070374
-0.009045197494285461 -0.017342538329976325 0.0035312038380652666
-0.009255229881052015 -0.01676547908998106 0.003533130744472146
-0.009465262267818568 -0.016188419849985793 0.00392145337536931
-0.009675294654585121 -0.015611360609990528 0.003923381213098764
-0.009885327359882757 -0.01503430049483831 0.004001827444881201
-0.01009535974664931 -0.014457241254843045 0.003926271107047796
-0.010305392133415863 -0.013880182014847779 0.003734366735443473
-0.010515424520182417 -0.013303122774852513 0.0033121772576123476
-0.01072545690694897 -0.012726063534857246 0.003120272886008024
-0.010935489452981064 -0.012149003857283505 0.004889609757810831
-0.011145521839747619 -0.011571944617288239 0.00514290202409029
-0.011355554226514172 -0.010994885377292972 0.004606412723660469
-0.011565586613280726 -0.010417826137297706 0.004608339164406061
-0.01177561915931282 -0.009840766459723965 0.004301292356103659
-0.011985651546079373 -0.009263707219728698 0.004264567978680134
-0.012195683932845926 -0.008686647979733434 0.004227842204272747
-0.01240571639924525 -0.008109588520948929 0.004113330971449614
-0.012615748865644575 -0.007532529062164425 0.003844664664939046
-0.012825781252411128 -0.006955469822169159 0.003652760526165366
-0.013035813678994066 -0.006378410472779274 0.0033073327504098415
-0.013245846125485197 -0.0058013510686920795 0.0029235247056931257
-0.013455878552068137 -0.005224291719302195 0.0022724205628037453
-0.013665910978651075 -0.00464723236991231 0.0034375169780105352
-0.013875943405234015 -0.004070173020522426 0.002786413300782442
-0.014085975851725146 -0.003493113616435231 0.002057913923636079
-0.014296008278308084 -0.002916054267045346 0.003223011502996087
-0.014506040665074637 -0.00233899502705008 0.0029927268624305725
-0.014716073131473962 -0.0017619355682655762 0.0024942178279161453
-0.014926105597873286 -0.0011848761094810723 0.001603924436494708
-0.01513613798463984 -0.0006078168694858062 0.0025659892708063126
-0.015346170371406393 -3.0757629490540156e-05 0.0020674802362918854
-0.015556202917438486 0.0005463020480832014 0.0026599925477057695
-0.01576623530420504 0.0011233612880784674 0.0022761838044971228
-0.015976267690971595 0.0017004205280737334 0.0018923752941191196
-0.016186300077738146 0.0022774797680689997 0.0017778652254492044
-0.01639633262377024 0.002854539445642741 0.0012033118400722742
-0.01681639739730335 0.004008657925633273 0.0014724048087373376
-0.017026429784069902 0.004585717165628539 0.0010502153309062123
-0.006997911546924319 -0.021171920623176632 0.0014789992710575461
-0.0072079439336908725 -0.020594861383181368 0.002091744216158986
-0.007417976320457427 -0.020017802143186103 0.0026282339822500944
-0.00762800870722398 -0.019440742903190835 0.002973661758005619
-0.007838041093990535 -0.01886368366319557 0.0032039463985711336
-0.008048073480757088 -0.018286624423200303 0.0034342315047979355
-0.008258105867523641 -0.017709565183205038 0.0035487415734678507
-0.008468138254290195 -0.01713250594320977 0.0035854673478752375
-0.008678170641056748 -0.016555446703214505 0.0036610239185392857
-0.008888203027823302 -0.01597838746321924 0.0037365828175097704
-0.009098235414589855 -0.015401328223223973 0.003773307427763939
-0.00930826811988749 -0.014824268108071756 0.0037329704500734806
-0.009518300506654044 -0.01424720886807649 0.003847480518743396
-0.009728332893420597 -0.013670149628081224 0.003961990587413311
-0.00993836528018715 -0.013093090388085957 0.0037417400162667036
-0.010148397666953704 -0.012516031148090691 0.003739813109859824
-0.010568462599752353 -0.011361912230521685 0.00159277836792171
-0.010778494986518906 -0.010784852990526419 0.0026877971831709146
-0.01098852737328546 -0.010207793750531153 0.003338901326060295
-0.011198559919317553 -0.009630734072957411 0.0036843291018158197
-0.011408592306084106 -0.009053674832962145 0.003876233473420143
-0.01161862469285066 -0.008476615592966879 0.004183280281722546
-0.011828657159249984 -0.007899556134182376 0.004297791514545679
-0.012038689625649308 -0.007322496675397871 0.004334517288953066
-0.012248722012415862 -0.0067454374354026046 0.00441007362678647
-0.0124587544389988 -0.00616837808601272 0.004485631361603737
-0.012668786885489931 -0.005591318681925525 0.004522357136011124
-0.01287881931207287 -0.005014259332535641 0.002821044297888875
-0.013088851738655809 -0.004437199983145756 0.001834120019339025
-0.01350891661172988 -0.0032830812296686766 0.001275720540434122
-0.013718949038312818 -0.0027060218802787916 0.0021249474957585335
-0.013928981425079371 -0.0021289626402835257 0.0025087560061365366
-0.014139013891478695 -0.0015519031814990219 0.0013436577282845974
-0.014559078744644573 -0.0003977844827192519 0.0012651719152927399
-0.014769111131411126 0.00017927475727601416 0.00207347609102726
-0.01497914367744322 0.0007563344348497557 0.002342142164707184
-0.015189176064209773 0.0013333936748450217 0.0011391807347536087
-0.015399208450976327 0.0019104529148402877 0.0016376897692680359
-0.015819273383774975 0.0030645718324092954 0.0011245589703321457
-0.016449370544074637 0.004795749552395093 0.0012323716655373573
-0.0062108192831003385 -0.02153894922671925 0.0010518861236050725
-0.006420852306929053 -0.02096188823641008 0.0032124663703143597
-0.006630884693695606 -0.020384828996414816 0.003136908635497093
-0.0068409170804621606 -0.019807769756419548 0.0036849675234407187
-0.007050949467228714 -0.019230710516424283 0.003609409788623452
-0.007260981853995267 -0.018653651276429015 0.0033791246823966503
-0.007471014240761821 -0.01807659203643375 0.003187220310792327
-0.007681046627528375 -0.017499532796438483 0.002995316172018647
-0.007891079014294929 -0.01692247355644322 0.002573126694187522
-0.008101111401061482 -0.01634541431644795 0.004180275835096836
-0.008311143787828035 -0.015768355076452686 0.003911609761416912
-0.008521176174594589 -0.01519129583645742 0.003990056924521923
-0.008731208879892224 -0.014614235721305203 0.003953331150114536
-0.008941241266658777 -0.014037176481309937 0.0039936695247888565
-0.009151273653425331 -0.01346011724131467 0.004109865054488182
-0.009361306040191884 -0.012883058001319404 0.003841198980808258
-0.009571338426958438 -0.012305998761324138 0.004194905515760183
-0.009781370972990531 -0.011728939083750396 0.004235243424773216
-0.009991403359757086 -0.011151879843755132 0.004237168934196234
-0.01020143574652364 -0.010574820603759865 0.004122659098356962
-0.010411468133290193 -0.0099977613637646 0.004626630339771509
-0.010621500679322287 -0.009420701686190858 0.004742826800793409
-0.01083153306608884 -0.008843642446195591 0.004783163778483868
-0.011041565452855394 -0.008266583206200325 0.005003414116799831
-0.011251597919254718 -0.007689523747415821 0.004619605839252472
-0.011461630385654042 -0.007112464288631317 0.0045050960034132
-0.011671662772420596 -0.006535405048636051 0.004274810664355755
-0.011881695199003534 -0.0059583456992461665 0.0033845172729343176
-0.012091727645494665 -0.005381286295158972 0.0030007087625563145
-0.012301760072077604 -0.004804226945769087 0.00265528098680079
-0.012511792498660542 -0.0042271675963792025 0.002042535925284028
-0.012721824925243482 -0.0036501082469893175 0.003245498053729534
-0.012931857371734613 -0.003073048842902123 0.00297683198004961
-0.013141889798317551 -0.002495989493512238 0.0025930232368409634
-0.013351922185084105 -0.001918930253516972 0.002056533470749855
-0.013561954651483429 -0.0013418707947324684 0.0019420234020799398
-0.013771987117882753 -0.0007648113359479645 0.0012523485347628593
-0.013982019504649307 -0.00018775209595269846 0.002417445182800293
-0.01419205189141586 0.00038930714404256756 0.0022255408111959696
-0.014402084437447954 0.0009663668216163091 0.001880113035440445
-0.014612116824214507 0.001543426061611575 0.0011516145896166563
-0.015032181597747616 0.0026975445416021074 0.0013375857379287481
-0.015242214143779709 0.003274604219175849 0.0009921579621732235
-0.0058437930669337865 -0.020751855849643525 0.0014838911592960358
-0.00605382545370034 -0.02017479660964826 0.002292197197675705
-0.006263857840466894 -0.019597737369652996 0.0028286853339523077
-0.006473890227233448 -0.019020678129657728 0.0031741124112159014
-0.006683922614000001 -0.018443618889662464 0.003249671310186386
-0.006893955000766555 -0.017866559649667196 0.003441575448960066
-0.007103987387533109 -0.01728950040967193 0.0021206398960202932
-0.007314019774299662 -0.016712441169676663 0.002733384957537055
-0.007524052161066216 -0.0161353819296814 0.0031555744353681803
-0.007734084547832769 -0.015558322689686132 0.0034626212436705828
-0.007944116934599323 -0.014981263449690866 0.003654525615274906
-0.008154149639896958 -0.01440420333453865 0.003691251389682293
-0.008364182026663511 -0.013827144094543383 0.0021663003135472536
-0.008574214413430065 -0.013250084854548117 0.0032206547912210226
-0.008784246800196618 -0.01267302561455285 0.0034509398974478245
-0.008994279186963171 -0.012095966374557584 0.003949448466300964
-0.009204311732995265 -0.011518906696983843 0.002874783705919981
-0.00941434411976182 -0.010941847456988578 0.0034493389539420605
-0.009624376506528374 -0.010364788216993312 0.003756385762244463
-0.009834408893294927 -0.009787728976998046 0.003948289901018143
-0.01004444143932702 -0.009210669299424304 0.00414019450545311
-0.010254473826093574 -0.008633610059429038 0.004215750843286514
-0.010464506212860127 -0.008056550819433772 0.004291309509426355
-0.010674538679259452 -0.007479491360649268 0.004405819810926914
-0.010884571145658776 -0.006902431901864764 0.004365481436252594
-0.01109460353242533 -0.006325372661869498 0.004441040568053722
-0.011304635959008267 -0.005748313312479613 0.004439112264662981
-0.011514668405499398 -0.005171253908392418 0.004437185823917389
-0.011724700832082338 -0.004594194559002534 0.002593556186184287
-0.011934733258665276 -0.004017135209612649 0.003130046185106039
-0.012144765685248216 -0.003440075860222764 0.002942979335784912
-0.012354798131739347 -0.0028630164561355698 0.003134883474558592
-0.012564830558322285 -0.0022859571067456847 0.001853893743827939
-0.012774862945088838 -0.0017088978667504186 0.00239038304425776
-0.012984895411488163 -0.001131838407965915 0.0026590488851070404
-0.013194927877887487 -0.0005547789491814111 0.001456087571568787
-0.01340496026465404 2.2280290813854955e-05 0.0019925758242607117
-0.013614992651420594 0.000599339530809121 0.0023380033671855927
-0.013825025197452687 0.0011763992083828625 0.00101706781424582
-0.01403505758421924 0.0017534584483781285 0.001629813457839191
-0.01445512235775235 0.002907576928368661 0.0011166837066411972
-0.005056700803109806 -0.021118884453186142 0.0009215754107572138
-0.00526673382693852 -0.020541823462876974 0.0019731761422008276
-0.005476766213705074 -0.01996476422288171 0.003698187880218029
-0.005686798600471628 -0.01938770498288644 0.0037385246250778437
-0.0058968309872381814 -0.018810645742891176 0.003662968287244439
-0.006106863374004735 -0.01823358650289591 0.003548458218574524
-0.006316895760771288 -0.017656527262900644 0.0032797921448946
-0.006526928147537843 -0.017079468022905376 0.002266252413392067
-0.006736960534304396 -0.01650240878291011 0.0036276092287153006
-0.0069469929210709495 -0.015925349542914843 0.0035130991600453854
-0.007157025307837503 -0.015348290302919579 0.003206052351742983
-0.007367057694604057 -0.014771231062924313 0.0027075428515672684
-0.007577090399901691 -0.014194170947772096 0.0018992372788488865
-0.007787122786668245 -0.01361711170777683 0.003140865359455347
-0.007997155173434798 -0.013040052467781563 0.0020458472426980734
-0.008207187560201352 -0.012462993227786297 0.003248809138312936
-0.008417219946967905 -0.01188593398779103 0.0028649999294430017
-0.008627252492999999 -0.01130887431021729 0.004267021548002958
-0.008837284879766554 -0.010731815070222025 0.0042302957735955715
-0.009047317266533107 -0.010154755830226759 0.004516701214015484
-0.00925734965329966 -0.009577696590231492 0.004479976370930672
-0.009467382199331754 -0.00900063691265775 0.004404418636113405
-0.009677414586098308 -0.008423577672662485 0.00436769425868988
-0.009887446972864861 -0.007846518432667218 0.004292135126888752
-0.010097479439264185 -0.007269458973882714 0.004216577857732773
-0.01030751190566351 -0.0066923995150982105 0.004024673253297806
-0.010517544292430063 -0.006115340275102944 0.0037560074124485254
-0.010727576719013001 -0.00553828092571306 0.0035257223062217236
-0.010937609165504132 -0.004961221521625865 0.0030272137373685837
-0.011147641592087072 -0.00438416217223598 0.0024907251354306936
-0.01135767401867001 -0.0038071028228460957 0.0018010498024523258
-0.01156770644525295 -0.0032300434734562106 0.003004011232405901
-0.01177773889174408 -0.0026529840693690163 0.002620202489197254
-0.011987771318327019 -0.0020759247199791313 0.002121693454682827
-0.012197803705093572 -0.0014988654799838652 0.0013133881147950888
-0.012407836171492896 -0.0009218060211993614 0.002516349544748664
-0.01261786863789222 -0.0003447465624148577 0.001979861408472061
-0.012827901024658774 0.0002323126775804084 0.0012513623805716634
-0.013247965957457421 0.001386431595149416 0.0015990290557965636
-0.013457998344223975 0.001963490835144682 0.00106254022102803
-0.013878063117757083 0.0031176093151352143 0.0013727450277656317
-0.004689674586943254 -0.02033179107611042 0.0017890515737235546
-0.004899706973709807 -0.019754731836115154 0.002478726441040635
-0.005109739360476362 -0.019177672596119886 0.003091471968218684
-0.005319771747242915 -0.01860061335612462 0.003436899743974209
-0.005529804134009469 -0.018023554116129357 0.003705565817654133
-0.005739836520776022 -0.01744649487613409 0.0037811221554875374
-0.005949868907542576 -0.016869435636138824 0.003973026294261217
-0.00615990129430913 -0.016292376396143556 0.002530191093683243
-0.006369933681075683 -0.01571531715614829 0.0031812970992177725
-0.006579966067842237 -0.015138257916153025 0.0035651058424264193
-0.006789998454608791 -0.01456119867615776 0.003795390948653221
-0.007000031159906424 -0.013984138561005542 0.0025144005194306374
-0.007210063546672979 -0.013407079321010276 0.003363626077771187
-0.007420095933439532 -0.01283002008101501 0.0034391838125884533
-0.0076301283202060855 -0.012252960841019744 0.003631087951362133
-0.007840160706972639 -0.011675901601024477 0.00401489669457078
-0.008050193253004732 -0.011098841923450736 0.0027732679154723883
-0.008260225639771288 -0.01052178268345547 0.0034629434812813997
-0.008470258026537841 -0.009944723443460203 0.003846751991659403
-0.008680290413304394 -0.009367664203464939 0.004077037330716848
-0.008890322959336488 -0.008790604525891197 0.004268941469490528
-0.009100355346103041 -0.008213545285895931 0.004460845608264208
-0.009310387732869595 -0.007636486045900665 0.004844654351472855
-0.009520420199268919 -0.007059426587116161 0.004804317373782396
-0.009730452665668243 -0.006482367128331657 0.004879873711615801
-0.009940485052434797 -0.005905307888336391 0.003113173646852374
-0.010150517479017735 -0.005328248538946506 0.0034586014226078987
-0.010360549925508866 -0.0047511891348593115 0.0020972457714378834
-0.010570582352091806 -0.004174129785469427 0.002671800320968032
-0.010780614778674744 -0.003597070436079542 0.0029788471292704344
-0.010990647205257683 -0.0030200110866896567 0.0017758851172402501
-0.011200679651748814 -0.0024429516826024625 0.0023886295966804028
-0.011410712078331752 -0.0018658923332125774 0.0026572956703603268
-0.011620744465098306 -0.0012888330932173113 0.001415666309185326
-0.01183077693149763 -0.0007117736344328076 0.0019521561916917562
-0.012040809397896955 -0.0001347141756483038 0.0024506652262061834
-0.012250841784663508 0.00044234506434696224 0.0013584516709670424
-0.012460874171430061 0.0010194043043422283 0.0019330050563439727
-0.012880939104228708 0.002173523221911236 0.0013031205162405968
-0.013301003877761817 0.003327641701901768 0.0011969312326982617
-0.004112614471791037 -0.020121758370812787 0.0027046725153923035
-0.004322646858557591 -0.01954469913081752 0.0023208640050143003
-0.004532679245324145 -0.018967639890822254 0.0038869460113346577
-0.0047427116320906985 -0.018390580650826986 0.003850220236927271
-0.004952744018857252 -0.01781352141083172 0.003619935130700469
-0.005162776405623805 -0.017236462170836454 0.003312888089567423
-0.00537280879239036 -0.01665940293084119 0.0031983780208975077
-0.005582841179156913 -0.016082343690845925 0.00254727341234684
-0.0057928735659234665 -0.015505284450850657 0.003949294798076153
-0.00600290595269002 -0.01492822521085539 0.0036806289572268724
-0.006212938339456574 -0.014351165970860124 0.003258439479395747
-0.006422971044754208 -0.013774105855707907 0.0026838844642043114
-0.006633003431520762 -0.013197046615712641 0.004004820249974728
-0.006843035818287315 -0.012619987375717375 0.0038129156455397606
-0.007053068205053869 -0.01204292813572211 0.0037373581435531378
-0.007263100591820422 -0.011465868895726844 0.0033535496331751347
-0.007473133137852517 -0.010888809218153103 0.0029313606210052967
-0.00768316552461907 -0.010311749978157836 0.004292716272175312
-0.007893197911385624 -0.00973469073816257 0.004178205039352179
-0.008103230298152178 -0.009157631498167304 0.003947919700294733
-0.008313262844184271 -0.008580571820593562 0.0032968157902359962
-0.008523295230950825 -0.008003512580598296 0.002722261706367135
-0.008733327617717378 -0.0074264533406030305 0.003963890485465527
-0.008943360084116702 -0.006849393881818527 0.003771986113861203
-0.009153392550516027 -0.006272334423034023 0.003503320040181279
-0.00936342493728258 -0.0056952751830387565 0.003119511529803276
-0.009573457363865518 -0.005118215833648872 0.002583022927865386
-0.00978348981035665 -0.004541156429561677 0.0034698154777288437
-0.009993522236939589 -0.003964097080171793 0.003124387701973319
-0.010203554663522527 -0.0033870377307819075 0.0020700336899608374
-0.010413587090105467 -0.0028099783813920224 0.0014572887448593974
-0.010623619536596598 -0.002232918977304828 0.002778223715722561
-0.010833651963179536 -0.001655859627914943 0.0023944152053445578
-0.01104368434994609 -0.001078800387919677 0.0018959061708301306
-0.011253716816345414 -0.0005017409291351733 0.0012831611093133688
-0.011463749282744738 7.531852964933048e-05 0.002604096196591854
-0.011673781669511291 0.0006523777696445965 0.002181906718760729
-0.011883814056277845 0.0012294370096398626 0.001645418582484126
-0.012093846602309938 0.001806496687213604 0.0014151333598420024
-0.012513911375843045 0.002960615167204136 0.0022068640682846308
-0.003535555231795771 -0.01991172598404623 0.0013858838938176632
-0.003745587618562325 -0.019334666744050967 0.00211438350379467
-0.003955620005328879 -0.0187576075040557 0.002804058836773038
-0.004165652392095432 -0.018180548264060434 0.003302567871287465
-0.004375684778861986 -0.017603489024065166 0.0034170779399573803
-0.004585717165628539 -0.017026429784069902 0.003800886683166027
-0.004795749552395093 -0.016449370544074634 0.0024395303335040808
-0.005005781939161647 -0.01587231130407937 0.0030906356405466795
-0.0052158143259282 -0.015295252064084103 0.003589143045246601
-0.005425846712694754 -0.014718192824088837 0.0038961898535490036
-0.005635879099461308 -0.01414113358409357 0.004010701086372137
-0.005845911804758941 -0.013564073468941354 0.004279367160052061
-0.006055944191525496 -0.012987014228946088 0.004393876995891333
-0.006265976578292049 -0.012409954988950821 0.004469434730708599
-0.006476008965058603 -0.011832895748955557 0.0045839459635317326
-0.006686041351825156 -0.01125583650896029 0.004814231302589178
-0.00689607389785725 -0.010678776831386549 0.004812303464859724
-0.007106106284623804 -0.010101717591391283 0.00398971838876605
-0.007316138671390357 -0.009524658351396017 0.0020139669068157673
-0.0075261710581569115 -0.00894759911140075 0.0029865021351724863
-0.007736203604189005 -0.008370539433827009 0.0034850104711949825
-0.007946235990955558 -0.0077934801938317425 0.0038688192144036293
-0.008156268377722112 -0.007216420953836477 0.003983330447226763
-0.008366300844121436 -0.006639361495051973 0.004213615320622921
-0.00857633331052076 -0.006062302036267469 0.002485738368704915
-0.008786365697287314 -0.005485242796272203 0.0029842474032193422
-0.008996398123870252 -0.0049081834468823185 0.003214532509446144
-0.009206430570361383 -0.004331124042795124 0.003174195531755686
-0.009416462996944323 -0.0037540646934052387 0.003249752102419734
-0.00962649542352726 -0.003177005344015354 0.0018883958691731095
-0.0098365278501102 -0.002599945994625469 0.002462949138134718
-0.010046560296601332 -0.0020228865905382747 0.0026548535097390413
-0.01025659272318427 -0.0014458272411483897 0.0029235193505883217
-0.010466625109950823 -0.0008687680011531236 0.0013985701370984316
-0.010676657576350147 -0.00029170854236861986 0.0019350594375282526
-0.010886690042749472 0.0002853509164158839 0.002357248915359378
-0.011096722429516025 0.00086241015641115 0.0010762577876448631
-0.011306754816282578 0.001439469396406416 0.0016508129192516208
-0.011726819749081225 0.0025935883139754238 0.0013036839663982391
-0.012146884522614334 0.003747706793965956 0.0010732575319707394
-0.00274846296797179 -0.020278754587588845 0.0008777351467870176
-0.002958495991800505 -0.019701693597279676 0.0013687285827472806
-0.0031685283785670587 -0.019124634357284412 0.002117553725838661
-0.003378560765333612 -0.018547575117289147 0.001543000340461731
-0.003588593152100166 -0.01797051587729388 0.003730708733201027
-0.0037986255388667194 -0.017393456637298615 0.0035388043615967035
-0.004008657925633273 -0.016816397397303347 0.0032701382879167795
-0.004218690312399827 -0.016239338157308082 0.0025804636534303427
-0.0044287226991663806 -0.015662278917312814 0.0017721574986353517
-0.004638755085932934 -0.01508521967731755 0.00260405451990664
-0.004848787472699487 -0.014508160437322283 0.004501012619584799
-0.005058819859466042 -0.013931101197327017 0.004464286845177412
-0.005268852564763675 -0.0133540410821748 0.004272382706403732
-0.0054788849515302294 -0.012776981842179534 0.003888574196025729
-0.005688917338296783 -0.012199922602184268 0.0033520853612571955
-0.005898949725063336 -0.011622863362189002 0.00495923450216651
-0.00610898211182989 -0.011045804122193735 0.00476733036339283
-0.006319014657861984 -0.010468744444619994 0.004954395815730095
-0.0065290470446285375 -0.00989168520462473 0.004839885979890823
-0.006739079431395091 -0.009314625964629463 0.004609600640833378
-0.006949111818161645 -0.008737566724634197 0.004649939015507698
-0.007159144364193739 -0.008160507047060455 0.00430451100692153
-0.007369176750960293 -0.007583447807065189 0.00411260686814785
-0.007579209137726846 -0.007006388567069923 0.0037671790923923254
-0.00778924160412617 -0.006429329108285419 0.0034217515494674444
-0.007999274070525494 -0.005852269649500915 0.0029232418164610863
-0.008209306457292048 -0.005275210409505649 0.002272136975079775
-0.008419338883874986 -0.004698151060115764 0.0035531269386410713
-0.008629371330366117 -0.0041210916560285695 0.0032844608649611473
-0.008839403756949056 -0.003544032306638685 0.0027859529945999384
-0.009049436183531994 -0.0029669729572488 0.0021732074674218893
-0.009259468610114934 -0.002389913607858915 0.0015604625223204494
-0.009469501056606065 -0.0018128542037717209 0.002802091185003519
-0.009679533483189003 -0.0012357948543818358 0.002150987507775426
-0.009889565869955557 -0.0006587356143865698 0.0014998822007328272
-0.010099598336354881 -8.1676155602066e-05 0.000925328815355897
-0.010309630802754205 0.0004953833031824378 0.0022063180804252625
-0.010519663189520759 0.0010724425431777038 0.001707809162326157
-0.010729695576287312 0.0016495017831729699 0.0010181342950090766
-0.011149760509085959 0.0028036207007419776 0.0013658009702339768
-0.0023814367518052385 -0.019491661210513125 0.001093745231628418
-0.0025914691385717924 -0.01891460197051786 0.001984038855880499
-0.002801501525338346 -0.018337542730522592 0.0025585920084267855
-0.0030115339121048997 -0.017760483490527328 0.0030571005772799253
-0.003221566298871453 -0.01718342425053206 0.0034025281202048063
-0.003431598685638007 -0.016606365010536795 0.0036711941938847303
-0.0036416310724045604 -0.016029305770541527 0.004093383904546499
-0.004271728232704221 -0.01429812805055573 0.00197982438839972
-0.0044817606194707755 -0.013721068810560464 0.0031945714727044106
-0.004691793324768409 -0.013144008695408247 0.0038842461071908474
-0.004901825711534963 -0.01256694945541298 0.00419129291549325
-0.005111858098301517 -0.011989890215417714 0.004498339723795652
-0.00532189048506807 -0.011412830975422448 0.004690244328230619
-0.0055319228718346235 -0.010835771735427182 0.004804754164069891
-0.005741955417866718 -0.01025871205785344 0.0049192639999091625
-0.005951987804633271 -0.009681652817858176 0.004955988842993975
-0.006162020191399825 -0.00910459357786291 0.005070500075817108
-0.006372052578166379 -0.008527534337867643 0.005107225850224495
-0.006582085124198472 -0.007950474660293902 0.0050668865442276
-0.006792117510965027 -0.007373415420298636 0.003459738800302148
-0.00700214989773158 -0.006796356180303369 0.004391163121908903
-0.0072121823641309035 -0.0062192967215188655 0.00278401467949152
-0.007422214830530228 -0.005642237262734362 0.003167823888361454
-0.007632247217296781 -0.005065178022739095 0.0018868339248001575
-0.00784227964387972 -0.004488118673349211 0.0028593677561730146
-0.00805231209037085 -0.003911059269262016 0.00328155723400414
-0.00826234451695379 -0.0033339999198721314 0.002000567503273487
-0.008472376943536728 -0.0027569405704822468 0.0025751206558197737
-0.008682409370119668 -0.0021798812210923617 0.0029589293990284204
-0.008892441816610799 -0.0016028218170051674 0.0015975736314430833
-0.009102474243193737 -0.0010257624676152824 0.002134063048288226
-0.00931250662996029 -0.00044870322762001637 0.0024027288891375065
-0.009522539096359615 0.00012835623116448742 0.0011217390419915318
-0.009732571562758939 0.0007054156899489912 0.001696292427368462
-0.010152636336292046 0.0018595341699395233 0.0012245835969224572
-0.002014409898576527 -0.018704569583751305 0.001752045238390565
-0.0022244422853430804 -0.018127510343756037 0.002991185523569584
-0.0024344746721096343 -0.017550451103760772 0.0026841387152671814
-0.0026445070588761877 -0.016973391863765508 0.0021476505789905787
-0.0028545394456427416 -0.01639633262377024 0.0033892786595970392
-0.003064571832409295 -0.015819273383774975 0.0025809730868786573
-0.003274604219175849 -0.015242214143779709 0.0016495491145178676
-0.0034846366059424023 -0.014665154903784443 0.0029810164123773575
-0.003694668992708956 -0.014088095663789177 0.0052812728099524975
-0.0039047013794755096 -0.01351103642379391 0.0043909791857004166
-0.0041147340847731435 -0.012933976308641694 0.0038924699183553457
-0.004324766471539698 -0.012356917068646427 0.0036238038446754217
-0.004534798858306251 -0.011779857828651161 0.005209297873079777
-0.004744831245072805 -0.011202798588655895 0.00513374013826251
-0.004954863631839358 -0.010625739348660629 0.005019230302423239
-0.005164896177871452 -0.010048679671086887 0.004943671636283398
-0.005374928564638006 -0.00947162043109162 0.004984009545296431
-0.005584960951404559 -0.008894561191096354 0.004869499709457159
-0.0057949933381711135 -0.00831750195110109 0.004677595570683479
-0.006005025884203207 -0.007740442273527348 0.004408929497003555
-0.006215058270969761 -0.007163383033532081 0.003910420928150415
-0.006425090657736315 -0.006586323793536816 0.003373931162059307
-0.006635123124135638 -0.006009264334752312 0.002799378475174308
-0.006845155590534962 -0.005432204875967808 0.0019090838031843305
-0.007055187977301516 -0.004855145635972542 0.0031507136300206184
-0.007265220403884455 -0.004278086286582657 0.0025379685685038567
-0.007475252850375586 -0.0037010268824954626 0.001848293119110167
-0.007685285276958525 -0.0031239675331055775 0.0030899224802851677
-0.007895317703541464 -0.002546908183715693 0.0024002469144761562
-0.008105350130124402 -0.001969848834325808 0.0018256918992847204
-0.008315382576615533 -0.0013927894302386136 0.0009353983914479613
-0.008525415003198472 -0.0008157300808487285 0.001828976208344102
-0.008735447389965026 -0.0002386708408534625 0.0010206700535491109
-0.008945479856364348 0.0003383886179310413 0.0023416057229042053
-0.009155512322763673 0.0009154480767155451 0.0019961779471486807
-0.009365544709530226 0.0014925073167108111 0.0013450738042593002
-0.009995642029095428 0.003223685474275085 0.0009564904030412436
-0.0014373502210027853 -0.01849453703771921 0.0016777098644524813
-0.001647382607769339 -0.017917477797723944 0.0022904553916305304
-0.0018574149945358926 -0.01734041855772868 0.0027889644261449575
-0.0020674473813024462 -0.01676335931773341 0.0032111534383147955
-0.002277479768069 -0.016186300077738146 0.003518200246617198
-0.0024875121548355535 -0.01560924083774288 0.003902008756995201
-0.0026975445416021074 -0.015032181597747614 0.004132294096052647
-0.002907576928368661 -0.014455122357752348 0.004439340904355049
-0.0031176093151352147 -0.013878063117757083 0.004553850740194321
-0.003327641701901768 -0.013301003877761817 0.0045519242994487286
-0.0035376744071994024 -0.012723943762609598 0.004666435532271862
-0.003747706793965956 -0.012146884522614334 0.00489672040566802
-0.00395773918073251 -0.011569825282619068 0.0050886245444417
-0.004167771567499063 -0.010992766042623801 0.005125349387526512
-0.004377803954265617 -0.010415706802628535 0.00433769728988409
-0.004587836500297711 -0.009838647125054794 0.0023363109212368727
-0.004797868887064264 -0.009261587885059527 0.0035897239577025175
-0.005007901273830818 -0.008684528645064261 0.004164277110248804
-0.005217933660597372 -0.008107469405068995 0.004509705118834972
-0.0054279662066294655 -0.007530409727495254 0.004739989992231131
-0.00563799859339602 -0.006953350487499988 0.0033379702363163233
-0.005848030980162573 -0.006376291247504722 0.0038744600024074316
-0.006058063446561897 -0.005799231788720218 0.0027093617245554924
-0.006268095912961221 -0.005222172329935714 0.0032458517234772444
-0.006478128299727774 -0.004645113089940448 0.003552898531779647
-0.006688160726310713 -0.004068053740550563 0.002311269287019968
-0.006898193172801844 -0.0034909943364633688 0.0028477581217885017
-0.007108225599384783 -0.0029139349870734837 0.001682660891674459
-0.007318258025967721 -0.002336875637683599 0.0018745652632787824
-0.00752829045255066 -0.001759816288293714 0.0022583738900721073
-0.007738322899041791 -0.0011827568842065197 0.0010932760778814554
-0.008158387712391284 -2.863829482136864e-05 0.0012262299424037337
-0.008368420178790607 0.0005484211639631352 0.0017627192428335547
-0.008788485031956485 0.001702539862742905 0.001133835525251925
-0.009838647125054794 0.004587836500297711 0.0014863865217193961
-0.0006502585942409655 -0.018861563890947924 0.0008770323474891484
-0.0008602909810075191 -0.018284504650952656 0.0016384611371904612
-0.0010703233677740727 -0.017707445410957392 0.0029087066650390625
-0.0012803557545406263 -0.017130386170962124 0.0027941965963691473
-0.00149038814130718 -0.01655332693096686 0.002487149788066745
-0.0017004205280737336 -0.015976267690971595 0.0036901116836816072
-0.0019104529148402873 -0.015399208450976327 0.003267922205850482
-0.002120485301606841 -0.01482214921098106 0.004875071346759796
-0.0023305176883733946 -0.014245089970985794 0.0049154083244502544
-0.0025405500751399484 -0.01366803073099053 0.0049173347651958466
-0.002750582461906502 -0.013090971490995263 0.004802825395017862
-0.002960615167204136 -0.012513911375843045 0.0046883150935173035
-0.0031706475539706896 -0.01193685213584778 0.004941605497151613
-0.0033806799407372435 -0.011359792895852514 0.004943533334881067
-0.003590712327503797 -0.010782733655857248 0.004945458844304085
-0.0038007447142703508 -0.010205674415861982 0.00486990250647068
-0.004010777260302445 -0.00962861473828824 0.004755392670631409
-0.004220809647068998 -0.009051555498292974 0.004563488066196442
-0.0044308420338355515 -0.008474496258297708 0.004141299054026604
-0.004640874420602106 -0.007897437018302441 0.003719109343364835
-0.004850906966634199 -0.007320377340728701 0.0032205998431891203
-0.0050609393534007535 -0.0067433181007334345 0.0024921002332121134
-0.005270971740167307 -0.006166258860738168 0.003695063991472125
-0.00548100420656663 -0.005589199401953664 0.003272874513641
-0.005691036672965955 -0.0050121399431691605 0.0026601289864629507
-0.005901069059732508 -0.004435080703173894 0.0018109020311385393
-0.006111101486315447 -0.0038580213537840096 0.003091891296207905
-0.006321133932806578 -0.0032809619496968153 0.0026697025168687105
-0.006531166359389517 -0.0027039026003069302 0.0020951491314917803
-0.006741198785972455 -0.0021268432509170456 0.0017881023231893778
-0.007161263659046525 -0.0009727244974399662 0.0021376674994826317
-0.007371296085629464 -0.00039566514805008127 0.0016011783154681325
-0.007581328472396017 0.0001813940919451848 0.0009500728920102119
-0.007791360938795342 0.0007584535507296886 0.0021917016711086035
-0.008001393405194665 0.0013355130095141924 0.00199979729950428
-0.008211425791961218 0.0019125722495094584 0.0016159886727109551
-0.008631490724759867 0.003066691167078466 0.001382274553179741
-0.00884152311152642 0.003643750407073732 0.0009600850753486156
-0.0002832317410122528 -0.018074472264186105 0.0010903935180976987
-0.0004932641277788065 -0.017497413024190837 0.0019806870259344578
-0.0007032965145453602 -0.016920353784195572 0.002402876503765583
-0.0009133289013119138 -0.016343294544200304 0.0028250659815967083
-0.0011233612880784674 -0.01576623530420504 0.0033615552820265293
-0.001333393674845021 -0.015189176064209773 0.0037837447598576546
-0.0015434260616115747 -0.014612116824214507 0.004090791568160057
-0.0017534584483781283 -0.01403505758421924 0.004282695706933737
-0.001963490835144682 -0.013457998344223975 0.004474600311368704
-0.0021735232219112356 -0.012880939104228708 0.004666504450142384
-0.00238355592720887 -0.012303878989076492 0.004550307989120483
-0.0025935883139754233 -0.011726819749081225 0.004509971011430025
-0.002803620700741977 -0.011149760509085959 0.004817017819732428
-0.0030136530875085306 -0.010572701269090694 0.005047302693128586
-0.0032236854742750845 -0.009995642029095428 0.005084027070552111
-0.0034337180203071783 -0.009418582351521687 0.005043690092861652
-0.0036437504070737318 -0.00884152311152642 0.005158200394362211
-0.0038537827938402856 -0.008264463871531154 0.005194926168769598
-0.0040638151806068395 -0.007687404631535888 0.00523165101185441
-0.004483880113405487 -0.00653328571396688 0.000999697600491345
-0.004693912500172041 -0.005956226473971615 0.0020947169978171587
-0.004903944966571364 -0.005379167015187111 0.002903022337704897
-0.005113977432970688 -0.004802107556402607 0.0034395104739814997
-0.005324009819737242 -0.004225048316407341 0.0022365490440279245
-0.005534042246320181 -0.0036479889670174557 0.002887653885409236
-0.005744074692811312 -0.0030709295629302615 0.002387964865192771
-0.005954107119394251 -0.0024938702135403764 0.0011463362025097013
-0.006164139545977189 -0.0019168108641504915 0.0019955625757575035
-0.006374171972560128 -0.0013397515147606067 0.0025320507120341063
-0.006584204419051259 -0.0007626921106734123 0.0010892151622101665
-0.006794236845634198 -0.0001856327612835274 0.0017019609222188592
-0.007004269232400751 0.00039142647871173865 0.0020090078469365835
-0.007214301698800075 0.0009684859374962425 0.0021235179156064987
-0.007634366551965952 0.0021226046362760125 0.0013749066274613142
-0.007844398938732506 0.0026996638762712783 0.0017970961052924395
-0.008264463871531154 0.003853782793840286 0.0008599695865996182
0.0002938274989830126 -0.01786443987741955 0.0029467397835105658
8.379511221645894e-05 -0.017287380637424285 0.0030629357788711786
-0.00012623727455009473 -0.016710321397429017 0.0027942704036831856
-0.0003362696613166484 -0.016133262157433752 0.002143166260793805
-0.000546302048083202 -0.015556202917438486 0.0032713108230382204
-0.0007563344348497557 -0.01497914367744322 0.005114939995110035
-0.0009663668216163094 -0.014402084437447954 0.0051933880895376205
-0.001176399208382863 -0.013825025197452687 0.005309584084898233
-0.0013864315951494168 -0.013247965957457421 0.005425779614597559
-0.0015964639819159704 -0.012670906717462155 0.005350222811102867
-0.0018064966872136045 -0.012093846602309938 0.004699117969721556
-0.002016529073980158 -0.011516787362314672 0.004886183422058821
-0.0022265614607467118 -0.010939728122319406 0.005073250271379948
-0.002436593847513265 -0.01036266888232414 0.005113588180392981
-0.002646626234279819 -0.009785609642328873 0.004999078344553709
-0.002856658780311913 -0.009208549964755132 0.004923519212752581
-0.0030666911670784664 -0.008631490724759867 0.004809009376913309
-0.0032767235538450202 -0.0080544314847646 0.004386820364743471
-0.003486755940611574 -0.0074773722447693345 0.0038883117958903313
-0.003696788486643668 -0.006900312567195593 0.0024968902580440044
-0.003906820873410222 -0.006323253327200327 0.0012056122068315744
-0.004116853260176775 -0.0057461940872050605 0.0024427631869912148
-0.004326885726576099 -0.005169134628420557 0.003045173129066825
-0.004536918192975423 -0.004592075169636053 0.002432427601888776
-0.004746950579741976 -0.0040150159296407865 0.0012570425169542432
-0.004956983006324915 -0.003437956580250902 0.0022191074676811695
-0.0051670154528160464 -0.0028608971761637076 0.0009278288925997913
-0.005377047879398985 -0.0022838378267738225 0.0019088612170889974
-0.005797112732564862 -0.0011297191279940528 0.0021354961208999157
-0.006007145179055993 -0.0005526597239068584 0.0016369882505387068
-0.006217177605638932 2.4399625483026472e-05 0.0009084891644306481
-0.006427209992405486 0.0006014588654782926 0.002073586918413639
-0.00663724245880481 0.0011785183242627962 0.0017665399936959147
-0.006847274925204133 0.0017555777830473 0.0013443505158647895
-0.0074773722447693345 0.0034867559406115737 0.0014836492482572794
-0.007687404631535889 0.0040638151806068395 0.0010614597704261541
0.00045082240302364676 -0.016500288851396924 0.0017472857143729925
0.0002407900162570931 -0.01592322961140166 0.0024369610473513603
3.075762949053943e-05 -0.015346170371406391 0.0030880658887326717
-0.00017927475727601424 -0.014769111131411126 0.003510255366563797
-0.0003893071440425679 -0.01419205189141586 0.0038173021748661995
-0.0005993395308091215 -0.013614992651420594 0.0040859682485461235
-0.0008093719175756752 -0.013037933411425328 0.004161526914685965
-0.001019404304342229 -0.012460874171430061 0.00439181225374341
-0.001229437009639863 -0.011883814056277845 0.004622097127139568
-0.0014394693964064167 -0.011306754816282578 0.004736607428640127
-0.0016495017831729703 -0.010729695576287312 0.004851117730140686
-0.001859534169939524 -0.010152636336292046 0.00496562710031867
-0.0020695665567060776 -0.00957557709629678 0.005157531704753637
-0.0022795991027381715 -0.008998517418723038 0.0035998274106532335
-0.002489631489504725 -0.008421458178727772 0.004174381960183382
-0.0026996638762712788 -0.007844398938732507 0.004558190703392029
-0.0029096962630378326 -0.00726733969873724 0.0047500948421657085
-0.0031197288090699265 -0.006690280021163499 0.004786820616573095
-0.00332976119583648 -0.006113220781168233 0.0047464813105762005
-0.003539793582603034 -0.005536161541172967 0.003425547620281577
-0.0037498260490023572 -0.004959102082388463 0.001982711022719741
-0.0039598585154016815 -0.004382042623603959 0.001353090163320303
-0.004169890902168235 -0.003804983383608693 0.002407443942502141
-0.004379923328751174 -0.0032279240342188084 0.0011264540953561664
-0.004589955775242305 -0.0026508646301316137 0.0020578799303621054
-0.005010020628408182 -0.001496745931351844 0.0021628648974001408
-0.005430085501482252 -0.0003426271778747648 0.001364022376947105
-0.005640117928065191 0.0002344321715151201 0.0017862118547782302
-0.0060601827812310684 0.0013885508702948899 0.001257747644558549
-0.006270215247630392 0.001965610329079394 0.001526413718238473
-0.0066902800211635 0.003119728809069926 0.0016876131994649768
0.0012379140297854667 -0.016867315704625636 0.0013352191308513284
0.001027881643018913 -0.016290256464630372 0.0033602118492126465
0.0008178492562523593 -0.015713197224635104 0.003168307477608323
0.0006078168694858057 -0.015136137984639838 0.003388558281585574
0.00039778448271925203 -0.014559078744644571 0.00311989220790565
0.00018775209595269838 -0.013982019504649307 0.002621383173391223
-2.2280290813855267e-05 -0.01340496026465404 0.0017721574986353517
