ply
format ascii 1.0
element vertex 768
property float x
property float y
property float z
end_header
-0.05533613637089729 0.03009461797773838 -0.15369999408721924
-0.054674264043569565 0.030172940343618393 -0.15410000085830688
-0.05393828824162483 0.030212096869945526 -0.15429998934268951
-0.05309693142771721 0.03019252046942711 -0.1542000025510788
-0.05218878760933876 0.030133778229355812 -0.15389999747276306
-0.05111684650182724 0.029977139085531235 -0.15309999883174896
-0.050086136907339096 0.029840078204870224 -0.15240000188350677
-0.04915977269411087 0.02976175583899021 -0.15199999511241913
-0.04826941341161728 0.029703015461564064 -0.1516999900341034
-0.04741349071264267 0.02966385707259178 -0.15150000154972076
-0.043774306774139404 0.031014883890748024 -0.15839999914169312
-0.10551980882883072 0.031558625400066376 -0.1656000018119812
-0.10452739149332047 0.03152051195502281 -0.16539999842643738
-0.10366240888834 0.03152051195502281 -0.16539999842643738
-0.10273528099060059 0.03150145336985588 -0.16529999673366547
-0.10180918872356415 0.03148239478468895 -0.16519999504089355
-0.10094526410102844 0.03148239478468895 -0.16519999504089355
-0.10014190524816513 0.03150145336985588 -0.16529999673366547
-0.09927745163440704 0.03150145336985588 -0.16529999673366547
-0.09841299057006836 0.03150145336985588 -0.16529999673366547
-0.0976075530052185 0.03152051195502281 -0.16539999842643738
-0.09674257040023804 0.03152051195502281 -0.16539999842643738
-0.09587759524583817 0.03152051195502281 -0.16539999842643738
-0.0950126126408577 0.03152051195502281 -0.16539999842643738
-0.09426148235797882 0.031558625400066376 -0.1656000018119812
-0.05299362540245056 0.02932894043624401 -0.15389999747276306
-0.052019231021404266 0.029233653098344803 -0.1533999890089035
-0.05105007067322731 0.029138367623090744 -0.15289999544620514
-0.050086136907339096 0.029043084010481834 -0.15240000188350677
-0.04919211566448212 0.02898591198027134 -0.15209999680519104
-0.048333052545785904 0.028947796672582626 -0.15189999341964722
-0.04747607931494713 0.028909681364893913 -0.1516999900341034
-0.04665197432041168 0.02889062650501728 -0.15160000324249268
-0.04358898103237152 0.029500454664230347 -0.15479999780654907
-0.043663762509822845 0.030110280960798264 -0.15799999237060547
-0.04359662905335426 0.030643882229924202 -0.1607999950647354
-0.10551980882883072 0.030692601576447487 -0.1656000018119812
-0.10452739149332047 0.030655531212687492 -0.16539999842643738
-0.10347438603639603 0.03059992752969265 -0.16509999334812164
-0.10248667001724243 0.030562859028577805 -0.16489998996257782
-0.10137780010700226 0.030488723888993263 -0.16449999809265137
-0.10051752626895905 0.030488723888993263 -0.16449999809265137
-0.09983900189399719 0.030544327571988106 -0.1648000031709671
-0.09897716343402863 0.030544327571988106 -0.1648000031709671
-0.09829391539096832 0.03059992752969265 -0.16509999334812164
-0.0974305123090744 0.03059992752969265 -0.16509999334812164
-0.09633314609527588 0.03052579239010811 -0.1647000014781952
-0.09506604820489883 0.030396051704883575 -0.1639999896287918
-0.09397861361503601 0.030321916565299034 -0.16359999775886536
-0.05188358947634697 0.02835729345679283 -0.15299999713897705
-0.05098329111933708 0.02830168977379799 -0.15269999206066132
-0.05015186220407486 0.02828315459191799 -0.1525999903678894
-0.04935382306575775 0.02828315459191799 -0.1525999903678894
-0.04855578392744064 0.02828315459191799 -0.1525999903678894
-0.04769515618681908 0.028246089816093445 -0.15240000188350677
-0.046867385506629944 0.028227554634213448 -0.15230000019073486
-0.04359545186161995 0.028171950951218605 -0.15199999511241913
-0.043746668845415115 0.029339604079723358 -0.1582999974489212
-0.043515291064977646 0.029747355729341507 -0.16049998998641968
-0.04288864880800247 0.02989562787115574 -0.16129998862743378
-0.0421493798494339 0.02996976673603058 -0.16169999539852142
-0.041354838758707047 0.030006835237145424 -0.16189999878406525
-0.10645007342100143 0.029844583943486214 -0.16569998860359192
-0.10551980882883072 0.02982657589018345 -0.1656000018119812
-0.10440099239349365 0.029754528775811195 -0.16519999504089355
-0.10309834033250809 0.0296284519135952 -0.16449999809265137
-0.10198947042226791 0.029556404799222946 -0.16409999132156372
-0.1007615178823471 0.029448339715600014 -0.16349999606609344
-0.09990648180246353 0.029448339715600014 -0.16349999606609344
-0.09911201149225235 0.029466349631547928 -0.16359999775886536
-0.0983765721321106 0.029502373188734055 -0.16380000114440918
-0.09763902425765991 0.029538393020629883 -0.1639999896287918
-0.09648630768060684 0.029448339715600014 -0.16349999606609344
-0.09492937475442886 0.0292322039604187 -0.1622999906539917
-0.09367484599351883 0.029106125235557556 -0.1615999937057495
-0.05268372222781181 0.027557160705327988 -0.15299999713897705
-0.05184967815876007 0.027539148926734924 -0.15289999544620514
-0.05098329111933708 0.027503127232193947 -0.15269999206066132
-0.05018473044037819 0.027503127232193947 -0.15269999206066132
-0.04945085197687149 0.027539148926734924 -0.15289999544620514
-0.04868306219577789 0.027557160705327988 -0.15299999713897705
-0.04788292944431305 0.027557160705327988 -0.15299999713897705
-0.047082796692848206 0.027557160705327988 -0.15299999713897705
-0.04424433410167694 0.027286993339657784 -0.15150000154972076
-0.043509405106306076 0.02732301503419876 -0.1516999900341034
-0.043746668845415115 0.028511755168437958 -0.1582999974489212
-0.04340684413909912 0.028835957869887352 -0.16009999811649323
-0.04291523993015289 0.02907010167837143 -0.1613999903202057
-0.0421493798494339 0.02912413701415062 -0.16169999539852142
-0.0413803830742836 0.02917817048728466 -0.16200000047683716
-0.04053318127989769 0.02917817048728466 -0.16200000047683716
-0.10738138109445572 0.02899552509188652 -0.16579999029636383
-0.10651431232690811 0.02899552509188652 -0.16579999029636383
-0.10551980882883072 0.02896055020391941 -0.1656000018119812
-0.10433779656887054 0.028873106464743614 -0.16509999334812164
-0.1028476431965828 0.02869822457432747 -0.16409999132156372
-0.10167871415615082 0.02861078456044197 -0.16359999775886536
-0.10039175301790237 0.028488367795944214 -0.16290000081062317
-0.09929542988538742 0.028418412432074547 -0.16249999403953552
-0.09850619733333588 0.028435900807380676 -0.16259999573230743
-0.09759580343961716 0.028418412432074547 -0.16249999403953552
-0.09662690758705139 0.028383435681462288 -0.1622999906539917
-0.09536505490541458 0.02826101891696453 -0.1615999937057495
-0.0940520241856575 0.028121111914515495 -0.1607999950647354
-0.05264928936958313 0.026739539578557014 -0.15289999544620514
-0.05184967815876007 0.026739539578557014 -0.15289999544620514
-0.05105007067322731 0.026739539578557014 -0.15289999544620514
-0.05028332397341728 0.026757029816508293 -0.15299999713897705
-0.049612559378147125 0.026826981455087662 -0.1533999890089035
-0.048937611281871796 0.02689693495631218 -0.15379999577999115
-0.048164594918489456 0.02691442333161831 -0.15389999747276306
-0.04735975340008736 0.02691442333161831 -0.15389999747276306
-0.04631291702389717 0.026774518191814423 -0.15309999883174896
-0.04436114802956581 0.02656465768814087 -0.15189999341964722
-0.043681494891643524 0.026634611189365387 -0.15230000019073486
-0.043420031666755676 0.026966888457536697 -0.1542000025510788
-0.043746668845415115 0.027683906257152557 -0.1582999974489212
-0.04340684413909912 0.02799869515001774 -0.16009999811649323
-0.04296841844916344 0.02826101891696453 -0.1615999937057495
-0.04217544570565224 0.02829599566757679 -0.16179999709129333
-0.041405923664569855 0.028348460793495178 -0.16210000216960907
-0.04055820405483246 0.028348460793495178 -0.16210000216960907
-0.03971048444509506 0.028348460793495178 -0.16210000216960907
-0.10744614899158478 0.02814541943371296 -0.16589999198913574
-0.10651431232690811 0.028128452599048615 -0.16579999029636383
-0.10551980882883072 0.028094524517655373 -0.1656000018119812
-0.10433779656887054 0.028009695932269096 -0.16509999334812164
-0.1028476431965828 0.027840042486786842 -0.16409999132156372
-0.10161656886339188 0.02773825265467167 -0.16349999606609344
-0.10020686686038971 0.02758556418120861 -0.16259999573230743
-0.09917321801185608 0.027534667402505875 -0.1622999906539917
-0.09820328652858734 0.027500739321112633 -0.16210000216960907
-0.09717538952827454 0.027449842542409897 -0.16179999709129333
-0.09591248631477356 0.02733108587563038 -0.16110000014305115
-0.0937126874923706 0.026940882205963135 -0.15879999101161957
-0.05268372222781181 0.02595689706504345 -0.15299999713897705
-0.05188358947634697 0.02595689706504345 -0.15299999713897705
-0.05111684650182724 0.025973862037062645 -0.15309999883174896
-0.05054624378681183 0.026092618703842163 -0.15379999577999115
-0.0498712994158268 0.026160480454564095 -0.1542000025510788
-0.04912852495908737 0.026194410398602486 -0.15439999103546143
-0.04835236817598343 0.02621137537062168 -0.15449999272823334
-0.047544389963150024 0.02621137537062168 -0.15449999272823334
-0.046585164964199066 0.026126550510525703 -0.15399999916553497
-0.04548252746462822 0.02595689706504345 -0.15299999713897705
-0.04447796568274498 0.02583814039826393 -0.15230000019073486
-0.04379621893167496 0.025906000286340714 -0.15269999206066132
-0.043476346880197525 0.026194410398602486 -0.15439999103546143
-0.043325506150722504 0.02711053565144539 -0.1597999930381775
-0.04296841844916344 0.027415910735726357 -0.1615999937057495
-0.04220151528716087 0.027466807514429092 -0.16189999878406525
-0.04145700857043266 0.027534667402505875 -0.1622999906539917
-0.04063326120376587 0.02755163423717022 -0.1623999923467636
-0.039808470755815506 0.027568599209189415 -0.16249999403953552
-0.10744614899158478 0.02727782353758812 -0.16589999198913574
-0.10651431232690811 0.027261381968855858 -0.16579999029636383
-0.10551980882883072 0.027228498831391335 -0.1656000018119812
-0.10446419566869736 0.02717917039990425 -0.16529999673366547
-0.10328637063503265 0.027096960693597794 -0.1648000031709671
-0.10192731767892838 0.026965420693159103 -0.1639999896287918
-0.10039175301790237 0.026784555986523628 -0.16290000081062317
-0.09917321801185608 0.02668590098619461 -0.1622999906539917
-0.09808212518692017 0.026620132848620415 -0.16189999878406525
-0.09681504219770432 0.026505036279559135 -0.16120000183582306
-0.09454315155744553 0.026110418140888214 -0.15879999101161957
-0.05358872562646866 0.02520609274506569 -0.15330000221729279
-0.05278702452778816 0.02520609274506569 -0.15330000221729279
-0.052019231021404266 0.0252225324511528 -0.1533999890089035
-0.051417335867881775 0.02532118745148182 -0.15399999916553497
-0.050743430852890015 0.025386955589056015 -0.15439999103546143
-0.05003300681710243 0.0254362840205431 -0.15469999611377716
-0.04935126379132271 0.025502054020762444 -0.1551000028848648
-0.04857144132256508 0.025518495589494705 -0.15519998967647552
-0.04760593920946121 0.0254362840205431 -0.15469999611377716
-0.0466759130358696 0.025370514020323753 -0.15429998934268951
-0.0455717109143734 0.02520609274506569 -0.15330000221729279
-0.04459478333592415 0.02510743774473667 -0.15269999206066132
-0.04391094669699669 0.025173207744956017 -0.15309999883174896
-0.043359775096178055 0.02579801343381405 -0.15689998865127563
-0.04296841844916344 0.02657080441713333 -0.1615999937057495
-0.04222758114337921 0.026636574417352676 -0.16200000047683716
-0.04150809720158577 0.026718785986304283 -0.16249999403953552
-0.04070832580327988 0.026751670986413956 -0.16269999742507935
-0.03990646451711655 0.026784555986523628 -0.16290000081062317
-0.039006609469652176 0.026751670986413956 -0.16269999742507935
-0.10738138109445572 0.0263943113386631 -0.16579999029636383
-0.10645007342100143 0.026378391310572624 -0.16569998860359192
-0.10551980882883072 0.026362473145127296 -0.1656000018119812
-0.10452739149332047 0.02633063495159149 -0.16539999842643738
-0.10347438603639603 0.02628287486732006 -0.16509999334812164
-0.10223807394504547 0.026187360286712646 -0.16449999809265137
-0.1007615178823471 0.026028165593743324 -0.16349999606609344
-0.09905101358890533 0.025805296376347542 -0.16210000216960907
-0.0979003757238388 0.025725698098540306 -0.1615999937057495
-0.09555380046367645 0.025327714160084724 -0.1590999960899353
-0.09394779056310654 0.02512076124548912 -0.15779998898506165
-0.07548999041318893 0.02529587410390377 -0.15889999270439148
-0.07569267600774765 0.02564610168337822 -0.16110000014305115
-0.07522187381982803 0.025773456320166588 -0.16189999878406525
-0.05295919254422188 0.02448398806154728 -0.15379999577999115
-0.05218878760933876 0.024499906226992607 -0.15389999747276306
-0.05151749774813652 0.024563582614064217 -0.15429998934268951
-0.050776299089193344 0.02459542267024517 -0.15449999272823334
-0.05006534978747368 0.024643180891871452 -0.15479999780654907
-0.04938307777047157 0.024706857278943062 -0.15519998967647552
-0.048540148884058 0.024690940976142883 -0.1551000028848648
-0.04760593920946121 0.024627260863780975 -0.15469999611377716
-0.0466759130358696 0.024563582614064217 -0.15429998934268951
-0.0455717109143734 0.024404391646385193 -0.15330000221729279
-0.04459478333592415 0.02430887334048748 -0.15269999206066132
-0.043968308717012405 0.024404391646385193 -0.15330000221729279
-0.043532662093639374 0.024611342698335648 -0.15459999442100525
-0.043332140892744064 0.024961568415164948 -0.15680000185966492
-0.04308149218559265 0.02529587410390377 -0.15889999270439148
-0.04296841844916344 0.025725698098540306 -0.1615999937057495
-0.04222758114337921 0.025789376348257065 -0.16200000047683716
-0.04150809720158577 0.02586897276341915 -0.16249999403953552
-0.040758367627859116 0.02593265101313591 -0.16290000081062317
-0.03995545580983162 0.025964487344026566 -0.1630999892950058
-0.03910250589251518 0.025964487344026566 -0.1630999892950058
-0.03820265457034111 0.02593265101313591 -0.16290000081062317
-0.10831374675035477 0.02554263547062874 -0.16589999198913574
-0.10744614899158478 0.02554263547062874 -0.16589999198913574
-0.10645007342100143 0.025511842221021652 -0.16569998860359192
-0.10558351874351501 0.025511842221021652 -0.16569998860359192
-0.10465379059314728 0.02549644745886326 -0.1656000018119812
-0.10366240888834 0.025465654209256172 -0.16539999842643738
-0.10248667001724243 0.025388671085238457 -0.16489998996257782
-0.1007615178823471 0.025173122063279152 -0.16349999606609344
-0.09898991137742996 0.024942178279161453 -0.16200000047683716
-0.09723397344350815 0.024711228907108307 -0.16049998998641968
-0.09477303177118301 0.02429552748799324 -0.15779998898506165
-0.07738940417766571 0.023772049695253372 -0.15439999103546143
-0.07658194750547409 0.023772049695253372 -0.15439999103546143
-0.075823575258255 0.023787446320056915 -0.15449999272823334
-0.07530692219734192 0.023879826068878174 -0.1551000028848648
-0.07502414286136627 0.02404918521642685 -0.15619999170303345
-0.07506241649389267 0.024326320737600327 -0.15799999237060547
-0.07503487914800644 0.02458805777132511 -0.15969999134540558
-0.07508248835802078 0.02488058991730213 -0.1615999937057495
-0.07446707785129547 0.024957574903964996 -0.16210000216960907
-0.07398268580436707 0.025080744177103043 -0.16290000081062317
-0.07344502955675125 0.025188518688082695 -0.16359999775886536
-0.05229052156209946 0.023741258308291435 -0.1542000025510788
-0.051550887525081635 0.023772049695253372 -0.15439999103546143
-0.050842028111219406 0.023818239569664 -0.15469999611377716
-0.05006534978747368 0.023833636194467545 -0.15479999780654907
-0.04925580322742462 0.023833636194467545 -0.15479999780654907
-0.048446256667375565 0.023833636194467545 -0.15479999780654907
-0.047544389963150024 0.023787446320056915 -0.15449999272823334
-0.046585164964199066 0.02371046505868435 -0.15399999916553497
-0.045512255281209946 0.02357189729809761 -0.15309999883174896
-0.04456557705998421 0.023494914174079895 -0.1525999903678894
-0.04391094669699669 0.02357189729809761 -0.15309999883174896
-0.0435045026242733 0.023787446320056915 -0.15449999272823334
-0.043276868760585785 0.02411077171564102 -0.1565999984741211
-0.04296841844916344 0.02488058991730213 -0.1615999937057495
-0.04222758114337921 0.024942178279161453 -0.16200000047683716
-0.04153364151716232 0.025034554302692413 -0.16259999573230743
-0.040758367627859116 0.025080744177103043 -0.16290000081062317
-0.039979953318834305 0.025126932188868523 -0.1631999909877777
-0.03910250589251518 0.02511153556406498 -0.1630999892950058
-0.03824955224990845 0.02511153556406498 -0.1630999892950058
-0.10844432562589645 0.024704789742827415 -0.16609999537467957
-0.10744614899158478 0.024675041437149048 -0.16589999198913574
-0.10657855868339539 0.024675041437149048 -0.16589999198913574
-0.10564723610877991 0.02466016821563244 -0.16579999029636383
-0.10471697896718979 0.02464529499411583 -0.16569998860359192
-0.10366240888834 0.024600675329566002 -0.16539999842643738
-0.10261097550392151 0.024556053802371025 -0.16509999334812164
-0.10051500052213669 0.024258585646748543 -0.1630999892950058
-0.09874548763036728 0.024035483598709106 -0.1615999937057495
-0.09656757861375809 0.023708269000053406 -0.15940000116825104
-0.0944126769900322 0.023381052538752556 -0.15719999372959137
-0.07824750989675522 0.02297946996986866 -0.15449999272823334
-0.07738940417766571 0.0229645948857069 -0.15439999103546143
-0.07663154602050781 0.02297946996986866 -0.15449999272823334
-0.07587265223264694 0.02299434319138527 -0.15459999442100525
-0.07530692219734192 0.023068711161613464 -0.1551000028848648
-0.07516823709011078 0.023276938125491142 -0.15649999678134918
-0.07506241649389267 0.02350004017353058 -0.15799999237060547
-0.07475297152996063 0.02366364747285843 -0.1590999960899353
-0.07489664107561111 0.02397599071264267 -0.16120000183582306
-0.07442113757133484 0.024094978347420692 -0.16200000047683716
-0.07389184832572937 0.024199092760682106 -0.16269999742507935
-0.07340013235807419 0.02431808039546013 -0.16349999606609344
-0.07276693731546402 0.024392446503043175 -0.1639999896287918
-0.07195313274860382 0.024407319724559784 -0.16409999132156372
-0.07096497714519501 0.024362700060009956 -0.16380000114440918
-0.0699799656867981 0.02431808039546013 -0.16349999606609344
-0.05158427357673645 0.02297946996986866 -0.15449999272823334
-0.050842028111219406 0.02300921641290188 -0.15469999611377716
-0.05003300681710243 0.02300921641290188 -0.15469999611377716
-0.049160346388816833 0.02297946996986866 -0.15449999272823334
-0.04835236817598343 0.02297946996986866 -0.15449999272823334
-0.047482844442129135 0.022949721664190292 -0.15429998934268951
-0.046494413167238235 0.022860482335090637 -0.15369999408721924
-0.04539334401488304 0.022711746394634247 -0.15269999206066132
-0.04450717195868492 0.02266712859272957 -0.15240000188350677
-0.043853580951690674 0.022741494700312614 -0.15289999544620514
-0.04299500957131386 0.024050356820225716 -0.16169999539852142
-0.04222758114337921 0.024094978347420692 -0.16200000047683716
-0.04150809720158577 0.02416934445500374 -0.16249999403953552
-0.040758367627859116 0.024228839203715324 -0.16290000081062317
-0.03995545580983162 0.024258585646748543 -0.1630999892950058
-0.03910250589251518 0.024258585646748543 -0.1630999892950058
-0.03824955224990845 0.024258585646748543 -0.1630999892950058
-0.1085096150636673 0.023850498721003532 -0.16619999706745148
-0.10764045268297195 0.023850498721003532 -0.16619999706745148
-0.10670704394578934 0.023836148902773857 -0.16609999537467957
-0.10583840310573578 0.023836148902773857 -0.16609999537467957
-0.104843370616436 0.023807447403669357 -0.16589999198913574
-0.10378775745630264 0.02376439794898033 -0.1656000018119812
-0.10248667001724243 0.023663941770792007 -0.16489998996257782
-0.10014523565769196 0.023319531232118607 -0.16249999403953552
-0.09850107133388519 0.02313297614455223 -0.16120000183582306
-0.09571942687034607 0.02267375960946083 -0.15799999237060547
-0.09381208568811417 0.02241544984281063 -0.15619999170303345
-0.08053545653820038 0.02235805056989193 -0.155799999833107
-0.0793113261461258 0.02224324643611908 -0.1550000011920929
-0.07829815149307251 0.02218584343791008 -0.15459999442100525
-0.07743952423334122 0.022171491757035255 -0.15449999272823334
-0.07663154602050781 0.022171491757035255 -0.15449999272823334
-0.07597080618143082 0.02221454493701458 -0.15479999780654907
-0.07545258104801178 0.02230064757168293 -0.15539999306201935
-0.07536035776138306 0.022515904158353806 -0.15689998865127563
-0.07515743374824524 0.02270246110856533 -0.1581999957561493
-0.07489392906427383 0.02287466824054718 -0.15940000116825104
-0.07494309544563293 0.023147324100136757 -0.16129998862743378
-0.07446707785129547 0.023262130096554756 -0.16210000216960907
-0.07389184832572937 0.023348232731223106 -0.16269999742507935
-0.07344502955675125 0.02347738668322563 -0.16359999775886536
-0.0728113129734993 0.023549139499664307 -0.16409999132156372
-0.07195313274860382 0.023549139499664307 -0.16409999132156372
-0.07105162739753723 0.023534787818789482 -0.1639999896287918
-0.07002276182174683 0.02347738668322563 -0.16359999775886536
-0.06899808347225189 0.023419983685016632 -0.1631999909877777
-0.06801934540271759 0.023376934230327606 -0.16290000081062317
-0.0670437440276146 0.02333388291299343 -0.16259999573230743
-0.0430481880903244 0.023233428597450256 -0.16189999878406525
-0.042305778712034225 0.023290829733014107 -0.1622999906539917
-0.041559185832738876 0.023348232731223106 -0.16269999742507935
-0.040808405727148056 0.023405633866786957 -0.1630999892950058
-0.03995545580983162 0.023405633866786957 -0.1630999892950058
-0.03910250589251518 0.023405633866786957 -0.1630999892950058
-0.03824955224990845 0.023405633866786957 -0.1630999892950058
-0.10877076536417007 0.023036645725369453 -0.16659998893737793
-0.107899509370327 0.023036645725369453 -0.16659998893737793
-0.10702825337648392 0.023036645725369453 -0.16659998893737793
-0.10602956265211105 0.02300899103283882 -0.1664000004529953
-0.10496976971626282 0.0229675080627203 -0.16609999537467957
-0.10385042428970337 0.022912196815013885 -0.16569998860359192
-0.1021137684583664 0.02271861396729946 -0.16429999470710754
-0.09965221583843231 0.022359097376465797 -0.16169999539852142
-0.09685123711824417 0.021916618570685387 -0.15850000083446503
-0.09535593539476395 0.021764514967799187 -0.1573999971151352
-0.09351179748773575 0.02152944728732109 -0.15569999814033508
-0.08053545653820038 0.02154327556490898 -0.155799999833107
-0.0793113261461258 0.021432654932141304 -0.1550000011920929
-0.07829815149307251 0.02137734368443489 -0.15459999442100525
-0.07743952423334122 0.021363515406847 -0.15449999272823334
-0.07668115198612213 0.02137734368443489 -0.15459999442100525
-0.07606896013021469 0.021432654932141304 -0.1550000011920929
-0.07559823989868164 0.02152944728732109 -0.15569999814033508
-0.07564854621887207 0.021778343245387077 -0.1574999988079071
-0.07525245100259781 0.021902790293097496 -0.15839999914169312
-0.07531679421663284 0.022165512666106224 -0.16030000150203705
-0.0751289501786232 0.022359097376465797 -0.16169999539852142
-0.07460489124059677 0.022455889731645584 -0.1623999923467636
-0.07407350838184357 0.02255268208682537 -0.1630999892950058
-0.07344502955675125 0.022621821612119675 -0.16359999775886536
-0.0728113129734993 0.02269095741212368 -0.16409999132156372
-0.07195313274860382 0.02269095741212368 -0.16409999132156372
-0.07109494507312775 0.02269095741212368 -0.16409999132156372
-0.07019396871328354 0.02267712913453579 -0.1639999896287918
-0.06916719675064087 0.022621821612119675 -0.16359999775886536
-0.06826987862586975 0.022607993334531784 -0.16349999606609344
-0.06724990159273148 0.02255268208682537 -0.1630999892950058
-0.06623411178588867 0.022497372701764107 -0.16269999742507935
-0.04340684413909912 0.022137857973575592 -0.16009999811649323
-0.043101370334625244 0.02241440862417221 -0.16210000216960907
-0.04238397628068924 0.022483546286821365 -0.16259999573230743
-0.04166135564446449 0.02255268208682537 -0.1630999892950058
-0.040833424776792526 0.02256651036441326 -0.1631999909877777
-0.039979953318834305 0.02256651036441326 -0.1631999909877777
-0.03912648186087608 0.02256651036441326 -0.1631999909877777
-0.038273006677627563 0.02256651036441326 -0.1631999909877777
-0.10890134423971176 0.02219199948012829 -0.16679999232292175
-0.1082233414053917 0.02223191410303116 -0.1670999974012375
-0.10734947770833969 0.02223191410303116 -0.1670999974012375
-0.10628443956375122 0.02219199948012829 -0.16679999232292175
-0.10509616136550903 0.022125478833913803 -0.1662999987602234
-0.10378775745630264 0.022032346576452255 -0.1656000018119812
-0.10143011063337326 0.02171303518116474 -0.1631999909877777
-0.09891267865896225 0.021353812888264656 -0.16049998998641968
-0.09642349928617477 0.02099458873271942 -0.15779998898506165
-0.09475011378526688 0.020808326080441475 -0.15639999508857727
-0.09339167922735214 0.020688585937023163 -0.15549999475479126
-0.0818723738193512 0.020861545577645302 -0.15680000185966492
-0.08038037270307541 0.020688585937023163 -0.15549999475479126
-0.07920898497104645 0.020595453679561615 -0.15479999780654907
-0.07824750989675522 0.020555539056658745 -0.15449999272823334
-0.07738940417766571 0.020542234182357788 -0.15439999103546143
-0.07663154602050781 0.020555539056658745 -0.15449999272823334
-0.07606896013021469 0.02062206342816353 -0.1550000011920929
-0.07559823989868164 0.020715195685625076 -0.15569999814033508
-0.07564854621887207 0.02095467783510685 -0.1574999988079071
-0.07529996335506439 0.02108772285282612 -0.15850000083446503
-0.07531679421663284 0.021327205002307892 -0.16030000150203705
-0.07442113757133484 0.02155338227748871 -0.16200000047683716
-0.07375559955835342 0.021606599912047386 -0.1623999923467636
-0.0731307789683342 0.02167312242090702 -0.16290000081062317
-0.07254508882761002 0.02175294980406761 -0.16349999606609344
-0.07190927863121033 0.021819472312927246 -0.1639999896287918
-0.07105162739753723 0.021819472312927246 -0.1639999896287918
-0.07019396871328354 0.021819472312927246 -0.1639999896287918
-0.06933631002902985 0.021819472312927246 -0.1639999896287918
-0.06839514523744583 0.021792864426970482 -0.16380000114440918
-0.06745606660842896 0.02176625467836857 -0.16359999775886536
-0.04340684413909912 0.02130059525370598 -0.16009999811649323
-0.043101370334625244 0.021566687151789665 -0.16210000216960907
-0.04246217757463455 0.02167312242090702 -0.16290000081062317
-0.041763532906770706 0.02175294980406761 -0.16349999606609344
-0.040933508425951004 0.02176625467836857 -0.16359999775886536
-0.04012694209814072 0.021792864426970482 -0.16380000114440918
-0.03922237828373909 0.02176625467836857 -0.16359999775886536
-0.03836681321263313 0.02176625467836857 -0.16359999775886536
-0.10909721255302429 0.02135804481804371 -0.1670999974012375
-0.10828810930252075 0.02137082628905773 -0.1671999990940094
-0.107606440782547 0.02140916883945465 -0.16749998927116394
-0.10653932392597198 0.02137082628905773 -0.1671999990940094
-0.10509616136550903 0.021255791187286377 -0.1662999987602234
-0.10378775745630264 0.021166320890188217 -0.1656000018119812
-0.10087075084447861 0.020744526758790016 -0.1622999906539917
-0.09817314893007278 0.020361080765724182 -0.15929999947547913
-0.09611797332763672 0.020105447620153427 -0.15729999542236328
-0.09456836432218552 0.019952068105340004 -0.15609999001026154
-0.09339167922735214 0.019875379279255867 -0.15549999475479126
-0.0832197442650795 0.02016935497522354 -0.15779998898506165
-0.08166351169347763 0.01999041438102722 -0.15639999508857727
-0.08022529631853104 0.01983703300356865 -0.15519998967647552
-0.07915781438350677 0.019773125648498535 -0.15469999611377716
-0.07819686084985733 0.019734781235456467 -0.15439999103546143
-0.07738940417766571 0.019734781235456467 -0.15439999103546143
-0.07663154602050781 0.01974756270647049 -0.15449999272823334
-0.07597080618143082 0.019785908982157707 -0.15479999780654907
-0.07545258104801178 0.019862597808241844 -0.15539999306201935
-0.07550445199012756 0.020092666149139404 -0.15719999372959137
-0.07510992884635925 0.02020770125091076 -0.15809999406337738
-0.07364017516374588 0.02048889733850956 -0.16030000150203705
-0.07316519320011139 0.020591149106621742 -0.16110000014305115
-0.07254716753959656 0.020655056461691856 -0.1615999937057495
-0.071879543364048 0.020706184208393097 -0.16200000047683716
-0.07129542529582977 0.020782873034477234 -0.16259999573230743
-0.07070503383874893 0.02085956186056137 -0.1631999909877777
-0.07002276182174683 0.020910687744617462 -0.16359999775886536
-0.06925175338983536 0.020936252549290657 -0.16380000114440918
-0.06839514523744583 0.020936252549290657 -0.16380000114440918
-0.06753852963447571 0.020936252549290657 -0.16380000114440918
-0.043515291064977646 0.020514458417892456 -0.16049998998641968
-0.04320772364735603 0.020770089700818062 -0.16249999403953552
-0.042540375143289566 0.02085956186056137 -0.1631999909877777
-0.04184016212821007 0.020936252549290657 -0.16380000114440918
-0.04103358834981918 0.020961813628673553 -0.1639999896287918
-0.040200430899858475 0.020974595099687576 -0.16409999132156372
-0.0393182747066021 0.020961813628673553 -0.1639999896287918
-0.03841371834278107 0.020936252549290657 -0.16380000114440918
-0.10909721255302429 0.02048417367041111 -0.1670999974012375
-0.10828810930252075 0.0204964317381382 -0.1671999990940094
-0.10741371661424637 0.0204964317381382 -0.1671999990940094
-0.10653932392597198 0.0204964317381382 -0.1671999990940094
-0.10515935719013214 0.02039836347103119 -0.1664000004529953
-0.10366240888834 0.020275777205824852 -0.16539999842643738
-0.10074646025896072 0.019871242344379425 -0.16210000216960907
-0.09804989397525787 0.019503481686115265 -0.1590999960899353
-0.09611797332763672 0.019282827153801918 -0.15729999542236328
-0.09438662230968475 0.019098948687314987 -0.155799999833107
-0.09339167922735214 0.01906217262148857 -0.15549999475479126
-0.0832197442650795 0.019344119355082512 -0.15779998898506165
-0.08135022222995758 0.019098948687314987 -0.155799999833107
-0.0800185352563858 0.01897636242210865 -0.15479999780654907
-0.07905548065900803 0.018939584493637085 -0.15449999272823334
-0.07814621180295944 0.018915068358182907 -0.15429998934268951
-0.0773392766714096 0.018915068358182907 -0.15429998934268951
-0.07658194750547409 0.018927326425909996 -0.15439999103546143
-0.07587265223264694 0.018951844424009323 -0.15459999442100525
-0.07525836676359177 0.019000878557562828 -0.1550000011920929
-0.074832022190094 0.019098948687314987 -0.155799999833107
-0.07193896174430847 0.019417673349380493 -0.15839999914169312
-0.07133505493402481 0.019478965550661087 -0.15889999270439148
-0.07112525403499603 0.01965058594942093 -0.16030000150203705
-0.07085695117712021 0.019809948280453682 -0.1615999937057495
-0.07018514722585678 0.019858984276652336 -0.16200000047683716
-0.06963755190372467 0.019944792613387108 -0.16269999742507935
-0.06912492215633392 0.020042862743139267 -0.16349999606609344
-0.06831163167953491 0.020055120810866356 -0.16359999775886536
-0.06753852963447571 0.020079638808965683 -0.16380000114440918
-0.043732188642024994 0.019773172214627266 -0.16129998862743378
-0.04326090216636658 0.019944792613387108 -0.16269999742507935
-0.04261857643723488 0.020042862743139267 -0.16349999606609344
-0.041891247034072876 0.02010415494441986 -0.1639999896287918
-0.04103358834981918 0.02010415494441986 -0.1639999896287918
-0.04017593339085579 0.02010415494441986 -0.1639999896287918
-0.0393182747066021 0.02010415494441986 -0.1639999896287918
-0.1082233414053917 0.01961030438542366 -0.1670999974012375
-0.10734947770833969 0.01961030438542366 -0.1670999974012375
-0.10628443956375122 0.019575096666812897 -0.16679999232292175
-0.10509616136550903 0.019516417756676674 -0.1662999987602234
-0.10366240888834 0.019410796463489532 -0.16539999842643738
-0.1018030196428299 0.019223026931285858 -0.16380000114440918
-0.09804989397525787 0.018671449273824692 -0.1590999960899353
-0.09624018520116806 0.018483679741621017 -0.1574999988079071
-0.09456836432218552 0.018319379538297653 -0.15609999001026154
-0.09351179748773575 0.018272437155246735 -0.15569999814033508
-0.08585584163665771 0.018917899578809738 -0.16120000183582306
-0.08348344266414642 0.018577564507722855 -0.1582999974489212
-0.08171572536230087 0.018366321921348572 -0.15649999678134918
-0.0800185352563858 0.018166815862059593 -0.15479999780654907
-0.07905548065900803 0.01813160814344883 -0.15449999272823334
-0.07819686084985733 0.018119873479008675 -0.15439999103546143
-0.0773392766714096 0.01810813695192337 -0.15429998934268951
-0.07653234899044037 0.01810813695192337 -0.15429998934268951
-0.07577449083328247 0.018119873479008675 -0.15439999103546143
-0.0750155970454216 0.01813160814344883 -0.15449999272823334
-0.07430367916822433 0.018155081197619438 -0.15469999611377716
-0.0710306391119957 0.018354587256908417 -0.15639999508857727
-0.07057186961174011 0.018448472023010254 -0.15719999372959137
-0.07014910876750946 0.018554093316197395 -0.15809999406337738
-0.07002385705709457 0.01874186284840107 -0.15969999134540558
-0.06992519646883011 0.018941368907690048 -0.1613999903202057
-0.0693807452917099 0.01902352087199688 -0.16210000216960907
-0.06895580142736435 0.019140874966979027 -0.1630999892950058
-0.06826987862586975 0.019187819212675095 -0.16349999606609344
-0.06753852963447571 0.019223026931285858 -0.16380000114440918
-0.044216468930244446 0.018777070567011833 -0.1599999964237213
-0.04386775195598602 0.018988313153386116 -0.16179999709129333
-0.04331408441066742 0.019117405638098717 -0.16290000081062317
-0.04261857643723488 0.019187819212675095 -0.16349999606609344
-0.04178907722234726 0.0191995557397604 -0.16359999775886536
-0.04098355025053024 0.019223026931285858 -0.16380000114440918
-0.040077947080135345 0.0191995557397604 -0.16359999775886536
-0.10796426981687546 0.01869158260524273 -0.16669999063014984
-0.10709249973297119 0.01869158260524273 -0.16669999063014984
-0.10622071474790573 0.01869158260524273 -0.16669999063014984
-0.10503296554088593 0.018635518848896027 -0.16619999706745148
-0.10378775745630264 0.018568243831396103 -0.1656000018119812
-0.10099505633115768 0.018220648169517517 -0.16249999403953552
-0.09946732968091965 0.01809730939567089 -0.1613999903202057
-0.09642349928617477 0.017693649977445602 -0.15779998898506165
-0.09475011378526688 0.017536673694849014 -0.15639999508857727
-0.09381208568811417 0.017514247447252274 -0.15619999170303345
-0.08612214028835297 0.018130946904420853 -0.16169999539852142
-0.08443271368741989 0.017951544374227524 -0.16009999811649323
-0.08239451050758362 0.017693649977445602 -0.15779998898506165
-0.08053545653820038 0.01746939867734909 -0.155799999833107
-0.07920898497104645 0.017357271164655685 -0.15479999780654907
-0.07824750989675522 0.017323631793260574 -0.15449999272823334
-0.07738940417766571 0.017312418669462204 -0.15439999103546143
-0.07658194750547409 0.017312418669462204 -0.15439999103546143
-0.07572541385889053 0.017301205545663834 -0.15429998934268951
-0.0749184861779213 0.017301205545663834 -0.15429998934268951
-0.07016773521900177 0.017323631793260574 -0.15449999272823334
-0.06958422809839249 0.017379695549607277 -0.1550000011920929
-0.06943918764591217 0.017547886818647385 -0.15649999678134918
-0.06932230293750763 0.017727289348840714 -0.15809999406337738
-0.0695352777838707 0.017996395006775856 -0.16049998998641968
-0.06920953840017319 0.018130946904420853 -0.16169999539852142
-0.06870213896036148 0.018220648169517517 -0.16249999403953552
-0.06810285151004791 0.01828792504966259 -0.1630999892950058
-0.06745606660842896 0.018343988806009293 -0.16359999775886536
-0.06676333397626877 0.018388839438557625 -0.1639999896287918
-0.04457572475075722 0.01808609627187252 -0.16129998862743378
-0.044003311544656754 0.018198223784565926 -0.1622999906539917
-0.043393850326538086 0.01829913817346096 -0.1631999909877777
-0.04261857643723488 0.018332775682210922 -0.16349999606609344
-0.041686899960041046 0.01829913817346096 -0.1631999909877777
-0.040833424776792526 0.01829913817346096 -0.1631999909877777
-0.03995545580983162 0.01828792504966259 -0.1630999892950058
-0.107899509370327 0.01780911348760128 -0.16659998893737793
-0.10702825337648392 0.01780911348760128 -0.16659998893737793
-0.10602956265211105 0.017787735909223557 -0.1664000004529953
-0.10496976971626282 0.017755666747689247 -0.16609999537467957
-0.10385042428970337 0.017712906002998352 -0.16569998860359192
-0.10136795789003372 0.017434973269701004 -0.1630999892950058
-0.09965221583843231 0.017285317182540894 -0.16169999539852142
-0.09672902524471283 0.016921866685152054 -0.1582999974489212
-0.09523476660251617 0.016804277896881104 -0.15719999372959137
-0.09405232965946198 0.016740141436457634 -0.1565999984741211
-0.08617539703845978 0.01729600690305233 -0.16179999709129333
-0.08496008813381195 0.017221178859472275 -0.16110000014305115
-0.08302108943462372 0.01699669472873211 -0.1589999943971634
-0.08156927675008774 0.016868416219949722 -0.15779998898506165
-0.07992534339427948 0.01669738069176674 -0.15619999170303345
-0.07855138182640076 0.016579795628786087 -0.1551000028848648
-0.07753977179527283 0.016537034884095192 -0.15469999611377716
-0.07663154602050781 0.01651565544307232 -0.15449999272823334
-0.07577449083328247 0.016504965722560883 -0.15439999103546143
-0.07496704161167145 0.016504965722560883 -0.15439999103546143
-0.06935975700616837 0.01651565544307232 -0.15449999272823334
-0.06886237114667892 0.016590483486652374 -0.15519998967647552
-0.06905922293663025 0.016836348921060562 -0.1574999988079071
-0.0688420906662941 0.016986005008220673 -0.15889999270439148
-0.06916674226522446 0.017274627462029457 -0.1615999937057495
-0.06865985691547394 0.01736014522612095 -0.1623999923467636
-0.06801934540271759 0.01741359569132328 -0.16290000081062317
-0.06745606660842896 0.017488421872258186 -0.16359999775886536
-0.06680404394865036 0.01754187047481537 -0.16409999132156372
-0.06610661000013351 0.017584631219506264 -0.16449999809265137
-0.0652463361620903 0.017584631219506264 -0.16449999809265137
-0.0451376847922802 0.017135661095380783 -0.16030000150203705
-0.044741541147232056 0.017306696623563766 -0.16189999878406525
-0.04411176219582558 0.017392214387655258 -0.16269999742507935
-0.043393850326538086 0.01744566299021244 -0.1631999909877777
-0.042540375143289566 0.01744566299021244 -0.1631999909877777
-0.04166135564446449 0.017434973269701004 -0.1630999892950058
-0.040758367627859116 0.01741359569132328 -0.16290000081062317
-0.10689977556467056 0.016917526721954346 -0.1664000004529953
-0.10602956265211105 0.016917526721954346 -0.1664000004529953
-0.10503296554088593 0.01689719222486019 -0.16619999706745148
-0.10397577285766602 0.016866691410541534 -0.16589999198913574
-0.1021137684583664 0.016704022884368896 -0.16429999470710754
-0.09715675562620163 0.01616518385708332 -0.1589999943971634
-0.0955982580780983 0.016043182462453842 -0.15779998898506165
-0.09423249959945679 0.01595168188214302 -0.15689998865127563
-0.09323336184024811 0.015921181067824364 -0.1565999984741211
-0.08606887608766556 0.016429521143436432 -0.1615999937057495
-0.085065558552742 0.016399020329117775 -0.16129998862743378
-0.08396095037460327 0.016348186880350113 -0.1607999950647354
-0.08224127441644669 0.016175352036952972 -0.1590999960899353
-0.08089754730463028 0.0160736832767725 -0.15809999406337738
-0.07961493730545044 0.015982182696461678 -0.15719999372959137
-0.07809112221002579 0.015839846804738045 -0.155799999833107
-0.07687955349683762 0.015758514404296875 -0.1550000011920929
-0.07592172920703888 0.015728013589978218 -0.15469999611377716
-0.0750155970454216 0.015707679092884064 -0.15449999272823334
-0.06926997005939484 0.01568734459578991 -0.15429998934268951
-0.06881801038980484 0.015768680721521378 -0.1551000028848648
-0.06910306960344315 0.016022849828004837 -0.15760000050067902
-0.06901539117097855 0.016195684671401978 -0.15929999947547913
-0.06925234198570251 0.016449853777885437 -0.16179999709129333
-0.06870213896036148 0.016521021723747253 -0.16249999403953552
-0.06810285151004791 0.016582021489739418 -0.1630999892950058
-0.06753852963447571 0.016653191298246384 -0.16380000114440918
-0.06688546389341354 0.016704022884368896 -0.16429999470710754
-0.06610661000013351 0.01672435738146305 -0.16449999809265137
-0.06532566994428635 0.016744691878557205 -0.1647000014781952
-0.06446434557437897 0.016744691878557205 -0.1647000014781952
-0.06352579593658447 0.01672435738146305 -0.16449999809265137
-0.06251314282417297 0.01668369024991989 -0.16409999132156372
-0.061542246490716934 0.016653191298246384 -0.16380000114440918
-0.06035219877958298 0.016561688855290413 -0.16290000081062317
-0.04545973241329193 0.01611435040831566 -0.15850000083446503
-0.04536294937133789 0.01637868769466877 -0.16110000014305115
-0.044852081686258316 0.0165006872266531 -0.1622999906539917
-0.04424732178449631 0.01659218966960907 -0.1631999909877777
-0.043393850326538086 0.01659218966960907 -0.1631999909877777
-0.04251430928707123 0.016582021489739418 -0.1630999892950058
-0.10683553665876389 0.016037672758102417 -0.1662999987602234
-0.10596584528684616 0.016037672758102417 -0.1662999987602234
-0.10503296554088593 0.01602802984416485 -0.16619999706745148
-0.10397577285766602 0.015999097377061844 -0.16589999198913574
-0.10261097550392151 0.015921946614980698 -0.16509999334812164
-0.10002198070287704 0.015651920810341835 -0.1622999906539917
-0.09795112907886505 0.015459044836461544 -0.16030000150203705
-0.09590116888284683 0.015266167931258678 -0.1582999974489212
-0.09465291351079941 0.015198661014437675 -0.15760000050067902
-0.09359057247638702 0.015160085633397102 -0.15719999372959137
-0.08501283079385757 0.015545839443802834 -0.16120000183582306
-0.08416981250047684 0.015545839443802834 -0.16120000183582306
-0.08322341740131378 0.015526550821959972 -0.16099999845027924
-0.0820232629776001 0.015459044836461544 -0.16030000150203705
-0.08057720959186554 0.015343318693339825 -0.1590999960899353
-0.07934419065713882 0.015266167931258678 -0.1582999974489212
-0.0782187432050705 0.015208305791020393 -0.15770000219345093
-0.07680510729551315 0.0150925787165761 -0.15649999678134918
-0.07545258104801178 0.014986496418714523 -0.15539999306201935
-0.07430367916822433 0.014918990433216095 -0.15469999611377716
-0.06886237114667892 0.014967208728194237 -0.15519998967647552
-0.06919076293706894 0.015217947773635387 -0.15779998898506165
-0.06923200935125351 0.015410824678838253 -0.1597999930381775
-0.06933794915676117 0.015622989274561405 -0.16200000047683716
-0.06878669559955597 0.015690496191382408 -0.16269999742507935
-0.06814460456371307 0.01573871448636055 -0.1631999909877777
-0.06762099266052246 0.015815865248441696 -0.1639999896287918
-0.06688546389341354 0.0158447977155447 -0.16429999470710754
-0.06622717529535294 0.015893016010522842 -0.1648000031709671
-0.06536532938480377 0.015893016010522842 -0.1648000031709671
-0.0645034909248352 0.015893016010522842 -0.1648000031709671
-0.06360302865505219 0.015883373096585274 -0.1647000014781952
-0.06258933246135712 0.0158447977155447 -0.16429999470710754
-0.061542246490716934 0.01579657755792141 -0.16380000114440918
-0.06027809903025627 0.015690496191382408 -0.16269999742507935
-0.04543105140328407 0.015275811776518822 -0.15839999914169312
-0.045334793627262115 0.015526550821959972 -0.16099999845027924
-0.044879715889692307 0.015661563724279404 -0.1623999923467636
-0.04432866349816322 0.015767646953463554 -0.16349999606609344
-0.04347361996769905 0.015767646953463554 -0.16349999606609344
-0.04261857643723488 0.015767646953463554 -0.16349999606609344
-0.10677129030227661 0.01515886653214693 -0.16619999706745148
-0.10596584528684616 0.015167987905442715 -0.1662999987602234
-0.10509616136550903 0.015167987905442715 -0.1662999987602234
-0.10410112142562866 0.015149745158851147 -0.16609999537467957
-0.1029217392206192 0.015104142017662525 -0.1656000018119812
-0.10082314908504486 0.014921723864972591 -0.16359999775886536
-0.09905101358890533 0.014784911647439003 -0.16210000216960907
-0.09638582915067673 0.014511285349726677 -0.1590999960899353
-0.09489315003156662 0.0144109558314085 -0.15799999237060547
-0.09376918524503708 0.014365351758897305 -0.1574999988079071
-0.0925324335694313 0.014301505871117115 -0.15680000185966492
-0.08437865972518921 0.014739306643605232 -0.1615999937057495
-0.0836886391043663 0.01476666983217001 -0.16189999878406525
-0.08289312571287155 0.014775791205465794 -0.16200000047683716
-0.08189399540424347 0.014748428016901016 -0.16169999539852142
-0.08109848201274872 0.014757548458874226 -0.16179999709129333
-0.07965712994337082 0.014648097567260265 -0.1605999916791916
-0.07773756980895996 0.014447439461946487 -0.15839999914169312
-0.07642365992069244 0.014356231316924095 -0.1573999971151352
-0.07468792796134949 0.014182934537529945 -0.15549999475479126
-0.07354217022657394 0.014119088649749756 -0.15479999780654907
-0.06878669559955597 0.014839636161923409 -0.16269999742507935
-0.06814460456371307 0.014885240234434605 -0.1631999909877777
-0.06762099266052246 0.014958206564188004 -0.1639999896287918
-0.06696688383817673 0.015003811568021774 -0.16449999809265137
-0.06622717529535294 0.015031174756586552 -0.1648000031709671
-0.0654049888253212 0.015040294267237186 -0.16489998996257782
-0.06454262137413025 0.015040294267237186 -0.16489998996257782
-0.06360302865505219 0.015022054314613342 -0.1647000014781952
-0.06266552209854126 0.015003811568021774 -0.16449999809265137
-0.06161738559603691 0.014958206564188004 -0.1639999896287918
-0.06024105101823807 0.014830515719950199 -0.16259999573230743
-0.05887935683131218 0.01470282394438982 -0.16120000183582306
-0.045402366667985916 0.014438319019973278 -0.1582999974489212
-0.04522215574979782 0.014648097567260265 -0.1605999916791916
-0.044852081686258316 0.014803152531385422 -0.1622999906539917
-0.04432866349816322 0.014912603422999382 -0.16349999606609344
-0.043500207364559174 0.014921723864972591 -0.16359999775886536
-0.04261857643723488 0.014912603422999382 -0.16349999606609344
-0.10590212047100067 0.014289703220129013 -0.16619999706745148
-0.10503296554088593 0.014289703220129013 -0.16619999706745148
-0.10410112142562866 0.014281105250120163 -0.16609999537467957
-0.10304602980613708 0.014255311340093613 -0.16579999029636383
-0.10174756497144699 0.014195126481354237 -0.16509999334812164
-0.0995398536324501 0.014005973003804684 -0.16290000081062317
-0.09741571545600891 0.013825416564941406 -0.1607999950647354
-0.09507332742214203 0.013610469177365303 -0.1582999974489212
-0.09394779056310654 0.013567479327321053 -0.15779998898506165
-0.0925324335694313 0.0134815014898777 -0.15680000185966492
-0.09147845953702927 0.0134471096098423 -0.15639999508857727
-0.08399878442287445 0.013971581123769283 -0.16249999403953552
-0.08345597237348557 0.01402316801249981 -0.1630999892950058
-0.08260302990674973 0.01402316801249981 -0.1630999892950058
-0.08154958486557007 0.013988777063786983 -0.16269999742507935
-0.080301932990551 0.013919994235038757 -0.16189999878406525
-0.07891540974378586 0.013825416564941406 -0.1607999950647354
-0.07676353305578232 0.013593273237347603 -0.15809999406337738
-0.07512020319700241 0.0134471096098423 -0.15639999508857727
-0.07373219728469849 0.0133439339697361 -0.15519998967647552
-0.07263865321874619 0.013292347081005573 -0.15459999442100525
-0.07173722982406616 0.013275151140987873 -0.15439999103546143
-0.07088383287191391 0.013266553170979023 -0.15429998934268951
-0.06696688383817673 0.01414353959262371 -0.16449999809265137
-0.06622717529535294 0.014169333502650261 -0.1648000031709671
-0.06536532938480377 0.014169333502650261 -0.1648000031709671
-0.0645034909248352 0.014169333502650261 -0.1648000031709671
-0.06360302865505219 0.01416073553264141 -0.1647000014781952
-0.06258933246135712 0.014126342721283436 -0.16429999470710754
-0.06161738559603691 0.014100548811256886 -0.1639999896287918
-0.06024105101823807 0.013980179093778133 -0.16259999573230743
