ply
format ascii 1.0
element vertex 766
property float x
property float y
property float z
end_header
0.025485314428806305 0.015984611585736275 -0.11559999734163284
0.02606728859245777 0.015970783308148384 -0.11549999564886093
0.02664821781218052 0.015956956893205643 -0.11539999395608902
0.027228103950619698 0.015943128615617752 -0.1152999997138977
0.027831079438328743 0.015943128615617752 -0.1152999997138977
0.029062213376164436 0.015956956893205643 -0.11539999395608902
0.011801189742982388 0.015672767534852028 -0.11779999732971191
0.012417239136993885 0.015672767534852028 -0.11779999732971191
0.013672512024641037 0.01569937728345394 -0.11800000071525574
0.014289607293903828 0.01569937728345394 -0.11800000071525574
0.014919335022568703 0.01571268029510975 -0.11809999495744705
0.01625032350420952 0.015805814415216446 -0.11879999935626984
0.016885804012417793 0.015819117426872253 -0.11889999359846115
0.017478156834840775 0.01579250954091549 -0.11869999766349792
0.019079729914665222 0.015579636208713055 -0.11710000038146973
0.019574401900172234 0.015486503951251507 -0.11639999598264694
0.02009643241763115 0.015419980511069298 -0.11589999496936798
0.020648960024118423 0.015380067750811577 -0.11559999734163284
0.021235119551420212 0.01536676287651062 -0.11549999564886093
0.021820232272148132 0.015353458002209663 -0.11539999395608902
0.022423729300498962 0.015353458002209663 -0.11539999395608902
0.02302722819149494 0.015353458002209663 -0.11539999395608902
0.02429722622036934 0.015393372625112534 -0.11569999903440475
0.02490229345858097 0.015393372625112534 -0.11569999903440475
0.025485314428806305 0.015380067750811577 -0.11559999734163284
0.026089858263731003 0.015380067750811577 -0.11559999734163284
0.02669440396130085 0.015380067750811577 -0.11559999734163284
0.02727533131837845 0.01536676287651062 -0.11549999564886093
0.02787935361266136 0.01536676287651062 -0.11549999564886093
0.028483374044299126 0.01536676287651062 -0.11549999564886093
0.009574775584042072 0.015440165996551514 -0.12079999595880508
0.010105125606060028 0.015286787413060665 -0.11959999799728394
0.011821226216852665 0.01508228201419115 -0.11800000071525574
0.012427779845893383 0.015069499611854553 -0.11789999902248383
0.013044352643191814 0.015069499611854553 -0.11789999902248383
0.013672512024641037 0.01508228201419115 -0.11800000071525574
0.01486880425363779 0.015043936669826508 -0.11769999563694
0.016168251633644104 0.015107844956219196 -0.11819999665021896
0.01685740053653717 0.01517175231128931 -0.11869999766349792
0.017492881044745445 0.015184534713625908 -0.11879999935626984
0.018053170293569565 0.015133407898247242 -0.11840000003576279
0.018577734008431435 0.01505671814084053 -0.11779999732971191
0.019144903868436813 0.015018373727798462 -0.11749999970197678
0.01969211734831333 0.01496724784374237 -0.11710000038146973
0.020200468599796295 0.014890557155013084 -0.11649999767541885
0.02070254646241665 0.014813867397606373 -0.11589999496936798
0.02127189002931118 0.014788305386900902 -0.11569999903440475
0.02185804955661297 0.014775522984564304 -0.11559999734163284
0.02244316227734089 0.014762741513550282 -0.11549999564886093
0.023067137226462364 0.014775522984564304 -0.11559999734163284
0.023671681061387062 0.014775522984564304 -0.11559999734163284
0.02490229345858097 0.014788305386900902 -0.11569999903440475
0.025507360696792603 0.014788305386900902 -0.11569999903440475
0.026112427935004234 0.014788305386900902 -0.11569999903440475
0.02669440396130085 0.014775522984564304 -0.11559999734163284
0.027298947796225548 0.014775522984564304 -0.11559999734163284
0.02792762964963913 0.014788305386900902 -0.11569999903440475
0.02853269688785076 0.014788305386900902 -0.11569999903440475
0.029162950813770294 0.014801086857914925 -0.11580000072717667
0.00953514501452446 0.0147471334785223 -0.12029999494552612
0.010105125606060028 0.01466132327914238 -0.11959999799728394
0.011841261759400368 0.014489701949059963 -0.11819999665021896
0.012448862195014954 0.014477443881332874 -0.11809999495744705
0.013055416755378246 0.014465185813605785 -0.11800000071525574
0.014253277331590652 0.014428408816456795 -0.11769999563694
0.016099857166409492 0.014428408816456795 -0.11769999563694
0.016757989302277565 0.014465185813605785 -0.11800000071525574
0.017433982342481613 0.01451421994715929 -0.11840000003576279
0.018053170293569565 0.01451421994715929 -0.11840000003576279
0.01860927604138851 0.014465185813605785 -0.11800000071525574
0.01917748898267746 0.014428408816456795 -0.11769999563694
0.01975938305258751 0.014403892681002617 -0.11749999970197678
0.0202871672809124 0.014342598617076874 -0.11699999868869781
0.020791860297322273 0.014269046485424042 -0.11639999598264694
0.02130866050720215 0.014207753352820873 -0.11589999496936798
0.021876957267522812 0.014183237217366695 -0.11569999903440475
0.022462593391537666 0.014170978218317032 -0.11559999734163284
0.023067137226462364 0.014170978218317032 -0.11559999734163284
0.023671681061387062 0.014170978218317032 -0.11559999734163284
0.02429722622036934 0.014183237217366695 -0.11569999903440475
0.02490229345858097 0.014183237217366695 -0.11569999903440475
0.025507360696792603 0.014183237217366695 -0.11569999903440475
0.026134997606277466 0.014195495285093784 -0.11580000072717667
0.026763679459691048 0.014207753352820873 -0.11589999496936798
0.027369791641831398 0.014207753352820873 -0.11589999496936798
0.02800004370510578 0.014220012351870537 -0.11599999666213989
0.028631340712308884 0.0142322713509202 -0.1160999983549118
0.029288869351148605 0.014256788417696953 -0.11629999428987503
0.008950441144406796 0.014188423752784729 -0.120899997651577
0.00951929297298193 0.014094538986682892 -0.1200999990105629
0.01190136931836605 0.013941975310444832 -0.11879999935626984
0.012448862195014954 0.01385982520878315 -0.11809999495744705
0.013614578172564507 0.013789411634206772 -0.11749999970197678
0.014216948300600052 0.013777676038444042 -0.11739999800920486
0.016072500497102737 0.013789411634206772 -0.11749999970197678
0.016715383157134056 0.013812882825732231 -0.11769999563694
0.01736035943031311 0.01383635401725769 -0.11789999902248383
0.017992179840803146 0.013848090544342995 -0.11800000071525574
0.018593505024909973 0.01383635401725769 -0.11789999902248383
0.01917748898267746 0.013812882825732231 -0.11769999563694
0.01975938305258751 0.013789411634206772 -0.11749999970197678
0.02030450664460659 0.013742469251155853 -0.11710000038146973
0.02080972120165825 0.0136720547452569 -0.11649999767541885
0.02130866050720215 0.013601640239357948 -0.11589999496936798
0.021876957267522812 0.013578169979155064 -0.11569999903440475
0.022462593391537666 0.01356643345206976 -0.11559999734163284
0.023067137226462364 0.01356643345206976 -0.11559999734163284
0.023671681061387062 0.01356643345206976 -0.11559999734163284
0.02427622675895691 0.01356643345206976 -0.11559999734163284
0.026786770671606064 0.013613375835120678 -0.11599999666213989
0.027440637350082397 0.013636847957968712 -0.11620000004768372
0.0281207337975502 0.0136720547452569 -0.11649999767541885
0.028779305517673492 0.01369552593678236 -0.11669999361038208
0.02943997271358967 0.01371899712830782 -0.1168999969959259
0.008935634046792984 0.013533737510442734 -0.12069999426603317
0.00951929297298193 0.013466461561620235 -0.1200999990105629
0.01191138755530119 0.013331908732652664 -0.11889999359846115
0.012427779845893383 0.013219782151281834 -0.11789999902248383
0.014156399294734001 0.013107654638588428 -0.1168999969959259
0.014742475934326649 0.013085228390991688 -0.11669999361038208
0.015379084274172783 0.013107654638588428 -0.1168999969959259
0.016686981543898582 0.013174931518733501 -0.11749999970197678
0.017301460728049278 0.013174931518733501 -0.11749999970197678
0.017931189388036728 0.013186142779886723 -0.11759999394416809
0.01853042282164097 0.013174931518733501 -0.11749999970197678
0.019144903868436813 0.013174931518733501 -0.11749999970197678
0.019725749269127846 0.01315250527113676 -0.11729999631643295
0.02026982791721821 0.013107654638588428 -0.1168999969959259
0.020791860297322273 0.013051590882241726 -0.11639999598264694
0.02130866050720215 0.012995527125895023 -0.11589999496936798
0.02185804955661297 0.012961889617145061 -0.11559999734163284
0.02244316227734089 0.012950676493346691 -0.11549999564886093
0.02302722819149494 0.01293946336954832 -0.11539999395608902
0.026832956820726395 0.01302916556596756 -0.11620000004768372
0.027558712288737297 0.013085228390991688 -0.11669999361038208
0.028217285871505737 0.013107654638588428 -0.1168999969959259
0.028877951204776764 0.013130079954862595 -0.11710000038146973
0.029515523463487625 0.01314129214733839 -0.11719999462366104
0.008325058966875076 0.012934591621160507 -0.12099999934434891
0.00892823189496994 0.012891832739114761 -0.12060000002384186
0.011346555314958096 0.012774244882166386 -0.11949999630451202
0.013545055873692036 0.012496312148869038 -0.1168999969959259
0.014156399294734001 0.012496312148869038 -0.1168999969959259
0.014767741784453392 0.012496312148869038 -0.1168999969959259
0.016017785295844078 0.01251769158989191 -0.11710000038146973
0.016644375398755074 0.012528380379080772 -0.11719999462366104
0.017272012308239937 0.012539071030914783 -0.11729999631643295
0.01787019893527031 0.012528380379080772 -0.11719999462366104
0.018483109772205353 0.012528380379080772 -0.11719999462366104
0.01906343549489975 0.012507001869380474 -0.11699999868869781
0.019624851644039154 0.01247493177652359 -0.11669999361038208
0.020183129236102104 0.01244286261498928 -0.11639999598264694
0.020720409229397774 0.012400103732943535 -0.11599999666213989
0.02127189002931118 0.012368034571409225 -0.11569999903440475
0.021839139983057976 0.012346655130386353 -0.11549999564886093
0.022423729300498962 0.012335965409874916 -0.11539999395608902
0.02300727553665638 0.01232527568936348 -0.1152999997138977
0.02423422411084175 0.012335965409874916 -0.11539999395608902
0.024880770593881607 0.012357344850897789 -0.11559999734163284
0.026879139244556427 0.01244286261498928 -0.11639999598264694
0.027605943381786346 0.012496312148869038 -0.1168999969959259
0.02828969806432724 0.012528380379080772 -0.11719999462366104
0.02895193360745907 0.01254976075142622 -0.11739999800920486
0.02959107607603073 0.012560450471937656 -0.11749999970197678
0.007717703469097614 0.012342474423348904 -0.12139999866485596
0.013568229973316193 0.011905303224921227 -0.11710000038146973
0.014156399294734001 0.011884968727827072 -0.1168999969959259
0.014780375175178051 0.01189513597637415 -0.11699999868869781
0.015392241068184376 0.01189513597637415 -0.11699999868869781
0.016004106029868126 0.01189513597637415 -0.11699999868869781
0.01661597192287445 0.01189513597637415 -0.11699999868869781
0.017213113605976105 0.011884968727827072 -0.1168999969959259
0.01894938014447689 0.011823968030512333 -0.11629999428987503
0.019523952156305313 0.011803634464740753 -0.1160999983549118
0.02009643241763115 0.011783300898969173 -0.11589999496936798
0.02066682279109955 0.011762967333197594 -0.11569999903440475
0.021235119551420212 0.011742633767426014 -0.11549999564886093
0.021820232272148132 0.011732466518878937 -0.11539999395608902
0.022384868934750557 0.011712133884429932 -0.1151999980211258
0.02298732101917267 0.011712133884429932 -0.1151999980211258
0.02425522543489933 0.011742633767426014 -0.11549999564886093
0.024880770593881607 0.011752801015973091 -0.11559999734163284
0.02620270475745201 0.011803634464740753 -0.1160999983549118
0.026902232319116592 0.011844301596283913 -0.11649999767541885
0.027605943381786346 0.011884968727827072 -0.1168999969959259
0.02828969806432724 0.011915468610823154 -0.11719999462366104
0.02895193360745907 0.011935803107917309 -0.11739999800920486
0.02959107607603073 0.011945969425141811 -0.11749999970197678
0.007717703469097614 0.011707598343491554 -0.12139999866485596
0.008325058966875076 0.011669022962450981 -0.12099999934434891
0.008935634046792984 0.011640091426670551 -0.12069999426603317
0.009543071500957012 0.011611159890890121 -0.12039999663829803
0.010766476392745972 0.011572584509849548 -0.11999999731779099
0.011375040747225285 0.011553296819329262 -0.11979999393224716
0.01191138755530119 0.011466502211987972 -0.11889999359846115
0.012406698428094387 0.011350776068866253 -0.11769999563694
0.01360299065709114 0.011321845464408398 -0.11739999800920486
0.014192728325724602 0.011302557773888111 -0.11719999462366104
0.01480564009398222 0.011302557773888111 -0.11719999462366104
0.015418551862239838 0.011302557773888111 -0.11719999462366104
0.016004106029868126 0.011283270083367825 -0.11699999868869781
0.016601771116256714 0.011273626238107681 -0.1168999969959259
0.017168939113616943 0.011244694702327251 -0.11659999936819077
0.017732970416545868 0.011215763166546822 -0.11629999428987503
0.0188842061907053 0.011177187785506248 -0.11589999496936798
0.019456686452031136 0.011157900094985962 -0.11569999903440475
0.020044414326548576 0.011148256249725819 -0.11559999734163284
0.020648960024118423 0.011148256249725819 -0.11559999734163284
0.021216733381152153 0.011128968559205532 -0.11539999395608902
0.02180132456123829 0.011119325645267963 -0.1152999997138977
0.022384868934750557 0.011109680868685246 -0.1151999980211258
0.02298732101917267 0.011109680868685246 -0.1151999980211258
0.02363072708249092 0.011128968559205532 -0.11539999395608902
0.02425522543489933 0.011138612404465675 -0.11549999564886093
0.024880770593881607 0.011148256249725819 -0.11559999734163284
0.025507360696792603 0.011157900094985962 -0.11569999903440475
0.02618013508617878 0.011186831630766392 -0.11599999666213989
0.02828969806432724 0.011302557773888111 -0.11719999462366104
0.02895193360745907 0.011321845464408398 -0.11739999800920486
0.02959107607603073 0.011331489309668541 -0.11749999970197678
0.03025696985423565 0.011350776068866253 -0.11769999563694
0.0070944963954389095 0.011090963147580624 -0.12159999459981918
0.007730417884886265 0.011090963147580624 -0.12159999459981918
0.010155819356441498 0.010963271372020245 -0.12019999325275421
0.010766476392745972 0.010945029556751251 -0.11999999731779099
0.011356051079928875 0.010908546857535839 -0.11959999799728394
0.012427779845893383 0.010753491893410683 -0.11789999902248383
0.014229058288037777 0.010717008262872696 -0.11749999970197678
0.015431707724928856 0.010698766447603703 -0.11729999631643295
0.016004106029868126 0.0106714041903615 -0.11699999868869781
0.016587568446993828 0.010653162375092506 -0.11679999530315399
0.017139488831162453 0.01061667874455452 -0.11639999598264694
0.01770247519016266 0.010589316487312317 -0.1160999983549118
0.018851619213819504 0.01055283285677433 -0.11569999903440475
0.01943987049162388 0.01054371241480112 -0.11559999734163284
0.020044414326548576 0.01054371241480112 -0.11559999734163284
0.0206310972571373 0.010534591041505337 -0.11549999564886093
0.021216733381152153 0.010525469668209553 -0.11539999395608902
0.02180132456123829 0.010516350157558918 -0.1152999997138977
0.022384868934750557 0.010507228784263134 -0.1151999980211258
0.02300727553665638 0.010516350157558918 -0.1152999997138977
0.02363072708249092 0.010525469668209553 -0.11539999395608902
0.02425522543489933 0.010534591041505337 -0.11549999564886093
0.024880770593881607 0.01054371241480112 -0.11559999734163284
0.025507360696792603 0.01055283285677433 -0.11569999903440475
0.026157565414905548 0.010571074672043324 -0.11589999496936798
0.026832956820726395 0.010598437860608101 -0.11620000004768372
0.027558712288737297 0.010644041001796722 -0.11669999361038208
0.028265561908483505 0.010680525563657284 -0.11710000038146973
0.02895193360745907 0.010707887820899487 -0.11739999800920486
0.02959107607603073 0.010717008262872696 -0.11749999970197678
0.030205557122826576 0.010717008262872696 -0.11749999970197678
0.007100330665707588 0.010463639162480831 -0.1216999962925911
0.007730417884886265 0.010455041192471981 -0.12159999459981918
0.008366339839994907 0.010455041192471981 -0.12159999459981918
0.008987456560134888 0.010437846183776855 -0.12139999866485596
0.009582702070474625 0.010394856333732605 -0.120899997651577
0.010172718204557896 0.010351866483688354 -0.12039999663829803
0.010766476392745972 0.010317475534975529 -0.11999999731779099
0.011356051079928875 0.010283083654940128 -0.11959999799728394
0.01195145957171917 0.010257290676236153 -0.1193000003695488
0.01249102596193552 0.010188506916165352 -0.1184999942779541
0.013055416755378246 0.010145517997443676 -0.11800000071525574
0.013660925440490246 0.010136920027434826 -0.11789999902248383
0.014253277331590652 0.010119723156094551 -0.11769999563694
0.014843539334833622 0.010102528147399426 -0.11749999970197678
0.01603146269917488 0.010076734237372875 -0.11719999462366104
0.016601771116256714 0.010050940327346325 -0.1168999969959259
0.017139488831162453 0.010007950477302074 -0.11639999598264694
0.01770247519016266 0.009982157498598099 -0.1160999983549118
0.01826232299208641 0.009956363588571548 -0.11580000072717667
0.018851619213819504 0.009947765618562698 -0.11569999903440475
0.020044414326548576 0.009939167648553848 -0.11559999734163284
0.0206310972571373 0.009930569678544998 -0.11549999564886093
0.021216733381152153 0.009921971708536148 -0.11539999395608902
0.021820232272148132 0.009921971708536148 -0.11539999395608902
0.022423729300498962 0.009921971708536148 -0.11539999395608902
0.02302722819149494 0.009921971708536148 -0.11539999395608902
0.02363072708249092 0.009921971708536148 -0.11539999395608902
0.02425522543489933 0.009930569678544998 -0.11549999564886093
0.024859247729182243 0.009930569678544998 -0.11549999564886093
0.025485314428806305 0.009939167648553848 -0.11559999734163284
0.026112427935004234 0.009947765618562698 -0.11569999903440475
0.026763679459691048 0.009964961558580399 -0.11589999496936798
0.027464251965284348 0.009999352507293224 -0.11629999428987503
0.02816900797188282 0.010033744387328625 -0.11669999361038208
0.028853289783000946 0.010059538297355175 -0.11699999868869781
0.029515523463487625 0.010076734237372875 -0.11719999462366104
0.030154142528772354 0.010085332207381725 -0.11729999631643295
0.007743132766336203 0.009835269302129745 -0.121799997985363
0.008380100131034851 0.009835269302129745 -0.121799997985363
0.009002262726426125 0.009819119237363338 -0.12159999459981918
0.009622332639992237 0.009802970103919506 -0.12139999866485596
0.01022341288626194 0.009770669974386692 -0.12099999934434891
0.011375040747225285 0.009673770517110825 -0.11979999393224716
0.012533188797533512 0.00960109569132328 -0.11889999359846115
0.013110735453665257 0.009568796493113041 -0.1184999942779541
0.013684098608791828 0.009536496363580227 -0.11809999495744705
0.014253277331590652 0.009504197165369987 -0.11769999563694
0.014856170862913132 0.009496121667325497 -0.11759999394416809
0.016045141965150833 0.009471897035837173 -0.11729999631643295
0.01661597192287445 0.00944767240434885 -0.11699999868869781
0.017183663323521614 0.009423447772860527 -0.11669999361038208
0.0182780921459198 0.009358848445117474 -0.11589999496936798
0.01943987049162388 0.00933462381362915 -0.11559999734163284
0.020044414326548576 0.00933462381362915 -0.11559999734163284
0.020648960024118423 0.00933462381362915 -0.11559999734163284
0.021235119551420212 0.00932654831558466 -0.11549999564886093
0.021839139983057976 0.00932654831558466 -0.11549999564886093
0.02244316227734089 0.00932654831558466 -0.11549999564886093
0.02302722819149494 0.009318473748862743 -0.11539999395608902
0.023651205003261566 0.00932654831558466 -0.11549999564886093
0.02425522543489933 0.00932654831558466 -0.11549999564886093
0.024859247729182243 0.00932654831558466 -0.11549999564886093
0.025485314428806305 0.00933462381362915 -0.11559999734163284
0.026089858263731003 0.00933462381362915 -0.11559999734163284
0.026717495173215866 0.009342698380351067 -0.11569999903440475
0.027369791641831398 0.009358848445117474 -0.11589999496936798
0.02804831974208355 0.009383073076605797 -0.11620000004768372
0.028729984536767006 0.00940729770809412 -0.11649999767541885
0.029389604926109314 0.009423447772860527 -0.11669999361038208
0.030025608837604523 0.009431522339582443 -0.11679999530315399
0.007755846716463566 0.009213403798639774 -0.12199999392032623
0.008393860422074795 0.009213403798639774 -0.12199999392032623
0.009024472907185555 0.009205852635204792 -0.12189999967813492
0.01027410663664341 0.009183196350932121 -0.12159999459981918
0.011451001279056072 0.009107677266001701 -0.12060000002384186
0.01199153158813715 0.009039709344506264 -0.11969999969005585
0.012575353495776653 0.00900950189679861 -0.1193000003695488
0.013121799565851688 0.008956637233495712 -0.11859999597072601
0.013684098608791828 0.008918877691030502 -0.11809999495744705
0.014253277331590652 0.008888669312000275 -0.11769999563694
0.014856170862913132 0.008881117217242718 -0.11759999394416809
0.015458019450306892 0.008873566053807735 -0.11749999970197678
0.016058821231126785 0.008866013959050179 -0.11739999800920486
0.017198387533426285 0.008820702321827412 -0.11679999530315399
0.017732970416545868 0.008782941848039627 -0.11629999428987503
0.01829386316239834 0.008760286495089531 -0.11599999666213989
0.018867913633584976 0.008745182305574417 -0.11580000072717667
0.019456686452031136 0.00873763021081686 -0.11569999903440475
0.020044414326548576 0.008730078116059303 -0.11559999734163284
0.020648960024118423 0.008730078116059303 -0.11559999734163284
0.02125350385904312 0.008730078116059303 -0.11559999734163284
0.02185804955661297 0.008730078116059303 -0.11559999734163284
0.022462593391537666 0.008730078116059303 -0.11559999734163284
0.023047182708978653 0.008722526021301746 -0.11549999564886093
0.023651205003261566 0.008722526021301746 -0.11549999564886093
0.02425522543489933 0.008722526021301746 -0.11549999564886093
0.024859247729182243 0.008722526021301746 -0.11549999564886093
0.025485314428806305 0.008730078116059303 -0.11559999734163284
0.026089858263731003 0.008730078116059303 -0.11559999734163284
0.02669440396130085 0.008730078116059303 -0.11559999734163284
0.027322562411427498 0.00873763021081686 -0.11569999903440475
0.02800004370510578 0.008760286495089531 -0.11599999666213989
0.028631340712308884 0.008767838589847088 -0.1160999983549118
0.029314052313566208 0.008790493942797184 -0.11639999598264694
0.029948487877845764 0.008798046037554741 -0.11649999767541885
0.0071295020170509815 0.008589448407292366 -0.12219999730587006
0.007768561597913504 0.008589448407292366 -0.12219999730587006
0.008400741033256054 0.008582419715821743 -0.12209999561309814
0.009031875059008598 0.008575390093028545 -0.12199999392032623
0.011488981544971466 0.008505100384354591 -0.12099999934434891
0.012011567130684853 0.00842778105288744 -0.11989999562501907
0.012575353495776653 0.008385607972741127 -0.1193000003695488
0.013121799565851688 0.008336404338479042 -0.11859999597072601
0.013672512024641037 0.008294230327010155 -0.11800000071525574
0.014253277331590652 0.008273143321275711 -0.11769999563694
0.014856170862913132 0.008266113698482513 -0.11759999394416809
0.015458019450306892 0.00825908500701189 -0.11749999970197678
0.016644375398755074 0.008237998001277447 -0.11719999462366104
0.017198387533426285 0.00820988230407238 -0.11679999530315399
0.017748218029737473 0.008181765675544739 -0.11639999598264694
0.018309634178876877 0.00816067960113287 -0.1160999983549118
0.019456686452031136 0.008132562972605228 -0.11569999903440475
0.020061753690242767 0.008132562972605228 -0.11569999903440475
0.02066682279109955 0.008132562972605228 -0.11569999903440475
0.02127189002931118 0.008132562972605228 -0.11569999903440475
0.021876957267522812 0.008132562972605228 -0.11569999903440475
0.022482024505734444 0.008132562972605228 -0.11569999903440475
0.023087091743946075 0.008132562972605228 -0.11569999903440475
0.023671681061387062 0.008125534281134605 -0.11559999734163284
0.02427622675895691 0.008125534281134605 -0.11559999734163284
0.024880770593881607 0.008125534281134605 -0.11559999734163284
0.025485314428806305 0.008125534281134605 -0.11559999734163284
0.026089858263731003 0.008125534281134605 -0.11559999734163284
0.02669440396130085 0.008125534281134605 -0.11559999734163284
0.027322562411427498 0.008132562972605228 -0.11569999903440475
0.027951769530773163 0.008139592595398426 -0.11580000072717667
0.028606679290533066 0.008153649978339672 -0.11599999666213989
0.029263686388731003 0.008167708292603493 -0.11620000004768372
0.029897073283791542 0.008174736984074116 -0.11629999428987503
0.0071295020170509815 0.007950388826429844 -0.12219999730587006
0.007768561597913504 0.007950388826429844 -0.12219999730587006
0.008400741033256054 0.00794388260692358 -0.12209999561309814
0.009031875059008598 0.007937376387417316 -0.12199999392032623
0.009661964140832424 0.007930871099233627 -0.12189999967813492
0.01029945444315672 0.007930871099233627 -0.12189999967813492
0.010919000953435898 0.0079178586602211 -0.1216999962925911
0.011507971212267876 0.007885328494012356 -0.12119999527931213
0.012021585367619991 0.00780725572258234 -0.11999999731779099
0.012585894204676151 0.0077682193368673325 -0.11939999461174011
0.013660925440490246 0.0076706288382411 -0.11789999902248383
0.014241167344152927 0.007651110645383596 -0.11759999394416809
0.014843539334833622 0.00764460489153862 -0.11749999970197678
0.015444863587617874 0.007638098672032356 -0.11739999800920486
0.01603146269917488 0.007625086233019829 -0.11719999462366104
0.017732970416545868 0.007566531654447317 -0.11629999428987503
0.01829386316239834 0.0075470139272511005 -0.11599999666213989
0.020061753690242767 0.007527495734393597 -0.11569999903440475
0.02070254646241665 0.007540507707744837 -0.11589999496936798
0.02130866050720215 0.007540507707744837 -0.11589999496936798
0.0219147726893425 0.007540507707744837 -0.11589999496936798
0.022520886734128 0.007540507707744837 -0.11589999496936798
0.023087091743946075 0.007527495734393597 -0.11569999903440475
0.023692158982157707 0.007527495734393597 -0.11569999903440475
0.02427622675895691 0.00752098998054862 -0.11559999734163284
0.024880770593881607 0.00752098998054862 -0.11559999734163284
0.025485314428806305 0.00752098998054862 -0.11559999734163284
0.026089858263731003 0.00752098998054862 -0.11559999734163284
0.02669440396130085 0.00752098998054862 -0.11559999734163284
0.027322562411427498 0.007527495734393597 -0.11569999903440475
0.02792762964963913 0.007527495734393597 -0.11569999903440475
0.02855735830962658 0.00753400195389986 -0.11580000072717667
0.029188133776187897 0.007540507707744837 -0.11589999496936798
0.02984566055238247 0.007553520146757364 -0.1160999983549118
0.030479051172733307 0.007560026366263628 -0.11620000004768372
0.0071353367529809475 0.007317312527447939 -0.12229999899864197
0.007768561597913504 0.007311329711228609 -0.12219999730587006
0.008400741033256054 0.007305346429347992 -0.12209999561309814
0.009031875059008598 0.007299363147467375 -0.12199999392032623
0.009661964140832424 0.007293380331248045 -0.12189999967813492
0.010291005484759808 0.007287397049367428 -0.121799997985363
0.010910028591752052 0.007275430951267481 -0.12159999459981918
0.011507971212267876 0.0072514982894063 -0.12119999527931213
0.012011567130684853 0.007173718418926001 -0.11989999562501907
0.012575353495776653 0.00713782012462616 -0.1193000003695488
0.013077544048428535 0.00707200588658452 -0.11819999665021896
0.013637751340866089 0.007042090408504009 -0.11769999563694
0.014830905944108963 0.0070241414941847324 -0.11739999800920486
0.015990426763892174 0.006994226016104221 -0.1168999969959259
0.016544964164495468 0.006970293819904327 -0.11649999767541885
0.01711004041135311 0.006952344439923763 -0.11620000004768372
0.0182780921459198 0.006934395059943199 -0.11589999496936798
0.01949031837284565 0.006934395059943199 -0.11589999496936798
0.02009643241763115 0.006934395059943199 -0.11589999496936798
0.0207382719963789 0.006946361158043146 -0.1160999983549118
0.021345430985093117 0.006946361158043146 -0.1160999983549118
0.021971499547362328 0.006952344439923763 -0.11620000004768372
0.022559750825166702 0.006946361158043146 -0.1160999983549118
0.02312699891626835 0.006934395059943199 -0.11589999496936798
0.023692158982157707 0.006922428961843252 -0.11569999903440475
0.02429722622036934 0.006922428961843252 -0.11569999903440475
0.024880770593881607 0.006916445679962635 -0.11559999734163284
0.025485314428806305 0.006916445679962635 -0.11559999734163284
0.026089858263731003 0.006916445679962635 -0.11559999734163284
0.02669440396130085 0.006916445679962635 -0.11559999734163284
0.027298947796225548 0.006916445679962635 -0.11559999734163284
0.02792762964963913 0.006922428961843252 -0.11569999903440475
0.02853269688785076 0.006922428961843252 -0.11569999903440475
0.029137765988707542 0.006922428961843252 -0.11569999903440475
0.029794245958328247 0.006934395059943199 -0.11589999496936798
0.0071353367529809475 0.006677729543298483 -0.12229999899864197
0.007768561597913504 0.006672269199043512 -0.12219999730587006
0.008393860422074795 0.0066613489761948586 -0.12199999392032623
0.010901057161390781 0.006634048651903868 -0.12150000035762787
0.011479485780000687 0.006601287517696619 -0.120899997651577
0.012001548893749714 0.0065412260591983795 -0.11979999393224716
0.012564812786877155 0.006508465390652418 -0.11919999867677689
0.013066479936242104 0.006448403932154179 -0.11809999495744705
0.013626163825392723 0.006421103607863188 -0.11759999394416809
0.014216948300600052 0.006410183385014534 -0.11739999800920486
0.01480564009398222 0.00639926316216588 -0.11719999462366104
0.015379084274172783 0.006382882595062256 -0.1168999969959259
0.015935713425278664 0.006361042149364948 -0.11649999767541885
0.016488157212734222 0.006339201703667641 -0.1160999983549118
0.01708059199154377 0.0063337418250739574 -0.11599999666213989
0.0182780921459198 0.006328281480818987 -0.11589999496936798
0.018900498747825623 0.0063337418250739574 -0.11599999666213989
0.019523952156305313 0.006339201703667641 -0.1160999983549118
0.02013111114501953 0.006339201703667641 -0.1160999983549118
0.02080972120165825 0.006361042149364948 -0.11649999767541885
0.021437358111143112 0.006366502493619919 -0.11659999936819077
0.022028224542737007 0.006361042149364948 -0.11649999767541885
0.022598611190915108 0.0063501219265162945 -0.11629999428987503
0.02316690981388092 0.006339201703667641 -0.1160999983549118
0.02373311296105385 0.006328281480818987 -0.11589999496936798
0.024318227544426918 0.006322821602225304 -0.11580000072717667
0.02490229345858097 0.006317361257970333 -0.11569999903440475
0.025507360696792603 0.006317361257970333 -0.11569999903440475
0.026112427935004234 0.006317361257970333 -0.11569999903440475
0.02669440396130085 0.00631190137937665 -0.11559999734163284
0.027298947796225548 0.00631190137937665 -0.11559999734163284
0.027903491631150246 0.00631190137937665 -0.11559999734163284
0.028508035466074944 0.00631190137937665 -0.11559999734163284
0.029137765988707542 0.006317361257970333 -0.11569999903440475
0.029742833226919174 0.006317361257970333 -0.11569999903440475
0.006501064635813236 0.0060430835001170635 -0.12239999324083328
0.0071295020170509815 0.00603320961818099 -0.12219999730587006
0.007768561597913504 0.00603320961818099 -0.12219999730587006
0.008393860422074795 0.006023334804922342 -0.12199999392032623
0.009654037654399872 0.006013460922986269 -0.121799997985363
0.01027410663664341 0.006003586109727621 -0.12159999459981918
0.010892084799706936 0.005993712227791548 -0.12139999866485596
0.011469990946352482 0.005964089184999466 -0.12079999595880508
0.012001548893749714 0.005914717447012663 -0.11979999393224716
0.012575353495776653 0.005890031810849905 -0.1193000003695488
0.013066479936242104 0.005830785725265741 -0.11809999495744705
0.013614578172564507 0.005801163148134947 -0.11749999970197678
0.014204838313162327 0.005791288334876299 -0.11729999631643295
0.014767741784453392 0.005771540105342865 -0.1168999969959259
0.015339617617428303 0.00575672835111618 -0.11659999936819077
0.015894677489995956 0.0057369801215827465 -0.11620000004768372
0.016473954543471336 0.005727105308324099 -0.11599999666213989
0.01706586591899395 0.005722168367356062 -0.11589999496936798
0.01767197996377945 0.005722168367356062 -0.11589999496936798
0.0182780921459198 0.005722168367356062 -0.11589999496936798
0.018916793167591095 0.0057320427149534225 -0.1160999983549118
0.01954076997935772 0.0057369801215827465 -0.11620000004768372
0.020183129236102104 0.00574685400351882 -0.11639999598264694
0.020863309502601624 0.005766602698713541 -0.11679999530315399
0.02149251475930214 0.005771540105342865 -0.1168999969959259
0.022084949538111687 0.005766602698713541 -0.11679999530315399
0.02265690639615059 0.00575672835111618 -0.11659999936819077
0.023206816986203194 0.005741916596889496 -0.11629999428987503
0.02377406880259514 0.0057320427149534225 -0.1160999983549118
0.024339227005839348 0.005722168367356062 -0.11589999496936798
0.024945339187979698 0.005722168367356062 -0.11589999496936798
0.0255294069647789 0.005717231426388025 -0.11580000072717667
0.026112427935004234 0.005712294019758701 -0.11569999903440475
0.026717495173215866 0.005712294019758701 -0.11569999903440475
0.027298947796225548 0.005707357078790665 -0.11559999734163284
0.027903491631150246 0.005707357078790665 -0.11559999734163284
0.028508035466074944 0.005707357078790665 -0.11559999734163284
0.02911258302628994 0.005707357078790665 -0.11559999734163284
0.029742833226919174 0.005712294019758701 -0.11569999903440475
0.030347900465130806 0.005712294019758701 -0.11569999903440475
0.005860958714038134 0.005402978044003248 -0.12239999324083328
0.006495753303170204 0.005398564040660858 -0.12229999899864197
0.0071295020170509815 0.005394149571657181 -0.12219999730587006
0.009024472907185555 0.005380907095968723 -0.12189999967813492
0.009654037654399872 0.005376492626965046 -0.121799997985363
0.01027410663664341 0.0053676641546189785 -0.12159999459981918
0.010892084799706936 0.005358836147934198 -0.12139999866485596
0.011469990946352482 0.005332350730895996 -0.12079999595880508
0.012575353495776653 0.005266137886792421 -0.1193000003695488
0.013077544048428535 0.005217581521719694 -0.11819999665021896
0.013614578172564507 0.005186682567000389 -0.11749999970197678
0.014204838313162327 0.005177853628993034 -0.11729999631643295
0.014767741784453392 0.005160197149962187 -0.1168999969959259
0.015339617617428303 0.005146954674273729 -0.11659999936819077
0.015894677489995956 0.0051292977295815945 -0.11620000004768372
0.016488157212734222 0.005124883726239204 -0.1160999983549118
0.01706586591899395 0.005116055253893137 -0.11589999496936798
0.017687227576971054 0.005120469257235527 -0.11599999666213989
0.019608035683631897 0.005146954674273729 -0.11659999936819077
0.020252486690878868 0.0051557826809585094 -0.11679999530315399
0.020916897803544998 0.005169025622308254 -0.11710000038146973
0.021547669544816017 0.005173439625650644 -0.11719999462366104
0.022141674533486366 0.005169025622308254 -0.11710000038146973
0.02271519973874092 0.005160197149962187 -0.1168999969959259
0.02328663319349289 0.005151368677616119 -0.11669999361038208
0.02385597676038742 0.005142540205270052 -0.11649999767541885
0.024423226714134216 0.0051337117329239845 -0.11629999428987503
0.024988386780023575 0.005124883726239204 -0.1160999983549118
0.025573499500751495 0.005120469257235527 -0.11599999666213989
0.026157565414905548 0.005116055253893137 -0.11589999496936798
0.026717495173215866 0.0051072267815470695 -0.11569999903440475
0.027322562411427498 0.0051072267815470695 -0.11569999903440475
0.02792762964963913 0.0051072267815470695 -0.11569999903440475
0.028508035466074944 0.005102812312543392 -0.11559999734163284
0.02911258302628994 0.005102812312543392 -0.11559999734163284
0.029742833226919174 0.0051072267815470695 -0.11569999903440475
0.030347900465130806 0.0051072267815470695 -0.11569999903440475
0.00522511824965477 0.004766763187944889 -0.1224999949336052
0.00585138238966465 0.004755089990794659 -0.12219999730587006
0.006490441970527172 0.004755089990794659 -0.12219999730587006
0.007123667746782303 0.004751198459416628 -0.12209999561309814
0.007755846716463566 0.004747307393699884 -0.12199999392032623
0.008393860422074795 0.004747307393699884 -0.12199999392032623
0.009024472907185555 0.004743416327983141 -0.12189999967813492
0.009654037654399872 0.00473952479660511 -0.121799997985363
0.01027410663664341 0.004731742199510336 -0.12159999459981918
0.010901057161390781 0.0047278511337935925 -0.12150000035762787
0.012021585367619991 0.004669482819736004 -0.11999999731779099
0.01259643491357565 0.004650026559829712 -0.11949999630451202
0.0130996722728014 0.0046072229743003845 -0.11840000003576279
0.014216948300600052 0.004568310454487801 -0.11739999800920486
0.014780375175178051 0.004552745725959539 -0.11699999868869781
0.015365928411483765 0.004544963128864765 -0.11679999530315399
0.01592203415930271 0.004529397934675217 -0.11639999598264694
0.016516560688614845 0.004525506868958473 -0.11629999428987503
0.01711004041135311 0.00452161580324173 -0.11620000004768372
0.017717722803354263 0.00452161580324173 -0.11620000004768372
0.018356945365667343 0.004529397934675217 -0.11639999598264694
0.01899826154112816 0.004537180531769991 -0.11659999936819077
0.0202871672809124 0.004552745725959539 -0.11699999868869781
0.020934758707880974 0.004560527857393026 -0.11719999462366104
0.021584441885352135 0.004568310454487801 -0.11739999800920486
0.022179489955306053 0.004564419388771057 -0.11729999631643295
0.022773493081331253 0.004560527857393026 -0.11719999462366104
0.023346496745944023 0.004552745725959539 -0.11699999868869781
0.023937886580824852 0.004548854194581509 -0.1168999969959259
0.024507228285074234 0.004541071597486734 -0.11669999361038208
0.02507447823882103 0.0045332894660532475 -0.11649999767541885
0.02563963644206524 0.004525506868958473 -0.11629999428987503
0.02620270475745201 0.004517724271863699 -0.1160999983549118
0.026763679459691048 0.004509941674768925 -0.11589999496936798
0.027346178889274597 0.004506050609052181 -0.11580000072717667
0.02792762964963913 0.004502159543335438 -0.11569999903440475
0.02853269688785076 0.004502159543335438 -0.11569999903440475
0.029137765988707542 0.004502159543335438 -0.11569999903440475
0.029742833226919174 0.004502159543335438 -0.11569999903440475
0.030347900465130806 0.004502159543335438 -0.11569999903440475
0.005846593528985977 0.004112661816179752 -0.12209999561309814
0.006479819305241108 0.004109293222427368 -0.12199999392032623
0.007111999671906233 0.004105925094336271 -0.12189999967813492
0.00838698074221611 0.004105925094336271 -0.12189999967813492
0.009024472907185555 0.004105925094336271 -0.12189999967813492
0.009654037654399872 0.004102556966245174 -0.121799997985363
0.010282556526362896 0.00409918837249279 -0.1216999962925911
0.010910028591752052 0.004095820244401693 -0.12159999459981918
0.012061657384037971 0.004055400844663382 -0.12039999663829803
0.013121799565851688 0.003994772210717201 -0.11859999597072601
0.013626163825392723 0.003961089067161083 -0.11759999394416809
0.014229058288037777 0.003957721404731274 -0.11749999970197678
0.015392241068184376 0.003940879832953215 -0.11699999868869781
0.01597674936056137 0.003934143111109734 -0.11679999530315399
0.016587568446993828 0.003934143111109734 -0.11679999530315399
0.017168939113616943 0.00392740685492754 -0.11659999936819077
0.017778713256120682 0.00392740685492754 -0.11659999936819077
0.01840425655245781 0.003930774983018637 -0.11669999361038208
0.019030848518013954 0.003934143111109734 -0.11679999530315399
0.019658483564853668 0.003937511704862118 -0.1168999969959259
0.02032184600830078 0.003947616089135408 -0.11719999462366104
0.0209526214748621 0.003950984682887793 -0.11729999631643295
0.021584441885352135 0.0039543528109788895 -0.11739999800920486
0.022198399528861046 0.0039543528109788895 -0.11739999800920486
0.022812357172369957 0.0039543528109788895 -0.11739999800920486
0.023386405780911446 0.003947616089135408 -0.11719999462366104
0.02399931661784649 0.003947616089135408 -0.11719999462366104
0.02459122985601425 0.0039442479610443115 -0.11710000038146973
0.025160571560263634 0.003937511704862118 -0.1168999969959259
0.02570577710866928 0.00392740685492754 -0.11659999936819077
0.026247842237353325 0.003917301539331675 -0.11629999428987503
0.02680986374616623 0.003910565283149481 -0.1160999983549118
0.027369791641831398 0.0039038285613059998 -0.11589999496936798
0.027975905686616898 0.0039038285613059998 -0.11589999496936798
0.02853269688785076 0.003897092305123806 -0.11569999903440475
0.029137765988707542 0.003897092305123806 -0.11569999903440475
0.029742833226919174 0.003897092305123806 -0.11569999903440475
0.030347900465130806 0.003897092305123806 -0.11569999903440475
0.0052123223431408405 0.00347696989774704 -0.12219999730587006
0.005841805133968592 0.0034712792839854956 -0.12199999392032623
0.006474507972598076 0.0034684340935200453 -0.12189999967813492
0.007106164935976267 0.0034655886702239513 -0.121799997985363
0.007743132766336203 0.0034655886702239513 -0.121799997985363
0.008380100131034851 0.0034655886702239513 -0.121799997985363
0.009017069824039936 0.0034655886702239513 -0.121799997985363
0.009654037654399872 0.0034655886702239513 -0.121799997985363
0.010282556526362896 0.0034627432469278574 -0.1216999962925911
0.010910028591752052 0.003459898056462407 -0.12159999459981918
0.01151746604591608 0.003451362019404769 -0.12129999697208405
0.012091711163520813 0.0034342901781201363 -0.12069999426603317
0.013143927790224552 0.003380229463800788 -0.11879999935626984
0.013637751340866089 0.003348930971696973 -0.11769999563694
0.014830905944108963 0.0033403949346393347 -0.11739999800920486
0.015418551862239838 0.0033347043208777905 -0.11719999462366104
0.016017785295844078 0.00333185913041234 -0.11710000038146973
0.01661597192287445 0.0033290137071162462 -0.11699999868869781
0.017213113605976105 0.003326168516650796 -0.1168999969959259
0.019675301387906075 0.0033290137071162462 -0.11699999868869781
0.02032184600830078 0.0033347043208777905 -0.11719999462366104
0.020970484241843224 0.0033403949346393347 -0.11739999800920486
0.021584441885352135 0.0033403949346393347 -0.11739999800920486
0.022198399528861046 0.0033403949346393347 -0.11739999800920486
0.022812357172369957 0.0033403949346393347 -0.11739999800920486
0.023426314815878868 0.0033403949346393347 -0.11739999800920486
0.02404027245938778 0.0033403949346393347 -0.11739999800920486
0.02463322877883911 0.0033375497441738844 -0.11729999631643295
0.02520361915230751 0.00333185913041234 -0.11710000038146973
0.025771914049983025 0.003326168516650796 -0.1168999969959259
0.026292981579899788 0.0033147872891277075 -0.11649999767541885
0.026832956820726395 0.0033062512520700693 -0.11620000004768372
0.027417022734880447 0.003303406061604619 -0.1160999983549118
0.02800004370510578 0.003300560638308525 -0.11599999666213989
0.028582017868757248 0.003297715215012431 -0.11589999496936798
0.029188133776187897 0.003297715215012431 -0.11589999496936798
0.029794245958328247 0.003297715215012431 -0.11589999496936798
0.030400360003113747 0.003297715215012431 -0.11589999496936798
0.031059978529810905 0.003303406061604619 -0.1160999983549118
0.004577004816383123 0.0028402325697243214 -0.12229999899864197
0.005203791428357363 0.002833265345543623 -0.12199999392032623
0.005832228809595108 0.0028286208398640156 -0.121799997985363
0.006469196639955044 0.0028286208398640156 -0.121799997985363
0.007100330665707588 0.0028262983541935682 -0.1216999962925911
0.00773677509278059 0.0028262983541935682 -0.1216999962925911
0.008366339839994907 0.002823975868523121 -0.12159999459981918
0.009002262726426125 0.002823975868523121 -0.12159999459981918
0.00963025912642479 0.002821653848513961 -0.12150000035762787
0.011441506445407867 0.0027984301559627056 -0.12049999833106995
0.013121799565851688 0.002754305489361286 -0.11859999597072601
0.01364933792501688 0.0027357267681509256 -0.11779999732971191
0.014830905944108963 0.0027264372911304235 -0.11739999800920486
0.015444863587617874 0.0027264372911304235 -0.11739999800920486
0.017257286235690117 0.0027217925526201725 -0.11719999462366104
0.017854951322078705 0.002719470299780369 -0.11710000038146973
0.02032184600830078 0.0027217925526201725 -0.11719999462366104
0.020970484241843224 0.0027264372911304235 -0.11739999800920486
0.021584441885352135 0.0027264372911304235 -0.11739999800920486
0.022198399528861046 0.0027264372911304235 -0.11739999800920486
0.022812357172369957 0.0027264372911304235 -0.11739999800920486
0.023426314815878868 0.0027264372911304235 -0.11739999800920486
0.02404027245938778 0.0027264372911304235 -0.11739999800920486
0.02465423010289669 0.0027264372911304235 -0.11739999800920486
0.025225140154361725 0.0027217925526201725 -0.11719999462366104
0.025793960317969322 0.002717148046940565 -0.11699999868869781
0.026360686868429184 0.002712503308430314 -0.11679999530315399
0.026902232319116592 0.0027055363170802593 -0.11649999767541885
0.027464251965284348 0.0027008915785700083 -0.11629999428987503
0.029922781512141228 0.002703213831409812 -0.11639999598264694
0.0305315088480711 0.002703213831409812 -0.11639999598264694
0.003943860996514559 0.002204248448833823 -0.1224999949336052
0.004573262762278318 0.0021988502703607082 -0.12219999730587006
0.005199526436626911 0.0021934520918875933 -0.12189999967813492
0.005832228809595108 0.002191652776673436 -0.121799997985363
0.0070944963954389095 0.0021880539134144783 -0.12159999459981918
0.007730417884886265 0.0021880539134144783 -0.12159999459981918
0.008352579548954964 0.002184455282986164 -0.12139999866485596
0.009574775584042072 0.002173658926039934 -0.12079999595880508
0.010189616121351719 0.00217006029561162 -0.12060000002384186
0.011356051079928875 0.0021520662121474743 -0.11959999799728394
0.011971495114266872 0.002150266896933317 -0.11949999630451202
0.012554271146655083 0.002143069403246045 -0.11909999698400497
0.013077544048428535 0.0021268748678267 -0.11819999665021896
0.013637751340866089 0.0021178778260946274 -0.11769999563694
0.014229058288037777 0.002114279195666313 -0.11749999970197678
0.014830905944108963 0.002112479880452156 -0.11739999800920486
0.015431707724928856 0.0021106803324073553 -0.11729999631643295
0.01603146269917488 0.002108881017193198 -0.11719999462366104
0.016644375398755074 0.002108881017193198 -0.11719999462366104
0.017257286235690117 0.002108881017193198 -0.11719999462366104
0.01787019893527031 0.002108881017193198 -0.11719999462366104
0.018483109772205353 0.002108881017193198 -0.11719999462366104
0.019096022471785545 0.002108881017193198 -0.11719999462366104
0.020339185371994972 0.0021106803324073553 -0.11729999631643295
0.020970484241843224 0.002112479880452156 -0.11739999800920486
0.022198399528861046 0.002112479880452156 -0.11739999800920486
0.022831788286566734 0.002114279195666313 -0.11749999970197678
0.02344626933336258 0.002114279195666313 -0.11749999970197678
0.024060750380158424 0.002114279195666313 -0.11749999970197678
0.02465423010289669 0.002112479880452156 -0.11739999800920486
0.0252681877464056 0.002112479880452156 -0.11739999800920486
0.025838052853941917 0.002108881017193198 -0.11719999462366104
0.003937422297894955 0.001561066834256053 -0.12229999899864197
0.004569520242512226 0.0015585139626637101 -0.12209999561309814
0.005832228809595108 0.0015546847134828568 -0.121799997985363
0.0070944963954389095 0.001552131841890514 -0.12159999459981918
0.007717703469097614 0.001549578970298171 -0.12139999866485596
0.008325058966875076 0.0015444733435288072 -0.12099999934434891
0.008920827880501747 0.001538091222755611 -0.12049999833106995
0.010105125606060028 0.001526603358797729 -0.11959999799728394
0.011308575980365276 0.0015202212380245328 -0.11909999698400497
0.011891352012753487 0.001515115494839847 -0.11869999766349792
0.013044352643191814 0.0015049041248857975 -0.11789999902248383
0.013626163825392723 0.0015010748757049441 -0.11759999394416809
0.014216948300600052 0.0014985220041126013 -0.11739999800920486
