ply
format ascii 1.0
element vertex 750
property float x
property float y
property float z
end_header
0.0167523503628056 -0.0018041630317585822 0.002361398423090577
0.01694046144061542 -0.0023209939703903297 0.0022937264293432236
0.01712857251842524 -0.002837824909022077 0.0022954526357352734
0.017316683596235057 -0.003354655847653824 0.0016777594573795795
0.017504794674044873 -0.0038714867862855713 0.0014715094584971666
0.01769290575185469 -0.004388317724917319 0.0012996344594284892
0.01788101682966451 -0.004905148663549066 0.0010590094607323408
0.008711076311781115 0.01868096343570149 0.0010019326582551003
0.008899187389590934 0.018164132497069746 0.001619625836610794
0.009087298467400752 0.017647301558437998 0.0019977507181465626
0.009275409545210571 0.01713047061980625 0.0009132649865932763
0.009463520623020388 0.0166136396811745 0.0015657291514798999
0.009651631700830207 0.016096808742542757 0.0020803166553378105
0.009839742778640026 0.015579977803911009 0.0024584417697042227
0.010027853856449845 0.015063146865279261 0.0026646917685866356
0.010215964934259662 0.014546315926647513 0.002836566651239991
0.01040407601206948 0.014029484988015766 0.0024714733008295298
0.0105921870898793 0.013512654049384018 0.0009248249116353691
0.010780298167689118 0.012995823110752272 0.0017958543030545115
0.010968409245498936 0.012478992172120524 0.00237900298088789
0.011156520323308754 0.011962161233488778 0.0026883778627961874
0.011344631401118573 0.01144533029485703 0.0028946278616786003
0.011532742478928392 0.010928499356225281 0.0028929023537784815
0.01172085355673821 0.010411668417593535 0.0031679023522883654
0.011908964634548028 0.009894837478961787 0.0032704619225114584
0.012097075712357847 0.00937800654033004 0.0033033534418791533
0.012285186790167666 0.008861175601698293 0.0035439785569906235
0.012473297867977485 0.008344344663066546 0.003715853439643979
0.012661408945787302 0.007827513724434798 0.0036797255743294954
0.01284952002359712 0.007310682785803051 0.003712617326527834
0.01303763110140694 0.006793851847171304 0.003676490392535925
0.013225742179216758 0.006277020908539556 0.0036062307190150023
0.013413853257026575 0.005760189969907809 0.0036391234025359154
0.013601964334836394 0.005243359031276062 0.0036373978946357965
0.013978186490456032 0.004209697154012567 0.0011550418566912413
0.014166297568265849 0.0036928662153808195 0.0020260722376406193
0.014354408646075668 0.0031760352767490722 0.002609219867736101
0.014542519723885487 0.002659204338117325 0.0029529694002121687
0.014730630801695305 0.002142373399485578 0.0031592193990945816
0.014918741879505122 0.0016255424608538304 0.0031574948225170374
0.015106852957314941 0.001108711522222083 0.003329369705170393
0.01529496403512476 0.0005918805835903356 0.003327644197270274
0.015483075112934579 7.504964495858829e-05 0.003360535716637969
0.015671186190744396 -0.000441781293673159 0.0032902772072702646
0.015859297268554215 -0.0009586122323049064 0.0015367551241070032
0.016047408346364034 -0.0014754431709366536 0.001983234193176031
0.016235519424173853 -0.001992274109568401 0.0022238590754568577
0.01642363050198367 -0.0025091050482001485 0.002326417714357376
0.01661174157979349 -0.0030259359868318957 0.0023940892424434423
0.01679985265760331 -0.003542766925463643 0.00239236350171268
0.016987963735413125 -0.004059597864095391 0.0009529549861326814
0.017176074813222943 -0.004576428802727138 0.0012967049842700362
0.017364185891032762 -0.005093259741358885 0.0015373299829661846
0.01755229696884258 -0.005610090679990632 0.0016050010453909636
0.007818022898998652 0.01952651511031212 0.0009364740108139813
0.008194245373149368 0.018492852357891675 0.0019977581687271595
0.008382356450959187 0.017976021419259927 0.001999483210965991
0.008570467528769006 0.01745919048062818 0.0018276083283126354
0.008758578606578825 0.01694235954199643 0.001518233329989016
0.008946689684388642 0.016425528603364686 0.0019696049857884645
0.00913480076219846 0.015908697664732938 0.0016258549876511097
0.00932291184000828 0.01539186672610119 0.003277062438428402
0.009511022917818098 0.014875035787469442 0.0033473221119493246
0.009699133995627916 0.014358204848837696 0.00338344881311059
0.009887245073437734 0.013841373910205948 0.003610305255278945
0.010075356151247553 0.013324542971574201 0.003714374266564846
0.010263467229057372 0.012807712032942453 0.0034049993846565485
0.01045157830686719 0.012290881094310707 0.003602262120693922
0.010639689384677008 0.011774050155678959 0.0034303872380405664
0.010827800462486827 0.011257219217047212 0.0034665141720324755
0.011015911540296646 0.010740388278415464 0.0034682408440858126
0.011204022618106463 0.010223557339783716 0.0034699654206633568
0.011392133695916282 0.00970672640115197 0.003667228389531374
0.0115802447737261 0.009189895462520222 0.0035646697506308556
0.01176835585153592 0.008673064523888475 0.0035317770671099424
0.011956466929345738 0.008156233585256727 0.0035335037391632795
0.012144578007155555 0.00763940264662498 0.0034658312797546387
0.012332689084965374 0.007122571707993233 0.0032939561642706394
0.012520800162775193 0.006605740769361486 0.0030189561657607555
0.012708911240585012 0.0060889098307297385 0.002675206633284688
0.012897022318394829 0.005572078892097991 0.0022970817517489195
0.013085133396204648 0.005055247953466244 0.0036628716625273228
0.013273244474014467 0.004538417014834496 0.0035951989702880383
0.013461355551824285 0.004021586076202749 0.0036313270684331656
0.013649466629634103 0.0035047551375710015 0.0035636553075164557
0.013837577707443921 0.0029879241989392543 0.0033917804248631
0.01402568878525374 0.002471093260307507 0.0033588886726647615
0.014213799863063559 0.00195426232167576 0.0032563291024416685
0.014401910940873376 0.0014374313830440124 0.003015704220160842
0.014590022018683195 0.000920600444412265 0.0029131455812603235
0.014778133096493014 0.0004037695057805177 0.002741270698606968
0.014966244174302833 -0.00011306143285122968 0.0025350202340632677
0.015154355252112651 -0.000629892371482977 0.0022943951189517975
0.015342466329922469 -0.0011467233101147244 0.0020881451200693846
0.015530577407732287 -0.0016635542487464716 0.0018131451215595007
0.015718688485542105 -0.002180385187378219 0.0014350201236084104
0.015906799563351923 -0.0026972161260099665 0.0009885410545393825
0.016094910641161742 -0.0032140470646417137 0.002244231989607215
0.01628302171897156 -0.003730878003273461 0.0020723571069538593
0.01647113279678138 -0.0042477089419052086 0.001831732108257711
0.0166592438745912 -0.004764539880536956 0.0017640599980950356
0.016847354952401018 -0.005281370819168703 0.001215267926454544
0.017035466030210836 -0.00579820175780045 0.0010433928109705448
0.0073011919603669035 0.0193384040325023 0.0011276740115135908
0.007489303356707802 0.018821572218713604 0.0015057990094646811
0.007677414434517621 0.018304741280081856 0.001849549007602036
0.007865525512327439 0.01778791034145011 0.002124548889696598
0.008053636590137258 0.01727107940281836 0.0022964240051805973
0.008241747667947077 0.016754248464186612 0.00250267400406301
0.008429858745756894 0.016237417525554868 0.002708924002945423
0.008617969823566713 0.01572058658692312 0.0028807984199374914
0.008806080901376532 0.015203755648291371 0.0030526735354214907
0.00899419197918635 0.014686924709659623 0.0033276735339313745
0.009182303056996168 0.014170093771027877 0.0033953459933400154
0.009370414134805986 0.013653262832396129 0.003463016590103507
0.009558525212615805 0.013136431893764382 0.0036348917055875063
0.009746636290425624 0.012619600955132634 0.003841141704469919
0.009934747368235441 0.012102770016500888 0.00358462892472744
0.01012285844604526 0.01158593907786914 0.002057887613773346
0.010310969523855079 0.011069108139237394 0.0026755807921290398
0.010499080601664898 0.010552277200605645 0.0031220591627061367
0.010687191679474715 0.010035446261973897 0.0033283091615885496
0.010875302757284534 0.009518615323342151 0.0035345591604709625
0.011063413835094352 0.009001784384710403 0.0037064342759549618
0.011251524912904171 0.008484953446078657 0.0038089926820248365
0.01143963599071399 0.007968122507446909 0.003911552485078573
0.011627747068523807 0.007451291568815161 0.004014110658317804
0.011815858146333626 0.006934460630183414 0.004012384917587042
0.012003969224143445 0.006417629691551667 0.004010660573840141
0.012192080301953264 0.00590079875291992 0.0018089342629536986
0.01238019137976308 0.005383967814288172 0.0026431449223309755
0.0125683024575729 0.004867136875656425 0.002918144455179572
0.012756413535382718 0.004350305937024677 0.0030900193378329277
0.012944524613192537 0.0038334749983929303 0.0019435483263805509
0.013132635691002354 0.0033166440597611827 0.002458134898915887
0.013320746768812173 0.0027998131211294354 0.0014146404573693871
0.013508857846621992 0.002282982182497688 0.0021752312313765287
0.013696968924431811 0.0017661512438659408 0.0025189812295138836
0.013885080002241628 0.0012493203052341936 0.0015407645842060447
0.014073191080051447 0.0007324893666024461 0.0020895565394312143
0.014261302157861266 0.0002156584279706988 0.002433306537568569
0.014449413235671085 -0.0003011725106610485 0.0026739316526800394
0.014637524313480903 -0.0008180034492927959 0.002845806535333395
0.01482563539129072 -0.0013348343879245432 0.0012982707703486085
0.01501374646910054 -0.0018516653265562904 0.0020222123712301254
0.015201857546910358 -0.0023684962651880376 0.0010118130594491959
0.015389968624720177 -0.0028853272038197853 0.0014582921285182238
0.015578079702529994 -0.0034021581424515325 0.0022556644398719072
0.015766190780339813 -0.00391898908108328 0.0008162559242919087
0.015954301858149632 -0.004435820019715027 0.0014339491026476026
0.01633052401376927 -0.005469481896978522 0.0009231747826561332
0.006784361021735157 0.019150292954692484 0.0011830906150862575
0.006972472418076056 0.018633461140903786 0.0028342995792627335
0.007160583495885875 0.018116630202272038 0.002904559252783656
0.007348694573695693 0.01759979926364029 0.0027326843701303005
0.007536805651505512 0.01708296832500854 0.002560808788985014
0.0077249167293153296 0.016566137386376797 0.0017265987116843462
0.007913027807125148 0.01604930644774505 0.003092386992648244
0.008101138884934966 0.0155324755091133 0.003162647597491741
0.008289249962744785 0.015015644570481554 0.0031643733382225037
0.008477361040554604 0.014498813631849806 0.003512166440486908
0.008665472118364421 0.013981982693218058 0.003513893112540245
0.00885358319617424 0.013465151754586312 0.0035841516219079494
0.009041694273984059 0.012948320815954564 0.003516481025144458
0.009229805351793878 0.012431489877322817 0.0033446061424911022
0.009417916429603695 0.01191465893869107 0.00296648102812469
0.009606027507413514 0.011397828000059323 0.0027946061454713345
0.009794138585223332 0.010880997061427575 0.0043792747892439365
0.009982249663033151 0.010364166122795827 0.004606130998581648
0.010170360740842968 0.00984733518416408 0.004125635605305433
0.010358471818652787 0.009330504245532332 0.004127361346036196
0.010546582896462606 0.008813673306900586 0.0038523611146956682
0.010734693974272425 0.008296842368268838 0.0038194693624973297
0.010922805052082244 0.0077800114296370905 0.0037865766789764166
0.01111091612989206 0.007263180491005343 0.0036840171087533236
0.01129902720770188 0.006746349552373596 0.003443392226472497
0.011487138285511699 0.006229518613741849 0.0032715171109884977
0.011675249363321517 0.005712687675110102 0.0029621422290802
0.011863360441131334 0.005195856736478354 0.0026183926966041327
0.012051471518941153 0.004679025797846607 0.0020352450665086508
0.012239582596750972 0.004162194859214859 0.0030787389259785414
0.012427693674560791 0.0036453639205831123 0.0024955919943749905
0.012615804752370608 0.0031285329819513647 0.0018431267235428095
0.012803915830180427 0.0026117020433196175 0.0028866217471659184
0.012992026907990246 0.0020948711046878702 0.0026803722139447927
0.013180137985800065 0.0015780401660561228 0.002233893144875765
0.013368249063609882 0.0010612092274243756 0.0014365208335220814
0.0135563601414197 0.0005443782887926281 0.002298173727467656
0.01374447121922952 2.7547350160880847e-05 0.00185169477481395
0.013932582297039338 -0.0004892835884708665 0.0023823657538741827
0.014120693374849157 -0.0010061145271026137 0.002038615755736828
0.014308804452658974 -0.0015229454657343612 0.0016948656411841512
0.014496915530468793 -0.0020397764043661084 0.0015923071186989546
0.014685026608278612 -0.0025566073429978556 0.0010777206625789404
0.015061248763898248 -0.0035902692202613505 0.0013187280856072903
0.015249359841708067 -0.004107100158893098 0.000940603029448539
0.006267530083103409 0.018962181876882665 0.0013246341841295362
0.006455641479444308 0.018445350063093967 0.0018734262557700276
0.006643752557254127 0.01792851912446222 0.0023539219982922077
0.006831863635063945 0.01741168818583047 0.0026632968802005053
0.0070199747128737635 0.016894857247198723 0.002869546413421631
0.0072080857906835815 0.016378026308566978 0.0030757964123040438
0.0073961968684934 0.01586119536993523 0.003178355051204562
0.007584307946303218 0.015344364431303482 0.0032112477347254753
0.007772419024113037 0.014827533492671735 0.0032789180986583233
0.007960530101922856 0.014310702554039987 0.003346590790897608
0.008148641179732673 0.01379387161540824 0.0033794825430959463
0.008336752257542492 0.013277040676776493 0.0033433556091040373
0.00852486333535231 0.012760209738144745 0.003445914015173912
0.00871297441316213 0.012243378799512998 0.0035484726540744305
0.008901085490971947 0.01172654786088125 0.0033512096852064133
0.009089196568781766 0.011209716922249504 0.0033494841773062944
0.009465418724401403 0.010176055044986008 0.0014265381032600999
0.00965352980221122 0.009659224106354261 0.002407268388196826
0.00984164088002104 0.009142393167722513 0.002990416018292308
0.010029751957830858 0.008625562229090767 0.0032997909002006054
0.010217863035640677 0.008108731290459019 0.0034716660156846046
0.010405974113450496 0.007591900351827272 0.0037466660141944885
0.010594085191260313 0.0070750694131955245 0.0038492255844175816
0.010782196269070132 0.006558238474563777 0.0038821182679384947
0.01097030734687995 0.00604140753593203 0.003949788864701986
0.01115841842468977 0.005524576597300283 0.004017460159957409
0.011346529502499586 0.005007745658668536 0.004050353076308966
0.011534640580309405 0.004490914720036788 0.002526608295738697
0.011722751658119224 0.00397408378140504 0.0016426905058324337
0.01209897381373886 0.002940421904141546 0.0011425719130784273
0.012287084891548679 0.0024235909655097986 0.001903163967654109
0.012475195969358498 0.0019067600268780514 0.002246913965791464
0.012663307047168317 0.001389929088246304 0.0012034184765070677
0.013039529202787952 0.00035626721098280936 0.0011331242276355624
0.013227640280597771 -0.000160563727648938 0.0018570648971945047
0.01341575135840759 -0.0006773946662806854 0.0020976897794753313
0.013603862436217409 -0.0011942256049124326 0.0010202829726040363
0.013791973514027226 -0.00171105654354418 0.0014667620416730642
0.014168195669646864 -0.0027447184208076745 0.0010071872966364026
0.014732528903076319 -0.004295211236702917 0.0011037474032491446
0.005562588066661844 0.019290901737704595 0.0009420994902029634
0.005750699144471663 0.018774070799072846 0.0028771772049367428
0.0059388105408125615 0.018257238985284148 0.0028095056768506765
0.00612692161862238 0.0177404080466524 0.0033003627322614193
0.006315032696432198 0.017223577108020652 0.003232691204175353
0.006503143774242017 0.016706746169388907 0.00302644120529294
0.006691254852051835 0.01618991523075716 0.002854566089808941
0.006879365929861654 0.01567308429212541 0.0026826912071555853
0.007067477007671472 0.015156253353493665 0.002304566092789173
0.007255588085481291 0.014639422414861917 0.0037439751904457808
0.007443699163291109 0.014122591476230168 0.0035033500753343105
0.007631810241100928 0.013605760537598422 0.003573609748855233
0.007819921318910746 0.013088929598966674 0.00354071706533432
0.008008032396720564 0.012572098660334928 0.0035768449306488037
0.008196143474530383 0.01205526772170318 0.00368091301061213
0.0083842545523402 0.011538436783071433 0.0034402881283313036
0.00857236563015002 0.011021605844439685 0.0037570777349174023
0.008760476707959838 0.010504774905807939 0.003793205600231886
0.008948587785769657 0.00998794396717619 0.00379493017680943
0.009136698863579474 0.009471113028544443 0.0036923717707395554
0.009324809941389293 0.008954282089912696 0.004143742844462395
0.009512921019199112 0.008437451151280948 0.0042478120885789394
0.00970103209700893 0.007920620212649202 0.0042839390225708485
0.00988914317481875 0.007403789274017454 0.004481201525777578
0.010077254252628566 0.0068869583353857065 0.004137451760470867
0.010265365330438385 0.006370127396753959 0.004034893121570349
0.010453476408248204 0.005853296458122212 0.0038286433555185795
0.010641587486058023 0.005336465519490465 0.0030312708113342524
0.01082969856386784 0.004819634580858718 0.0026875208131968975
0.011017809641677659 0.00430280364222697 0.0023781459312886
0.011205920719487478 0.0037859727035952227 0.0018293538596481085
0.011394031797297297 0.0032691417649634755 0.0029067611321806908
0.011582142875107114 0.002752310826331728 0.002666136249899864
0.011770253952916932 0.0022354798876999806 0.0023223862517625093
0.011958365030726751 0.0017186489490682334 0.0018418905092403293
0.01214647610853657 0.001201818010436486 0.0017393319867551327
0.012334587186346387 0.0006849870718047387 0.001121639390476048
0.012522698264156206 0.00016815613317299136 0.0021651333663612604
0.012710809341966025 -0.00034867480545875594 0.001993258250877261
0.012898920419775844 -0.0008655057440905033 0.0016838832525536418
0.013087031497585663 -0.0013823366827222505 0.001031419145874679
0.013463253653205299 -0.002415998559985745 0.0011979802511632442
0.013651364731015117 -0.0029328294986174924 0.000888605194631964
0.005233868205839915 0.018585959721263028 0.0013290154747664928
0.005421979602180813 0.01806912790747433 0.002052957657724619
0.005610090679990632 0.01755229696884258 0.0025334518868476152
0.00579820175780045 0.017035466030210836 0.0028428263030946255
0.005986312835610269 0.01651863509157909 0.00291049899533391
0.006174423913420087 0.01600180415294734 0.0030823738779872656
0.006362534991229906 0.015484973214315592 0.0018993060803040862
0.006550646069039724 0.014968142275683846 0.002448098035529256
0.006738757146849543 0.014451311337052098 0.002826223149895668
0.006926868224659361 0.013934480398420351 0.003101223148405552
0.0071149793024691795 0.013417649459788603 0.0032730980310589075
0.0073030903802789975 0.012900818521156857 0.0033059907145798206
0.007491201458088816 0.012383987582525109 0.0019402009202167392
0.007679312535898634 0.01186715664389336 0.0028845109045505524
0.007867423613708452 0.011350325705261614 0.0030907609034329653
0.008055534691518271 0.010833494766629866 0.003537239506840706
0.00824364576932809 0.01031666382799812 0.002574739046394825
0.008431756847137909 0.009799832889366372 0.003089326899498701
0.008619867924947726 0.009283001950734626 0.003364326898008585
0.008807979002757545 0.008766171012102877 0.0035362020134925842
0.008996090080567364 0.008249340073471131 0.00370807689614594
0.009184201158377182 0.007732509134839383 0.0037757474929094315
0.009372312236187001 0.007215678196207636 0.003843420185148716
0.009560423313996818 0.0066988472575758885 0.003945978824049234
0.009748534391806637 0.006182016318944141 0.0039098504930734634
0.009936645469616456 0.005665185380312393 0.003977523185312748
0.010124756547426275 0.005148354441680646 0.003975796513259411
0.010312867625236092 0.004631523503048899 0.003974070772528648
0.01050097870304591 0.0041146925644171516 0.0023228635545819998
0.01068908978085573 0.0035978616257854043 0.002803359180688858
0.010877200858665548 0.003081030687153657 0.0026358168106526136
0.011065311936475366 0.0025641997485219095 0.0028076916933059692
0.011253423014285184 0.0020473688098901622 0.0016604004194959998
0.011441534092095003 0.001530537871258415 0.0021408956963568926
0.011629645169904822 0.0010137069326266676 0.002381520578637719
0.01181775624771464 0.0004968759939949203 0.001304113888181746
0.012005867325524458 -1.9954944636827035e-05 0.0017846080008894205
0.012193978403334277 -0.0005367858832685744 0.0020939831156283617
0.012382089481144096 -0.0010536168219003217 0.0009109151433221996
0.012570200558953915 -0.001570447760532069 0.0014597077388316393
0.01294642271457355 -0.0026041096377955636 0.001000134041532874
0.004528926189398348 0.018914679582084957 0.0008253894047811627
0.0047170372672081665 0.01839784864345321 0.0017672332469373941
0.004905148663549065 0.01788101682966451 0.003312203334644437
0.005093259741358884 0.017364185891032762 0.003348330035805702
0.005281370819168702 0.016847354952401018 0.0032806596718728542
0.005469481896978521 0.01633052401376927 0.003178101032972336
0.005657592974788339 0.01581369307513752 0.0029374761506915092
0.005845704052598158 0.015296862136505773 0.002029720926657319
0.006033815130407976 0.014780031197874027 0.003248991211876273
0.006221926208217795 0.014263200259242279 0.0031464325729757547
0.0064100372860276126 0.013746369320610533 0.002871432574465871
0.006598148363837431 0.013229538381978784 0.0024249530397355556
0.006786259441647249 0.012712707443347038 0.0017010114388540387
0.006974370519457068 0.01219587650471529 0.0028130493592470884
0.007162481597266886 0.011679045566083542 0.0018323195399716496
0.007350592675076705 0.011162214627451796 0.0029097269289195538
0.007538703752886523 0.010645383688820047 0.002565976232290268
0.007726814830696342 0.010128552750188301 0.0038216672837734222
0.00791492590850616 0.009611721811556553 0.003788774600252509
0.008103036986315978 0.009094890872924807 0.004045287147164345
0.008291148064125797 0.008578059934293059 0.00401239562779665
0.008479259141935615 0.008061228995661312 0.00394472386687994
0.008667370219745434 0.007544398057029564 0.003911832347512245
0.008855481297555253 0.007027567118397817 0.0038441596552729607
0.00904359237536507 0.00651073617976607 0.0037764881271868944
0.009231703453174889 0.0059939052411343225 0.003604613244533539
0.009419814530984708 0.005477074302502574 0.0033639881294220686
0.009607925608794527 0.004960243363870827 0.0031577381305396557
0.009796036686604344 0.00444341242523908 0.0027112597599625587
0.009984147764414163 0.003926581486607333 0.002230765065178275
0.010172258842223982 0.0034097505479755855 0.0016130718868225813
0.0103603699200338 0.0028929196093438383 0.0026904786936938763
0.010548480997843617 0.0023760886707120906 0.0023467286955565214
0.010736592075653436 0.0018592577320803434 0.0019002497429028153
0.010924703153463255 0.0013424267934485962 0.0011763080256059766
0.011112814231273074 0.0008255958548168487 0.0022537149488925934
0.011300925309082891 0.00030876491618510147 0.001773220719769597
0.01148903638689271 -0.00020806602244664588 0.0011207560310140252
0.011865258542512348 -0.0012417278997101406 0.0014321362832561135
0.012053369620322166 -0.0017585588383418878 0.0009516415884718299
0.012429591775941802 -0.0027922207156053824 0.0012294698972254992
0.00420020632857642 0.01820973756564339 0.0016023260541260242
0.004388317724917319 0.01769290575185469 0.002220018533989787
0.004576428802727138 0.017176074813222943 0.002768811071291566
0.004764539880536956 0.0166592438745912 0.003078186186030507
0.004952650958346775 0.01614241293595945 0.0033188110683113337
0.005140762036156593 0.015625581997327703 0.0033864816650748253
0.005328873113966411 0.015108751058695956 0.0035583567805588245
0.005516984191776229 0.014591920120064208 0.0022661120165139437
0.005705095269586048 0.014075089181432462 0.0028492610435932875
0.005893206347395866 0.013558258242800714 0.0031930110417306423
0.006081317425205685 0.013041427304168966 0.0033992610406130552
0.006269428503015503 0.01252459636553722 0.0022519691847264767
0.006457539580825322 0.012007765426905471 0.0030125603079795837
0.00664565065863514 0.011490934488273725 0.00308023183606565
0.006833761736444959 0.010974103549641977 0.0032521067187190056
0.007021872814254777 0.01045727261101023 0.0035958567168563604
0.0072099838920645955 0.009940441672378482 0.0024838184472173452
0.0073980949698744134 0.009423610733746734 0.003101511625573039
0.007586206047684232 0.008906779795114988 0.003445261623710394
0.007774317125494051 0.00838994885648324 0.003651511622592807
0.007962428203303869 0.007873117917851493 0.0038233865052461624
0.008150539281113688 0.007356286979219745 0.003995261620730162
0.008338650358923507 0.006839456040587998 0.004339011386036873
0.008526761436733324 0.006322625101956251 0.004302884917706251
0.008714872514543143 0.005805794163324504 0.004370555281639099
0.008902983592352962 0.005288963224692756 0.002788247773423791
0.00909109467016278 0.004772132286061009 0.003097622888162732
0.009279205747972597 0.004255301347429262 0.0018783535342663527
0.009467316825782416 0.0037384704087975143 0.002392941154539585
0.009655427903592235 0.003221639470165767 0.002667941153049469
0.009843538981402054 0.00270480853153402 0.0015905337641015649
0.010031650059211871 0.0021879775929022722 0.0021393252536654472
0.01021976113702169 0.001671146654270525 0.0023799503687769175
0.010407872214831509 0.0011543157156387778 0.0012679114006459713
0.010595983292641328 0.0006374847770070303 0.0017484071431681514
0.010784094370451145 0.00012065383837528305 0.0021948860958218575
0.010972205448260964 -0.00039617710025646426 0.001216668402776122
0.011160316526070782 -0.0009130080388882116 0.0017312548588961363
0.01153653868169042 -0.0019466699161517062 0.0011671121465042233
0.011912760837310056 -0.002980331793415201 0.001072005950845778
0.003683375389944672 0.01802162648783357 0.0024223823565989733
0.003871486786285571 0.017504794674044873 0.0020786323584616184
0.00405959786409539 0.016987963735413128 0.0034812605008482933
0.004247708941905208 0.01647113279678138 0.00344836781732738
0.0044358200197150265 0.015954301858149632 0.0032421178184449673
0.0046239310975248445 0.015437470919517884 0.0029671178199350834
0.004812042175334663 0.014920639980886137 0.002864559181034565
0.005000153253144481 0.01440380904225439 0.002281411085277796
0.0051882643309543 0.013886978103622643 0.00353710213676095
0.005376375408764118 0.013370147164990895 0.00329647702164948
0.005564486486573937 0.012853316226359148 0.0029183521401137114
0.005752597564383755 0.0123364852877274 0.0024037640541791916
0.005940708642193574 0.011819654349095654 0.003586831968277693
0.006128819720003392 0.011302823410463906 0.0034149568527936935
0.006316930797813211 0.010785992471832158 0.0033472853247076273
0.0065050418756230285 0.010269161533200412 0.0030035353265702724
0.006693152953432847 0.009752330594568663 0.0026254109106957912
0.006881264031242665 0.009235499655936917 0.003844680031761527
0.007069375109052484 0.008718668717305169 0.003742120461538434
0.007257486186862303 0.008201837778673423 0.003535870462656021
0.007445597264672121 0.0076850068400416745 0.0029527228325605392
0.00763370834248194 0.007168175901409927 0.0024381359107792377
0.007821819420291759 0.00665134496277818 0.003550174180418253
0.008009930498101576 0.006134514024146433 0.0033782990649342537
0.008198041575911395 0.005617683085514686 0.003137674182653427
0.008386152653721213 0.005100852146882938 0.0027939241845160723
0.008574263731531032 0.00458402120825119 0.0023134294897317886
0.00876237480934085 0.004067190269619443 0.0031076662708073854
0.008950485887150668 0.003550359330987696 0.002798291388899088
0.009138596964960487 0.0030335283923559487 0.0018539817538112402
0.009326708042770306 0.0025166974537242015 0.0013051896821707487
0.009514819120580123 0.001999866515092454 0.002488256897777319
0.009702930198389942 0.0014830355764607066 0.002144506899639964
0.00989104127619976 0.0009662046378289593 0.0016980280634015799
0.01007915235400958 0.000449373699197212 0.0011492359917610884
0.010267263431819397 -6.745723943453535e-05 0.0023323032073676586
0.010455374509629215 -0.0005842881780662827 0.00195417832583189
0.010643485587439034 -0.00110111911669803 0.0014736840967088938
0.010831596665248853 -0.0016179500553297774 0.0012674340978264809
0.011207818820868489 -0.002651611932593272 0.0019765307661145926
0.0031665444513129257 0.017833515410023752 0.0012412375072017312
0.0033546558476538245 0.017316683596235057 0.0018937026616185904
0.003542766925463643 0.01679985265760331 0.0025113956071436405
0.0037308780032734613 0.01628302171897156 0.0029578746762126684
0.00391898908108328 0.015766190780339813 0.003060433315113187
0.004107100158893098 0.015249359841708067 0.0034041833132505417
0.004295211236702917 0.014732528903076319 0.002184913493692875
0.004483322314512735 0.014215697964444572 0.0027680620551109314
0.004671433392322554 0.013698867025812824 0.0032145394943654537
0.004859544470132372 0.013182036087181076 0.0034895394928753376
0.005047655547942191 0.01266520514854933 0.0035920990630984306
0.005235766625752009 0.012148374209917582 0.003832724178209901
0.005423877703561827 0.011631543271285835 0.003935282584279776
0.005611988781371645 0.011114712332654087 0.0040029543451964855
0.005800099859181464 0.01059788139402234 0.0041055139154195786
0.005988210936991282 0.010081050455390593 0.004311763681471348
0.006176322014801101 0.009564219516758846 0.004310037009418011
0.006364433092610919 0.009047388578127098 0.003573306603357196
0.006552544170420738 0.00853055763949535 0.0018037667032331228
0.006740655248230557 0.008013726700863604 0.002674797084182501
0.006928766326040375 0.007496895762231857 0.0031212754547595978
0.0071168774038501935 0.0069800648236001085 0.0034650254528969526
0.0073049884816600115 0.006463233884968361 0.0035675850231200457
0.00749309955946983 0.005946402946336614 0.0037738350220024586
0.007681210637279648 0.005429572007704867 0.002226298674941063
0.007869321715089467 0.00491274106907312 0.002672777744010091
0.008057432792899286 0.004395910130441372 0.0028790277428925037
0.008245543870709103 0.0038790791918096247 0.0028429008089005947
0.008433654948518922 0.0033622482531778775 0.0029105714056640863
0.00862176602632874 0.0028454173145461303 0.0016913015861064196
0.00880987710413856 0.002328586375914383 0.0022058880422264338
0.008997988181948377 0.0018117554372826356 0.0023777629248797894
0.009186099259758196 0.0012949244986508882 0.0026183880399912596
0.009374210337568014 0.0007780935600191409 0.00125259964261204
0.009562321415377833 0.0002612626213873936 0.001733094803057611
0.00975043249318765 -0.00025556831724435374 0.0021112198010087013
0.009938543570997469 -0.0007723992558761011 0.0009639274212531745
0.010126654648807288 -0.0012892301945078483 0.0014785154489800334
0.010502876804426926 -0.0023228920717713432 0.0011676168069243431
0.010879098960046562 -0.0033565539490348377 0.0009612403227947652
0.002461602434871359 0.01816223527084568 0.0007861247868277133
0.0026497135126811776 0.017645404332213937 0.0012258726637810469
0.0028378249090220764 0.01712857251842524 0.0018965419149026275
0.003025935986831895 0.01661174157979349 0.0013819554587826133
0.0032140470646417132 0.016094910641161742 0.0033413299825042486
0.0034021581424515317 0.015578079702529996 0.0031694548670202494
0.00359026922026135 0.015061248763898248 0.002928829984739423
0.0037783802980711685 0.0145444178252665 0.0023111372720450163
0.003966491375880987 0.014027586886634753 0.001587195205502212
0.004154602453690806 0.013510755948003005 0.002332265954464674
0.004342713531500624 0.012993925009371259 0.004031236283481121
0.0045308246093104425 0.01247709407073951 0.003998343832790852
0.0047189356871202605 0.011960263132107764 0.0038264687173068523
0.004907046764930079 0.011443432193476016 0.0034827187191694975
0.005095157842739897 0.010926601254844268 0.003002224024385214
0.005283268920549716 0.010409770316212522 0.004441632889211178
0.005471379998359534 0.009892939377580774 0.004269758239388466
0.005659491076169353 0.009376108438949027 0.004437298979610205
0.005847602153979171 0.00885927750031728 0.004334740806370974
0.00603571323178899 0.008342446561685533 0.004128491040319204
0.006223824309598809 0.007825615623053785 0.004164618905633688
0.0064119353874086266 0.007308784684422038 0.0038552437908947468
0.006600046465218445 0.0067919537457902905 0.003683368908241391
0.006788157543028263 0.006275122807158543 0.00337399379350245
0.006976268620838082 0.005758291868526796 0.0030646189115941525
0.0071643796986479 0.005241460929895049 0.0026181393768638372
0.007352490776457719 0.004724629991263301 0.002034991281107068
0.007540601854267537 0.0042077990526315535 0.0031822826713323593
0.007728712932077356 0.0036909681139998063 0.002941657556220889
0.007916824009887174 0.003174137175368059 0.0024951796513050795
0.008104935087696993 0.002657306236736312 0.0019463871140033007
0.008293046165506811 0.0021404752981045647 0.0013975950423628092
0.008481157243316629 0.0016236443594728172 0.0025096333120018244
0.008669268321126447 0.0011068134208410698 0.0019264862639829516
0.008857379398936266 0.0005899824822093225 0.0013433375861495733
0.009045490476746085 7.315154357757517e-05 0.0008287510718218982
0.009233601554555902 -0.00044367939505417215 0.0019760418217629194
0.009421712632365721 -0.0009605103336859195 0.0015295628691092134
0.00960982371017554 -0.0014773412723176668 0.0009118702728301287
0.009986045865795178 -0.0025110031495811616 0.0012232506414875388
0.0021328825740494304 0.017457293254404118 0.0009795896476134658
0.0023209939703903292 0.01694046144061542 0.001776962075382471
0.0025091050482001476 0.01642363050198367 0.0022915485315024853
0.002697216126009966 0.015906799563351923 0.002738027134910226
0.0028853272038197844 0.015389968624720177 0.0030474020168185234
0.003073438281629603 0.014873137686088429 0.0032880271319299936
0.0032615493594394212 0.014356306747456683 0.003666152013465762
0.003825882592868877 0.01280581393156144 0.0017731876578181982
0.004013993670678695 0.012288982992929692 0.0028611498419195414
0.004202104748488513 0.011772152054297946 0.003478842554613948
0.004390215826298332 0.011255321115666198 0.0037538425531238317
0.00457832690410815 0.010738490177034451 0.004028842318803072
0.004766437981917969 0.010221659238402703 0.004200717434287071
0.004954549059727787 0.009704828299770957 0.00430327607318759
0.005142660137537606 0.009187997361139209 0.004405834246426821
0.005330771215347424 0.00867116642250746 0.004438725765794516
0.0055188822931572425 0.008154335483875714 0.004541285336017609
0.005706993370967061 0.007637504545243967 0.004574178252369165
0.005895104448776879 0.00712067360661222 0.00453804899007082
0.006083215526586698 0.006603842667980472 0.003098641522228718
0.006271326604396516 0.0060870117293487245 0.003932851832360029
0.006459437682206335 0.005570180790716977 0.0024934434331953526
0.006647548760016153 0.00505334985208523 0.0028371938969939947
0.006835659837825972 0.004536518913453483 0.0016899026231840253
0.00702377091563579 0.004019687974821736 0.002560931956395507
0.007211881993445609 0.003502857036189988 0.002939057070761919
0.007399993071255427 0.0029860260975582407 0.0017917656805366278
0.007588104149065245 0.0024691951589264935 0.002306352136656642
0.007776215226875063 0.001952364220294746 0.002650102134793997
0.007964326304684882 0.0014355332816629988 0.0014308328973129392
0.008152437382494701 0.0009187023430312514 0.0019113280577585101
0.008340548460304518 0.0004018714043995041 0.0021519530564546585
0.008528659538114337 -0.00011495953423224324 0.0010046616662293673
0.008716770615924156 -0.0006317904728639906 0.0015192482387647033
0.009092992771543792 -0.0016654523501274852 0.001096772262826562
0.001804163031758582 0.0167523503628056 0.0015691820299252868
0.0019922741095684004 0.016235519424173853 0.002678991761058569
0.002180385187378219 0.015718688485542105 0.002403991762548685
0.002368496265188037 0.015201857546910358 0.0019234975334256887
0.0025566073429978556 0.01468502660827861 0.0030355353374034166
0.002744718420807674 0.014168195669646864 0.002311593620106578
0.0029328294986174924 0.013651364731015116 0.0014773835428059101
0.003120940576427311 0.01313453379238337 0.002669883891940117
0.0033090516542371297 0.012617702853751621 0.004730059299618006
0.003497162732046948 0.012100871915119875 0.00393268745392561
0.0036852738098567665 0.011584040976488127 0.0034862076863646507
0.003873384887666585 0.01106721003785638 0.003245582804083824
0.004061495965476403 0.010550379099224632 0.004665596876293421
0.004249607043286222 0.010033548160592884 0.004597925115376711
0.00443771812109604 0.009516717221961138 0.00449536694213748
0.0046258291989058585 0.00899988628332939 0.004427694249898195
0.0048139402767156765 0.008483055344697643 0.004463822115212679
0.005002051354525495 0.007966224406065895 0.004361263941973448
0.005190162432335314 0.007449393467434148 0.0041893888264894485
0.005378273510145132 0.006932562528802401 0.003948763944208622
0.005566384587954951 0.006415731590170654 0.0035022853408008814
0.005754495665764769 0.0058989006515389065 0.003021789714694023
0.005942606743574588 0.005382069712907159 0.0025072037242352962
0.006130717821384406 0.004865238774275412 0.0017098302487283945
0.006318828899194225 0.004348407835643664 0.002821869682520628
0.0065069399770040426 0.003831576897011917 0.0022730776108801365
0.006695051054813861 0.0033147459583801695 0.0016553844325244427
0.006883162132623679 0.0027979150197484223 0.002767423167824745
0.007071273210433498 0.002281084081116675 0.002149730222299695
0.007259384288243316 0.0017642531424849276 0.0016351421363651752
0.007447495366053135 0.0012474222038531804 0.000837769650388509
0.007635606443862953 0.000730591265221433 0.0016380837187170982
0.007823717521672772 0.0002137603265896857 0.0009141414775513113
0.00801182859948259 -0.00030307061204206163 0.0020972094498574734
0.008199939677292408 -0.000819901550673809 0.0017878343351185322
0.008388050755102227 -0.0013367324893055563 0.0012046867050230503
0.008952383988531683 -0.0028872253052007984 0.0008566602482460439
0.0012873320931268348 0.016564239284995782 0.0015026051551103592
0.0014754431709366532 0.016047408346364034 0.002051397692412138
0.0016635542487464716 0.015530577407732287 0.002497876761481166
0.0018516653265562902 0.01501374646910054 0.002876001177355647
0.0020397764043661084 0.014496915530468793 0.003151001175865531
0.002227887482175927 0.013980084591837045 0.003494751174002886
0.002415998559985745 0.013463253653205299 0.0037010011728852987
0.0026041096377955636 0.01294642271457355 0.003976001404225826
0.0027922207156053824 0.012429591775941802 0.004078559577465057
0.002980331793415201 0.011912760837310056 0.004076833836734295
0.0031684428712250193 0.011395929898678308 0.004179393406957388
0.0033565539490348377 0.010879098960046562 0.0043856436386704445
0.003544665026844656 0.010362268021414813 0.004557518288493156
0.0037327761046544745 0.009845437082783067 0.004590409807860851
0.0039208871824642924 0.009328606144151319 0.0038849664852023125
0.004108998260274111 0.008811775205519573 0.0020924671553075314
0.004297109338083929 0.008294944266887825 0.00321505987085402
0.004485220415893748 0.007778113328256077 0.0037296463269740343
0.004673331493703567 0.00726128238962433 0.004039021208882332
0.004861442571513385 0.006744451450992583 0.004245271440595388
0.005049553649323204 0.006227620512360835 0.0029895820189267397
0.005237664727133022 0.005710789573729088 0.003470077645033598
0.0054257758049428405 0.00519395863509734 0.0024265821557492018
0.0056138868827526585 0.004677127696465593 0.0029070780146867037
0.005801997960562477 0.004160296757833846 0.0031820780131965876
0.005990109038372295 0.0036434658192020988 0.002070039277896285
0.006178220116182114 0.003126634880570351 0.0025505339726805687
0.006366331193991932 0.002609803941938604 0.001507039531134069
0.006554442271801751 0.0020929730033068567 0.0016789145302027464
0.006742553349611569 0.0015761420646751092 0.0020226645283401012
0.006930664427421388 0.001059311126043362 0.0009791695047169924
0.007306886583041025 2.5649248779867286e-05 0.0010982467792928219
0.007494997660850843 -0.0004911816898518801 0.0015787420561537147
0.00787121981647048 -0.0015248435671153747 0.0010154957417398691
0.008811775205519573 -0.004108998260274111 0.0013312505325302482
0.0005823897581541887 0.01689296002097466 0.0007854953873902559
0.0007705011544950877 0.016376128207185963 0.0014674528501927853
0.0009586122323049061 0.015859297268554215 0.002605121349915862
0.0011467233101147244 0.015342466329922469 0.0025025627110153437
0.001334834387924543 0.014825635391290722 0.00222756271250546
0.0015229454657343614 0.014308804452658974 0.003304969985038042
0.0017110565435441798 0.013791973514027226 0.0029268451035022736
0.0018991676213539982 0.01327514257539548 0.0043662539683282375
0.0020872786991638164 0.012758311636763732 0.0044023809023201466
0.0022753897769736352 0.012241480698131985 0.004404106643050909
0.0024635008547834536 0.011724649759500237 0.004301548004150391
0.002651611932593272 0.01120781882086849 0.0041989898309111595
0.0028397230104030904 0.010690987882236743 0.004425843711942434
0.003027834088212909 0.010174156943604995 0.004427570383995771
0.0032159451660227273 0.009657326004973248 0.004429295193403959
0.0034040562438325457 0.0091404950663415 0.004361624829471111
0.003592167321642364 0.008623664127709754 0.004259066190570593
0.0037802783994521825 0.008106833189078006 0.004087191075086594
0.003968389477262001 0.0075900022504462586 0.003709066193550825
0.00415650055507182 0.007073171311814511 0.0033309413120150566
0.004344611632881638 0.006556340373182764 0.0028844617772847414
0.0045327227106914565 0.006039509434551017 0.0022319965064525604
0.0047208337885012745 0.00552267849591927 0.0033094054087996483
0.004908944866311093 0.0050058475572875225 0.0029312805272638798
0.005097055944120911 0.004489016618655775 0.002382487989962101
0.00528516702193073 0.003972185680024027 0.0016218959353864193
0.005473278099740548 0.0034553547413922804 0.0027691866271197796
0.005661389177550367 0.0029385238027605327 0.0023910622112452984
0.005849500255360185 0.0024216928641287855 0.0018764757551252842
0.006037611333170004 0.0019048619254970383 0.0016014757566154003
0.006413833488789641 0.0008712000482335435 0.0019145564874634147
0.0066019445665994585 0.0003543691096017962 0.0014340613270178437
0.006790055644409277 -0.0001624618290299511 0.0008509125909768045
0.006978166722219095 -0.0006792927676616985 0.0019629509188234806
0.007166277800028914 -0.0011961237062934457 0.0017910759197548032
0.007354388877838732 -0.0017129546449251931 0.0014473259216174483
0.007730611033458369 -0.0027466165221886876 0.0012380048865452409
0.007918722111268189 -0.0032634474608204352 0.0008598797721788287
0.0002536702158633404 0.016188017129376144 0.0009765877621248364
0.00044178129367315885 0.015671186190744396 0.0017739603063091636
0.0006298923714829773 0.01515435525211265 0.002152085304260254
0.0008180034492927957 0.014637524313480903 0.0025302101857960224
0.0010061145271026142 0.014120693374849155 0.003010705579072237
0.0011942256049124326 0.013603862436217409 0.0033888304606080055
0.001382336682722251 0.013087031497585661 0.0036638304591178894
0.0015704477605320694 0.012570200558953915 0.0038357055746018887
0.0017585588383418878 0.012053369620322166 0.004007580690085888
0.0019466699161517062 0.011536538681690418 0.0041794553399086
0.002134780993961525 0.011019707743058672 0.0040753865614533424
0.0023228920717713432 0.010502876804426924 0.004039259627461433
0.0025110031495811616 0.009986045865795178 0.004314259625971317
0.00269911422739098 0.00946921492716343 0.0045205093920230865
0.0028872253052007984 0.008952383988531683 0.004553400911390781
0.003075336383010617 0.008435553049899935 0.004517273977398872
0.0032634474608204352 0.007918722111268187 0.004619832616299391
0.0034515585386302537 0.007401891172636441 0.00465272506698966
0.003639669616440072 0.006885060234004693 0.004685617052018642
0.004015891772059709 0.005851398356741198 0.0008953578653745353
0.004204002849869527 0.005334567418109451 0.0018760886741802096
0.004392113927679346 0.004817736479477704 0.0026000302750617266
0.004580225005489164 0.004300905540845956 0.003080524504184723
0.004768336083298983 0.003784074602214209 0.002003117697313428
0.004956447161108801 0.003267243663582462 0.002586265793070197
0.00514455823891862 0.0027504127249507143 0.0021387299057096243
0.005332669316728438 0.002233581786318967 0.001026691636070609
0.0055207803945382565 0.0017167508476872199 0.0017872831085696816
0.0057088914723480745 0.0011999199090554724 0.002267777221277356
0.005897002550157893 0.0006830889704237251 0.0009755324572324753
0.006085113627967711 0.00016625803179197782 0.001524325110949576
0.00627322470577753 -0.0003505729068397695 0.0017993251094594598
0.006461335783587348 -0.0008674038454715169 0.0019018836319446564
0.006837557939206985 -0.0019010657227350116 0.001231405884027481
0.007025669017016804 -0.0024178966613667588 0.0016095308819785714
0.007401891172636441 -0.0034515585386302537 0.0007702134898863733
-0.00026316072276840683 0.015999906051566325 0.002639184705913067
-7.50496449585884e-05 0.015483075112934579 0.0027432532515376806
0.00011306143285123003 0.014966244174302833 0.0025026288349181414
0.00030117251066104844 0.014449413235671085 0.0019194812048226595
0.0004892835884708668 0.013932582297039336 0.0029298800509423018
0.0006773946662806854 0.01341575135840759 0.00458108726888895
0.0008655057440905038 0.012898920419775842 0.004651347640901804
0.0010536168219003222 0.012382089481144096 0.004755415953695774
0.0012417278997101406 0.011865258542512348 0.004859483800828457
0.001429838977519959 0.011348427603880601 0.004791813436895609
0.0016179500553297774 0.010831596665248853 0.004208664875477552
0.0018060611331395958 0.010314765726617107 0.004376206547021866
0.0019941722109494144 0.009797934787985359 0.004543748684227467
0.002182283288759233 0.00928110384935361 0.00457987654954195
0.002370394366569051 0.008764272910721864 0.004477317910641432
0.0025585054443788696 0.008247441972090116 0.004409645218402147
0.002746616522188688 0.007730611033458369 0.004307087045162916
0.0029347275999985064 0.007213780094826622 0.003928962163627148
0.003122838677808325 0.0066969491561948745 0.0034824837930500507
0.0033109497556181432 0.006180118217563127 0.0022362866438925266
0.0034990608334279616 0.00566328727893138 0.0010797809809446335
0.00368717191123778 0.005146456340299633 0.0021878087427467108
0.0038752829890475985 0.004629625401667886 0.0027273446321487427
0.004063394066857417 0.004112794463036138 0.002178552094846964
0.004251505144667236 0.0035959635244043908 0.0011258433805778623
0.004439616222477054 0.0030791325857726435 0.001987496390938759
0.0046277273002868725 0.002562301647140896 0.0008309902041219175
0.0048158383780966905 0.0020454707085091487 0.0017096309456974268
0.005192060533716327 0.001011808831245654 0.001912611653096974
0.005380171611526146 0.0004949778926139067 0.0014661336317658424
0.005568282689335964 -2.1853046017840596e-05 0.0008136690012179315
0.005756393767145783 -0.000538683984649588 0.0018571639666333795
0.005944504844955601 -0.0010555149232813353 0.0015821639681234956
0.00613261592276542 -0.0015723458619130825 0.0012040389701724052
0.0066969491561948745 -0.0031228386778083244 0.0013287989422678947
0.006885060234004693 -0.003639669616440072 0.0009506738279014826
-0.0004037695057805172 0.014778133096493014 0.00156491925008595
-0.00021565842797069876 0.014261302157861266 0.0021826124284416437
-2.754735016088034e-05 0.01374447121922952 0.002765760524198413
0.00016056372764893808 0.013227640280597771 0.003143885638564825
0.00034867480545875654 0.012710809341966025 0.003418885637074709
0.0005367858832685749 0.012193978403334277 0.0036595105193555355
0.0007248969610783933 0.011677147464702529 0.00372718321159482
0.0009130080388882118 0.011160316526070782 0.003933432977646589
0.0011011191166980302 0.010643485587439034 0.004139683209359646
0.0012892301945078486 0.010126654648807288 0.004242241848260164
0.001477341272317667 0.00960982371017554 0.004344800021499395
0.0016654523501274856 0.009092992771543794 0.004447358660399914
