ply
format ascii 1.0
element vertex 758
property float x
property float y
property float z
end_header
-0.004278379026800394 0.023149296641349792 -0.10429999977350235
-0.0037257710937410593 0.02310490608215332 -0.10409999638795853
-0.0031783112790435553 0.023082710802555084 -0.10399999469518661
-0.0026344305370002985 0.023082710802555084 -0.10399999469518661
-0.0020905500277876854 0.023082710802555084 -0.10399999469518661
-0.001548156258650124 0.02310490608215332 -0.10409999638795853
-0.0010066452668979764 0.02317149005830288 -0.10439999401569366
-0.00046155520249158144 0.02321588061749935 -0.10459999740123749
8.562671428080648e-05 0.023260271176695824 -0.10480000078678131
0.0006336911465041339 0.023260271176695824 -0.10480000078678131
0.001181755680590868 0.023260271176695824 -0.10480000078678131
0.0017298201564699411 0.023260271176695824 -0.10480000078678131
0.0022778846323490143 0.023260271176695824 -0.10480000078678131
0.0028259488753974438 0.023260271176695824 -0.10480000078678131
0.0033740135841071606 0.023260271176695824 -0.10480000078678131
0.003925820346921682 0.02328246459364891 -0.10489999502897263
-0.004274276550859213 0.022582173347473145 -0.10419999808073044
-0.003722192021086812 0.02253882959485054 -0.10399999469518661
-0.0031783112790435553 0.02253882959485054 -0.10399999469518661
-0.0026344305370002985 0.02253882959485054 -0.10399999469518661
-0.0020905500277876854 0.02253882959485054 -0.10399999469518661
-0.001548156258650124 0.022560501471161842 -0.10409999638795853
-0.0010056811152026057 0.022603847086429596 -0.10429999977350235
-0.0004606726870406419 0.02262551710009575 -0.10439999401569366
8.538159454474226e-05 0.02264718897640705 -0.10449999570846558
0.0006318771629594266 0.02264718897640705 -0.10449999570846558
0.001178372767753899 0.02264718897640705 -0.10449999570846558
0.0017232176614925265 0.02262551710009575 -0.10439999401569366
0.0022691902704536915 0.02262551710009575 -0.10439999401569366
0.00281785917468369 0.02264718897640705 -0.10449999570846558
0.003367574419826269 0.022668860852718353 -0.10459999740123749
0.003918335307389498 0.022690534591674805 -0.1046999990940094
0.004470142535865307 0.022712206467986107 -0.10480000078678131
-0.004828453529626131 0.02207954414188862 -0.10439999401569366
-0.004270174540579319 0.022016098722815514 -0.10409999638795853
-0.0037186131812632084 0.021973799914121628 -0.1039000004529953
-0.0031752553768455982 0.021973799914121628 -0.1039000004529953
-0.0026344305370002985 0.021994948387145996 -0.10399999469518661
-0.0020925600547343493 0.022016098722815514 -0.10409999638795853
-0.001548156258650124 0.022016098722815514 -0.10409999638795853
-0.0010047168470919132 0.022037247195839882 -0.10419999808073044
-0.00046023144386708736 0.0220583975315094 -0.10429999977350235
8.513648208463565e-05 0.022037247195839882 -0.10419999808073044
0.0006294584600254893 0.022016098722815514 -0.10409999638795853
0.001172734540887177 0.021994948387145996 -0.10399999469518661
0.0017166152829304338 0.021994948387145996 -0.10399999469518661
0.002262669615447521 0.022016098722815514 -0.10409999638795853
0.00280976970680058 0.022037247195839882 -0.10419999808073044
0.0033611354883760214 0.02207954414188862 -0.10439999401569366
0.0039145927876234055 0.022121842950582504 -0.10459999740123749
0.004465877078473568 0.022142993286252022 -0.1046999990940094
0.005018206778913736 0.02216414175927639 -0.10480000078678131
0.005571582354605198 0.02218529023230076 -0.10489999502897263
0.00612600427120924 0.022206438705325127 -0.10499999672174454
0.006675114389508963 0.022206438705325127 -0.10499999672174454
0.007224224507808685 0.022206438705325127 -0.10499999672174454
0.007773335557430983 0.022206438705325127 -0.10499999672174454
0.008322445675730705 0.022206438705325127 -0.10499999672174454
0.008871556259691715 0.022206438705325127 -0.10499999672174454
-0.005374426022171974 0.021533571183681488 -0.10439999401569366
-0.004805329255759716 0.021430443972349167 -0.1039000004529953
-0.004253766965121031 0.021389190107584 -0.10369999706745148
-0.003711455035954714 0.021389190107584 -0.10369999706745148
-0.002631897572427988 0.021430443972349167 -0.1039000004529953
-0.0020905500277876854 0.021451067179441452 -0.10399999469518661
-0.001548156258650124 0.021471694111824036 -0.10409999638795853
-0.0010047168470919132 0.02149232104420662 -0.10419999808073044
-0.00045979017158970237 0.02149232104420662 -0.10419999808073044
8.49730713525787e-05 0.021451067179441452 -0.10399999469518661
0.000627644476480782 0.021409817039966583 -0.10379999876022339
0.00116935174446553 0.021389190107584 -0.10369999706745148
0.001711663557216525 0.021389190107584 -0.10369999706745148
0.002253975486382842 0.021389190107584 -0.10369999706745148
0.0027989838272333145 0.021409817039966583 -0.10379999876022339
0.003351476974785328 0.021471694111824036 -0.10409999638795853
0.003907107748091221 0.021533571183681488 -0.10439999401569366
0.004461611621081829 0.021574825048446655 -0.10459999740123749
0.005018206778913736 0.021616077050566673 -0.10480000078678131
0.005571582354605198 0.021636702120304108 -0.10489999502897263
0.00612600427120924 0.02165732905268669 -0.10499999672174454
0.006675114389508963 0.02165732905268669 -0.10499999672174454
0.007224224507808685 0.02165732905268669 -0.10499999672174454
0.007773335557430983 0.02165732905268669 -0.10499999672174454
0.008322445675730705 0.02165732905268669 -0.10499999672174454
0.008871556259691715 0.02165732905268669 -0.10499999672174454
0.009420666843652725 0.02165732905268669 -0.10499999672174454
-0.005348686594516039 0.020887086167931557 -0.1039000004529953
-0.004786828998476267 0.020806672051548958 -0.10349999368190765
-0.004245562478899956 0.020806672051548958 -0.10349999368190765
-0.0037042968906462193 0.020806672051548958 -0.10349999368190765
-0.003166086971759796 0.020826775580644608 -0.10359999537467957
-0.0026268314104527235 0.020846879109740257 -0.10369999706745148
-0.002086529741063714 0.020866982638835907 -0.10379999876022339
-0.001548156258650124 0.020927291363477707 -0.10409999638795853
-0.0010037526953965425 0.020927291363477707 -0.10409999638795853
-0.00045934889931231737 0.020927291363477707 -0.10409999638795853
8.489136962452903e-05 0.020887086167931557 -0.1039000004529953
0.000627644476480782 0.020866982638835907 -0.10379999876022339
0.0011682240292429924 0.020826775580644608 -0.10359999537467957
0.0017100130207836628 0.020826775580644608 -0.10359999537467957
0.002253975486382842 0.020846879109740257 -0.10369999706745148
0.0027962871827185154 0.020846879109740257 -0.10369999706745148
0.0038996231742203236 0.020947394892573357 -0.10419999808073044
0.00445734616369009 0.021007703617215157 -0.10449999570846558
0.005013418383896351 0.021047908812761307 -0.1046999990940094
0.005571582354605198 0.021088114008307457 -0.10489999502897263
0.006120170000940561 0.021088114008307457 -0.10489999502897263
0.00666875671595335 0.021088114008307457 -0.10489999502897263
0.007224224507808685 0.021108217537403107 -0.10499999672174454
0.007765932474285364 0.021088114008307457 -0.10489999502897263
0.008314520120620728 0.021088114008307457 -0.10489999502897263
0.008863107301294804 0.021088114008307457 -0.10489999502897263
0.00941169448196888 0.021088114008307457 -0.10489999502897263
0.009960281662642956 0.021088114008307457 -0.10489999502897263
-0.005333242937922478 0.02028498612344265 -0.10359999537467957
-0.004782204050570726 0.020245827734470367 -0.10339999943971634
-0.004241460934281349 0.020245827734470367 -0.10339999943971634
-0.0037007180508226156 0.020245827734470367 -0.10339999943971634
-0.0031599749345332384 0.020245827734470367 -0.10339999943971634
-0.0026217650156468153 0.020265405997633934 -0.10349999368190765
-0.0020845194812864065 0.020304566249251366 -0.10369999706745148
-0.0015436947578564286 0.02032414637506008 -0.10379999876022339
-0.0010037526953965425 0.02038288675248623 -0.10409999638795853
-0.00045979017158970237 0.020402466878294945 -0.10419999808073044
8.505477308062837e-05 0.02038288675248623 -0.10409999638795853
0.00116935174446553 0.020304566249251366 -0.10369999706745148
0.001711663557216525 0.020304566249251366 -0.10369999706745148
0.002253975486382842 0.020304566249251366 -0.10369999706745148
0.0027962871827185154 0.020304566249251366 -0.10369999706745148
0.003341818694025278 0.02032414637506008 -0.10379999876022339
0.0038958806544542313 0.02038288675248623 -0.10409999638795853
0.004453080706298351 0.020441627129912376 -0.10439999401569366
0.005008629988878965 0.020480787381529808 -0.10459999740123749
0.005566271021962166 0.02051994949579239 -0.10480000078678131
0.006120170000940561 0.020539527758955956 -0.10489999502897263
0.00666875671595335 0.020539527758955956 -0.10489999502897263
0.007224224507808685 0.02055910788476467 -0.10499999672174454
0.007773335557430983 0.02055910788476467 -0.10499999672174454
0.008322445675730705 0.02055910788476467 -0.10499999672174454
0.008863107301294804 0.020539527758955956 -0.10489999502897263
0.00941169448196888 0.020539527758955956 -0.10489999502897263
0.009960281662642956 0.020539527758955956 -0.10489999502897263
0.010508868843317032 0.020539527758955956 -0.10489999502897263
-0.005886373575776815 0.019781311973929405 -0.10379999876022339
-0.005322947166860104 0.01970508322119713 -0.10339999943971634
-0.004777579102665186 0.019686026498675346 -0.10329999774694443
-0.004237358924001455 0.019686026498675346 -0.10329999774694443
-0.002619232051074505 0.01970508322119713 -0.10339999943971634
-0.002080499194562435 0.01972413994371891 -0.10349999368190765
-0.0015422075521200895 0.019762255251407623 -0.10369999706745148
-0.0010008600074797869 0.019781311973929405 -0.10379999876022339
-0.00045934889931231737 0.0198384840041399 -0.10409999638795853
0.0017133142100647092 0.019781311973929405 -0.10379999876022339
0.002256148960441351 0.019781311973929405 -0.10379999876022339
0.0027989838272333145 0.019781311973929405 -0.10379999876022339
0.003341818694025278 0.019781311973929405 -0.10379999876022339
0.0038958806544542313 0.0198384840041399 -0.10409999638795853
0.004453080706298351 0.019895654171705246 -0.10439999401569366
0.005566271021962166 0.019971884787082672 -0.10480000078678131
0.006120170000940561 0.019990939646959305 -0.10489999502897263
0.00666875671595335 0.019990939646959305 -0.10489999502897263
0.007224224507808685 0.020009998232126236 -0.10499999672174454
0.007773335557430983 0.020009998232126236 -0.10499999672174454
0.008322445675730705 0.020009998232126236 -0.10499999672174454
0.008871556259691715 0.020009998232126236 -0.10499999672174454
0.00941169448196888 0.019990939646959305 -0.10489999502897263
0.009960281662642956 0.019990939646959305 -0.10489999502897263
0.010508868843317032 0.019990939646959305 -0.10489999502897263
0.011057456023991108 0.019990939646959305 -0.10489999502897263
0.011606044135987759 0.019990939646959305 -0.10489999502897263
-0.005886373575776815 0.01923847757279873 -0.10379999876022339
-0.005322947166860104 0.01916434057056904 -0.10339999943971634
-0.004777579102665186 0.01914580725133419 -0.10329999774694443
-0.0036935596726834774 0.019127272069454193 -0.10319999605417252
-0.0031538628973066807 0.019127272069454193 -0.10319999605417252
-0.0026166988536715508 0.01914580725133419 -0.10329999774694443
-0.0020784891676157713 0.01916434057056904 -0.10339999943971634
-0.001537746051326394 0.01916434057056904 -0.10339999943971634
-0.0009989315876737237 0.019201409071683884 -0.10359999537467957
-0.0004584664129652083 0.019257012754678726 -0.1039000004529953
0.0011761174537241459 0.019331147894263268 -0.10429999977350235
0.0017182659357786179 0.019294079393148422 -0.10409999638795853
0.002262669615447521 0.019294079393148422 -0.10409999638795853
0.0028043766506016254 0.019275546073913574 -0.10399999469518661
0.003351476974785328 0.019294079393148422 -0.10409999638795853
0.0038996231742203236 0.01931261457502842 -0.10419999808073044
0.004453080706298351 0.019349681213498116 -0.10439999401569366
0.005008629988878965 0.01938675157725811 -0.10459999740123749
0.005566271021962166 0.019423820078372955 -0.10480000078678131
0.006120170000940561 0.019442353397607803 -0.10489999502897263
0.00666875671595335 0.019442353397607803 -0.10489999502897263
0.007224224507808685 0.01946088671684265 -0.10499999672174454
0.007773335557430983 0.01946088671684265 -0.10499999672174454
0.008322445675730705 0.01946088671684265 -0.10499999672174454
0.008871556259691715 0.01946088671684265 -0.10499999672174454
0.00941169448196888 0.019442353397607803 -0.10489999502897263
0.009960281662642956 0.019442353397607803 -0.10489999502897263
0.010508868843317032 0.019442353397607803 -0.10489999502897263
0.011046916246414185 0.019423820078372955 -0.10480000078678131
0.011594980023801327 0.019423820078372955 -0.10480000078678131
0.012154631316661835 0.019442353397607803 -0.10489999502897263
0.012715328484773636 0.01946088671684265 -0.10499999672174454
-0.005880702752619982 0.01867763139307499 -0.10369999706745148
-0.005322947166860104 0.01862359791994095 -0.10339999943971634
-0.0047729541547596455 0.018587574362754822 -0.10319999605417252
-0.0042291549034416676 0.018569564446806908 -0.1030999943614006
-0.00368998060002923 0.018569564446806908 -0.1030999943614006
-0.003147750860080123 0.018551552668213844 -0.10300000011920929
-0.0026065665297210217 0.01853354275226593 -0.10289999842643738
-0.0020724586211144924 0.018569564446806908 -0.1030999943614006
-0.001536258845590055 0.018605586141347885 -0.10329999774694443
-0.0009970031678676605 0.01862359791994095 -0.10339999943971634
0.0011772450525313616 0.018803710117936134 -0.10439999401569366
0.0017232176614925265 0.018803710117936134 -0.10439999401569366
0.00226484308950603 0.018767688423395157 -0.10419999808073044
0.0028070732951164246 0.018749676644802094 -0.10409999638795853
0.0033546965569257736 0.018767688423395157 -0.10419999808073044
0.003907107748091221 0.018803710117936134 -0.10439999401569366
0.004461611621081829 0.018839731812477112 -0.10459999740123749
0.005018206778913736 0.01887575536966324 -0.10480000078678131
0.00557689368724823 0.018911777064204216 -0.10499999672174454
0.006131838541477919 0.01892978884279728 -0.10509999841451645
0.006681471597403288 0.01892978884279728 -0.10509999841451645
0.007231104653328657 0.01892978884279728 -0.10509999841451645
0.007773335557430983 0.018911777064204216 -0.10499999672174454
0.008322445675730705 0.018911777064204216 -0.10499999672174454
0.008863107301294804 0.018893765285611153 -0.10489999502897263
0.00941169448196888 0.018893765285611153 -0.10489999502897263
0.009960281662642956 0.018893765285611153 -0.10489999502897263
0.010498851537704468 0.01887575536966324 -0.10480000078678131
0.011046916246414185 0.01887575536966324 -0.10480000078678131
0.011583915911614895 0.018857743591070175 -0.1046999990940094
0.012143044732511044 0.01887575536966324 -0.10480000078678131
0.01270321849733591 0.018893765285611153 -0.10489999502897263
0.013251805678009987 0.018893765285611153 -0.10489999502897263
-0.005880702752619982 0.018135320395231247 -0.10369999706745148
-0.005322947166860104 0.01808285526931286 -0.10339999943971634
-0.0047729541547596455 0.0180478785187006 -0.10319999605417252
-0.0042291549034416676 0.01803039014339447 -0.1030999943614006
-0.003682822687551379 0.01799541339278221 -0.10289999842643738
-0.003138582454994321 0.017960436642169952 -0.10269999504089355
-0.0025989674031734467 0.017942950129508972 -0.10260000079870224
-0.002062408020719886 0.017942950129508972 -0.10260000079870224
-0.0015273357275873423 0.017960436642169952 -0.10269999504089355
-0.0009931463282555342 0.01801290176808834 -0.10300000011920929
0.0006270398152992129 0.018135320395231247 -0.10369999706745148
0.001172734540887177 0.018187783658504486 -0.10399999469518661
0.0017182659357786179 0.018205272033810616 -0.10409999638795853
0.002262669615447521 0.018205272033810616 -0.10409999638795853
0.0028070732951164246 0.018205272033810616 -0.10409999638795853
0.003351476974785328 0.018205272033810616 -0.10409999638795853
0.003903365693986416 0.018240248784422874 -0.10429999977350235
0.004461611621081829 0.018292713910341263 -0.10459999740123749
0.0050229947082698345 0.01834517903625965 -0.10489999502897263
0.00557689368724823 0.01836266741156578 -0.10499999672174454
0.006131838541477919 0.01838015578687191 -0.10509999841451645
0.006681471597403288 0.01838015578687191 -0.10509999841451645
0.007224224507808685 0.01836266741156578 -0.10499999672174454
0.007765932474285364 0.01834517903625965 -0.10489999502897263
0.008306593634188175 0.01832769066095352 -0.10480000078678131
0.00884620938450098 0.018310202285647392 -0.1046999990940094
0.009393750689923763 0.018310202285647392 -0.1046999990940094
0.009931797161698341 0.018292713910341263 -0.10459999740123749
0.01047881506383419 0.018292713910341263 -0.10459999740123749
0.011015292257070541 0.018275225535035133 -0.10449999570846558
0.0115507235750556 0.018257737159729004 -0.10439999401569366
0.012108284048736095 0.018275225535035133 -0.10449999570846558
0.01266688946634531 0.018292713910341263 -0.10459999740123749
0.01321390736848116 0.018292713910341263 -0.10459999740123749
0.01378723792731762 0.01832769066095352 -0.10480000078678131
-0.005875031463801861 0.01757604256272316 -0.10359999537467957
-0.0053177992813289165 0.017525145784020424 -0.10329999774694443
-0.0047729541547596455 0.01750818081200123 -0.10319999605417252
-0.004225052893161774 0.017474250867962837 -0.10300000011920929
-0.003679243614897132 0.017440320923924446 -0.10279999673366547
-0.003132470417767763 0.01738942414522171 -0.10249999910593033
-0.0025939010083675385 0.017372459173202515 -0.10239999741315842
-0.002054367447271943 0.017338527366518974 -0.1021999940276146
-0.0015198998153209686 0.017338527366518974 -0.1021999940276146
-0.0009873609524220228 0.017372459173202515 -0.10239999741315842
-0.0004536125634331256 0.017440320923924446 -0.10279999673366547
0.0017083623679354787 0.017559075728058815 -0.10349999368190765
0.0022518017794936895 0.01757604256272316 -0.10359999537467957
0.0027935905382037163 0.01757604256272316 -0.10359999537467957
0.0033353797625750303 0.01757604256272316 -0.10359999537467957
0.0038846535608172417 0.01760997250676155 -0.10379999876022339
0.004440284334123135 0.017660869285464287 -0.10409999638795853
0.00500384159386158 0.01772872917354107 -0.10449999570846558
0.005571582354605198 0.017796590924263 -0.10489999502897263
0.00612600427120924 0.017813555896282196 -0.10499999672174454
0.006675114389508963 0.017813555896282196 -0.10499999672174454
0.0072173443622887135 0.017796590924263 -0.10489999502897263
0.007751126307994127 0.01776266098022461 -0.1046999990940094
0.008282815106213093 0.01772872917354107 -0.10449999570846558
0.00881241261959076 0.017694799229502678 -0.10429999977350235
0.009357862174510956 0.017694799229502678 -0.10429999977350235
0.009903311729431152 0.017694799229502678 -0.10429999977350235
0.01043874304741621 0.017677834257483482 -0.10419999808073044
0.010994210839271545 0.017694799229502678 -0.10429999977350235
0.011539660394191742 0.017694799229502678 -0.10429999977350235
0.01264266949146986 0.017711764201521873 -0.10439999401569366
0.013188641518354416 0.017711764201521873 -0.10439999401569366
0.013734614476561546 0.017711764201521873 -0.10439999401569366
0.014294265769422054 0.01772872917354107 -0.10449999570846558
0.014840761199593544 0.01772872917354107 -0.10449999570846558
0.015387256629765034 0.01772872917354107 -0.10449999570846558
-0.006497340276837349 0.01724800281226635 -0.10489999502897263
-0.005880702752619982 0.017050696536898613 -0.10369999706745148
-0.0053177992813289165 0.016984926536679268 -0.10329999774694443
-0.0047729541547596455 0.016968484967947006 -0.10319999605417252
-0.00422095088288188 0.016919158399105072 -0.10289999842643738
-0.0036756645422428846 0.01688627153635025 -0.10269999504089355
-0.0031294142827391624 0.016836944967508316 -0.10239999741315842
-0.0025888346135616302 0.016804059967398643 -0.1021999940276146
-0.002054367447271943 0.016804059967398643 -0.1021999940276146
-0.0009844682645052671 0.016787618398666382 -0.10209999978542328
-0.000451406289357692 0.016820503398776054 -0.1022999957203865
8.374750177608803e-05 0.016853388398885727 -0.10249999910593033
0.0006222024676389992 0.016919158399105072 -0.10289999842643738
0.0011637135175988078 0.016968484967947006 -0.10319999605417252
0.0017050612950697541 0.016984926536679268 -0.10329999774694443
0.002247454831376672 0.01700136996805668 -0.10339999943971634
0.0027881977148354053 0.01700136996805668 -0.10339999943971634
0.0033289408311247826 0.01700136996805668 -0.10339999943971634
0.004414692055433989 0.01701781153678894 -0.10349999368190765
0.0055397143587470055 0.01714934967458248 -0.10429999977350235
0.006108501460403204 0.017215119674801826 -0.1046999990940094
0.006649685092270374 0.017198676243424416 -0.10459999740123749
0.007196703925728798 0.017198676243424416 -0.10459999740123749
0.007714110426604748 0.01713290810585022 -0.10419999808073044
0.008251111023128033 0.01711646467447281 -0.10409999638795853
0.008778616786003113 0.017083581537008286 -0.1039000004529953
0.009330946020781994 0.017100023105740547 -0.10399999469518661
0.009874826297163963 0.017100023105740547 -0.10399999469518661
0.010428724810481071 0.01711646467447281 -0.10409999638795853
0.010973128490149975 0.01711646467447281 -0.10409999638795853
0.01152859628200531 0.01713290810585022 -0.10419999808073044
0.012073523364961147 0.01713290810585022 -0.10419999808073044
0.013188641518354416 0.017165791243314743 -0.10439999401569366
0.013734614476561546 0.017165791243314743 -0.10439999401569366
0.014280586503446102 0.017165791243314743 -0.10439999401569366
0.014826559461653233 0.017165791243314743 -0.10439999401569366
0.015372531488537788 0.017165791243314743 -0.10439999401569366
0.01591850444674492 0.017165791243314743 -0.10439999401569366
0.016480248421430588 0.017182234674692154 -0.10449999570846558
-0.0065035345032811165 0.016715336591005325 -0.10499999672174454
-0.005880702752619982 0.01650838367640972 -0.10369999706745148
-0.005312650930136442 0.016428787261247635 -0.10319999605417252
-0.004768329206854105 0.016412867233157158 -0.1030999943614006
-0.00422095088288188 0.016381029039621353 -0.10289999842643738
-0.0036756645422428846 0.01634919084608555 -0.10269999504089355
-0.0031294142827391624 0.016301432624459267 -0.10239999741315842
-0.0025888346135616302 0.016269592568278313 -0.1021999940276146
-0.0020523574203252792 0.016253674402832985 -0.10209999978542328
-0.0015169255202636123 0.016237754374742508 -0.10199999809265137
-0.000982539844699204 0.01622183620929718 -0.10189999639987946
-0.00045008250162936747 0.016237754374742508 -0.10199999809265137
8.342068031197414e-05 0.016253674402832985 -0.10209999978542328
0.0006185744423419237 0.01628551259636879 -0.1022999957203865
0.0016968082636594772 0.016365109011530876 -0.10279999673366547
0.0022387607023119926 0.01639694906771183 -0.10300000011920929
0.0027801080141216516 0.016412867233157158 -0.1030999943614006
0.003319282317534089 0.016412867233157158 -0.1030999943614006
0.0038621986750513315 0.016428787261247635 -0.10319999605417252
0.004401895683258772 0.016428787261247635 -0.10319999605417252
0.004951169714331627 0.01646062731742859 -0.10339999943971634
0.005491912364959717 0.01646062731742859 -0.10339999943971634
0.00659246975556016 0.01650838367640972 -0.10369999706745148
0.007134781684726477 0.01650838367640972 -0.10369999706745148
0.007677094545215368 0.01650838367640972 -0.10369999706745148
0.008219406008720398 0.01650838367640972 -0.10369999706745148
0.008761717937886715 0.01650838367640972 -0.10369999706745148
0.009313002228736877 0.0165243037045002 -0.10379999876022339
0.009855836629867554 0.0165243037045002 -0.10379999876022339
0.010408689267933369 0.016540223732590675 -0.1039000004529953
0.010973128490149975 0.01657206192612648 -0.10409999638795853
0.01152859628200531 0.016587981954216957 -0.10419999808073044
0.01209669653326273 0.016619818285107613 -0.10439999401569366
0.012654779478907585 0.01663573831319809 -0.10449999570846558
0.01321390736848116 0.016651658341288567 -0.10459999740123749
0.013760926201939583 0.016651658341288567 -0.10459999740123749
0.014294265769422054 0.01663573831319809 -0.10449999570846558
0.014826559461653233 0.016619818285107613 -0.10439999401569366
0.015372531488537788 0.016619818285107613 -0.10439999401569366
0.01591850444674492 0.016619818285107613 -0.10439999401569366
0.01646447740495205 0.016619818285107613 -0.10439999401569366
-0.006509728264063597 0.016181621700525284 -0.10509999841451645
-0.005875031463801861 0.015950676053762436 -0.10359999537467957
-0.005312650930136442 0.015889089554548264 -0.10319999605417252
-0.0047637042589485645 0.015858298167586327 -0.10300000011920929
-0.00422095088288188 0.015842901542782784 -0.10289999842643738
-0.0036756645422428846 0.015812108293175697 -0.10269999504089355
-0.0031294142827391624 0.015765918418765068 -0.10239999741315842
-0.0025888346135616302 0.015735125169157982 -0.1021999940276146
-0.0020503471605479717 0.015704333782196045 -0.10199999809265137
-0.0015154383145272732 0.015688937157392502 -0.10189999639987946
-0.000982539844699204 0.015688937157392502 -0.10189999639987946
-0.00044964125845581293 0.015688937157392502 -0.10189999639987946
8.325726957991719e-05 0.015688937157392502 -0.10189999639987946
0.0006167604587972164 0.015704333782196045 -0.10199999809265137
0.0011513096978887916 0.015719730406999588 -0.10209999978542328
0.001686904695816338 0.015735125169157982 -0.1021999940276146
0.0027639290783554316 0.01578131504356861 -0.10249999910593033
0.0033031851053237915 0.015796711668372154 -0.10260000079870224
0.0038434865418821573 0.015812108293175697 -0.10269999504089355
0.004932016134262085 0.015858298167586327 -0.10300000011920929
0.005481289699673653 0.015889089554548264 -0.10319999605417252
0.006026821676641703 0.015904486179351807 -0.10329999774694443
0.006573398597538471 0.01591988280415535 -0.10339999943971634
0.007121020928025246 0.015935279428958893 -0.10349999368190765
0.007662287913262844 0.015935279428958893 -0.10349999368190765
0.008761717937886715 0.01596607267856598 -0.10369999706745148
0.009304029867053032 0.01596607267856598 -0.10369999706745148
0.009855836629867554 0.015981469303369522 -0.10379999876022339
0.010398671962320805 0.015981469303369522 -0.10379999876022339
0.010962587781250477 0.01601226069033146 -0.10399999469518661
0.011539660394191742 0.01605845056474209 -0.10429999977350235
0.012119870632886887 0.016104640439152718 -0.10459999740123749
0.012678999453783035 0.01612003706395626 -0.1046999990940094
0.013239173218607903 0.016135433688759804 -0.10480000078678131
0.014321623370051384 0.01612003706395626 -0.1046999990940094
0.014869164675474167 0.01612003706395626 -0.1046999990940094
0.015401981770992279 0.016104640439152718 -0.10459999740123749
0.015933752059936523 0.016089243814349174 -0.10449999570846558
0.016480248421430588 0.016089243814349174 -0.10449999570846558
0.017043037340044975 0.016104640439152718 -0.10459999740123749
-0.006509728264063597 0.015631988644599915 -0.10509999841451645
-0.005875031463801861 0.015408886596560478 -0.10359999537467957
-0.005307503044605255 0.015334519557654858 -0.1030999943614006
-0.004759079311043024 0.01530477311462164 -0.10289999842643738
-0.004212746862322092 0.015275025740265846 -0.10269999504089355
-0.003672085702419281 0.015260153450071812 -0.10260000079870224
-0.0031294142827391624 0.015230406075716019 -0.10239999741315842
-0.0025888346135616302 0.015200658701360226 -0.1021999940276146
-0.0020503471605479717 0.015170912258327007 -0.10199999809265137
-0.0015154383145272732 0.015156038105487823 -0.10189999639987946
-0.000982539844699204 0.015156038105487823 -0.10189999639987946
-0.00044919998617842793 0.015141164883971214 -0.10179999470710754
8.317556057590991e-05 0.015141164883971214 -0.10179999470710754
0.0006155511364340782 0.015141164883971214 -0.10179999470710754
0.0011479266686365008 0.015141164883971214 -0.10179999470710754
0.0016803023172542453 0.015141164883971214 -0.10179999470710754
0.002750446554273367 0.015170912258327007 -0.10199999809265137
0.0032838680781424046 0.015170912258327007 -0.10199999809265137
0.0038210321217775345 0.015185785479843616 -0.10209999978542328
0.004354976583272219 0.015185785479843616 -0.10209999978542328
0.004893708974123001 0.015200658701360226 -0.1021999940276146
0.005428176373243332 0.015200658701360226 -0.1021999940276146
0.005974312778562307 0.015230406075716019 -0.10239999741315842
0.007086620666086674 0.015319647267460823 -0.10300000011920929
0.007654884830117226 0.01537914015352726 -0.10339999943971634
0.008761717937886715 0.015423760749399662 -0.10369999706745148
0.009313002228736877 0.015438633970916271 -0.10379999876022339
0.009855836629867554 0.015438633970916271 -0.10379999876022339
0.010398671962320805 0.015438633970916271 -0.10379999876022339
0.010962587781250477 0.01546838041394949 -0.10399999469518661
0.011539660394191742 0.015513001941144466 -0.10429999977350235
0.012131458148360252 0.015572494827210903 -0.1046999990940094
0.01270321849733591 0.015602241270244122 -0.10489999502897263
0.013251805678009987 0.015602241270244122 -0.10489999502897263
0.013800392858684063 0.015602241270244122 -0.10489999502897263
0.014348980039358139 0.015602241270244122 -0.10489999502897263
0.014897567220032215 0.015602241270244122 -0.10489999502897263
0.015446155332028866 0.015602241270244122 -0.10489999502897263
0.015964247286319733 0.015572494827210903 -0.1046999990940094
0.016511788591742516 0.015572494827210903 -0.1046999990940094
0.0170593298971653 0.015572494827210903 -0.1046999990940094
-0.006515922024846077 0.015096706338226795 -0.10520000010728836
-0.005880702752619982 0.014881448820233345 -0.10369999706745148
-0.005307503044605255 0.01479534525424242 -0.1030999943614006
-0.004754454363137484 0.014752293936908245 -0.10279999673366547
-0.004212746862322092 0.014737943187355995 -0.10269999504089355
-0.0036685066297650337 0.014709243550896645 -0.10249999910593033
-0.0031294142827391624 0.014694892801344395 -0.10239999741315842
-0.0025888346135616302 0.014666191302239895 -0.1021999940276146
-0.0020503471605479717 0.01463749073445797 -0.10199999809265137
-0.0015154383145272732 0.01462313998490572 -0.10189999639987946
-0.0009815755765885115 0.01460878923535347 -0.10179999470710754
-0.00044919998617842793 0.01460878923535347 -0.10179999470710754
8.309385884786025e-05 0.014594439417123795 -0.10170000046491623
0.00061434181407094 0.014580088667571545 -0.10159999877214432
0.0011456714710220695 0.014580088667571545 -0.10159999877214432
0.0016753505915403366 0.014565737918019295 -0.1014999970793724
0.00220833090133965 0.014580088667571545 -0.10159999877214432
0.0027423568535596132 0.014594439417123795 -0.10170000046491623
0.003277428913861513 0.01460878923535347 -0.10179999470710754
0.0038098045624792576 0.01460878923535347 -0.10179999470710754
0.004879343789070845 0.01462313998490572 -0.10189999639987946
0.005412242375314236 0.01462313998490572 -0.10189999639987946
0.005945141427218914 0.01462313998490572 -0.10189999639987946
0.006478039547801018 0.01462313998490572 -0.10189999639987946
0.0070246984250843525 0.01465184148401022 -0.10209999978542328
0.007610465865582228 0.014752293936908245 -0.10279999673366547
0.008195627480745316 0.01483839750289917 -0.10339999943971634
0.008744819089770317 0.014852747321128845 -0.10349999368190765
0.009304029867053032 0.014881448820233345 -0.10369999706745148
0.009855836629867554 0.014895799569785595 -0.10379999876022339
0.010398671962320805 0.014895799569785595 -0.10379999876022339
0.01094150636345148 0.014895799569785595 -0.10379999876022339
0.01152859628200531 0.01495320163667202 -0.10419999808073044
0.012131458148360252 0.01502495352178812 -0.1046999990940094
0.01270321849733591 0.015053654089570045 -0.10489999502897263
0.013264439068734646 0.015068004839122295 -0.10499999672174454
0.013813548721373081 0.015068004839122295 -0.10499999672174454
0.014362659305334091 0.015068004839122295 -0.10499999672174454
0.014911769889295101 0.015068004839122295 -0.10499999672174454
0.015446155332028866 0.015053654089570045 -0.10489999502897263
0.015979494899511337 0.01503930427134037 -0.10480000078678131
0.016511788591742516 0.01502495352178812 -0.1046999990940094
0.017043037340044975 0.01501060277223587 -0.10459999740123749
0.017573239281773567 0.01499625202268362 -0.10449999570846558
-0.005880702752619982 0.014339136891067028 -0.10369999706745148
-0.005307503044605255 0.014256171882152557 -0.1030999943614006
-0.004749829415231943 0.014200861565768719 -0.10269999504089355
-0.004208644852042198 0.014187035150825977 -0.10260000079870224
-0.0036649275571107864 0.01415937952697277 -0.10239999741315842
-0.0031263581477105618 0.01414555124938488 -0.1022999957203865
-0.0025888346135616302 0.014131723903119564 -0.1021999940276146
-0.0020523574203252792 0.014117896556854248 -0.10209999978542328
-0.0015154383145272732 0.014090241864323616 -0.10189999639987946
-0.000982539844699204 0.014090241864323616 -0.10189999639987946
-0.00044919998617842793 0.014076413586735725 -0.10179999470710754
8.309385884786025e-05 0.014062587171792984 -0.10170000046491623
0.00061434181407094 0.014048758894205093 -0.10159999877214432
0.0011445438722148538 0.014034931547939777 -0.1014999970793724
0.0016736999386921525 0.014021104201674461 -0.1013999953866005
0.0022039837203919888 0.014021104201674461 -0.1013999953866005
0.0027369637973606586 0.014034931547939777 -0.1014999970793724
0.003270990215241909 0.014048758894205093 -0.10159999877214432
0.003806062275543809 0.014062587171792984 -0.10170000046491623
0.004337914753705263 0.014062587171792984 -0.10170000046491623
0.004874555394053459 0.014076413586735725 -0.10179999470710754
0.005401620175689459 0.014062587171792984 -0.10170000046491623
0.006471681874245405 0.014076413586735725 -0.10179999470710754
0.00873637106269598 0.01429765485227108 -0.10339999943971634
0.009846341796219349 0.014339136891067028 -0.10369999706745148
0.010388653725385666 0.014339136891067028 -0.10369999706745148
0.01094150636345148 0.014352964237332344 -0.10379999876022339
0.01152859628200531 0.014408274553716183 -0.10419999808073044
0.012131458148360252 0.014477412216365337 -0.1046999990940094
0.01270321849733591 0.01450506690889597 -0.10489999502897263
0.013264439068734646 0.014518894255161285 -0.10499999672174454
0.013813548721373081 0.014518894255161285 -0.10499999672174454
0.014362659305334091 0.014518894255161285 -0.10499999672174454
0.014911769889295101 0.014518894255161285 -0.10499999672174454
0.015446155332028866 0.01450506690889597 -0.10489999502897263
0.015964247286319733 0.014477412216365337 -0.1046999990940094
0.016496017575263977 0.014463584870100021 -0.10459999740123749
0.017026742920279503 0.01444975659251213 -0.10449999570846558
0.01755642145872116 0.014435929246246815 -0.10439999401569366
-0.005312650930136442 0.013730302453041077 -0.10319999605417252
-0.004749829415231943 0.013663779012858868 -0.10269999504089355
-0.004208644852042198 0.013650475069880486 -0.10260000079870224
-0.0036649275571107864 0.013623866252601147 -0.10239999741315842
-0.0031263581477105618 0.01361056137830019 -0.1022999957203865
-0.0025888346135616302 0.013597256503999233 -0.1021999940276146
-0.0020523574203252792 0.013583952561020851 -0.10209999978542328
-0.0015169255202636123 0.013570647686719894 -0.10199999809265137
-0.000982539844699204 0.013557342812418938 -0.10189999639987946
-0.00044964125845581293 0.013557342812418938 -0.10189999639987946
8.317556057590991e-05 0.013544037938117981 -0.10179999470710754
0.0006149464752525091 0.013530733995139599 -0.10170000046491623
0.0011445438722148538 0.01350412517786026 -0.1014999970793724
0.0016736999386921525 0.013490820303559303 -0.1013999953866005
0.0022039837203919888 0.013490820303559303 -0.1013999953866005
0.0027369637973606586 0.01350412517786026 -0.1014999970793724
0.003270990215241909 0.013517430052161217 -0.10159999877214432
0.004333649296313524 0.013517430052161217 -0.10159999877214432
0.0048649790696799755 0.013517430052161217 -0.10159999877214432
0.0053963083773851395 0.013517430052161217 -0.10159999877214432
0.005933472886681557 0.013530733995139599 -0.10170000046491623
0.006465325132012367 0.013530733995139599 -0.10170000046491623
0.00700405752286315 0.013544037938117981 -0.10179999470710754
0.007551240269094706 0.013570647686719894 -0.10199999809265137
0.008140144869685173 0.013663779012858868 -0.10269999504089355
0.00873637106269598 0.01375691220164299 -0.10339999943971634
0.009286085143685341 0.013770215213298798 -0.10349999368190765
0.009846341796219349 0.013796824961900711 -0.10369999706745148
0.010398671962320805 0.013810129836201668 -0.10379999876022339
0.01094150636345148 0.013810129836201668 -0.10379999876022339
0.011517532169818878 0.013850043527781963 -0.10409999638795853
0.012119870632886887 0.013916566036641598 -0.10459999740123749
0.013264439068734646 0.01396978460252285 -0.10499999672174454
0.013813548721373081 0.01396978460252285 -0.10499999672174454
0.014362659305334091 0.01396978460252285 -0.10499999672174454
0.014897567220032215 0.013956479728221893 -0.10489999502897263
0.015446155332028866 0.013956479728221893 -0.10489999502897263
0.015964247286319733 0.013929870910942554 -0.1046999990940094
0.016496017575263977 0.013916566036641598 -0.10459999740123749
0.01701044850051403 0.013889956288039684 -0.10439999401569366
0.017539605498313904 0.013876653276383877 -0.10429999977350235
-0.0053177992813289165 0.013203387148678303 -0.10329999774694443
-0.004749829415231943 0.013126697391271591 -0.10269999504089355
-0.004204542841762304 0.013101134449243546 -0.10249999910593033
-0.0036649275571107864 0.013088352978229523 -0.10239999741315842
-0.0031294142827391624 0.013088352978229523 -0.10239999741315842
-0.0025888346135616302 0.013062789104878902 -0.1021999940276146
-0.002054367447271943 0.013062789104878902 -0.1021999940276146
-0.0015184127259999514 0.013050008565187454 -0.10209999978542328
-0.0009844682645052671 0.013050008565187454 -0.10209999978542328
-0.00045008250162936747 0.013037226162850857 -0.10199999809265137
8.333897130796686e-05 0.013037226162850857 -0.10199999809265137
0.0006161557976156473 0.013024444691836834 -0.10189999639987946
0.0011479266686365008 0.013011662289500237 -0.10179999470710754
0.001678651780821383 0.012998881749808788 -0.10170000046491623
0.00220833090133965 0.012986100278794765 -0.10159999877214432
0.0027423568535596132 0.012998881749808788 -0.10170000046491623
0.0032742097973823547 0.012998881749808788 -0.10170000046491623
0.006471681874245405 0.013011662289500237 -0.10179999470710754
0.0070109376683831215 0.013024444691836834 -0.10189999639987946
0.00814807042479515 0.013139478862285614 -0.10279999673366547
0.00873637106269598 0.013216168619692326 -0.10339999943971634
0.009286085143685341 0.013228950090706348 -0.10349999368190765
0.009855836629867554 0.013267295435070992 -0.10379999876022339
0.010398671962320805 0.013267295435070992 -0.10379999876022339
0.01094150636345148 0.013267295435070992 -0.10379999876022339
0.011517532169818878 0.01330563984811306 -0.10409999638795853
0.01209669653326273 0.013343984261155128 -0.10439999401569366
0.012678999453783035 0.013382329605519772 -0.1046999990940094
0.013239173218607903 0.013395111076533794 -0.10480000078678131
0.013800392858684063 0.013407892547547817 -0.10489999502897263
0.014348980039358139 0.013407892547547817 -0.10489999502897263
0.014897567220032215 0.013407892547547817 -0.10489999502897263
0.015446155332028866 0.013407892547547817 -0.10489999502897263
0.015964247286319733 0.013382329605519772 -0.1046999990940094
0.016496017575263977 0.013369548134505749 -0.10459999740123749
0.01701044850051403 0.013343984261155128 -0.10439999401569366
0.01750597171485424 0.01330563984811306 -0.10409999638795853
-0.0053177992813289165 0.012663166038691998 -0.10329999774694443
-0.004749829415231943 0.012589613907039165 -0.10269999504089355
-0.004208644852042198 0.012577355839312077 -0.10260000079870224
-0.0036649275571107864 0.012552838772535324 -0.10239999741315842
-0.0031294142827391624 0.012552838772535324 -0.10239999741315842
-0.0025913678109645844 0.01254057977348566 -0.1022999957203865
-0.002054367447271943 0.012528320774435997 -0.1021999940276146
-0.0015198998153209686 0.012528320774435997 -0.1021999940276146
-0.0009854324162006378 0.012528320774435997 -0.1021999940276146
-0.000450965017080307 0.012528320774435997 -0.1021999940276146
8.35023820400238e-05 0.012528320774435997 -0.1021999940276146
0.0006179697811603546 0.012528320774435997 -0.1021999940276146
0.001150181982666254 0.012503803707659245 -0.10199999809265137
0.0016819529701024294 0.012491545639932156 -0.10189999639987946
0.0022148513235151768 0.012491545639932156 -0.10189999639987946
0.002747749909758568 0.012491545639932156 -0.10189999639987946
0.003280648496001959 0.012491545639932156 -0.10189999639987946
0.00381354708224535 0.012491545639932156 -0.10189999639987946
0.004342180211097002 0.012479286640882492 -0.10179999470710754
0.004874555394053459 0.012479286640882492 -0.10179999470710754
0.005412242375314236 0.012491545639932156 -0.10189999639987946
0.006484396755695343 0.012503803707659245 -0.10199999809265137
0.0070246984250843525 0.012516062706708908 -0.10209999978542328
0.007580853067338467 0.012552838772535324 -0.10239999741315842
0.00873637106269598 0.012675425037741661 -0.10339999943971634
0.009295057505369186 0.012699942104518414 -0.10359999537467957
0.009903311729431152 0.012785753235220909 -0.10429999977350235
0.01047881506383419 0.01282252836972475 -0.10459999740123749
0.011004751548171043 0.012798010371625423 -0.10439999401569366
0.011561787687242031 0.012810269370675087 -0.10449999570846558
0.01209669653326273 0.012798010371625423 -0.10439999401569366
0.01264266949146986 0.012798010371625423 -0.10439999401569366
0.013176009058952332 0.012785753235220909 -0.10429999977350235
0.013734614476561546 0.012798010371625423 -0.10439999401569366
0.014307944104075432 0.01282252836972475 -0.10459999740123749
0.014854962937533855 0.01282252836972475 -0.10459999740123749
0.015401981770992279 0.01282252836972475 -0.10459999740123749
0.015948999673128128 0.01282252836972475 -0.10459999740123749
0.016496017575263977 0.01282252836972475 -0.10459999740123749
0.01701044850051403 0.012798010371625423 -0.10439999401569366
0.01750597171485424 0.012761235237121582 -0.10409999638795853
-0.0053177992813289165 0.012122946791350842 -0.10329999774694443
-0.004749829415231943 0.012052532285451889 -0.10269999504089355
-0.004212746862322092 0.012052532285451889 -0.10269999504089355
-0.0036685066297650337 0.01202906109392643 -0.10249999910593033
-0.0031294142827391624 0.0120173254981637 -0.10239999741315842
-0.0025939010083675385 0.0120173254981637 -0.10239999741315842
-0.002056377474218607 0.012005588971078396 -0.1022999957203865
-0.0015228742267936468 0.0120173254981637 -0.10239999741315842
-0.0009873609524220228 0.0120173254981637 -0.10239999741315842
-0.00045228880480863154 0.01202906109392643 -0.10249999910593033
8.38292035041377e-05 0.01204079668968916 -0.10260000079870224
0.0006203884840942919 0.01204079668968916 -0.10260000079870224
0.0011546924943104386 0.0120173254981637 -0.10239999741315842
0.002219198504462838 0.011982118710875511 -0.10209999978542328
0.0027531429659575224 0.011982118710875511 -0.10209999978542328
0.0032838680781424046 0.011970383115112782 -0.10199999809265137
0.003817289602011442 0.011970383115112782 -0.10199999809265137
0.004346445668488741 0.011958646588027477 -0.10189999639987946
0.004879343789070845 0.011958646588027477 -0.10189999639987946
0.005417553707957268 0.011970383115112782 -0.10199999809265137
0.005950975697487593 0.011970383115112782 -0.10199999809265137
0.0064971111714839935 0.011993853375315666 -0.1021999940276146
0.007038458716124296 0.012005588971078396 -0.1022999957203865
0.007595659699290991 0.01204079668968916 -0.10260000079870224
0.00873637106269598 0.012134682387113571 -0.10339999943971634
0.009286085143685341 0.012146417051553726 -0.10349999368190765
0.010488833300769329 0.012287246063351631 -0.1046999990940094
0.011015292257070541 0.012263773940503597 -0.10449999570846558
0.012085109949111938 0.012240303680300713 -0.10429999977350235
0.012606339529156685 0.012216831557452679 -0.10409999638795853
0.01311284489929676 0.01218162477016449 -0.10379999876022339
0.013629368506371975 0.012158152647316456 -0.10359999537467957
0.014171157032251358 0.012158152647316456 -0.10359999537467957
0.014727147296071053 0.01216988917440176 -0.10369999706745148
0.015284184366464615 0.01218162477016449 -0.10379999876022339
0.015842266380786896 0.01219336036592722 -0.1039000004529953
0.016401395201683044 0.012205095961689949 -0.10399999469518661
0.016928981989622116 0.01219336036592722 -0.1039000004529953
-0.005322947166860104 0.011593939736485481 -0.10339999943971634
-0.004759079311043024 0.011537875980138779 -0.10289999842643738
-0.004212746862322092 0.011515449732542038 -0.10269999504089355
-0.0036756645422428846 0.011515449732542038 -0.10269999504089355
-0.003132470417767763 0.011493025347590446 -0.10249999910593033
-0.0025939010083675385 0.011481812223792076 -0.10239999741315842
-0.0020583877339959145 0.011481812223792076 -0.10239999741315842
-0.001525848638266325 0.011504237540066242 -0.10260000079870224
-0.0009902535239234567 0.011515449732542038 -0.10269999504089355
-0.0004536125634331256 0.011526662856340408 -0.10279999673366547
8.40743159642443e-05 0.011537875980138779 -0.10289999842643738
0.0006222024676389992 0.011537875980138779 -0.10289999842643738
0.0011580754071474075 0.011515449732542038 -0.10269999504089355
0.0016918565379455686 0.011493025347590446 -0.10249999910593033
0.002221371978521347 0.011459385976195335 -0.1021999940276146
0.0027531429659575224 0.01144817378371954 -0.10209999978542328
0.0032838680781424046 0.011436961591243744 -0.10199999809265137
0.003817289602011442 0.011436961591243744 -0.10199999809265137
0.004346445668488741 0.011425748467445374 -0.10189999639987946
0.004879343789070845 0.011425748467445374 -0.10189999639987946
0.005417553707957268 0.011436961591243744 -0.10199999809265137
0.005950975697487593 0.011436961591243744 -0.10199999809265137
0.006490753963589668 0.01144817378371954 -0.10209999978542328
0.007580853067338467 0.011481812223792076 -0.10239999741315842
0.008140144869685173 0.011515449732542038 -0.10269999504089355
0.008694125339388847 0.011537875980138779 -0.10289999842643738
0.009259168989956379 0.01157151348888874 -0.10319999605417252
0.009808361530303955 0.011582726612687111 -0.10329999774694443
0.01094150636345148 0.011638790369033813 -0.10379999876022339
0.011495404876768589 0.01165000256150961 -0.1039000004529953
0.012015588581562042 0.011627577245235443 -0.10369999706745148
0.013062314130365849 0.011593939736485481 -0.10339999943971634
0.013603056780993938 0.011593939736485481 -0.10339999943971634
0.014116441830992699 0.01157151348888874 -0.10319999605417252
0.01465613953769207 0.01157151348888874 -0.10319999605417252
0.015210561454296112 0.011582726612687111 -0.10329999774694443
0.015750780701637268 0.011582726612687111 -0.10329999774694443
0.016291001811623573 0.011582726612687111 -0.10329999774694443
0.01683122105896473 0.011582726612687111 -0.10329999774694443
0.01738825812935829 0.011593939736485481 -0.10339999943971634
-0.006577860098332167 0.011352508328855038 -0.10619999468326569
-0.005322947166860104 0.011053196154534817 -0.10339999943971634
-0.004759079311043024 0.010999747551977634 -0.10289999842643738
-0.00422095088288188 0.010999747551977634 -0.10289999842643738
-0.003679243614897132 0.010989057831466198 -0.10279999673366547
-0.003138582454994321 0.010978368110954762 -0.10269999504089355
-0.0025964342057704926 0.010956988669931889 -0.10249999910593033
-0.002062408020719886 0.010967678390443325 -0.10260000079870224
-0.0015273357275873423 0.010978368110954762 -0.10269999504089355
-0.0009912177920341492 0.010989057831466198 -0.10279999673366547
-0.0004544951079878956 0.011010437272489071 -0.10300000011920929
