ply
format ascii 1.0
element vertex 743
property float x
property float y
property float z
end_header
0.004246766860760579 0.012354230867667142 0.0036654176372033563
0.004632836575375178 0.011968161153052544 0.004113493842117087
0.005018906289989775 0.011582091438437947 0.004216803279986941
0.005404976004604374 0.011196021723823347 0.004252666455074256
0.005791045719218972 0.01080995200920875 0.004448489044678764
0.00617711543383357 0.010423882294594152 0.004107248663506291
0.006563185148448168 0.010037812579979554 0.00400543881829936
0.006949254863062766 0.009651742865364955 0.0038006944333883064
0.007335324577677365 0.009265673150750357 0.003009142777334881
0.007721394292291963 0.00887960343613576 0.0026679021358164594
0.00810746400690656 0.008493533721521162 0.0023607855584498794
0.00849353372152116 0.008107464006906562 0.001815999685458846
0.008879603436135758 0.007721394292291964 0.0028855419762448546
0.009265673150750355 0.007335324577677367 0.002646673527181959
0.009651742865364955 0.006949254863062768 0.0023054328856635374
0.010037812579979552 0.00656318514844817 0.0018284447424854141
0.01042388229459415 0.006177115433833572 0.0017266348972784836
0.01080995200920875 0.005791045719218973 0.00111345145740937
0.011196021723823347 0.005404976004604376 0.0021493278929127627
0.011582091438437945 0.005018906289989777 0.001978707572153552
0.011968161153052543 0.004632836575375179 0.0016715909947869721
0.012354230867667142 0.004246766860760581 0.0010238897826055121
0.013126370296896337 0.003474627431531385 0.0011892350388442413
0.013512440011510935 0.003088557716916787 0.0008821183963911745
-0.003088557716916787 0.018917416016115313 0.0013193137678229564
-0.0027024880023021882 0.018531346301500714 0.002037971161777121
-0.0023164182876875897 0.018145276586886114 0.0025149577428795534
-0.0019303485730729926 0.01775920687227152 0.0028220737995542362
-0.001544278858458394 0.01737313715765692 0.0028892524267017947
-0.0011582091438437955 0.01698706744304232 0.0030598727474610054
-0.000772139429229197 0.016600997728427724 0.0018854412395901063
-0.0003860697146145997 0.016214928013813124 0.00243022711258114
-1.1738619377223619e-18 0.015828858299198525 0.002805591818251404
0.0003860697146145974 0.015442788584583929 0.0030785843314661415
0.0007721394292291958 0.01505671886996933 0.0032492046522253526
0.001158209143843793 0.014670649155354732 0.003281857241076702
0.0015442788584583917 0.014284579440740134 0.0019260375040197712
0.0019303485730729902 0.013898509726125535 0.0028634542259805547
0.002316418287687589 0.013512440011510937 0.003068198610891608
0.0027024880023021865 0.01312637029689634 0.003511417801791539
0.0030885577169167846 0.012740300582281741 0.0025559434848480608
0.003474627431531383 0.012354230867667142 0.003066775039245625
0.003860697146145981 0.011968161153052544 0.0033397675524603626
0.00424676686076058 0.011582091438437947 0.0035103878732195733
0.004632836575375178 0.011196021723823349 0.0036810081939787844
0.005018906289989776 0.01080995200920875 0.003748184738358755
0.005404976004604374 0.010423882294594152 0.0038153633655063136
0.0057910457192189724 0.010037812579979554 0.003917173210713244
0.00617711543383357 0.009651742865364956 0.003881308994242135
0.006563185148448169 0.009265673150750357 0.003948487621389694
0.006949254863062767 0.00887960343613576 0.003946773503665269
0.007335324577677365 0.008493533721521162 0.003945060427324639
0.0077213942922919636 0.008107464006906564 0.002305906715289669
0.008107464006906562 0.007721394292291965 0.002782894858467792
0.00849353372152116 0.007335324577677367 0.002616575452776547
0.008879603436135758 0.006949254863062769 0.002787195773535758
0.009265673150750357 0.0065631851484481704 0.0016482796185650793
0.009651742865364955 0.006177115433833572 0.0021252672410513053
0.010037812579979552 0.005791045719218974 0.002364135690114201
0.010423882294594152 0.005404976004604376 0.001294593920020089
0.01080995200920875 0.005018906289989778 0.0017715805011225215
0.011196021723823347 0.004632836575375179 0.002078697078489101
0.011582091438437945 0.004246766860760582 0.0009042655055317149
0.011968161153052544 0.0038606971461459835 0.0014490519643011327
0.01274030058228174 0.0030885577169167872 0.0009928331144180027
-0.0038606971461459826 0.01891741601611531 0.0008193640882911353
-0.0034746274315313854 0.018531346301500714 0.0017543325820394257
-0.003088557716916787 0.018145276586886114 0.003288024315902972
-0.0027024880023021882 0.017759206872271515 0.003323887490990287
-0.002316418287687591 0.01737313715765692 0.003256710946610316
-0.0019303485730729926 0.01698706744304232 0.0031549011014033856
-0.001544278858458394 0.01660099772842772 0.00291603265234049
-0.0011582091438437955 0.016214928013813124 0.00201490399005485
-0.0007721394292291982 0.015828858299198525 0.0032252736526462104
-0.00038606971461459976 0.015442788584583927 0.00312346380743928
-1.219369299011824e-18 0.01505671886996933 0.002850471294224542
0.0003860697146145973 0.01467064915535473 0.0024072510619408175
0.0007721394292291946 0.014284579440740132 0.0016885941886785494
0.001158209143843793 0.013898509726125535 0.0027925141205701652
0.0015442788584583917 0.013512440011510935 0.0018189436774436255
0.0019303485730729902 0.013126370296896337 0.002888485968229634
0.002316418287687588 0.01274030058228174 0.0025472448060193153
0.002702488002302186 0.012354230867667142 0.0037937692311602257
0.0030885577169167846 0.011968161153052543 0.0037611166423088768
0.0034746274315313823 0.011582091438437945 0.004015756848927303
0.003860697146145981 0.011196021723823347 0.003983105301459748
0.004246766860760579 0.01080995200920875 0.003915927715695983
0.004632836575375178 0.01042388229459415 0.0038832761682284275
0.005018906289989775 0.010037812579979552 0.0038160975410808694
0.005404976004604374 0.009651742865364955 0.003748919955317105
0.005791045719218972 0.009265673150750357 0.0035782996345578937
0.00617711543383357 0.008879603436135758 0.0033394311854949986
0.006563185148448169 0.00849353372152116 0.0031346868005839453
0.006949254863062766 0.008107464006906562 0.002691467609684014
0.007335324577677365 0.0077213942922919636 0.0022144805078896847
0.007721394292291963 0.007335324577677366 0.0016012965473286745
0.00810746400690656 0.006949254863062767 0.002670838317422786
0.00849353372152116 0.00656318514844817 0.0023295976759043643
0.008879603436135758 0.006177115433833571 0.0018863779643125361
0.009265673150750355 0.0057910457192189724 0.0011677210910502683
0.009651742865364955 0.005404976004604375 0.00223726286114438
0.010037812579979552 0.005018906289989776 0.0017602762800419476
0.01042388229459415 0.0046328365753751785 0.0011125746122550779
0.011196021723823347 0.003860697146145982 0.001421681794743308
0.011582091438437945 0.003474627431531384 0.0009446946278624916
0.012354230867667142 0.002702488002302188 0.0012204947768715217
-0.003860697146145984 0.018145276586886114 0.001590629132437946
-0.0034746274315313854 0.017759206872271515 0.0022038125723070593
-0.003088557716916787 0.017373137157656916 0.00274859896598999
-0.0027024880023021895 0.01698706744304232 0.0030557155433565695
-0.002316418287687591 0.01660099772842772 0.003294583992419465
-0.0019303485730729926 0.016214928013813124 0.0033617605367994357
-0.001544278858458394 0.015828858299198525 0.003532380857558647
-0.0011582091438437968 0.015442788584583927 0.0022495694141263867
-0.0007721394292291983 0.015056718869969328 0.0028284616477447697
-0.00038606971461459976 0.01467064915535473 0.003169702289263192
-1.2648766603012863e-18 0.014284579440740132 0.0033744466741742448
0.000386069714614596 0.013898509726125535 0.002235529998511669
0.0007721394292291945 0.013512440011510935 0.002990568655990513
0.001158209143843793 0.013126370296896337 0.0030577462417542777
0.0015442788584583917 0.01274030058228174 0.0032283665625134884
0.0019303485730729896 0.01235423086766714 0.0035696072040319105
0.0023164182876875875 0.011968161153052543 0.002465686751448398
0.002702488002302186 0.011582091438437945 0.003078870712009408
0.0030885577169167838 0.011196021723823347 0.0034201113535278303
0.0034746274315313823 0.010809952009208748 0.003624855738438883
0.0038606971461459805 0.01042388229459415 0.0037954760591980942
0.004246766860760579 0.010037812579979552 0.003966096379957305
0.004632836575375177 0.009651742865364955 0.004307337021475727
0.005018906289989775 0.009265673150750355 0.004271473846388412
0.005404976004604373 0.008879603436135758 0.004338650390768382
0.005791045719218972 0.00849353372152116 0.002767893724919596
0.00617711543383357 0.008107464006906562 0.0030750103022861757
0.006563185148448168 0.0077213942922919636 0.0018646416810786089
0.006949254863062766 0.007335324577677365 0.002375472714784276
0.007335324577677364 0.006949254863062767 0.002648465227999014
0.007721394292291963 0.006563185148448169 0.001578922937213005
0.00810746400690656 0.006177115433833571 0.002123708289512142
0.00849353372152116 0.0057910457192189724 0.0023625767385750374
0.008879603436135758 0.005404976004604374 0.0012586557652996277
0.009265673150750355 0.005018906289989776 0.0017356439084777507
0.009651742865364955 0.004632836575375178 0.002178863620069579
0.010037812579979552 0.00424676686076058 0.001207786770437045
0.01042388229459415 0.0038606971461459818 0.0017186167627589186
0.011196021723823347 0.0030885577169167855 0.001158592320714726
0.011968161153052543 0.0023164182876875892 0.0010641804008917274
-0.004246766860760581 0.01775920687227152 0.002404699150954364
-0.003860697146145982 0.01737313715765692 0.0020634585094359424
-0.0034746274315313836 0.01698706744304232 0.003455847479792314
-0.0030885577169167864 0.016600997728427724 0.003423194890940965
-0.002702488002302188 0.016214928013813124 0.003218450506029912
-0.0023164182876875897 0.015828858299198525 0.002945457992815174
-0.0019303485730729909 0.015442788584583927 0.0028436481476082436
-0.0015442788584583936 0.01505671886996933 0.0022647569553736545
-0.001158209143843795 0.014670649155354732 0.003511281380514565
-0.0007721394292291966 0.014284579440740134 0.0032724129314516694
-0.0003860697146145981 0.013898509726125535 0.0028970482257814054
-8.022952789606407e-19 0.013512440011510937 0.0023862166713838413
0.0003860697146145977 0.01312637029689634 0.003560648179254741
0.0007721394292291963 0.01274030058228174 0.0033900278584955298
0.0011582091438437948 0.012354230867667142 0.003322850272731765
0.0015442788584583928 0.011968161153052544 0.0029816096312133434
0.0019303485730729907 0.011582091438437947 0.002606245446234976
0.0023164182876875892 0.011196021723823347 0.0038166140674425427
0.002702488002302187 0.01080995200920875 0.0037148031808518184
0.0030885577169167855 0.010423882294594152 0.0035100587959407655
0.0034746274315313836 0.010037812579979554 0.002931168124398073
0.0038606971461459818 0.009651742865364955 0.0024203376113843024
0.00424676686076058 0.009265673150750357 0.003524258063967815
0.0046328365753751785 0.00887960343613576 0.003353637743208604
0.005018906289989776 0.008493533721521162 0.003114769294145709
0.005404976004604375 0.008107464006906562 0.002773528652627287
0.005791045719218973 0.007721394292291964 0.002296541550832958
0.006177115433833571 0.007335324577677367 0.0030849805107270247
0.00656318514844817 0.006949254863062768 0.002777863933360445
0.006949254863062767 0.0065631851484481704 0.0018404477320915584
0.007335324577677366 0.006177115433833572 0.0012956618591005247
0.0077213942922919636 0.005791045719218974 0.002470092846279527
0.008107464006906562 0.005404976004604376 0.0021288522047611053
0.00849353372152116 0.005018906289989777 0.001685632493169277
0.00887960343613576 0.004632836575375179 0.0011408466201782432
0.009265673150750357 0.004246766860760581 0.002315277607357246
0.009651742865364955 0.003860697146145983 0.0019399129016869816
0.010037812579979554 0.003474627431531385 0.0014629263205845492
0.010423882294594152 0.003088557716916787 0.001258181935673496
0.011196021723823347 0.0023164182876875905 0.001962102186871167
-0.004632836575375179 0.01737313715765692 0.0012321764995773105
-0.004246766860760581 0.01698706744304232 0.0018798786880560771
-0.003860697146145982 0.01660099772842772 0.0024930626486170874
-0.003474627431531385 0.016214928013813124 0.0029362823602089158
-0.0030885577169167864 0.015828858299198525 0.0030380922054158463
-0.0027024880023021882 0.015442788584583927 0.003379332846934268
-0.0023164182876875897 0.01505671886996933 0.0021689637050348047
-0.0019303485730729922 0.014670649155354732 0.0027478554179612906
-0.0015442788584583936 0.014284579440740132 0.0031910735674774283
-0.0011582091438437953 0.013898509726125535 0.0034640660806921656
-0.0007721394292291967 0.013512440011510937 0.00356587696728289
-0.0003860697146145994 0.01312637029689634 0.0038047454163457855
-8.478026402501029e-19 0.01274030058228174 0.003906555261552716
0.0003860697146145977 0.012354230867667142 0.003973732847316481
0.0007721394292291962 0.011968161153052544 0.004075543733907205
0.0011582091438437942 0.011582091438437945 0.0042802881188182575
0.001544278858458392 0.011196021723823347 0.004278574001093834
0.0019303485730729905 0.01080995200920875 0.0035472216180026136
0.0023164182876875884 0.010423882294594152 0.0017905992933467982
0.002702488002302187 0.010037812579979552 0.0026552711917827163
0.003088557716916785 0.009651742865364955 0.0030984903826826475
0.003474627431531383 0.009265673150750357 0.0034397310242010692
0.0038606971461459813 0.00887960343613576 0.0035415419107917936
0.00424676686076058 0.00849353372152116 0.003746286295702847
0.004632836575375178 0.008107464006906562 0.0022100468163880225
0.005018906289989776 0.007721394292291964 0.002653266527979851
0.005404976004604375 0.007335324577677366 0.0028580109128909037
0.0057910457192189724 0.006949254863062768 0.0028221477378035887
0.006177115433833571 0.00656318514844817 0.0028893242821835595
0.006563185148448169 0.006177115433833572 0.001678955140284096
0.006949254863062767 0.005791045719218973 0.0021897851326059693
0.007335324577677365 0.005404976004604376 0.0023604054533651803
0.0077213942922919636 0.005018906289989777 0.002599273902428076
0.008107464006906562 0.0046328365753751785 0.0012434557274468357
0.00849353372152116 0.004246766860760581 0.001720443349933062
0.00887960343613576 0.0038606971461459826 0.002095808055603326
0.009265673150750357 0.0034746274315313845 0.0009568907941623666
0.009651742865364955 0.0030885577169167864 0.0014677224136464178
0.010423882294594152 0.00231641828768759 0.001159093226319494
0.011196021723823347 0.0015442788584583936 0.0009542232895748134
-0.005404976004604376 0.017373137157656916 0.0007803861342768743
-0.005018906289989778 0.01698706744304232 0.001216923871842937
-0.004632836575375179 0.01660099772842772 0.0018826971932937163
-0.004246766860760581 0.016214928013813124 0.0013718672009718428
-0.0038606971461459835 0.015828858299198525 0.003316938336934951
-0.003474627431531385 0.015442788584583927 0.00314631801617574
-0.003088557716916787 0.01505671886996933 0.002907449567112845
-0.0027024880023021882 0.01467064915535473 0.0022942661272437313
-0.002316418287687591 0.014284579440740132 0.0015756087332895665
-0.0019303485730729922 0.013898509726125535 0.0023152406382325693
-0.0015442788584583938 0.013512440011510937 0.0040018085543945345
-0.0011582091438437953 0.013126370296896337 0.003969155965543185
-0.0007721394292291979 0.01274030058228174 0.003798535644783974
-0.00038606971461459944 0.012354230867667142 0.0034572950032655523
-8.933100015395651e-19 0.011968161153052543 0.002980307901471223
0.00038606971461459765 0.011582091438437945 0.004409209089364331
0.0007721394292291955 0.011196021723823347 0.004238589028951068
0.0011582091438437935 0.01080995200920875 0.004404907132912571
0.0015442788584583919 0.01042388229459415 0.004303097548051589
0.0019303485730729898 0.010037812579979552 0.004098353163140536
0.0023164182876875884 0.009651742865364955 0.004134217379611645
0.0027024880023021865 0.009265673150750357 0.003827100802245065
0.0030885577169167846 0.008879603436135758 0.003656480481485854
0.0034746274315313828 0.00849353372152116 0.0033493639041192744
0.0038606971461459813 0.008107464006906562 0.003042247326752695
0.004246766860760579 0.007721394292291964 0.00259902709446897
0.004632836575375178 0.007335324577677366 0.0020201359022343802
0.005018906289989776 0.006949254863062767 0.003159052057205059
0.005404976004604374 0.00656318514844817 0.0029201836081421636
0.0057910457192189724 0.006177115433833571 0.002476964937934129
0.00617711543383357 0.005791045719218973 0.0019321785442511987
0.006563185148448169 0.005404976004604375 0.001387392671260165
0.006949254863062766 0.005018906289989777 0.0024913131238436777
0.007335324577677365 0.0046328365753751785 0.001912422972992882
0.0077213942922919636 0.00424676686076058 0.0013335312600663957
0.008107464006906562 0.0038606971461459826 0.0008227012026580352
0.00849353372152116 0.003474627431531384 0.0019616169020233044
0.008879603436135758 0.003088557716916786 0.001518397190431476
0.009265673150750357 0.002702488002302188 0.0009052136854758755
0.010037812579979552 0.0019303485730729913 0.0012143209330505928
-0.0054049760046043765 0.01660099772842772 0.0009724386542022532
-0.005018906289989778 0.016214928013813124 0.0017639903753421656
-0.004632836575375179 0.015828858299198525 0.0022748203676640393
-0.0042467668607605825 0.015442788584583927 0.0027180395585639705
-0.0038606971461459835 0.01505671886996933 0.00302515613593055
-0.0034746274315313854 0.01467064915535473 0.0032640245849934455
-0.003088557716916787 0.014284579440740132 0.0036393892906637095
-0.0019303485730729924 0.013126370296896337 0.0017602434764524462
-0.0015442788584583938 0.01274030058228174 0.0028402636502787306
-0.0011582091438437966 0.012354230867667142 0.003453447090147844
-0.000772139429229198 0.011968161153052543 0.0037264396033625815
-0.00038606971461459944 0.011582091438437945 0.003999432116577319
-9.388173628290273e-19 0.011196021723823347 0.00417005243733653
0.000386069714614597 0.010809952009208748 0.00427186228254346
0.0007721394292291949 0.01042388229459415 0.0043736718674044425
0.0011582091438437933 0.010037812579979552 0.004406323414871998
0.0015442788584583912 0.009651742865364955 0.004508134301462722
0.0019303485730729898 0.009265673150750355 0.004540786890314071
0.002316418287687588 0.008879603436135758 0.0045049216324591695
0.002702488002302186 0.00849353372152116 0.003076021485949855
0.003088557716916784 0.008107464006906562 0.0039041423753027214
0.0034746274315313828 0.0077213942922919636 0.0024752414477555618
0.0038606971461459805 0.007335324577677366 0.0028164826099658807
0.004246766860760579 0.006949254863062767 0.0016775664549952018
0.004632836575375178 0.006563185148448169 0.0025422373120473265
0.005018906289989775 0.006177115433833571 0.0029176020177175905
0.005404976004604374 0.0057910457192189724 0.0017786858627469118
0.005791045719218972 0.005404976004604375 0.002289515855068785
0.00617711543383357 0.005018906289989776 0.0026307564965872073
0.006563185148448168 0.0046328365753751785 0.0014203878753796405
0.006949254863062766 0.00424676686076058 0.0018973754978658666
0.007335324577677365 0.0038606971461459818 0.002136243946928762
0.007721394292291963 0.003474627431531384 0.000997327726871596
0.008107464006906562 0.0030885577169167855 0.0015081577842799567
0.008879603436135758 0.0023164182876875892 0.0010887659101852078
-0.005404976004604376 0.015828858299198525 0.0015577271321680064
-0.005018906289989777 0.015442788584583927 0.0026594351648818113
-0.00463283657537518 0.01505671886996933 0.0023864426516670735
-0.004246766860760582 0.014670649155354732 0.001909456070564641
-0.003860697146145983 0.014284579440740132 0.003013376002456257
-0.0034746274315313845 0.013898509726125535 0.002294719129193989
-0.0030885577169167872 0.013512440011510937 0.0014665987605330193
-0.0027024880023021887 0.013126370296896337 0.0026503938707849394
-0.00231641828768759 0.01274030058228174 0.004695530273754588
-0.0019303485730729915 0.012354230867667142 0.0039039788780471114
-0.0015442788584583943 0.011968161153052544 0.0034607586457633863
-0.0011582091438437957 0.011582091438437945 0.003221890196700491
-0.0007721394292291971 0.011196021723823347 0.00463153828101574
-0.0003860697146145986 0.01080995200920875 0.004564360695251977
-7.302803528034356e-19 0.01042388229459415 0.004462550850045046
0.00038606971461459716 0.010037812579979552 0.004395372222897488
0.0007721394292291957 0.009651742865364955 0.004431236439368596
0.0011582091438437935 0.009265673150750357 0.004329426854507614
0.001544278858458392 0.008879603436135758 0.004158806533748403
0.00193034857307299 0.00849353372152116 0.003919938084685508
0.0023164182876875884 0.008107464006906562 0.0034767188937855765
0.0027024880023021865 0.007721394292291964 0.0029997307506074537
0.003088557716916785 0.007335324577677366 0.002488901278977477
0.0034746274315313828 0.006949254863062768 0.0016973485815402578
0.0038606971461459813 0.00656318514844817 0.0028012700755075644
0.00424676686076058 0.006177115433833571 0.0022564842025165305
0.004632836575375178 0.005791045719218973 0.0016433002419555202
0.005018906289989776 0.005404976004604375 0.0027472212152309296
0.005404976004604374 0.005018906289989777 0.0021340372546699194
0.0057910457192189724 0.0046328365753751785 0.0016232057002723553
0.00617711543383357 0.004246766860760581 0.0008316539791324428
0.006563185148448169 0.003860697146145982 0.00162612574042988
0.006949254863062767 0.003474627431531384 0.000907468281389228
0.007335324577677365 0.0030885577169167864 0.002081899854346614
0.0077213942922919636 0.002702488002302188 0.0017747832769800347
0.008107464006906562 0.0023164182876875897 0.0011958926054373422
0.009265673150750357 0.001158209143843795 0.0008504066977974299
-0.005791045719218973 0.015442788584583927 0.001491636230392964
-0.005404976004604375 0.01505671886996933 0.0020364226240758947
-0.005018906289989778 0.014670649155354732 0.0024796423356677226
-0.004632836575375179 0.014284579440740134 0.00285500652064609
-0.004246766860760581 0.013898509726125535 0.0031279990338608276
-0.003860697146145982 0.013512440011510937 0.0034692396753792493
-0.003474627431531385 0.01312637029689634 0.0036739840602903026
-0.0030885577169167864 0.01274030058228174 0.00394697657350504
-0.002702488002302188 0.012354230867667142 0.004048786418711971
-0.0023164182876875892 0.011968161153052544 0.0040470733423713405
-0.001930348573072992 0.011582091438437947 0.004148884228962064
-0.0015442788584583934 0.011196021723823347 0.004353628613873117
-0.0011582091438437948 0.01080995200920875 0.00452424867428638
-0.0007721394292291964 0.010423882294594152 0.0045569002217539355
-0.0003860697146145984 0.010037812579979552 0.003856606329271864
-5.21743342777844e-19 0.009651742865364955 0.00207719227890721
0.000386069714614598 0.009265673150750357 0.0031915900938391016
0.0007721394292291959 0.00887960343613576 0.003702420086160975
0.0011582091438437944 0.00849353372152116 0.004009536663527555
0.0015442788584583923 0.008107464006906562 0.0042142810484386084
0.0019303485730729909 0.007721394292291964 0.002967758185373388
0.002316418287687589 0.007335324577677367 0.003444746328551511
0.0027024880023021874 0.006949254863062768 0.0024088683309724276
0.003088557716916785 0.0065631851484481704 0.002885856474150551
0.0034746274315313836 0.006177115433833572 0.003158848987365288
0.0038606971461459818 0.005791045719218973 0.0020549280140898787
0.00424676686076058 0.005404976004604376 0.002531915115884208
0.0046328365753751785 0.005018906289989777 0.0014960381596889184
0.005018906289989776 0.004632836575375179 0.0016666584804481293
0.005404976004604375 0.004246766860760581 0.0020078991219665515
0.0057910457192189724 0.0038606971461459826 0.0009720215799928777
0.00656318514844817 0.0030885577169167864 0.001090229575107248
0.006949254863062767 0.0027024880023021887 0.0015672172626799612
0.0077213942922919636 0.0019303485730729922 0.0010080826180009952
0.009651742865364955 1.1033248295137819e-18 0.0013215324359954264
-0.0065631851484481704 0.015442788584583927 0.0007797613040006566
-0.006177115433833572 0.01505671886996933 0.0014567405008499928
-0.005791045719218973 0.01467064915535473 0.002586104042281095
-0.0054049760046043765 0.014284579440740132 0.0024842941970741645
-0.005018906289989778 0.013898509726125535 0.0022113016838594267
-0.004632836575375179 0.013512440011510937 0.0032808439746454354
-0.004246766860760581 0.013126370296896337 0.002905479268975171
-0.0038606971461459835 0.01274030058228174 0.004334380717214228
-0.003474627431531385 0.012354230867667142 0.004370243631955594
-0.0030885577169167864 0.011968161153052544 0.004371956708296225
-0.002702488002302188 0.011582091438437945 0.004270147123435243
-0.0023164182876875905 0.011196021723823347 0.004168337278228312
-0.001930348573072992 0.01080995200920875 0.004393535221885407
-0.0015442788584583934 0.01042388229459415 0.004395249339609831
-0.0011582091438437948 0.010037812579979552 0.004396961374566668
-0.000772139429229197 0.009651742865364955 0.004329785090532646
-0.0003860697146145991 0.009265673150750357 0.004227975245325715
-5.672507040673062e-19 0.008879603436135758 0.004057354924566504
0.0003860697146145973 0.00849353372152116 0.00368199021889624
0.0007721394292291958 0.008107464006906562 0.003306625513225976
0.0011582091438437938 0.007721394292291964 0.002863405280942251
0.0015442788584583923 0.007335324577677366 0.002215703092463484
0.0019303485730729902 0.006949254863062768 0.0032852469453251835
0.002316418287687589 0.00656318514844817 0.0029098822396549195
0.0027024880023021865 0.006177115433833572 0.002365095845971989
0.003088557716916785 0.005791045719218973 0.0016100561471093513
0.003474627431531383 0.005404976004604375 0.0027489717813881332
0.0038606971461459813 0.005018906289989777 0.002373607596409766
0.00424676686076058 0.0046328365753751785 0.0018627776040878925
0.004632836575375178 0.004246766860760581 0.001589785090873155
0.005404976004604374 0.003474627431531384 0.001900580356490967
0.0057910457192189724 0.003088557716916786 0.0014235927340047409
0.006177115433833571 0.002702488002302188 0.0008447009559917676
0.006563185148448169 0.00231641828768759 0.0019486214736617674
0.006949254863062767 0.0019303485730729915 0.0017780011529025565
0.007335324577677365 0.0015442788584583936 0.0014367605113841345
0.008107464006906562 0.0007721394292291974 0.0012289674754170352
0.00849353372152116 0.00038606971461459884 0.0008536027046602841
-0.00656318514844817 0.01467064915535473 0.0009694587344765911
-0.006177115433833571 0.014284579440740132 0.0017610104556165034
-0.005791045719218974 0.013898509726125535 0.0021363751612867676
-0.005404976004604376 0.013512440011510937 0.0025117398669570316
-0.005018906289989777 0.013126370296896337 0.0029887274894432577
-0.0046328365753751785 0.01274030058228174 0.003364092195113522
-0.004246766860760581 0.012354230867667142 0.0036370847083282594
-0.0038606971461459826 0.011968161153052543 0.0038077050290874705
-0.003474627431531384 0.011582091438437945 0.003978325349846682
-0.0030885577169167855 0.011196021723823347 0.004148945670605892
-0.0027024880023021882 0.01080995200920875 0.004045636232736039
-0.0023164182876875897 0.01042388229459415 0.004009773057648724
-0.001930348573072991 0.010037812579979552 0.0042827655708634615
-0.0015442788584583925 0.009651742865364955 0.004487509695428566
-0.0011582091438437946 0.009265673150750355 0.004520161242896122
-0.0007721394292291968 0.008879603436135758 0.004484298067808807
-0.00038606971461459824 0.00849353372152116 0.0045861079130157375
-3.587136940417145e-19 0.008107464006906562 0.0046187605018670865
0.0003860697146145982 0.0077213942922919636 0.004651412049334642
0.0011582091438437946 0.006949254863062767 0.0008888217838711979
0.0015442788584583925 0.00656318514844817 0.0018623933334680186
0.001930348573072991 0.006177115433833571 0.002581050206730286
0.002316418287687589 0.005791045719218973 0.003058036787832719
0.0027024880023021874 0.005404976004604375 0.0019884950177386073
0.0030885577169167855 0.005018906289989776 0.0025673862099731964
0.0034746274315313836 0.0046328365753751785 0.0021231173042092193
0.0038606971461459818 0.00424676686076058 0.0010191967865392196
0.00424676686076058 0.0038606971461459818 0.0017742360297964472
0.0046328365753751785 0.0034746274315313836 0.00225122261089888
0.005018906289989776 0.0030885577169167855 0.0009684111023801326
0.005404976004604375 0.0027024880023021874 0.0015131975611495502
0.005791045719218973 0.0023164182876875892 0.0017861900743642877
0.006177115433833571 0.0019303485730729913 0.0018879999195712182
0.006949254863062767 0.001158209143843795 0.0012224166506627882
0.007335324577677366 0.0007721394292291966 0.0015977813563330524
0.008107464006906562 2.7775971077299225e-19 0.0007645909455859848
-0.006949254863062768 0.014284579440740132 0.002619918815446209
-0.00656318514844817 0.013898509726125533 0.0027232277326241657
-0.006177115433833573 0.013512440011510937 0.0024843598042531673
-0.005791045719218974 0.013126370296896337 0.0019054691327104747
-0.005404976004604376 0.01274030058228174 0.0029084919922903346
-0.005018906289989777 0.01235423086766714 0.004547645443979356
-0.004632836575375179 0.011968161153052544 0.004617393164945963
-0.004246766860760581 0.011582091438437945 0.004720701561432023
-0.0038606971461459826 0.011196021723823347 0.004824009957918082
-0.003474627431531384 0.010809952009208748 0.004756833413538111
-0.003088557716916787 0.010423882294594152 0.004177941960957574
-0.0027024880023021882 0.010037812579979552 0.004344260325265025
-0.0023164182876875897 0.009651742865364955 0.004510579470610321
-0.001930348573072991 0.009265673150750355 0.004546443687081431
-0.0015442788584583932 0.008879603436135758 0.0044446338418745
-0.0011582091438437953 0.00849353372152116 0.004377455214726942
-0.0007721394292291968 0.008107464006906562 0.0042756456298659595
-0.00038606971461459895 0.0077213942922919636 0.0039002809241956956
-4.042210553311767e-19 0.007335324577677365 0.003457061733295764
0.0003860697146145975 0.006949254863062767 0.0022199618314878056
0.000772139429229196 0.006563185148448169 0.0010718986168787078
0.001158209143843794 0.006177115433833571 0.0021718379243054063
0.0015442788584583925 0.0057910457192189724 0.0027074351473927605
0.0019303485730729905 0.005404976004604375 0.00216264875370983
0.002316418287687589 0.005018906289989776 0.0011176248029626083
0.002702488002302187 0.0046328365753751785 0.001972987771666675
0.003088557716916785 0.00424676686076058 0.0008249240363656801
0.003474627431531383 0.003860697146145982 0.0016971507186194555
0.00424676686076058 0.0030885577169167855 0.001898649630937454
0.004632836575375178 0.0027024880023021874 0.0014554309607294196
0.005018906289989776 0.0023164182876875892 0.0008077292278560628
0.005404976004604375 0.001930348573072991 0.0018436067698297362
0.0057910457192189724 0.0015442788584583932 0.0015706142566149987
0.006177115433833571 0.0011582091438437948 0.0011952495509447347
0.007335324577677365 6.05316703733474e-19 0.0013190987220695581
0.0077213942922919636 -0.00038606971461459786 0.0009437339513128068
-0.0065631851484481704 0.013126370296896337 0.0015534954691223213
-0.006177115433833572 0.01274030058228174 0.0021666794296833314
-0.005791045719218973 0.012354230867667142 0.002745570621917921
-0.005404976004604375 0.011968161153052543 0.003120935327588185
-0.005018906289989778 0.011582091438437945 0.0033939278408029227
-0.004632836575375179 0.011196021723823347 0.0036327962898658177
-0.004246766860760581 0.01080995200920875 0.0036999749170133762
-0.003860697146145982 0.01042388229459415 0.003904719301924429
-0.003474627431531385 0.010037812579979552 0.004109463686835482
-0.0030885577169167864 0.009651742865364955 0.004211273532042413
-0.002702488002302188 0.009265673150750355 0.004313083377249343
-0.0023164182876875892 0.008879603436135758 0.0044148929621103256
-0.0019303485730729913 0.00849353372152116 0.004585513282869536
-0.0015442788584583934 0.008107464006906562 0.0032005730704435264
-0.001158209143843795 0.0077213942922919636 0.003711404104149194
-0.000772139429229197 0.007335324577677366 0.0040526447456676155
-0.0003860697146145985 0.006949254863062767 0.004223265066426826
-6.293649142997868e-19 0.00656318514844817 0.004255917655278176
0.0003860697146145979 0.006177115433833571 0.004220052397423273
0.0007721394292291958 0.005791045719218973 0.0030456224516280644
0.0011582091438437944 0.005404976004604375 0.0017628099668120108
0.0015442788584583923 0.005018906289989777 0.0012030198361214
0.0019303485730729907 0.0046328365753751785 0.0021404360373902865
0.002316418287687589 0.00424676686076058 0.0010015198173331206
0.002702488002302187 0.003860697146145982 0.0018296418131562681
0.0034746274315313836 0.0030885577169167855 0.0019229831253528599
0.00424676686076058 0.0023164182876875892 0.0012127395917598649
0.0046328365753751785 0.0019303485730729913 0.001588104297430129
0.005404976004604375 0.001158209143843795 0.0011182517160064135
0.005791045719218973 0.0007721394292291966 0.0013571201650693088
0.00656318514844817 3.1955633002060616e-19 0.0015004411303686667
-0.007335324577677366 0.013126370296896337 0.0011871309228890779
-0.006949254863062769 0.01274030058228174 0.0029875330222318883
-0.0065631851484481704 0.012354230867667142 0.0028169127014726772
-0.006177115433833572 0.011968161153052543 0.0030127355514231336
-0.005791045719218973 0.011582091438437945 0.0027738671023602385
-0.005404976004604376 0.011196021723823347 0.00233064739076841
-0.005018906289989777 0.01080995200920875 0.0015756087332895665
-0.0046328365753751785 0.01042388229459415 0.0024090854594934134
-0.00424676686076058 0.010037812579979552 0.001951674810944885
-0.003860697146145983 0.009651742865364955 0.003596524892331374
-0.0034746274315313845 0.009265673150750357 0.004728433836100218
-0.003088557716916786 0.008879603436135758 0.004798180515683032
-0.0027024880023021874 0.00849353372152116 0.00462756019492382
-0.0023164182876875897 0.008107464006906562 0.004594907606072471
-0.0019303485730729915 0.0077213942922919636 0.004424287285313261
-0.0015442788584583932 0.007335324577677365 0.004117170968292629
-0.0011582091438437953 0.006949254863062767 0.0038441784550778918
-0.0007721394292291967 0.006563185148448169 0.0037423686098709613
-0.0003860697146145988 0.006177115433833571 0.003367003904200697
-2.411914065950472e-19 0.0057910457192189724 0.002611966288105647
0.00038606971461459765 0.005404976004604375 0.0015319466349712593
0.0007721394292291962 0.005018906289989776 0.002419465973148979
0.0011582091438437942 0.0046328365753751785 0.0015183373108633386
0.0019303485730729907 0.003860697146145982 0.0013146181682971794
0.002316418287687589 0.003474627431531384 0.0016264173278921147
0.0030885577169167855 0.0027024880023021874 0.0016199045136463378
0.0038606971461459818 0.0019303485730729913 0.0017948064838733313
0.00424676686076058 0.0015442788584583932 0.0013515867722815032
0.005018906289989776 0.0007721394292291969 0.0015264887425084969
0.005404976004604375 0.0003860697146145985 0.0010832700072139752
0.006563185148448169 -0.0007721394292291956 0.0012327664434964396
-0.007721394292291964 0.01274030058228174 0.0013157157868157355
-0.007335324577677367 0.012354230867667142 0.0018605016598067692
-0.006949254863062768 0.011968161153052544 0.0023037203300148037
-0.00656318514844817 0.011582091438437945 0.0035165851481758605
-0.006177115433833571 0.011196021723823347 0.002197315378818188
-0.005791045719218974 0.01080995200920875 0.0028450175672969542
-0.005404976004604376 0.01042388229459415 0.0031862582088153764
-0.005018906289989777 0.010037812579979552 0.002567030577407649
-0.0046328365753751785 0.009651742865364955 0.001951674810944885
-0.004246766860760581 0.009265673150750357 0.0027512794878749645
-0.0038606971461459826 0.008879603436135758 0.0021402787884374384
-0.003474627431531384 0.00849353372152116 0.0033211965552673753
-0.0030885577169167855 0.008107464006906562 0.0038320265475892488
-0.002702488002302188 0.0077213942922919636 0.0040026468683484594
-0.0023164182876875897 0.007335324577677366 0.004275639381563197
-0.0019303485730729913 0.006949254863062767 0.004308290929030753
-0.0011582091438437948 0.006177115433833571 0.0018521221651107915
-0.0007721394292291969 0.005791045719218973 0.002825692608237331
-0.00038606971461459835 0.005404976004604375 0.003473393755332304
-4.663352655636573e-19 0.005018906289989777 0.002502317947083564
0.0003860697146145981 0.0046328365753751785 0.002877682652753828
0.0007721394292291959 0.004246766860760581 0.001558413924779949
0.0011582091438437944 0.003860697146145982 0.0012152368300971488
0.0015442788584583925 0.003474627431531384 0.0022602613015362673
0.0019303485730729907 0.003088557716916786 0.0010498920945503165
0.0027024880023021874 0.0023164182876875892 0.001821113400577792
0.0034746274315313836 0.0015442788584583932 0.0014757176377225214
0.0046328365753751785 0.00038606971461459884 0.000860784607993511
0.005018906289989777 3.6135294926822007e-19 0.0011679012504465778
0.006949254863062767 -0.00193034857307299 0.0008766204106523546
-0.008493533721521162 0.01274030058228174 0.0009056276355338698
-0.008107464006906562 0.01235423086766714 0.0017150677267900015
-0.007721394292291965 0.011968161153052543 0.003281661460923487
-0.007335324577677367 0.011582091438437945 0.0030427930118605917
-0.006949254863062768 0.011196021723823347 0.002975615426096827
-0.00656318514844817 0.010809952009208748 0.002804995105337616
-0.006177115433833573 0.01042388229459415 0.002463753943127297
-0.005791045719218974 0.010037812579979552 0.00329999189846013
-0.005404976004604376 0.009651742865364955 0.0027211022683012315
-0.005018906289989777 0.009265673150750355 0.00389553221409644
-0.004632836575375179 0.008879603436135758 0.0033166415425537475
-0.004246766860760581 0.00849353372152116 0.004709029731872274
-0.0038606971461459826 0.00810746400690656 0.004778776411455087
-0.003474627431531384 0.007721394292291963 0.0046081560906958766
-0.0030885577169167864 0.007335324577677365 0.004540978504932112
-0.0027024880023021882 0.006949254863062767 0.004644286901418172
-0.0023164182876875897 0.006563185148448169 0.004439542516507119
-0.001930348573072992 0.006177115433833571 0.004268922456093856
-0.0015442788584583934 0.0057910457192189724 0.004064178071182803
-0.0011582091438437955 0.005404976004604375 0.0038594336862717497
-0.0007721394292291969 0.005018906289989776 0.0034840689806014853
-0.00038606971461459906 0.0046328365753751785 0.0031087042749312213
-5.118426268531195e-19 0.00424676686076058 0.0026317176938287887
0.0003860697146145974 0.0038606971461459818 0.001622208575289891
0.0007721394292291957 0.0034746274315313836 0.002868731959047008
0.001158209143843794 0.0030885577169167855 0.0022898402461205216
0.001544278858458392 0.0027024880023021874 0.0010078368514256828
0.0019303485730729905 0.0023164182876875892 0.0021117573690956825
0.002702488002302187 0.0015442788584583928 0.001855171857550631
0.003474627431531383 0.0007721394292291964 0.001844694495202252
0.0038606971461459818 0.0003860697146145981 0.0012999096635950122
0.0046328365753751785 -0.0003860697146145982 0.0015413300236443604
0.005018906289989776 -0.000772139429229196 0.001302461574581465
0.005404976004604375 -0.0011582091438437946 0.0008592428392869435
-0.00849353372152116 0.011968161153052543 0.0013572685622599105
-0.008107464006906564 0.011582091438437945 0.0021488212596971297
-0.007721394292291964 0.011196021723823347 0.0025241859653673936
-0.007335324577677366 0.010809952009208748 0.002728930350278447
-0.006949254863062767 0.01042388229459415 0.002967798799341342
-0.0065631851484481704 0.010037812579979552 0.0030004503468088976
-0.006177115433833572 0.009651742865364955 0.003375815052479162
-0.005791045719218973 0.009265673150750355 0.003751179758149426
-0.005404976004604375 0.008879603436135758 0.0039900482072123215
-0.005018906289989777 0.00849353372152116 0.0042289166562752166
-0.0046328365753751785 0.008107464006906562 0.004399536716688479
-0.004246766860760581 0.0077213942922919636 0.004432188264156035
-0.0038606971461459818 0.007335324577677365 0.003822992543178933
-0.003474627431531384 0.006949254863062767 0.002014498891759102
-0.003088557716916786 0.006563185148448169 0.0030945185448934894
-0.0027024880023021874 0.006177115433833571 0.00363930493857642
-0.0023164182876875897 0.0057910457192189724 0.003980545580094842
-0.001930348573072991 0.005404976004604375 0.0041852899650058955
-0.0015442788584583932 0.005018906289989776 0.00425246755076966
-0.0011582091438437946 0.0046328365753751785 0.002647418116594452
-0.0007721394292291967 0.00424676686076058 0.0031582491503001193
-0.0003860697146145982 0.0038606971461459818 0.002155225770028362
-3.0330561682752785e-19 0.003474627431531384 0.002802927958507129
0.0003860697146145981 0.0030885577169167855 0.003178292664177393
0.0007721394292291963 0.0027024880023021874 0.000916635582925137
0.0011582091438437944 0.0023164182876875892 0.0017813065050637487
0.0015442788584583928 0.001930348573072991 0.0017231363684235607
0.0019303485730729909 0.001544278858458393 0.0021663550386315953
0.0023164182876875892 0.0011582091438437948 0.0010274388185744293
0.0030885577169167855 0.0003860697146145985 0.001133731365407813
0.0046328365753751785 -0.001158209143843794 0.0011329711552384145
0.005404976004604375 -0.0019303485730729902 0.0010261360474485151
-0.00887960343613576 0.011582091438437945 0.0014997204927834288
-0.008493533721521162 0.011196021723823347 0.0028205398412261217
-0.008107464006906562 0.01080995200920875 0.003075180047844548
-0.007721394292291964 0.01042388229459415 0.0029045597270853374
-0.007335324577677366 0.010037812579979552 0.0027339394063261263
-0.006949254863062769 0.009651742865364955 0.002495070957263231
-0.0065631851484481704 0.009265673150750355 0.0040658265817282244
-0.006177115433833572 0.008879603436135758 0.004232145987419469
-0.005791045719218973 0.00849353372152116 0.004335455425289322
-0.005404976004604376 0.008107464006906562 0.004302802836437973
-0.005018906289989777 0.0077213942922919636 0.004200991949847249
-0.0046328365753751785 0.007335324577677365 0.004304301387717102
-0.00424676686076058 0.006949254863062766 0.004237124843337131
-0.003860697146145982 0.006563185148448169 0.004032380458426078
-0.0034746274315313845 0.006177115433833571 0.003861760137666867
-0.003088557716916786 0.0057910457192189724 0.003486395431996603
-0.002702488002302188 0.005404976004604375 0.0028732109507436958
-0.0023164182876875892 0.005018906289989776 0.0020085390523077776
-0.0019303485730729915 0.0046328365753751785 0.000928519334086903
-0.001544278858458393 0.00424676686076058 0.002247309090602169
-0.001158209143843795 0.0038606971461459818 0.0021091815062819746
-0.0007721394292291966 0.003474627431531383 0.0022755003912813226
-0.0003860697146145987 0.0030885577169167855 0.0032465772409138566
-2.8530188528822656e-19 0.0027024880023021874 0.00270179188861472
0.0003860697146145979 0.0023164182876875892 0.0021909613756009496
0.0007721394292291962 0.0019303485730729909 0.0016801303418952824
0.0015442788584583925 0.0011582091438437946 0.0014676687823810424
0.002316418287687589 0.0003860697146145983 0.0012841743544722603
0.0034746274315313836 -0.000772139429229196 0.0014532680065899122
0.003860697146145982 -0.0011582091438437944 0.000976280319017199
0.005018906289989776 -0.002316418287687589 0.0008207715184883158
0.006177115433833571 -0.003474627431531383 0.000902598250078007
-0.009265673150750357 0.011196021723823345 0.0013309288419659487
-0.00887960343613576 0.01080995200920875 0.0019098205548924347
-0.008493533721521162 0.01042388229459415 0.0024206505472143085
-0.008107464006906562 0.010037812579979552 0.0027618911887327302
-0.007721394292291964 0.009651742865364953 0.002566068338782274
-0.007335324577677367 0.009265673150750357 0.0028731849161488534
-0.006949254863062768 0.008879603436135758 0.0031803014935154333
-0.00656318514844817 0.00849353372152116 0.003487418070882013
-0.006177115433833571 0.00810746400690656 0.004066309783808499
-0.005791045719218974 0.0077213942922919636 0.004098961331276054
-0.005018906289989777 0.006949254863062766 0.0020327907980953784
-0.0046328365753751785 0.006563185148448169 0.0025775766710864124
-0.004246766860760581 0.00617711543383357 0.00329623354434868
-0.0038606971461459826 0.0057910457192189724 0.003773221687526803
-0.003474627431531384 0.005404976004604374 0.004080338264893383
-0.003088557716916786 0.005018906289989776 0.004112989812360938
-0.0027024880023021874 0.004632836575375178 0.004180167398124703
-0.0023164182876875897 0.00424676686076058 0.0028608997115346178
-0.001930348573072991 0.0038606971461459818 0.003304118902434549
-0.0015442788584583932 0.0034746274315313836 0.0024021821263250005
-0.0011582091438437946 0.003088557716916785 0.0029810733185595896
-0.0007721394292291968 0.0027024880023021874 0.0032881898959261696
-0.0003860697146145984 0.0023164182876875892 0.0019689211679522903
-2.0378706092016184e-19 0.0019303485730729909 0.0007944911570705946
-0.010037812579979554 0.011196021723823347 0.0010197950615286981
-0.009651742865364955 0.010809952009208748 0.0017999431094357387
-0.009265673150750357 0.01042388229459415 0.0027886755799066006
-0.00887960343613576 0.010037812579979552 0.002790388656247231
-0.008493533721521162 0.009651742865364955 0.0024491480147288093
-0.008107464006906562 0.009265673150750355 0.0019383164603312452
-0.007721394292291965 0.008879603436135758 0.0009647454314263214
-0.006949254863062768 0.00810746400690656 0.004369864568254689
-0.00656318514844817 0.007721394292291963 0.004405728784725798
-0.006177115433833572 0.007335324577677366 0.004572048190417043
-0.005791045719218973 0.006949254863062767 0.004738366554724494
-0.005404976004604375 0.006563185148448169 0.004841675992594347
-0.005018906289989776 0.00617711543383357 0.004568683479379609
-0.0046328365753751785 0.0057910457192189724 0.004329815290662663
-0.004246766860760581 0.005404976004604375 0.004090946841599767
-0.003860697146145982 0.005018906289989776 0.0039203265208405565
-0.003474627431531384 0.0046328365753751785 0.0036814580717776614
-0.0030885577169167855 0.00424676686076058 0.0035108377510184503
-0.002702488002302188 0.0038606971461459818 0.0032037211736518707
-0.0023164182876875892 0.003474627431531383 0.0027605009413681457
-0.0019303485730729913 0.0030885577169167855 0.0019323805727071758
-0.0015442788584583928 0.002702488002302187 0.0030712967276778544
-0.0011582091438437948 0.0023164182876875892 0.002764180150311275
-0.0007721394292291966 0.0019303485730729909 0.0023888154446410105
-0.00038606971461459835 0.0015442788584583928 0.001670158050686846
-1.222722365520971e-19 0.0011582091438437946 0.0027740785032703587
0.0003860697146145981 0.0007721394292291964 0.002501086510747518
0.0007721394292291963 0.00038606971461459824 0.002193969933380938
0.0011582091438437946 7.707275281284001e-20 0.002195683009721569
0.0015442788584583928 -0.0003860697146145981 0.0018544423682031468
0.0019303485730729909 -0.0007721394292291963 0.0013774547457169207
0.0023164182876875892 -0.0011582091438437946 0.0008666246883085601
-0.010423882294594152 0.010809952009208748 0.0012322551240537348
-0.010037812579979552 0.01042388229459415 0.0020603760134066014
-0.009651742865364956 0.010037812579979552 0.002401616654925023
-0.009265673150750357 0.009651742865364955 0.0028448363665168515
-0.00887960343613576 0.009265673150750355 0.0030837048155797466
-0.00849353372152116 0.008879603436135758 0.0032543251363389577
-0.008107464006906564 0.00849353372152116 0.003356134981545888
-0.007721394292291964 0.008107464006906562 0.003423312567309653
-0.007335324577677366 0.007721394292291963 0.0035939328880688634
-0.006949254863062767 0.007335324577677364 0.004207117369321771
-0.0065631851484481704 0.006949254863062767 0.002924305405197614
-0.006177115433833572 0.006563185148448169 0.0035374888450667276
-0.005791045719218973 0.00617711543383357 0.0034341804485806676
-0.005404976004604375 0.005791045719218972 0.0037412970259472476
