ply
format ascii 1.0
element vertex 746
property float x
property float y
property float z
end_header
0.013774474151432514 0.002338605234399438 -0.1006999984383583
0.014286895282566547 0.0023362827487289906 -0.1005999967455864
0.014783546328544617 0.002331638243049383 -0.10040000081062317
0.01526285707950592 0.0023246710188686848 -0.10009999573230743
0.015660177916288376 0.0023060922976583242 -0.09929999709129333
0.016114305704832077 0.002296802820637822 -0.09889999777078629
0.016614697873592377 0.0022944805677980185 -0.09879999607801437
0.017096705734729767 0.0022898358292877674 -0.09860000014305115
0.017594486474990845 0.0022875135764479637 -0.09849999845027924
0.018072832375764847 0.0022828688379377127 -0.09829999506473541
0.018549088388681412 0.0022782240994274616 -0.09809999912977219
0.01904268190264702 0.002275901846587658 -0.09799999743700027
0.019535230472683907 0.0022735793609172106 -0.09789999574422836
0.020026734098792076 0.0022712568752467632 -0.09779999405145645
0.020517190918326378 0.002268934855237603 -0.09769999980926514
0.021028125658631325 0.002268934855237603 -0.09769999980926514
0.02153906039893627 0.002268934855237603 -0.09769999980926514
0.02204999327659607 0.002268934855237603 -0.09769999980926514
0.022560928016901016 0.002268934855237603 -0.09769999980926514
0.023095475509762764 0.0022712568752467632 -0.09779999405145645
0.0017265189671888947 0.0018821583362296224 -0.10459999740123749
0.002262669615447521 0.0018731612944975495 -0.10409999638795853
0.0033385991118848324 0.0018659638008102775 -0.10369999706745148
0.0038809110410511494 0.0018659638008102775 -0.10369999706745148
0.004414692055433989 0.0018623649375513196 -0.10349999368190765
0.004951169714331627 0.0018605657387524843 -0.10339999943971634
0.006003484129905701 0.0018515686970204115 -0.10289999842643738
0.006509825587272644 0.0018425717717036605 -0.10239999741315842
0.0070246984250843525 0.0018371737096458673 -0.10209999978542328
0.007551240269094706 0.0018353742780163884 -0.10199999809265137
0.008076735772192478 0.0018335748463869095 -0.10189999639987946
0.008609633892774582 0.0018335748463869095 -0.10189999639987946
0.00914253294467926 0.0018335748463869095 -0.10189999639987946
0.00966593623161316 0.0018317754147574306 -0.10179999470710754
0.010198310948908329 0.0018317754147574306 -0.10179999470710754
0.010709605179727077 0.0018281766679137945 -0.10159999877214432
0.011229870840907097 0.0018263773526996374 -0.1014999970793724
0.01172591745853424 0.0018209791742265224 -0.10119999945163727
0.013760795816779137 0.0018101828172802925 -0.1005999967455864
0.014272693544626236 0.0018083833856508136 -0.10049999505281448
0.014768822118639946 0.0018047847552224994 -0.10029999911785126
0.015278104692697525 0.0018029853235930204 -0.10019999742507935
0.015644406899809837 0.0017849913565441966 -0.09919999539852142
0.016114305704832077 0.0017795932944864035 -0.09889999777078629
0.016614697873592377 0.0017777938628569245 -0.09879999607801437
0.01713138446211815 0.0017777938628569245 -0.09879999607801437
0.017630210146307945 0.0017759944312274456 -0.09869999438524246
0.018127989023923874 0.0017741951160132885 -0.09860000014305115
0.01860581338405609 0.0017705962527543306 -0.09839999675750732
0.0191009771078825 0.0017687969375401735 -0.09829999506473541
0.01961504854261875 0.0017687969375401735 -0.09829999506473541
0.020088165998458862 0.0017651981906965375 -0.09809999912977219
0.020559191703796387 0.0017615993274375796 -0.09789999574422836
0.02104964666068554 0.0017597998958081007 -0.09779999405145645
0.02153906039893627 0.0017580006970092654 -0.09769999980926514
0.02204999327659607 0.0017580006970092654 -0.09769999980926514
0.022584019228816032 0.0017597998958081007 -0.09779999405145645
0.023119090124964714 0.0017615993274375796 -0.09789999574422836
0.02375176176428795 0.0017705962527543306 -0.09839999675750732
0.0017298201564699411 0.0013376926071941853 -0.10480000078678131
0.0022691902704536915 0.0013325868640094995 -0.10439999401569366
0.0028043766506016254 0.0013274811208248138 -0.10399999469518661
0.003341818694025278 0.0013249283656477928 -0.10379999876022339
0.0038809110410511494 0.0013236518716439605 -0.10369999706745148
0.0054706670343875885 0.0013147169956937432 -0.10300000011920929
0.005991815589368343 0.001310887630097568 -0.10269999504089355
0.0064971111714839935 0.0013045055093243718 -0.1021999940276146
0.007017818279564381 0.0013019527541473508 -0.10199999809265137
0.007543837185949087 0.0013006762601435184 -0.10189999639987946
0.008068809285759926 0.001299399766139686 -0.10179999470710754
0.00860118493437767 0.001299399766139686 -0.10179999470710754
0.009124589152634144 0.0012981235049664974 -0.10170000046491623
0.009656441397964954 0.0012981235049664974 -0.10170000046491623
0.010178275406360626 0.001296847010962665 -0.10159999877214432
0.011207743547856808 0.0012930177617818117 -0.10130000114440918
0.011714329943060875 0.0012904648901894689 -0.10109999775886536
0.013760795816779137 0.0012840827694162726 -0.1005999967455864
0.014272693544626236 0.0012828062754124403 -0.10049999505281448
0.014768822118639946 0.0012802535202354193 -0.10029999911785126
0.015217114239931107 0.001273871399462223 -0.0997999981045723
0.015644406899809837 0.0012662127846851945 -0.09919999539852142
0.01613060012459755 0.0012636600295081735 -0.0989999994635582
0.016631515696644783 0.0012623835355043411 -0.09889999777078629
0.01713138446211815 0.0012611071579158306 -0.09879999607801437
0.01764807291328907 0.0012611071579158306 -0.09879999607801437
0.018164759501814842 0.0012611071579158306 -0.09879999607801437
0.01866253837943077 0.0012598306639119983 -0.09869999438524246
0.01915927045047283 0.0012585542863234878 -0.09860000014305115
0.019674912095069885 0.0012585542863234878 -0.09860000014305115
0.020129119977355003 0.0012547249207273126 -0.09829999506473541
0.020601192489266396 0.0012521721655502915 -0.09809999912977219
0.02104964666068554 0.0012483427999541163 -0.09779999405145645
0.02153906039893627 0.0012470665387809277 -0.09769999980926514
0.02204999327659607 0.0012470665387809277 -0.09769999980926514
0.022584019228816032 0.0012483427999541163 -0.09779999405145645
0.023142706602811813 0.001250895787961781 -0.09799999743700027
0.02375176176428795 0.001256001414731145 -0.09839999675750732
0.0017331212293356657 0.00079113501124084 -0.10499999672174454
0.0022778846323490143 0.0007896281313151121 -0.10480000078678131
0.0028151627629995346 0.0007866141968406737 -0.10439999401569366
0.0033546965569257736 0.0007851073169149458 -0.10419999808073044
0.0038958806544542313 0.0007843538769520819 -0.10409999638795853
0.004423222970217466 0.0007813400006853044 -0.10369999706745148
0.004951169714331627 0.0007790796225890517 -0.10339999943971634
0.0054706670343875885 0.0007760658045299351 -0.10300000011920929
0.005974312778562307 0.0007715449901297688 -0.10239999741315842
0.0064971111714839935 0.0007700380519963801 -0.1021999940276146
0.0070109376683831215 0.0007677776739001274 -0.10189999639987946
0.007543837185949087 0.0007677776739001274 -0.10189999639987946
0.008068809285759926 0.0007670242339372635 -0.10179999470710754
0.008592735975980759 0.0007662707939743996 -0.10170000046491623
0.009115616790950298 0.0007655172958038747 -0.10159999877214432
0.00964694656431675 0.0007655172958038747 -0.10159999877214432
0.010168257169425488 0.0007647638558410108 -0.1014999970793724
0.010688522830605507 0.000764010357670486 -0.1013999953866005
0.011196679435670376 0.0007625034777447581 -0.10119999945163727
0.012218824587762356 0.0007602430414408445 -0.10089999437332153
0.012721228413283825 0.0007587361615151167 -0.1006999984383583
0.01324785128235817 0.0007587361615151167 -0.1006999984383583
0.0142584927380085 0.000756475783418864 -0.10040000081062317
0.014768822118639946 0.0007557223434560001 -0.10029999911785126
0.015217114239931107 0.0007519550272263587 -0.0997999981045723
0.015644406899809837 0.0007474342128261924 -0.09919999539852142
0.01613060012459755 0.0007459273329004645 -0.0989999994635582
0.016631515696644783 0.0007451738347299397 -0.09889999777078629
0.01714872382581234 0.0007451738347299397 -0.09889999777078629
0.017665935680270195 0.0007451738347299397 -0.09889999777078629
0.019694864749908447 0.0007436668965965509 -0.09869999438524246
0.02014959789812565 0.0007414065185002983 -0.09839999675750732
0.020622191950678825 0.0007398996385745704 -0.0982000008225441
0.021092694252729416 0.0007383927004411817 -0.09799999743700027
0.02156110480427742 0.0007368857623077929 -0.09779999405145645
0.02207256108522415 0.0007368857623077929 -0.09779999405145645
0.022630203515291214 0.0007383927004411817 -0.09799999743700027
0.023189937695860863 0.0007398996385745704 -0.0982000008225441
0.023775899782776833 0.0007421600166708231 -0.09849999845027924
0.001736422535032034 0.0002424856647849083 -0.10520000010728836
0.002282231580466032 0.00024202466011047363 -0.10499999672174454
0.0028286452870815992 0.0002417941577732563 -0.10489999502897263
0.0033740135841071606 0.0002415636699879542 -0.10480000078678131
0.003918335307389498 0.00024133316765073687 -0.1046999990940094
0.004453080706298351 0.00024064166063908488 -0.10439999401569366
0.0049607460387051105 0.00023879765649326146 -0.10359999537467957
0.005481289699673653 0.00023787566169630736 -0.10319999605417252
0.005985981784760952 0.00023649267677683383 -0.10260000079870224
0.0064971111714839935 0.0002355706674279645 -0.1021999940276146
0.007017818279564381 0.00023510967730544508 -0.10199999809265137
0.007543837185949087 0.00023487917496822774 -0.10189999639987946
0.008068809285759926 0.00023464865807909518 -0.10179999470710754
0.008592735975980759 0.0002344181848457083 -0.10170000046491623
0.009115616790950298 0.00023418766795657575 -0.10159999877214432
0.00964694656431675 0.00023418766795657575 -0.10159999877214432
0.010168257169425488 0.00023395716561935842 -0.1014999970793724
0.01069906447082758 0.00023395716561935842 -0.1014999970793724
0.011218806728720665 0.0002337266632821411 -0.1013999953866005
0.01172591745853424 0.00023326567315962166 -0.10119999945163727
0.012218824587762356 0.00023257416614796966 -0.10089999437332153
0.012733861804008484 0.00023234367836266756 -0.10080000013113022
0.013760795816779137 0.0002318826736882329 -0.1005999967455864
0.014272693544626236 0.00023165217135101557 -0.10049999505281448
0.014783546328544617 0.00023142168356571347 -0.10040000081062317
0.015247609466314316 0.00023049967421684414 -0.09999999403953552
0.015660177916288376 0.00022888617240823805 -0.09929999709129333
0.01613060012459755 0.0002281946799485013 -0.0989999994635582
0.016631515696644783 0.00022796417761128396 -0.09889999777078629
0.01714872382581234 0.00022796417761128396 -0.09889999777078629
0.017665935680270195 0.00022796417761128396 -0.09889999777078629
0.018164759501814842 0.00022773367527406663 -0.09879999607801437
0.019694864749908447 0.0002275031729368493 -0.09869999438524246
0.02111421898007393 0.00022612018801737577 -0.09809999912977219
0.021605197340250015 0.00022588968568015844 -0.09799999743700027
0.022140270099043846 0.00022612018801737577 -0.09809999912977219
0.022676387801766396 0.0002263506903545931 -0.0982000008225441
0.023237166926264763 0.00022681168047711253 -0.09839999675750732
0.023800037801265717 0.0002272726851515472 -0.09860000014305115
0.0017446753336116672 -0.0003091329417657107 -0.10569999366998672
0.002290925709530711 -0.000308255577692762 -0.10539999604225159
0.0028394313994795084 -0.0003079631133005023 -0.10529999434947968
0.003933305386453867 -0.00030737818451598287 -0.10509999841451645
0.004470142535865307 -0.00030650082044303417 -0.10480000078678131
0.004975111689418554 -0.0003038686409126967 -0.1039000004529953
0.005486601032316685 -0.0003021138545591384 -0.10329999774694443
0.005997649859637022 -0.00030065153259783983 -0.10279999673366547
0.0064971111714839935 -0.00029889674624428153 -0.1021999940276146
0.0070246984250843525 -0.00029860431095585227 -0.10209999978542328
0.007551240269094706 -0.00029831184656359255 -0.10199999809265137
0.00808466225862503 -0.00029831184656359255 -0.10199999809265137
0.008609633892774582 -0.00029801938217133284 -0.10189999639987946
0.00914253294467926 -0.00029801938217133284 -0.10189999639987946
0.00966593623161316 -0.0002977269177790731 -0.10179999470710754
0.010198310948908329 -0.0002977269177790731 -0.10179999470710754
0.010709605179727077 -0.0002971419889945537 -0.10159999877214432
0.011229870840907097 -0.00029684952460229397 -0.1014999970793724
0.01172591745853424 -0.0002959721605293453 -0.10119999945163727
0.012218824587762356 -0.00029509473824873567 -0.10089999437332153
0.012721228413283825 -0.0002945098385680467 -0.1006999984383583
0.013774474151432514 -0.0002945098385680467 -0.1006999984383583
0.014286895282566547 -0.00029421737417578697 -0.1005999967455864
0.014783546328544617 -0.00029363244539126754 -0.10040000081062317
0.01526285707950592 -0.0002927550522144884 -0.10009999573230743
0.015660177916288376 -0.0002904153661802411 -0.09929999709129333
0.016631515696644783 -0.00028924550861120224 -0.09889999777078629
0.01713138446211815 -0.0002889530442189425 -0.09879999607801437
0.01764807291328907 -0.0002889530442189425 -0.09879999607801437
0.018164759501814842 -0.0002889530442189425 -0.09879999607801437
0.02164928987622261 -0.0002871982869692147 -0.0982000008225441
0.02218540757894516 -0.00028749072225764394 -0.09829999506473541
0.022722572088241577 -0.00028778318664990366 -0.09839999675750732
0.023284396156668663 -0.0002883681154344231 -0.09860000014305115
0.023848311975598335 -0.0002889530442189425 -0.09879999607801437
0.0011975424131378531 -0.0008659811574034393 -0.10619999468326569
0.0017512778285890818 -0.0008651657844893634 -0.10610000044107437
0.0023061407264322042 -0.0008651657844893634 -0.10610000044107437
0.0028583072125911713 -0.0008643503533676267 -0.10599999874830246
0.0034029886592179537 -0.0008619040600024164 -0.10569999366998672
0.003933305386453867 -0.0008570115314796567 -0.10509999841451645
0.004470142535865307 -0.0008545652963221073 -0.10480000078678131
0.004975111689418554 -0.0008472264744341373 -0.1039000004529953
0.005486601032316685 -0.0008423338877037168 -0.10329999774694443
0.006003484129905701 -0.0008390721632167697 -0.10289999842643738
0.006509825587272644 -0.0008349950658157468 -0.10239999741315842
0.007031578570604324 -0.0008333642035722733 -0.1021999940276146
0.007558643817901611 -0.0008325488306581974 -0.10209999978542328
0.008092587813735008 -0.0008325488306581974 -0.10209999978542328
0.008618082851171494 -0.0008317333413287997 -0.10199999809265137
0.009151504375040531 -0.0008317333413287997 -0.10199999809265137
0.009684925898909569 -0.0008317333413287997 -0.10199999809265137
0.010198310948908329 -0.0008301024790853262 -0.10179999470710754
0.010709605179727077 -0.0008284716750495136 -0.10159999877214432
0.011196679435670376 -0.0008252099505625665 -0.10119999945163727
0.011679570190608501 -0.0008219482842832804 -0.10080000013113022
0.012182495556771755 -0.0008203174220398068 -0.1005999967455864
0.013733438216149807 -0.0008186865597963333 -0.10040000081062317
0.0142584927380085 -0.0008186865597963333 -0.10040000081062317
0.014768822118639946 -0.0008178711286745965 -0.10029999911785126
0.015217114239931107 -0.0008137940312735736 -0.0997999981045723
0.015691719949245453 -0.0008113477379083633 -0.09950000047683716
0.016114305704832077 -0.0008064552093856037 -0.09889999777078629
0.016614697873592377 -0.0008056397782638669 -0.09879999607801437
0.01713138446211815 -0.0008056397782638669 -0.09879999607801437
0.017630210146307945 -0.0008048242889344692 -0.09869999438524246
0.018127989023923874 -0.0008040089160203934 -0.09860000014305115
0.018643630668520927 -0.0008040089160203934 -0.09860000014305115
0.022253114730119705 -0.0008040089160203934 -0.09860000014305115
0.022791847586631775 -0.0008048242889344692 -0.09869999438524246
0.023331625387072563 -0.0008056397782638669 -0.09879999607801437
0.02387245185673237 -0.0008064552093856037 -0.09889999777078629
0.024414321407675743 -0.0008072706405073404 -0.0989999994635582
0.0006427611224353313 -0.0014227054780349135 -0.1062999963760376
0.0011986700119450688 -0.0014227054780349135 -0.1062999963760376
0.0017562295543029904 -0.001424043788574636 -0.10639999806880951
0.0023126613814383745 -0.001424043788574636 -0.10639999806880951
0.002863700035959482 -0.0014213670510798693 -0.10619999468326569
0.0034029886592179537 -0.0014146750327199697 -0.10569999366998672
0.004470142535865307 -0.0014026296557858586 -0.10480000078678131
0.0049607460387051105 -0.0013865689979866147 -0.10359999537467957
0.005486601032316685 -0.0013825538335368037 -0.10329999774694443
0.006003484129905701 -0.0013772002421319485 -0.10289999842643738
0.006522540468722582 -0.0013731851940974593 -0.10260000079870224
0.007045338861644268 -0.0013705083401873708 -0.10239999741315842
0.0075660464353859425 -0.0013678314862772822 -0.1021999940276146
0.008100513368844986 -0.0013678314862772822 -0.1021999940276146
0.008634980767965317 -0.0013678314862772822 -0.1021999940276146
0.009169448167085648 -0.0013678314862772822 -0.1021999940276146
0.009694421663880348 -0.0013664931757375598 -0.10209999978542328
0.010198310948908329 -0.0013624780112877488 -0.10179999470710754
0.01213405653834343 -0.0013410638784989715 -0.10019999742507935
0.012582267634570599 -0.0013330334331840277 -0.09959999471902847
0.0130899827927351 -0.0013316951226443052 -0.09950000047683716
0.014665748924016953 -0.0013330334331840277 -0.09959999471902847
0.015140876173973083 -0.0013290183851495385 -0.09929999709129333
0.01561286672949791 -0.0013250032206997275 -0.0989999994635582
0.016114305704832077 -0.0013236647937446833 -0.09889999777078629
0.01659788191318512 -0.0013209879398345947 -0.09869999438524246
0.017096705734729767 -0.0013196496292948723 -0.09860000014305115
0.01761234924197197 -0.0013196496292948723 -0.09860000014305115
0.018127989023923874 -0.0013196496292948723 -0.09860000014305115
0.018624721094965935 -0.0013183113187551498 -0.09849999845027924
0.020622191950678825 -0.0013142961543053389 -0.0982000008225441
0.021157262846827507 -0.0013156344648450613 -0.09829999506473541
0.021715428680181503 -0.0013183113187551498 -0.09849999845027924
0.022275682538747787 -0.0013209879398345947 -0.09869999438524246
0.02281493879854679 -0.001322326366789639 -0.09879999607801437
0.023355241864919662 -0.0013236647937446833 -0.09889999777078629
0.023896589875221252 -0.0013250032206997275 -0.0989999994635582
0.02443898282945156 -0.0013263416476547718 -0.09910000115633011
8.660717139719054e-05 -0.0019730303902179003 -0.10599999874830246
0.0006415518582798541 -0.001974891871213913 -0.10610000044107437
0.0011975424131378531 -0.001976753119379282 -0.10619999468326569
0.002310487674549222 -0.001978614367544651 -0.1062999963760376
0.0028583072125911713 -0.0019730303902179003 -0.10599999874830246
0.003393330378457904 -0.001961862202733755 -0.10539999604225159
0.003925820346921682 -0.0019525554962456226 -0.10489999502897263
0.004436018876731396 -0.0019358033314347267 -0.10399999469518661
0.005481289699673653 -0.0019209126476198435 -0.10319999605417252
0.006003484129905701 -0.001915328553877771 -0.10289999842643738
0.00652889721095562 -0.0019116058247163892 -0.10269999504089355
0.007052219472825527 -0.0019078832119703293 -0.10249999910593033
0.007580853067338467 -0.0019060218473896384 -0.10239999741315842
0.008124292828142643 -0.0019078832119703293 -0.10249999910593033
0.008651879616081715 -0.0019060218473896384 -0.10239999741315842
0.009187392890453339 -0.0019060218473896384 -0.10239999741315842
0.009703915566205978 -0.0019022991182282567 -0.1021999940276146
0.010198310948908329 -0.0018948536599054933 -0.10179999470710754
0.010677983053028584 -0.0018855470698326826 -0.10130000114440918
0.012073506601154804 -0.0018557653529569507 -0.09969999641180038
0.012531735934317112 -0.0018464586464688182 -0.09919999539852142
0.013037359341979027 -0.0018445973983034492 -0.09910000115633011
0.013541935943067074 -0.0018427360337227583 -0.0989999994635582
0.014059668406844139 -0.0018427360337227583 -0.0989999994635582
0.014577401801943779 -0.0018427360337227583 -0.0989999994635582
0.015095134265720844 -0.0018427360337227583 -0.0989999994635582
0.015597095713019371 -0.0018408745527267456 -0.09889999777078629
0.016098011285066605 -0.0018390131881460547 -0.09879999607801437
0.016581065952777863 -0.0018352905753999949 -0.09860000014305115
0.017096705734729767 -0.0018352905753999949 -0.09860000014305115
0.01761234924197197 -0.0018352905753999949 -0.09860000014305115
0.018109604716300964 -0.001833429210819304 -0.09849999845027924
0.018624721094965935 -0.001833429210819304 -0.09849999845027924
0.020643191412091255 -0.0018297064816579223 -0.09829999506473541
0.02117878757417202 -0.0018315678462386131 -0.09839999675750732
0.02175951935350895 -0.0018371518235653639 -0.09869999438524246
0.02281493879854679 -0.0018390131881460547 -0.09879999607801437
0.023355241864919662 -0.0018408745527267456 -0.09889999777078629
0.023920727893710136 -0.0018445973983034492 -0.09910000115633011
0.02446364238858223 -0.0018464586464688182 -0.09919999539852142
-0.00046640902291983366 -0.002520217327401042 -0.10569999366998672
8.644375338917598e-05 -0.0025226017460227013 -0.10579999536275864
0.000640342477709055 -0.002524985931813717 -0.10589999705553055
0.0011952872155234218 -0.002527370350435376 -0.10599999874830246
0.0023039672523736954 -0.002527370350435376 -0.10599999874830246
0.002847521100193262 -0.0025178331416100264 -0.10559999942779541
0.0033804525155574083 -0.0025035273283720016 -0.10499999672174454
0.003892138134688139 -0.0024796840734779835 -0.10399999469518661
0.00441042659804225 -0.0024653782602399588 -0.10339999943971634
0.004936804063618183 -0.0024582252372056246 -0.1030999943614006
0.005465355701744556 -0.0024534566327929497 -0.10289999842643738
0.005991815589368343 -0.0024486880283802748 -0.10269999504089355
0.006516183260828257 -0.0024439194239676 -0.10249999910593033
0.007045338861644268 -0.0024415352381765842 -0.10239999741315842
0.007580853067338467 -0.0024415352381765842 -0.10239999741315842
0.00811636634171009 -0.0024415352381765842 -0.10239999741315842
0.008643430657684803 -0.002439150819554925 -0.1022999957203865
0.009169448167085648 -0.0024367664009332657 -0.1021999940276146
0.009694421663880348 -0.00243438221514225 -0.10209999978542328
0.010198310948908329 -0.002427229192107916 -0.10179999470710754
0.010688522830605507 -0.002417691983282566 -0.1013999953866005
0.011141359806060791 -0.002401001751422882 -0.1006999984383583
0.011621635407209396 -0.0023914645425975323 -0.10029999911785126
0.012544369325041771 -0.0023676215205341578 -0.09929999709129333
0.013024203479290009 -0.0023604684974998236 -0.0989999994635582
0.013528257608413696 -0.002358084311708808 -0.09889999777078629
0.014045466668903828 -0.002358084311708808 -0.09889999777078629
0.014562676660716534 -0.002358084311708808 -0.09889999777078629
0.016081716865301132 -0.0023533154744654894 -0.09869999438524246
0.01659788191318512 -0.0023533154744654894 -0.09869999438524246
0.017096705734729767 -0.0023509312886744738 -0.09860000014305115
0.01761234924197197 -0.0023509312886744738 -0.09860000014305115
0.018127989023923874 -0.0023509312886744738 -0.09860000014305115
0.018643630668520927 -0.0023509312886744738 -0.09860000014305115
0.020706193521618843 -0.0023509312886744738 -0.09860000014305115
0.021221833303570747 -0.0023509312886744738 -0.09860000014305115
0.021781565621495247 -0.0023556998930871487 -0.09879999607801437
0.022838031873106956 -0.002358084311708808 -0.09889999777078629
0.023378856480121613 -0.0023604684974998236 -0.0989999994635582
0.023920727893710136 -0.002362852916121483 -0.09910000115633011
0.02446364238858223 -0.0023652371019124985 -0.09919999539852142
-0.0004655265074688941 -0.00306717399507761 -0.1054999977350235
8.61169392010197e-05 -0.003064266638830304 -0.10539999604225159
0.0022974463645368814 -0.0030729882419109344 -0.10569999366998672
0.0028394313994795084 -0.0030613592825829983 -0.10529999434947968
0.0033804525155574083 -0.0030526374466717243 -0.10499999672174454
0.0038846535608172417 -0.003017750335857272 -0.10379999876022339
0.00441042659804225 -0.0030061211436986923 -0.10339999943971634
0.0049272277392446995 -0.0029915848281234503 -0.10289999842643738
0.005454733036458492 -0.0029857701156288385 -0.10269999504089355
0.005985981784760952 -0.0029828629922121763 -0.10260000079870224
0.006509825587272644 -0.0029770485125482082 -0.10239999741315842
0.007045338861644268 -0.0029770485125482082 -0.10239999741315842
0.007573449984192848 -0.0029741411563009024 -0.1022999957203865
0.008100513368844986 -0.0029712338000535965 -0.1021999940276146
0.008634980767965317 -0.0029712338000535965 -0.1021999940276146
0.009169448167085648 -0.0029712338000535965 -0.1021999940276146
0.009694421663880348 -0.0029683266766369343 -0.10209999978542328
0.010208329185843468 -0.0029625119641423225 -0.10189999639987946
0.01072014681994915 -0.0029566974844783545 -0.10170000046491623
0.011207743547856808 -0.0029450685251504183 -0.10130000114440918
0.011667982675135136 -0.0029276248533278704 -0.1006999984383583
0.01305051427334547 -0.0028840156737715006 -0.09919999539852142
0.013528257608413696 -0.0028752938378602266 -0.09889999777078629
0.014045466668903828 -0.0028752938378602266 -0.09889999777078629
0.014562676660716534 -0.0028752938378602266 -0.09889999777078629
0.016614697873592377 -0.0028723864816129208 -0.09879999607801437
0.01713138446211815 -0.0028723864816129208 -0.09879999607801437
0.01764807291328907 -0.0028723864816129208 -0.09879999607801437
0.018164759501814842 -0.0028723864816129208 -0.09879999607801437
0.01866253837943077 -0.002869479125365615 -0.09869999438524246
0.019694864749908447 -0.002869479125365615 -0.09869999438524246
0.020211027935147285 -0.002869479125365615 -0.09869999438524246
0.020748192444443703 -0.0028723864816129208 -0.09879999607801437
0.021264879032969475 -0.0028723864816129208 -0.09879999607801437
0.021781565621495247 -0.0028723864816129208 -0.09879999607801437
0.022838031873106956 -0.0028752938378602266 -0.09889999777078629
0.023355241864919662 -0.0028752938378602266 -0.09889999777078629
0.023896589875221252 -0.0028782011941075325 -0.0989999994635582
0.02443898282945156 -0.0028811085503548384 -0.09910000115633011
-0.0004646439920179546 -0.0036120384465903044 -0.10529999434947968
8.603523019701242e-05 -0.0036120384465903044 -0.10529999434947968
0.0022952728904783726 -0.0036223293282091618 -0.10559999942779541
0.002836734987795353 -0.0036086083855479956 -0.10520000010728836
0.0033772329334169626 -0.003598317503929138 -0.10489999502897263
0.0038846535608172417 -0.003560584969818592 -0.10379999876022339
0.00441042659804225 -0.003546864027157426 -0.10339999943971634
0.004922439344227314 -0.0035262827295809984 -0.10279999673366547
0.0054494221694767475 -0.003519422374665737 -0.10260000079870224
0.005974312778562307 -0.0035125617869198322 -0.10239999741315842
0.006503468379378319 -0.0035091314930468798 -0.1022999957203865
0.007031578570604324 -0.0035057011991739273 -0.1021999940276146
0.0075660464353859425 -0.0035057011991739273 -0.1021999940276146
0.008100513368844986 -0.0035057011991739273 -0.1021999940276146
0.008634980767965317 -0.0035057011991739273 -0.1021999940276146
0.009160476736724377 -0.0035022711381316185 -0.10209999978542328
0.009694421663880348 -0.0035022711381316185 -0.10209999978542328
0.010218347422778606 -0.003498840844258666 -0.10199999809265137
0.010741228237748146 -0.0034954105503857136 -0.10189999639987946
0.01125199906527996 -0.0034885501954704523 -0.10170000046491623
0.011749090626835823 -0.003478259313851595 -0.1013999953866005
0.012683330103754997 -0.0034439570736140013 -0.10040000081062317
0.013569293543696404 -0.003402794012799859 -0.09919999539852142
0.016614697873592377 -0.003389073070138693 -0.09879999607801437
0.01713138446211815 -0.003389073070138693 -0.09879999607801437
0.01764807291328907 -0.003389073070138693 -0.09879999607801437
0.018164759501814842 -0.003389073070138693 -0.09879999607801437
0.018681446090340614 -0.003389073070138693 -0.09879999607801437
0.02023150585591793 -0.003389073070138693 -0.09879999607801437
0.020748192444443703 -0.003389073070138693 -0.09879999607801437
0.021286403760313988 -0.0033925033640116453 -0.09889999777078629
0.021803611889481544 -0.0033925033640116453 -0.09889999777078629
0.02232082188129425 -0.0033925033640116453 -0.09889999777078629
0.022838031873106956 -0.0033925033640116453 -0.09889999777078629
0.023378856480121613 -0.0033959336578845978 -0.0989999994635582
0.023896589875221252 -0.0033959336578845978 -0.0989999994635582
0.02443898282945156 -0.0033993639517575502 -0.09910000115633011
-0.001018216018564999 -0.004174577537924051 -0.10559999942779541
-0.0004650852642953396 -0.004166671074926853 -0.10539999604225159
0.0011896489886566997 -0.004170624073594809 -0.1054999977350235
0.0017446753336116672 -0.004178530536592007 -0.10569999366998672
0.0022974463645368814 -0.004178530536592007 -0.10569999366998672
0.002844824455678463 -0.004170624073594809 -0.1054999977350235
0.003386891447007656 -0.004158764611929655 -0.10520000010728836
0.00392207782715559 -0.004142951685935259 -0.10480000078678131
0.0044189575128257275 -0.0040955133736133575 -0.10359999537467957
0.004936804063618183 -0.004075747448951006 -0.1030999943614006
0.005444110371172428 -0.004052028059959412 -0.10249999910593033
0.0064971111714839935 -0.004040168598294258 -0.1021999940276146
0.0070246984250843525 -0.004036215599626303 -0.10209999978542328
0.007551240269094706 -0.00403226213529706 -0.10199999809265137
0.00808466225862503 -0.00403226213529706 -0.10199999809265137
0.008618082851171494 -0.00403226213529706 -0.10199999809265137
0.009151504375040531 -0.00403226213529706 -0.10199999809265137
0.009684925898909569 -0.00403226213529706 -0.10199999809265137
0.010208329185843468 -0.004028309136629105 -0.10189999639987946
0.010741228237748146 -0.004028309136629105 -0.10189999639987946
0.011263062246143818 -0.004024355672299862 -0.10179999470710754
0.01177226472645998 -0.004016449674963951 -0.10159999877214432
0.01316891610622406 -0.003957151435315609 -0.10009999573230743
0.016114305704832077 -0.003909713122993708 -0.09889999777078629
0.016631515696644783 -0.003909713122993708 -0.09889999777078629
0.01714872382581234 -0.003909713122993708 -0.09889999777078629
0.017665935680270195 -0.003909713122993708 -0.09889999777078629
0.0181831456720829 -0.003909713122993708 -0.09889999777078629
0.018700355663895607 -0.003909713122993708 -0.09889999777078629
0.019217563793063164 -0.003909713122993708 -0.09889999777078629
0.01973477378487587 -0.003909713122993708 -0.09889999777078629
0.020251983776688576 -0.003909713122993708 -0.09889999777078629
0.020769193768501282 -0.003909713122993708 -0.09889999777078629
0.021286403760313988 -0.003909713122993708 -0.09889999777078629
0.021803611889481544 -0.003909713122993708 -0.09889999777078629
0.022343391552567482 -0.003913666121661663 -0.0989999994635582
0.022861124947667122 -0.003913666121661663 -0.0989999994635582
0.023378856480121613 -0.003913666121661663 -0.0989999994635582
0.023920727893710136 -0.003917619585990906 -0.09910000115633011
0.02446364238858223 -0.003921572584658861 -0.09919999539852142
-0.001021108590066433 -0.004740254487842321 -0.10589999705553055
-0.0004659677797462791 -0.004726825747638941 -0.10559999942779541
8.619864092906937e-05 -0.004722349811345339 -0.1054999977350235
0.0011941595003008842 -0.004740254487842321 -0.10589999705553055
0.0017512778285890818 -0.004749206826090813 -0.10610000044107437
0.002308314200490713 -0.004753682762384415 -0.10619999468326569
0.002863700035959482 -0.004753682762384415 -0.10619999468326569
0.003412647172808647 -0.004744730424135923 -0.10599999874830246
0.0039445324800908566 -0.0047178734093904495 -0.10539999604225159
0.004951169714331627 -0.004628350492566824 -0.10339999943971634
0.005454733036458492 -0.004597017075866461 -0.10269999504089355
0.00596264423802495 -0.004574635997414589 -0.1021999940276146
0.0064971111714839935 -0.004574635997414589 -0.1021999940276146
0.007551240269094706 -0.004565684124827385 -0.10199999809265137
0.00808466225862503 -0.004565684124827385 -0.10199999809265137
0.008609633892774582 -0.004561207722872496 -0.10189999639987946
0.00914253294467926 -0.004561207722872496 -0.10189999639987946
0.009675431065261364 -0.004561207722872496 -0.10189999639987946
0.010208329185843468 -0.004561207722872496 -0.10189999639987946
0.010730686597526073 -0.004556731786578894 -0.10179999470710754
0.011263062246143818 -0.004556731786578894 -0.10179999470710754
0.011783851310610771 -0.004552255850285292 -0.10170000046491623
0.01320838462561369 -0.004494065418839455 -0.10040000081062317
0.013692401349544525 -0.004480636678636074 -0.10009999573230743
0.014159080572426319 -0.004462732467800379 -0.09969999641180038
0.014621575362980366 -0.004444827791303396 -0.09929999709129333
0.015110381878912449 -0.004435875453054905 -0.09910000115633011
0.01561286672949791 -0.004431399516761303 -0.0989999994635582
0.016114305704832077 -0.004426923114806414 -0.09889999777078629
0.016631515696644783 -0.004426923114806414 -0.09889999777078629
0.01714872382581234 -0.004426923114806414 -0.09889999777078629
0.01820153184235096 -0.004431399516761303 -0.0989999994635582
0.01871926337480545 -0.004431399516761303 -0.0989999994635582
0.01923699676990509 -0.004431399516761303 -0.0989999994635582
0.01973477378487587 -0.004426923114806414 -0.09889999777078629
0.02027246169745922 -0.004431399516761303 -0.0989999994635582
0.02079019322991371 -0.004431399516761303 -0.0989999994635582
0.02130792662501335 -0.004431399516761303 -0.0989999994635582
0.02182566002011299 -0.004431399516761303 -0.0989999994635582
0.022343391552567482 -0.004431399516761303 -0.0989999994635582
0.022884216159582138 -0.004435875453054905 -0.09910000115633011
0.023402472957968712 -0.004435875453054905 -0.09910000115633011
0.02394486404955387 -0.004440351389348507 -0.09919999539852142
0.024537626653909683 -0.0044537801295518875 -0.09950000047683716
0.025108342990279198 -0.004462732467800379 -0.09969999641180038
-0.0015793871134519577 -0.005309068597853184 -0.10619999468326569
-0.0010220728581771255 -0.005299070384353399 -0.10599999874830246
-0.0004672915383707732 -0.005294071044772863 -0.10589999705553055
8.652546239318326e-05 -0.005294071044772863 -0.10589999705553055
0.000640947138890624 -0.005299070384353399 -0.10599999874830246
0.0011975424131378531 -0.005309068597853184 -0.10619999468326569
0.0017562295543029904 -0.005319066811352968 -0.10639999806880951
0.0023148348554968834 -0.005324066150933504 -0.10649999976158142
0.0028744861483573914 -0.005329065024852753 -0.10659999400377274
0.0034319639671593904 -0.005329065024852753 -0.10659999400377274
0.003981956746429205 -0.005319066811352968 -0.10639999806880951
0.0049703228287398815 -0.005189089570194483 -0.10379999876022339
0.005491912364959717 -0.005169093143194914 -0.10339999943971634
0.005991815589368343 -0.005134099163115025 -0.10269999504089355
0.0064971111714839935 -0.00510910339653492 -0.1021999940276146
0.007017818279564381 -0.005099105648696423 -0.10199999809265137
0.008076735772192478 -0.005094106309115887 -0.10189999639987946
0.008609633892774582 -0.005094106309115887 -0.10189999639987946
0.00914253294467926 -0.005094106309115887 -0.10189999639987946
0.009675431065261364 -0.005094106309115887 -0.10189999639987946
0.010198310948908329 -0.005089106969535351 -0.10179999470710754
0.010730686597526073 -0.005089106969535351 -0.10179999470710754
0.01125199906527996 -0.005084108095616102 -0.10170000046491623
0.011760677210986614 -0.005074109882116318 -0.1014999970793724
0.012267264537513256 -0.005064111668616533 -0.10130000114440918
0.013221539556980133 -0.005024118348956108 -0.10049999505281448
0.01371975988149643 -0.005014120601117611 -0.10029999911785126
0.01421588659286499 -0.005004121921956539 -0.10009999573230743
0.014680473133921623 -0.00498412549495697 -0.09969999641180038
0.015628637745976448 -0.004954131320118904 -0.09910000115633011
0.01613060012459755 -0.004949131980538368 -0.0989999994635582
0.01664833165705204 -0.004949131980538368 -0.0989999994635582
0.01718340441584587 -0.004954131320118904 -0.09910000115633011
0.017701661214232445 -0.004954131320118904 -0.09910000115633011
0.01821991614997387 -0.004954131320118904 -0.09910000115633011
0.018738172948360443 -0.004954131320118904 -0.09910000115633011
0.019256427884101868 -0.004954131320118904 -0.09910000115633011
0.019774682819843292 -0.004954131320118904 -0.09910000115633011
0.020292939618229866 -0.004954131320118904 -0.09910000115633011
0.02081119455397129 -0.004954131320118904 -0.09910000115633011
0.021329449489712715 -0.004954131320118904 -0.09910000115633011
0.02184770628809929 -0.004954131320118904 -0.09910000115633011
0.022388529032468796 -0.004959129728376865 -0.09919999539852142
0.022907307371497154 -0.004959129728376865 -0.09919999539852142
0.023473316803574562 -0.004969128407537937 -0.09939999878406525
0.024041416123509407 -0.004979126155376434 -0.09959999471902847
0.024636270478367805 -0.004994124174118042 -0.09989999979734421
0.025209078565239906 -0.005004121921956539 -0.10009999573230743
-0.0021347731817513704 -0.005864454433321953 -0.10619999468326569
-0.0015793871134519577 -0.005864454433321953 -0.10619999468326569
-0.001023037126287818 -0.005858932621777058 -0.10610000044107437
-0.0004681740829255432 -0.005858932621777058 -0.10610000044107437
8.677057485328987e-05 -0.005864454433321953 -0.10619999468326569
0.0006421564612537622 -0.005864454433321953 -0.10619999468326569
0.0011986700119450688 -0.005869976710528135 -0.1062999963760376
0.0017578802071511745 -0.005881020799279213 -0.10649999976158142
0.0023170083295553923 -0.005886542610824108 -0.10659999400377274
0.0028744861483573914 -0.005886542610824108 -0.10659999400377274
0.0034319639671593904 -0.005886542610824108 -0.10659999400377274
0.003985699266195297 -0.005881020799279213 -0.10649999976158142
0.004521327093243599 -0.005853410344570875 -0.10599999874830246
0.005046936683356762 -0.005820277612656355 -0.10539999604225159
0.005497223697602749 -0.005715358071029186 -0.10349999368190765
0.006015152670443058 -0.005693269893527031 -0.1030999943614006
0.006509825587272644 -0.0056546153500676155 -0.10239999741315842
0.0070246984250843525 -0.005638048984110355 -0.10209999978542328
0.007551240269094706 -0.00563252717256546 -0.10199999809265137
0.008076735772192478 -0.005627004895359278 -0.10189999639987946
0.008609633892774582 -0.005627004895359278 -0.10189999639987946
0.009133560582995415 -0.005621482618153095 -0.10179999470710754
0.00966593623161316 -0.005621482618153095 -0.10179999470710754
0.010188293643295765 -0.0056159608066082 -0.10170000046491623
0.010709605179727077 -0.005610438529402018 -0.10159999877214432
0.011229870840907097 -0.005604916252195835 -0.1014999970793724
0.011749090626835823 -0.00559939444065094 -0.1013999953866005
0.012267264537513256 -0.005593872629106045 -0.10130000114440918
0.01324785128235817 -0.0055607398971915245 -0.1006999984383583
0.013733438216149807 -0.005544173531234264 -0.10040000081062317
0.014244291000068188 -0.005538651719689369 -0.10029999911785126
0.01472464669495821 -0.005522084888070822 -0.09999999403953552
0.015201866626739502 -0.005505518987774849 -0.09969999641180038
0.015660177916288376 -0.005483430810272694 -0.09929999709129333
0.016681963577866554 -0.005477908533066511 -0.09919999539852142
0.017200741916894913 -0.005477908533066511 -0.09919999539852142
0.017737384885549545 -0.005483430810272694 -0.09929999709129333
0.018256686627864838 -0.005483430810272694 -0.09929999709129333
0.01877598837018013 -0.005483430810272694 -0.09929999709129333
0.019295290112495422 -0.005483430810272694 -0.09929999709129333
0.019814591854810715 -0.005483430810272694 -0.09929999709129333
0.020333891734480858 -0.005483430810272694 -0.09929999709129333
0.02085319347679615 -0.005483430810272694 -0.09929999709129333
0.021372495219111443 -0.005483430810272694 -0.09929999709129333
0.021891796961426735 -0.005483430810272694 -0.09929999709129333
0.02245623804628849 -0.005494474899023771 -0.09950000047683716
0.023022767156362534 -0.005505518987774849 -0.09969999641180038
0.02359139174222946 -0.005516563076525927 -0.09989999979734421
0.024162106215953827 -0.005527607165277004 -0.10009999573230743
0.02471025288105011 -0.005533129442483187 -0.10019999742507935
0.02525944635272026 -0.005538651719689369 -0.10029999911785126
0.02580968476831913 -0.005544173531234264 -0.10040000081062317
-0.0021347731817513704 -0.006419840268790722 -0.10619999468326569
-0.0015779000241309404 -0.00641379551962018 -0.10610000044107437
-0.0004681740829255432 -0.00641379551962018 -0.10610000044107437
0.0006421564612537622 -0.006419840268790722 -0.10619999468326569
0.0011975424131378531 -0.006419840268790722 -0.10619999468326569
0.0017545790178701282 -0.006425885483622551 -0.1062999963760376
0.0023126613814383745 -0.00643193069845438 -0.10639999806880951
0.0028690930921584368 -0.00643193069845438 -0.10639999806880951
0.0034223056863993406 -0.006425885483622551 -0.1062999963760376
0.00397447170689702 -0.006419840268790722 -0.10619999468326569
0.004500000271946192 -0.00637752516195178 -0.1054999977350235
0.0050229947082698345 -0.0063412548042833805 -0.10489999502897263
0.005502535030245781 -0.006262668874114752 -0.10359999537467957
0.006015152670443058 -0.006232443731278181 -0.1030999943614006
0.006522540468722582 -0.006202219054102898 -0.10260000079870224
0.007031578570604324 -0.006178038194775581 -0.1021999940276146
0.007551240269094706 -0.0061659482307732105 -0.10199999809265137
0.008076735772192478 -0.006159903481602669 -0.10189999639987946
0.00860118493437767 -0.00615385826677084 -0.10179999470710754
0.009133560582995415 -0.00615385826677084 -0.10179999470710754
0.00964694656431675 -0.006141768302768469 -0.10159999877214432
0.010168257169425488 -0.00613572308793664 -0.1014999970793724
0.010688522830605507 -0.006129677873104811 -0.1013999953866005
0.011218806728720665 -0.006129677873104811 -0.1013999953866005
0.011749090626835823 -0.006129677873104811 -0.1013999953866005
0.012784392572939396 -0.00611758790910244 -0.10119999945163727
0.013774474151432514 -0.006087362766265869 -0.1006999984383583
0.0142584927380085 -0.006069227587431669 -0.10040000081062317
0.014768822118639946 -0.0060631828382611275 -0.10029999911785126
0.01526285707950592 -0.006051092408597469 -0.10009999573230743
0.016228359192609787 -0.006020867265760899 -0.09959999471902847
0.016749229282140732 -0.006020867265760899 -0.09959999471902847
0.017270101234316826 -0.006020867265760899 -0.09959999471902847
0.01779097132384777 -0.006020867265760899 -0.09959999471902847
0.018330227583646774 -0.00602691201493144 -0.09969999641180038
0.018851621076464653 -0.00602691201493144 -0.09969999641180038
0.019373014569282532 -0.00602691201493144 -0.09969999641180038
0.01989440806210041 -0.00602691201493144 -0.09969999641180038
0.020395323634147644 -0.006020867265760899 -0.09959999471902847
0.02091619372367859 -0.006020867265760899 -0.09959999471902847
0.021437063813209534 -0.006020867265760899 -0.09959999471902847
0.021979982033371925 -0.00602691201493144 -0.09969999641180038
0.022546513006091118 -0.0060390024445950985 -0.09989999979734421
0.023115135729312897 -0.006051092408597469 -0.10009999573230743
0.023662235587835312 -0.006057137623429298 -0.10019999742507935
-0.002130752895027399 -0.006962090730667114 -0.10599999874830246
-0.0015764128183946013 -0.006962090730667114 -0.10599999874830246
-0.0004672915383707732 -0.006955522578209639 -0.10589999705553055
0.000640342477709055 -0.006955522578209639 -0.10589999705553055
0.0011952872155234218 -0.006962090730667114 -0.10599999874830246
0.0017479766393080354 -0.006955522578209639 -0.10589999705553055
0.002299620071426034 -0.006948954425752163 -0.10579999536275864
0.002847521100193262 -0.006935818586498499 -0.10559999942779541
0.003386891447007656 -0.006909546907991171 -0.10520000010728836
0.003929562866687775 -0.0068964106030762196 -0.10499999672174454
0.004461611621081829 -0.006870138458907604 -0.10459999740123749
0.004975111689418554 -0.0068241627886891365 -0.1039000004529953
0.005486601032316685 -0.00678475433960557 -0.10329999774694443
0.006009318865835667 -0.00676505034789443 -0.10300000011920929
0.006509825587272644 -0.006725642364472151 -0.10239999741315842
0.007017818279564381 -0.0066993702203035355 -0.10199999809265137
0.007543837185949087 -0.00669280206784606 -0.10189999639987946
0.008068809285759926 -0.006686233915388584 -0.10179999470710754
0.008592735975980759 -0.006679666228592396 -0.10170000046491623
0.009115616790950298 -0.00667309807613492 -0.10159999877214432
0.00963745079934597 -0.0066665299236774445 -0.1014999970793724
0.010148221626877785 -0.006653394550085068 -0.10130000114440918
0.010667441412806511 -0.006646826397627592 -0.10119999945163727
0.011207743547856808 -0.006653394550085068 -0.10130000114440918
0.011749090626835823 -0.006659961771219969 -0.1013999953866005
0.012291484512388706 -0.0066665299236774445 -0.1014999970793724
0.012809657491743565 -0.006659961771219969 -0.1013999953866005
0.01331363059580326 -0.006646826397627592 -0.10119999945163727
0.013801831752061844 -0.006627121940255165 -0.10089999437332153
0.014301097020506859 -0.006613986101001501 -0.1006999984383583
0.014798270538449287 -0.00660084979608655 -0.10049999505281448
0.015308600850403309 -0.006594282109290361 -0.10040000081062317
0.015802113339304924 -0.00658114580437541 -0.10019999742507935
0.01630982756614685 -0.006574577651917934 -0.10009999573230743
0.0167996808886528 -0.006561442278325558 -0.09989999979734421
0.017304779961705208 -0.006554874125868082 -0.0997999981045723
0.017844559624791145 -0.006561442278325558 -0.09989999979734421
0.018366999924182892 -0.006561442278325558 -0.09989999979734421
0.01888943836092949 -0.006561442278325558 -0.09989999979734421
0.019411878660321236 -0.006561442278325558 -0.09989999979734421
0.019934317097067833 -0.006561442278325558 -0.09989999979734421
0.02045675739645958 -0.006561442278325558 -0.09989999979734421
0.020979195833206177 -0.006561442278325558 -0.09989999979734421
0.021501634269952774 -0.006561442278325558 -0.09989999979734421
0.022068165242671967 -0.006574577651917934 -0.10009999573230743
-0.0021287426352500916 -0.007509339600801468 -0.10589999705553055
-0.0010191801702603698 -0.007495157420635223 -0.10569999366998672
-0.00046640902291983366 -0.007495157420635223 -0.10569999366998672
0.0011907767038792372 -0.0074880667962133884 -0.10559999942779541
0.0017380730714648962 -0.007466793525964022 -0.10529999434947968
0.0022844052873551846 -0.0074526118114590645 -0.10509999841451645
0.0028286452870815992 -0.00743842963129282 -0.10489999502897263
0.0033579161390662193 -0.007395884022116661 -0.10429999977350235
0.0038809110410511494 -0.007353337947279215 -0.10369999706745148
0.00441042659804225 -0.007332065608352423 -0.10339999943971634
0.005465355701744556 -0.007296610623598099 -0.10289999842643738
0.005980147048830986 -0.007268246728926897 -0.10249999910593033
0.006490753963589668 -0.007239882834255695 -0.10209999978542328
0.0070109376683831215 -0.007225700654089451 -0.10189999639987946
0.007536433637142181 -0.007218609564006329 -0.10179999470710754
0.008060883730649948 -0.007211518939584494 -0.10170000046491623
0.008575838059186935 -0.007197336759418249 -0.1014999970793724
0.009097672067582607 -0.007190245669335127 -0.1013999953866005
0.009608966298401356 -0.00717606395483017 -0.10119999945163727
0.010128186084330082 -0.007168972864747047 -0.10109999775886536
0.010656900703907013 -0.007168972864747047 -0.10109999775886536
0.011196679435670376 -0.00717606395483017 -0.10119999945163727
0.011760677210986614 -0.007197336759418249 -0.1014999970793724
0.012315704487264156 -0.007211518939584494 -0.10170000046491623
0.012847556732594967 -0.007211518939584494 -0.10170000046491623
0.013379408977925777 -0.007211518939584494 -0.10170000046491623
0.013883903622627258 -0.007197336759418249 -0.1014999970793724
0.014372105710208416 -0.00717606395483017 -0.10119999945163727
