ply
format ascii 1.0
element vertex 741
property float x
property float y
property float z
end_header
0.014262639688640078 -0.002215575741206513 0.003205707063898444
0.013787633941631761 -0.002489820437108383 0.0034799515269696712
0.013312629001172454 -0.0027640646673489666 0.003582229372113943
0.012837624060713145 -0.00303830889758955 0.0038221930153667927
0.01236261831370483 -0.0033125535934914207 0.00392446992918849
0.011887613373245521 -0.0035867978237320037 0.003991955425590277
0.011412608432786214 -0.003861042053972587 0.004094233270734549
0.010937603089052401 -0.004135286517043814 0.004299916326999664
0.01046259774531859 -0.004409530980115041 0.004298194777220488
0.009987592401584778 -0.004683775443186268 0.003563488367944956
0.009512587057850967 -0.0049580199062574945 0.0017988105537369847
0.009037582117391658 -0.005232264136498078 0.002667447552084923
0.008562576773657847 -0.005506508599569305 0.003112699370831251
0.008087571429924034 -0.005780753062640532 0.0034555047750473022
0.007612566287827474 -0.006054997409296437 0.003557782620191574
0.007137561145730915 -0.006329241755952343 0.0037634659092873335
0.006662555801997102 -0.00660348621902357 0.002220181515440345
0.006187550659900543 -0.006877730565679474 0.0026654337998479605
0.005712545416985356 -0.00715197497054304 0.00287111708894372
0.00523754017407017 -0.007426219375406606 0.002835089573636651
0.004762534981564298 -0.007700463751166342 0.0029025741387158632
0.0042875297386491115 -0.007974708156029908 0.0016866544028744102
0.003812524546143239 -0.008248952531789644 0.0021998269949108362
0.003337519303228053 -0.00852319693665321 0.0023712296970188618
0.002862514060312867 -0.008797441341516776 0.002611193573102355
0.0023875089182163072 -0.009071685688172682 0.0012491579400375485
0.0019125035744824953 -0.009345930151243909 0.001728332950733602
0.0014374984323859354 -0.009620174497899814 0.002105419058352709
0.0009624932902893756 -0.009894418844555717 0.00096127885626629
0.0004874879465555635 -0.010168663307626944 0.0014744530199095607
-0.0004625223376375562 -0.010717152000938755 0.0011644085170701146
-0.0014125330251051802 -0.011265640927081209 0.0009585991501808167
0.01826344153563128 0.0007276282027406195 0.0007839648169465363
0.01778843740172098 0.00045338443816132345 0.0012225044192746282
0.017313431654712667 0.00017913974225945283 0.0018913308158516884
0.016838426714253358 -9.510448798113046e-05 0.0013781582238152623
0.01636342177379405 -0.00036934871822171374 0.0033321490045636892
0.015888416026785732 -0.0006435934141235844 0.0031607463024556637
0.015413411086326425 -0.0009178376443641676 0.0029207824263721704
0.01493840533931811 -0.0011920823402660383 0.0023047870490700006
0.014463400398858801 -0.0014663265705066215 0.0015828341711312532
0.013988395458399494 -0.001740570800747205 0.0023258577566593885
0.013513389711391178 -0.0020148154966490753 0.004020160064101219
0.01303838477093187 -0.0022890597268896587 0.0039873574860394
0.012563379830472562 -0.002563303957130242 0.0038159547839313745
0.012088374083464247 -0.002837548653032113 0.0034731493797153234
0.011613369143004938 -0.003111792883272696 0.0029939748346805573
0.01113836420254563 -0.0033860371135132792 0.004429428838193417
0.010663358858811818 -0.0036602815765845063 0.004258026368916035
0.010188353515078007 -0.003934526039655733 0.0044251070357859135
0.009713348171344194 -0.0042087705027269605 0.0043228305876255035
0.009238342827610383 -0.004483014965798187 0.0041171470656991005
0.008763337887151074 -0.00475725919603877 0.004153175745159388
0.008288332543417263 -0.005031503659109997 0.0038446509279310703
0.00781332719968345 -0.005305748122181224 0.0036732482258230448
0.0073383220575868905 -0.0055799924688371295 0.0033647234085947275
0.0068633169154903315 -0.005854236815493035 0.0030561983585357666
0.006388311571756519 -0.006128481278564262 0.0026109456084668636
0.00591330642965996 -0.006402725625220166 0.0020293998531997204
0.005438301186744773 -0.006676970030083732 0.0031735387165099382
0.004963295943829587 -0.0069512144349472985 0.002933574840426445
0.004488290751323715 -0.007225458810707034 0.0024883237201720476
0.004013285508408528 -0.0074997032155706 0.001941039110533893
0.0035382803159026556 -0.007773947591330336 0.001393754966557026
0.0030632750729874697 -0.008048191996193901 0.0025027377996593714
0.0025882698300722837 -0.008322436401057468 0.001921192859299481
0.002113264687975724 -0.008596680747713373 0.0013396465219557285
0.0016382593442419119 -0.0088709252107846 0.0008264739299193025
0.001163254202145352 -0.009145169557440505 0.001970612443983555
0.0006882490600487922 -0.00941941390409641 0.0015253601595759392
0.0002132437163149801 -0.009693658367167637 0.0009093647822737694
-0.0007367665678781396 -0.010242147060479448 0.0012198894983157516
0.017514193171480397 0.0009283893786206313 0.0009768980089575052
0.017039187424472083 0.0006541446827187607 0.0017720796167850494
0.016564182484012775 0.0003799004524781774 0.0022852520924061537
0.016089177543553466 0.00010565622223759412 0.002730503911152482
0.01561417179654515 -0.00016858847366427648 0.0030390287283807993
0.015139166856085842 -0.0004428327039048598 0.0032789926044642925
0.014664161109077527 -0.0007170773998067304 0.0036560785956680775
0.013239145481150594 -0.0015398105561897676 0.0017683155601844192
0.012764140540691287 -0.0018140547864303508 0.002853288548067212
0.012289135600231978 -0.0020882990166709342 0.003469283925369382
0.011814129853223663 -0.002362543712572805 0.0037435281556099653
0.011339124912764354 -0.002636787942813388 0.004017772618681192
0.010864119972305047 -0.0029110321730539714 0.004189175553619862
0.010389114628571235 -0.0031852766361251984 0.0042914520017802715
0.009914109284837424 -0.0034595210991964255 0.0043937284499406815
0.00943910394110361 -0.003733765562267652 0.004426529631018639
0.0089640985973698 -0.004008010025338879 0.0045288074761629105
0.008489093656910491 -0.004282254255579462 0.0045616100542247295
0.00801408831317668 -0.004556498718650689 0.0045255799777805805
0.007539082969442867 -0.004830743181721916 0.003090127371251583
0.007064077827346307 -0.005104987528377822 0.003922045696526766
0.006589072685249748 -0.005379231875033727 0.0024865923915058374
0.006114067341515935 -0.005653476338104954 0.002829398261383176
0.005639062199419376 -0.005927720684760858 0.001685259398072958
0.005164056956504189 -0.0062019650896244245 0.0025538953486829996
0.0046890517135890035 -0.006476209494487991 0.002930981572717428
0.0042140465210831314 -0.006750453870247726 0.0017868424765765667
0.003739041278167945 -0.0070246982751112925 0.002300014952197671
0.003264036085662072 -0.007298942650871028 0.0026428205892443657
0.0027890308427468862 -0.007573187055734594 0.0014269014354795218
0.0023140255998317003 -0.00784743146059816 0.0019060764461755753
0.0018390204577351404 -0.008121675807254066 0.0021460403222590685
0.0013640151140013284 -0.008395920270325293 0.001001901226118207
0.0008890099719047685 -0.008670164616981198 0.001515073818154633
-6.100051392560331e-05 -0.009218653426708329 0.00109375873580575
0.016764942961400856 0.0011291500264525728 0.0015648704720661044
0.016289938020941547 0.0008549057962119893 0.002671630820259452
0.01581493308048224 0.000580661565971406 0.002397386357188225
0.015339927333473924 0.00030641687006953546 0.0019182123942300677
0.014864922393014615 3.2172639828952166e-05 0.003027194645255804
0.0143899166460063 -0.00024207205607291844 0.002305242232978344
0.013914911705546991 -0.0005163162863135017 0.0014733242569491267
0.013439906765087684 -0.000790560516554085 0.0026625478640198708
0.012964901018079367 -0.0010648052124559557 0.004717062693089247
0.01248989607762006 -0.0013390494426965389 0.0039218817837536335
0.012014891137160751 -0.0016132936729371223 0.003476628800854087
0.011539885390152436 -0.0018875383688389928 0.0032366651576012373
0.011064880449693127 -0.002161782599079576 0.004652777686715126
0.01058987550923382 -0.0024360268293201594 0.004585291724652052
0.010114870165500008 -0.0027102712923913865 0.004483015276491642
0.009639864821766196 -0.0029845157554626136 0.004415528383105993
0.009164859478032384 -0.00325876021853384 0.00445155706256628
0.008689854134298573 -0.0035330046816050673 0.0043492806144058704
0.008214849193839264 -0.0038072489118456507 0.004177877679467201
0.007739843850105452 -0.004081493374916877 0.003937914036214352
0.00726483850637164 -0.004355737837988104 0.003492662450298667
0.00678983336427508 -0.00462998218464401 0.0030134867411106825
0.006314828222178521 -0.004904226531299915 0.0025003147311508656
0.005839822878444708 -0.005178470994371142 0.0017051321920007467
0.005364817736348149 -0.005452715341027046 0.002814115956425667
0.004889812493432962 -0.0057269597458906125 0.0022668319288641214
0.004414807250517776 -0.006001204150754179 0.0016508360859006643
0.003939802058011904 -0.006275448526513914 0.002759819384664297
0.003464796815096718 -0.0065496929313774805 0.00214382354170084
0.002989791622590845 -0.006823937307137216 0.0016306493198499084
0.002514786379675659 -0.007098181712000782 0.000835467770230025
0.0020397811367604732 -0.0073724261168643486 0.0016335827531293035
0.0015647759946639133 -0.007646670463520253 0.0009116297005675733
0.0010897706509301014 -0.00792091492659148 0.00209144689142704
0.0006147655088335415 -0.008195159273247385 0.0017829220741987228
0.00013976036673698163 -0.00846940361990329 0.001201376668177545
-0.00128525526118995 -0.009292136776286328 0.0008543064468540251
0.01649069849832963 0.0016041553701863847 0.001498476485721767
0.01601569355787032 0.0013299111399458013 0.0020457610953599215
0.015540688617411012 0.001055666909705218 0.002491013379767537
0.015065682870402696 0.0007814222138033474 0.0028680989053100348
0.014590677929943388 0.0005071779835627642 0.003142343368381262
0.014115672182935073 0.0002329332876608935 0.003485148772597313
0.013640667242475764 -4.131094257968979e-05 0.0036908320616930723
0.013165662302016457 -0.0003155551728202731 0.003965076524764299
0.01269065655500814 -0.0005897998687221437 0.004067353438585997
0.012215651614548833 -0.000864044098962727 0.004065632354468107
0.011740646674089524 -0.0011382883292033103 0.004167910199612379
0.011265640927081209 -0.0014125330251051808 0.004373593255877495
0.0107906359866219 -0.0016867772553457643 0.004544995725154877
0.010315631046162593 -0.0019610214855863475 0.004577796906232834
0.00984062570242878 -0.0022352659486575745 0.0038742918986827135
0.00936562035869497 -0.0025095104117288016 0.0020867178682237864
0.008890615014961157 -0.0027837548748000283 0.0032062260434031487
0.008415609671227346 -0.0030579993378712553 0.003719398519024253
0.007940604730768037 -0.0033322435681118387 0.004027923569083214
0.007465599387034225 -0.0036064880311830654 0.0042336066253483295
0.006990594043300413 -0.0038807324942542925 0.002981367753818631
0.006515588901203853 -0.004154976840910198 0.003460543230175972
0.006040583759107294 -0.004429221187566103 0.0024199148174375296
0.005565578415373481 -0.00470346565063733 0.0028990902937948704
0.005090573273276922 -0.004977709997293234 0.0031733347568660975
0.004615568030361735 -0.005251954402156801 0.0020643514581024647
0.004140562787446549 -0.005526198807020367 0.002543526003137231
0.003665557594940677 -0.005800443182780102 0.001502898638136685
0.003190552352025491 -0.006074687587643669 0.0016743013402447104
0.002715547159519618 -0.006348931963403404 0.0020171068608760834
0.002240541916604432 -0.0066231763682669705 0.0009764790302142501
0.0012905315315926862 -0.007171665119786441 0.001095229177735746
0.0008155261878588743 -0.007445909582857668 0.0015744041884317994
-0.00013448409633424544 -0.007994398276169478 0.0010127054993063211
-0.002509510411728801 -0.00936562035869497 0.001327592646703124
0.01669145978226672 0.002353405409822068 0.0007833371055312455
0.016216454035258402 0.0020791607139201973 0.0014634208055213094
0.015741449094799093 0.001804916483679614 0.002597963437438011
0.015266444154339786 0.001530672253439031 0.002495686523616314
0.01479143840733147 0.0012564275575371602 0.0022214422933757305
0.014316433466872162 0.000982183327296577 0.003295889124274254
0.013841427719863846 0.0007079386313947063 0.002918803133070469
0.013366422779404537 0.00043369440115412303 0.004354257136583328
0.01289141783894523 0.00015945017091353972 0.004390284419059753
0.012416412091936913 -0.00011479452498833088 0.004392005503177643
0.011941407151477606 -0.0003890387552289142 0.004289729055017233
0.011466402211018299 -0.0006632829854694975 0.004187452141195536
0.010991396464009982 -0.0009375276813713681 0.004413682967424393
0.010516391523550675 -0.0012117719116119514 0.004415404982864857
0.010041386583091366 -0.0014860161418525347 0.004417124669998884
0.009566381239357555 -0.0017602606049237617 0.004349640570580959
0.009091375895623742 -0.002034505067994989 0.004247363656759262
0.00861637055188993 -0.0023087495310662154 0.00407596118748188
0.008141365208156118 -0.0025829939941374425 0.0036988749634474516
0.007666360267696811 -0.002857238224378026 0.0033217889722436666
0.007191354923962999 -0.0031314826874492526 0.0028765362221747637
0.006716349580229187 -0.0034057271505204796 0.0022258637472987175
0.006241344438132627 -0.003679971497176385 0.00330031244084239
0.005766339296036067 -0.00395421584383229 0.0029232262168079615
0.005291333952302255 -0.004228460306903517 0.002375941723585129
0.004816328810205695 -0.004502704653559422 0.0016174394404515624
0.004341323567290509 -0.004776949058422988 0.0027615779545158148
0.003866318324375323 -0.005051193463286554 0.002384492428973317
0.0033913131318694502 -0.00532543783904629 0.001871319836936891
0.0029163078889542643 -0.005599682243909856 0.0015970754902809858
0.0019662974535332054 -0.006148171024533158 0.001909296028316021
0.0014912922106180195 -0.006422415429396724 0.0014301210176199675
0.0010162870685214596 -0.006696659776052628 0.0008485745638608932
0.0005412817247876477 -0.006970904239123855 0.0019575573969632387
6.627658269108778e-05 -0.0072451485857797605 0.0017861546948552132
-0.00040872855940547205 -0.007519392932435666 0.0014433491742238402
-0.001358739246873096 -0.008067881858578119 0.0012346032308414578
-0.0018337441873324037 -0.008342126088818702 0.0008575171232223511
0.015942209572187175 0.0025541660576540092 0.0009739044471643865
0.015467204631727866 0.0022799218274134263 0.0017690859967842698
0.01499219969126856 0.002005677597172843 0.0021461721044033766
0.014517193944260242 0.0017314329012709721 0.0025232580956071615
0.014042189003800935 0.001457188671030389 0.003002433106303215
0.013567183256792618 0.0011829439751285182 0.003379519097507
0.01309217831633331 0.000908699744887935 0.003653763560578227
0.012617173375874003 0.0006344555146473517 0.0038251662626862526
0.012142167628865686 0.00036021081874548105 0.003996569197624922
0.011667162688406379 8.596658850489776e-05 0.004167971666902304
0.011192157747947072 -0.00018827764173568555 0.004064188804477453
0.010717152000938755 -0.00046252233763755614 0.004028161056339741
0.010242147060479448 -0.0007367665678781394 0.004302405286580324
0.00976714212002014 -0.0010110107981187227 0.00450808834284544
0.009292136776286328 -0.0012852552611899498 0.004540889523923397
0.008817131432552515 -0.0015594997242611766 0.004504862241446972
0.008342126088818702 -0.0018337441873324035 0.004607138689607382
0.007867120745084891 -0.0021079886504036306 0.004639941267669201
0.0073921158046255835 -0.002382232880644214 0.004672742448747158
0.00644210511715796 -0.0029307218067866677 0.0008928977185860276
0.0059670999750614 -0.003204966153442573 0.001870933803729713
0.00549209483296484 -0.003479210500098478 0.002592886332422495
0.005017089489231028 -0.003753454963169705 0.00307206017896533
0.004542084347134468 -0.00402769930982561 0.001997613813728094
0.004067079104219282 -0.004301943714689176 0.0025791595689952374
0.003592073861304096 -0.004576188119552742 0.0021328534930944443
0.003117068668798223 -0.004850432495312478 0.001023870543576777
0.0026420634258830372 -0.005124676900176044 0.0017823722446337342
0.0021670582333771643 -0.0053989212759357795 0.0022615462075918913
0.0016920529904619784 -0.005673165680799346 0.0009728519944474101
0.0012170477475467924 -0.005947410085662912 0.0015201367205008864
0.0007420426054502326 -0.006221654432318816 0.0017943811835721135
0.00026703726171642053 -0.006495898895390043 0.001896657864563167
-0.0006829730224766991 -0.007044387588701854 0.001228022389113903
-0.0011579783662105112 -0.007318632051773081 0.001605108380317688
-0.002107988650403631 -0.007867120745084891 0.0007680971757508814
0.01566796534194659 0.0030291709981133163 0.002631933195516467
0.015192960401487283 0.0027549267678727333 0.002735715825110674
0.014717955461027976 0.00248068253763215 0.002495752414688468
0.014242949714019659 0.002206437841730279 0.001914207125082612
0.013767944773560352 0.001932193611489696 0.0029218296986073256
0.013292939026552035 0.0016579489155878252 0.004568499978631735
0.012817934086092726 0.001383704685347242 0.004638567566871643
0.01234292914563342 0.0011094604551066586 0.004742349497973919
0.011867923398625102 0.0008352157592047881 0.004846131894737482
0.011392918458165795 0.0005609715289642047 0.00477864732965827
0.010917913517706488 0.0002867272987236215 0.004197101108729839
0.010442907770698171 1.2482602821750867e-05 0.004364182241261005
0.009967902830238864 -0.00026176162741883244 0.004531263839453459
0.009492897889779556 -0.0005360058576594157 0.004567292518913746
0.009017892546045745 -0.0008102503207306427 0.004465016070753336
0.008542887202311932 -0.0010844947838018696 0.004397529177367687
0.008067881858578119 -0.0013587392468730965 0.004295252729207277
0.007592876514844308 -0.0016329837099443236 0.003918166738003492
0.007117871574385 -0.0019072279401849068 0.003472914919257164
0.006642866230651188 -0.0021814724032561336 0.0022301420103758574
0.006167860886917376 -0.0024557168663273607 0.001076814136467874
0.005692855744820816 -0.002729961212983266 0.002181797521188855
0.005217850602724256 -0.003004205559639171 0.0027198507450520992
0.004742845258990444 -0.003278450022710398 0.0021725662518292665
0.0042678401168938845 -0.003552694369366303 0.001122749992646277
0.0037928348739786986 -0.0038269387742298692 0.0019820353481918573
0.0033178296310635126 -0.004101183179093435 0.0008287069504149258
0.0028428244385576397 -0.004375427554853171 0.0017049334710463881
0.0018928140031365809 -0.0049239163354764725 0.0019073564326390624
0.001417808760221395 -0.005198160740340039 0.0014621051959693432
0.000942803517306209 -0.005472405145203605 0.0008114333031699061
0.00046779837520964917 -0.005746649491859509 0.0018520611338317394
-7.2069685241628645e-06 -0.006020893954930736 0.0015778167871758342
-0.0004822121106207227 -0.0062951383015866415 0.0012007306795567274
-0.0019072279401849065 -0.007117871574385001 0.0013251478085294366
-0.0023822328806442144 -0.007392115804625584 0.0009480617009103298
0.014443710997956749 0.0029556878813659627 0.001560619450174272
0.013968705250948432 0.002681443185464092 0.002176615409553051
0.013493700310489125 0.0024071989552235085 0.0027581611648201942
0.013018694563480808 0.0021329542593216382 0.003135247156023979
0.012543689623021501 0.0018587100290810548 0.0034094916190952063
0.012068684682562192 0.0015844657988404714 0.0036494554951786995
0.011593678935553877 0.0013102211029386009 0.0037169421557337046
0.011118673995094568 0.0010359768726980177 0.003922625444829464
0.010643669054635261 0.0007617326424574342 0.004128308966755867
0.010168663307626944 0.0004874879465555637 0.004230585414916277
0.009693658367167637 0.00021324371631498037 0.004332862328737974
0.009218653426708329 -6.100051392560292e-05 0.004435138776898384
0.008743648082974518 -0.00033524497699682985 0.004606541246175766
0.008268642739240705 -0.0006094894400680568 0.0032152500934898853
0.007793637395506893 -0.0008837339031392838 0.003728423733264208
0.007318632051773081 -0.0011579783662105107 0.004071229137480259
0.006843627111313774 -0.001432222596451094 0.004242632072418928
0.006368621767579961 -0.001706467059522321 0.00427543418481946
0.005893616423846149 -0.001980711522593548 0.004239404574036598
0.005418611281749589 -0.002254955869249453 0.003059589071199298
0.00494360613965303 -0.0025292002159053584 0.0017708938103169203
0.004468600795919217 -0.002803444678976585 0.001208536559715867
0.003993595653822658 -0.0030776890256324903 0.002150251530110836
0.003518590410907472 -0.0033519334304960564 0.0010061125503852963
0.003043585167992286 -0.003626177835359622 0.0018380321562290192
0.002093574732571227 -0.004174666615982924 0.001931801438331604
0.0011435642971501683 -0.004723155396606226 0.0012183008948341012
0.0006685590542349824 -0.004997399801469792 0.001595387002453208
-0.0002814514315953895 -0.0055458886111969235 0.0011233797995373607
-0.0007564565736919494 -0.005820132957852829 0.001363343559205532
-0.0017064670595223212 -0.006368621767579961 0.0015073218382894993
0.014644471475344829 0.0037049374553403576 0.001192574854940176
0.014169466534885522 0.003430693225099774 0.003001233097165823
0.013694460787877205 0.0031564485291979034 0.0028298303950577974
0.013219455847417898 0.00288220429895732 0.0030265513341873884
0.012744450100409581 0.0026079596030554497 0.002786587458103895
0.012269445159950274 0.0023337153728148663 0.0023413351736962795
0.011794440219490965 0.002059471142574283 0.0015828341711312532
0.01131943447248265 0.0017852264466724124 0.0024201329797506332
0.010844429532023341 0.0015109822164318292 0.001960624707862735
0.010369424591564034 0.0012367379861912458 0.0036130177322775126
0.009894418844555717 0.0009624932902893751 0.004750117193907499
0.00941941390409641 0.0006882490600487919 0.004820183850824833
0.008944408963637102 0.00041400482980820857 0.004648780915886164
0.00846940361990329 0.00013976036673698163 0.004615978803485632
0.007994398276169478 -0.0001344840963342453 0.004444575868546963
0.007519392932435666 -0.00040872855940547227 0.004136051516979933
0.007044387588701854 -0.0006829730224766992 0.0038618070539087057
0.006569382648242547 -0.0009572172527172825 0.003759530372917652
0.006094377304508734 -0.0012314617157885095 0.0033824441488832235
0.005619371960774922 -0.0015057061788597364 0.002623944077640772
0.005144366818678362 -0.0017799505255156416 0.0015389717882499099
0.004669361676581803 -0.002054194872171547 0.0024305609986186028
0.00419435633284799 -0.0023284393352427735 0.0015253000892698765
0.003244345947836245 -0.002876928086762245 0.00132064672652632
0.002769340704921059 -0.0031511724916258106 0.00163387565407902
0.0018193302695 -0.0036996612722491125 0.0016273329965770245
0.0008693198340789412 -0.004248150052872414 0.0018030370119959116
0.0003943145911637553 -0.00452239445773598 0.0013577848440036178
-0.0005556958946666165 -0.005070883267463112 0.001533488859422505
-0.0010307010367631765 -0.005345127614119018 0.0010882376227527857
-0.0024557168663273603 -0.006167860886917376 0.0012384196743369102
0.014370227128688923 0.0041799425974369175 0.0013217494124546647
0.013895222188229616 0.003905698367196334 0.00186903344001621
0.0134202164412213 0.0036314536712944634 0.0023142846766859293
0.012945211500761993 0.00335720944105388 0.0035327114164829254
0.012470205753753676 0.0030829647451520096 0.0022073916625231504
0.011995200813294369 0.0028087205149114262 0.0028580641373991966
0.01152019587283506 0.002534476284670843 0.0032008697744458914
0.011045190125826745 0.0022602315887689725 0.0025788024067878723
0.010570185185367436 0.001985987358528389 0.001960624707862735
0.010095180244908129 0.0017117431282878057 0.0027638962492346764
0.009620174497899812 0.0014374984323859352 0.0021500936709344387
0.009145169557440505 0.0011632542021453517 0.0033364268019795418
0.008670164616981196 0.0008890099719047685 0.003849599277600646
0.008195159273247385 0.0006147655088335416 0.004021001979708672
0.007720153929513573 0.0003405210457623146 0.004295246675610542
0.0072451485857797605 6.627658269108766e-05 0.0043280478566884995
0.0062951383015866415 -0.0004822121106207226 0.0018606155645102262
0.005820132957852829 -0.0007564565736919496 0.0028386504855006933
0.005345127614119017 -0.0010307010367631765 0.003489322029054165
0.004870122472022457 -0.0013049453834190817 0.0025137930642813444
0.004395117329925898 -0.0015791897300749867 0.0028908790554851294
0.003920111986192085 -0.0018534341931462138 0.0015655604656785727
0.0034451068440955255 -0.002127678539802119 0.0012208096450194716
0.0029701016011803396 -0.002401922944665685 0.0022706263698637486
0.0024950963582651537 -0.0026761673495292507 0.0010547066340222955
0.0015450859228440948 -0.0032246561301525526 0.001829464570619166
0.000595075487423036 -0.003773144910775854 0.0014824849786236882
-0.0008299402413225218 -0.0045958781253665525 0.0008647319627925754
-0.0013049453834190817 -0.004870122472022458 0.0011732570128515363
-0.0036799714971763853 -0.006241344438132627 0.0008806404075585306
0.014570987722492327 0.004929191969774061 0.0009097806178033352
0.014095982782033018 0.004654947739533477 0.0017229326767846942
0.013620977841573711 0.004380703509292894 0.003296710317954421
0.013145972094565394 0.004106458813391023 0.0030567466747015715
0.012670967154106087 0.00383221458315044 0.002989260945469141
0.01219596140709777 0.0035579698872485696 0.0028178582433611155
0.011720956466638463 0.003283725657007986 0.0024750521406531334
0.011245951526179155 0.0030094814267674027 0.0033151248935610056
0.01077094577917084 0.0027352367308655324 0.0027335805352777243
0.01029594083871153 0.002460992500624949 0.003913396038115025
0.009820935898252224 0.0021867482703843656 0.0033318509813398123
0.009345930151243907 0.001912503574482495 0.00473062414675951
0.0088709252107846 0.0016382593442419117 0.004800690803676844
0.008395920270325293 0.0013640151140013284 0.0046292878687381744
0.00792091492659148 0.0010897706509301014 0.004561802372336388
0.007445909582857668 0.0008155261878588745 0.004665584769099951
0.006970904239123856 0.0005412817247876476 0.004459901247173548
0.006495898895390044 0.0002670372617164206 0.004288498777896166
0.006020893954930736 -7.206968524162688e-06 0.004082815255969763
0.005545888611196924 -0.00028145143159538963 0.003877132199704647
0.005070883267463112 -0.0005556958946666165 0.003500046208500862
0.0045958781253665525 -0.0008299402413225217 0.0031229599844664335
0.004120872983269993 -0.0011041845879784268 0.0026437861379235983
0.00364586763953618 -0.001378429051049654 0.0016296476824209094
0.0031708624974396207 -0.001652673397705559 0.0028818873688578606
0.0026958572545244344 -0.0019269178025691249 0.0023003409150987864
0.0022208520116092484 -0.002201162207432691 0.0010124585824087262
0.0017458468191033757 -0.0024754065831924265 0.00212144129909575
0.0007958363836823169 -0.0030238953638157284 0.0018636792665347457
-0.00015417410214805497 -0.0035723841735428603 0.001853153808042407
-0.0006291792442446148 -0.0038466285201987655 0.0013058707118034363
-0.0015791897300749867 -0.004395117329925898 0.0015483981696888804
-0.0020541948721715464 -0.004669361676581802 0.001308434410020709
-0.0025292002159053584 -0.004943606139653029 0.0008631831151433289
0.013821738318961791 0.005129953083267289 0.0013634926872327924
0.013346733378502484 0.004855708853026706 0.002158675342798233
0.012871727631494167 0.004581464157124835 0.002535761334002018
0.01239672269103486 0.004307219926884252 0.0027414446230977774
0.011921716944026543 0.004032975230982381 0.0029814084991812706
0.011446712003567236 0.003758731000741798 0.0030142096802592278
0.010971707063107928 0.0034844867705012147 0.0033912956714630127
0.010496701316099612 0.0032102420745993444 0.0037683818954974413
0.010021696375640304 0.002935997844358761 0.0040083457715809345
0.009546691435180997 0.0026617536141181775 0.004248309414833784
0.00907168568817268 0.002387508918216307 0.004419711884111166
0.008596680747713373 0.002113264687975724 0.004452513065189123
0.008121675807254066 0.0018390204577351404 0.0038405240047723055
0.007646670463520253 0.0015647759946639133 0.002023736946284771
0.007171665119786441 0.0012905315315926865 0.0031087093520909548
0.006696659776052629 0.0010162870685214596 0.003655994078144431
0.006221654432318817 0.0007420426054502325 0.0039987992495298386
0.005746649491859509 0.0004677983752096493 0.004204482771456242
0.005271644148125697 0.0001935539121384223 0.004271968267858028
0.004796638804391885 -8.069055093280464e-05 0.0026595585513859987
0.004321633662295325 -0.0003549348975887098 0.0031727321911603212
0.0038466285201987655 -0.0006291792442446149 0.0021651091519743204
0.003371623176464953 -0.0009034237073158418 0.0028157816268503666
0.0028966180343683937 -0.001177668053971747 0.0031928676180541515
0.0024216127914532073 -0.001451912458835313 0.0009208390838466585
0.0019466075485380216 -0.001726156863698879 0.0017894752090796828
0.0014716023560321487 -0.0020004012394586146 0.0017310383263975382
0.0009965971131169627 -0.0022746456443221807 0.0021762894466519356
0.0005215919206110898 -0.0025488900200819164 0.001032150466926396
-0.00042841856521928204 -0.0030973788298090483 0.0011389304418116808
-0.0023284393352427735 -0.00419435633284799 0.001138166757300496
-0.003278450022710398 -0.004742845258990444 0.0010308417258784175
0.013547493972305888 0.005604958225363849 0.0015065978514030576
0.013072489031846579 0.005330713995123266 0.0028334741946309805
0.012597483284838262 0.005056469299221395 0.0030892821960151196
0.012122478344378955 0.004782225068980812 0.0029178792610764503
0.011647472597370638 0.004507980373078941 0.002746476558968425
0.011172467656911331 0.0042337361428383576 0.0025065126828849316
0.010697462716452024 0.003959491912597775 0.004084471613168716
0.010222456969443707 0.0036852472166959043 0.004251553677022457
0.009747452028984398 0.003411002986455321 0.004355337005108595
0.009272447088525091 0.0031367587562147374 0.004322534427046776
0.008797441341516775 0.0028625140603128667 0.004220256581902504
0.008322436401057468 0.0025882698300722837 0.004324039909988642
0.00784743146059816 0.0023140255998317003 0.0042565553449094296
0.007372426116864348 0.0020397811367604732 0.0040508718229830265
0.006897420773130536 0.0017655366736892464 0.0038794693537056446
0.006422415429396724 0.0014912922106180195 0.0035023833625018597
0.005947410085662912 0.0012170477475467924 0.0028863868210464716
0.005472405145203604 0.0009428035173062091 0.0020177497062832117
0.004997399801469792 0.0006685590542349822 0.0009327773004770279
0.00452239445773598 0.00039431459116375526 0.002257614629343152
0.00404738931563942 0.00012007024450785014 0.0021188536193221807
0.0035723841735428603 -0.000154174102148055 0.002285935217514634
0.0030973788298090483 -0.00042841856521928193 0.003261465346440673
0.0026223736877124884 -0.0007026629118751871 0.002714181784540415
0.0021473684447973025 -0.000976907316738753 0.0022010086104273796
0.0016723632018821166 -0.0012511517216023192 0.001687835087068379
0.0007223527664610577 -0.0017996405022256208 0.0014743991196155548
-0.00022765766896000114 -0.0023481292828489223 0.001290063257329166
-0.001652673397705559 -0.0031708624974396203 0.0014599324204027653
-0.002127678539802119 -0.0034451068440955255 0.00098075729329139
-0.0035526943693663026 -0.0042678401168938845 0.0008245353819802403
-0.004977709997293234 -0.005090573273276922 0.0009067373466677964
0.013273249567442321 0.006079963468279035 0.001337032183073461
0.012798244626983013 0.005805719238038452 0.0019185785204172134
0.012323238879974698 0.005531474542136581 0.0024317509960383177
0.011848233939515389 0.005257230311895998 0.0027745566330850124
0.011373228192507072 0.004982985615994127 0.0025778356939554214
0.010898223252047765 0.0047087413857535435 0.0028863607440143824
0.010423218311588458 0.004434497155512961 0.0031948855612426996
0.009948212564580141 0.00416025245961109 0.0035034106113016605
0.009473207624120834 0.003886008229370507 0.004084956832230091
0.008998202683661525 0.0036117639991299234 0.004117758013308048
0.008048191996193901 0.0030632750729874697 0.0020421126391738653
0.0075731870557345935 0.0027890308427468862 0.0025893968995660543
0.0070981817120007815 0.002514786379675659 0.0033113493118435144
0.00662317636826697 0.002240541916604432 0.0037905247882008553
0.006148171024533158 0.0019662974535332054 0.0040990496054291725
0.005673165680799346 0.0016920529904619784 0.004131851252168417
0.005198160740340038 0.0014178087602213952 0.004199336748570204
0.004723155396606226 0.001143564297150168 0.0028740190900862217
0.004248150052872414 0.0008693198340789412 0.00331927090883255
0.003773144910775854 0.0005950754874230361 0.002413197886198759
0.003298139768679294 0.00032083114076713096 0.002994743874296546
0.002823134424945482 4.658667769590399e-05 0.0033032686915248632
0.0023481292828489223 -0.00022765766896000114 0.0019779501017183065
0.0018731240399337363 -0.0005019020738235672 0.0007981345406733453
0.013474010103038062 0.0068292129414348045 0.0010244715958833694
0.012999005162578755 0.006554968711194221 0.0018081972375512123
0.012524000222119447 0.006280724480953638 0.002801463706418872
0.012048994475111131 0.006006479785051767 0.0028031847905367613
0.011573989534651823 0.0057322355548111836 0.0024603791534900665
0.011098983787643506 0.005457990858909313 0.0019472051644697785
0.010623978847184199 0.005183746628668729 0.0009691695449873805
0.009673968159716575 0.004635257702526276 0.004389903973788023
0.009198963219257268 0.004361013472285693 0.00442593265324831
0.008723958278797959 0.004086769242045109 0.004593014717102051
0.008248952531789644 0.0038125245461432386 0.004760095849633217
0.007773947591330335 0.0035382803159026556 0.004863878712058067
0.007298942650871028 0.003264036085662072 0.004589634481817484
0.006823937307137215 0.002989791622590845 0.004349670838564634
0.006348931963403403 0.002715547159519618 0.004109707195311785
0.0058739266196695915 0.0024413026964483914 0.0039383042603731155
0.0053989212759357795 0.0021670582333771643 0.0036983403842896223
0.004923916335476472 0.001892814003136581 0.0035269376821815968
0.00444891099174266 0.001618569540065354 0.003218412632122636
0.003973905648008848 0.0013443250769941272 0.002773159882053733
0.0034989005059122883 0.001070080730338222 0.0019412420224398375
0.0030238953638157284 0.0007958363836823169 0.0030853808857500553
0.002548890020081916 0.0005215919206110899 0.002776856068521738
0.0020738848779853565 0.0002473475739551848 0.002399770077317953
0.0015988796350701704 -2.6896830908381245e-05 0.001677816966548562
0.0011238743921549845 -0.00030114123577194726 0.0027867997996509075
0.0006488691996491116 -0.0005753856115316829 0.0025125560350716114
0.00017386395673392566 -0.0008496300163952489 0.0022040309850126505
-0.00030114123577194726 -0.0011238743921549845 0.0022057518362998962
-0.0007761464786871331 -0.0013981187970185506 0.0018629464320838451
-0.0012511517216023192 -0.0016723632018821166 0.0013837714213877916
-0.0017261568636988789 -0.0019466075485380216 0.0008705988293513656
0.013199765727278327 0.0073042181339406775 0.001237905933521688
0.01272476078681902 0.007029973903700094 0.0020698243752121925
0.01224975584635971 0.006755729673459511 0.0024126300122588873
0.011774750099351396 0.00648148497755764 0.0028578820638358593
0.011299745158892087 0.0062072407473170565 0.0030978459399193525
0.010824739411883772 0.005932996051415186 0.003269248642027378
0.010349734471424463 0.005658751821174602 0.0033715255558490753
0.009874729530965156 0.00538450759093402 0.003439011052250862
0.00939972378395684 0.005110262895032149 0.0036104137543588877
0.008924718843497532 0.004836018664791566 0.004226410295814276
0.008449713903038223 0.004561774434550982 0.0029377155005931854
0.007974708156029908 0.0042875297386491115 0.0035537108778953552
0.0074997032155705995 0.004013285508408528 0.0034499287139624357
0.0070246982751112925 0.003739041278167945 0.0037584537640213966
0.0065496929313774805 0.003464796815096718 0.003825939493253827
0.006074687587643668 0.003190552352025491 0.0038587418384850025
0.005599682243909856 0.0029163078889542643 0.0039610182866454124
0.005124676900176044 0.0026420634258830372 0.003890950931236148
0.004649671959716737 0.002367819195642454 0.0025656328070908785
0.004174666615982924 0.002093574732571227 0.003010883927345276
0.0036996612722491125 0.0018193302695 0.0017949644243344665
0.0032246561301525526 0.0015450859228440948 0.0023081384133547544
0.0027496509880559927 0.0012708415761881898 0.002685224637389183
0.0022746456443221807 0.0009965971131169627 0.0013599053490906954
0.0017996405022256208 0.0007223527664610577 0.0023379409685730934
0.001324635259310435 0.00044810836159749165 0.0011938019888475537
0.0008496300163952489 0.00017386395673392563 0.0010328424395993352
0.013400527069423077 0.008053468072757733 0.0008245924254879355
0.01292552132241476 0.007779223376855863 0.0026931236498057842
0.012450516381955453 0.00750497914661528 0.0030315991025418043
0.011975511441496145 0.0072307349163746966 0.0027230740524828434
0.01150050569448783 0.006956490220472826 0.0022778233978897333
0.01102550075402852 0.006682245990232242 0.003386806696653366
0.010550495007020206 0.006408001294330372 0.0032154039945453405
0.010075490066560897 0.006133757064089788 0.002668119268491864
0.00960048512610159 0.005859512833849206 0.0021889442577958107
0.009125479379093273 0.005585268137947335 0.003732227487489581
0.008650474438633966 0.0053110239077067516 0.003733949502930045
0.008175469498174657 0.005036779677466168 0.003631671890616417
0.007700463751166341 0.004762534981564297 0.00335742742754519
0.007225458810707034 0.004488290751323714 0.0031860247254371643
0.006750453870247726 0.004214046521083131 0.002706850180402398
0.006275448526513914 0.003939802058011904 0.003922769799828529
0.005800443182780102 0.003665557594940677 0.003855284070596099
0.0053254378390462905 0.0033913131318694502 0.0036153204273432493
0.004850432495312478 0.003117068668798223 0.003582518082112074
0.004375427554853171 0.0028428244385576397 0.0032054318580776453
0.0039004222111193583 0.002568579975486413 0.0027601802721619606
0.0034254168673855463 0.002294335512415186 0.0021095089614391327
0.0029504117252889864 0.0020200911657592808 0.0011314728762954473
0.0024754065831924265 0.0017458468191033757 0.001971546094864607
0.0020004012394586146 0.0014716023560321487 0.0010662861168384552
0.0015253960973620547 0.0011973580093762436 0.0022461023181676865
0.0010503908544468687 0.0009231136045126776 0.0012319637462496758
0.00010038041902580994 0.000374624823889376 0.0014489921741187572
-0.0027496509880559927 -0.0012708415761881898 0.0025515698362141848
0.012651276946655025 0.008254228569361735 0.0016460566548630595
0.012176272006195718 0.007979984339121152 0.002514692721888423
0.01170126706573641 0.0077057401088805695 0.002857498126104474
0.011226261318728094 0.007431495412978699 0.003131742589175701
0.010751256378268785 0.007157251182738115 0.0020227597560733557
0.01027625063126047 0.006883006486836245 0.0025700440164655447
0.009801245690801161 0.006608762256595661 0.0030492183286696672
0.009326240750341854 0.006334518026355079 0.0032891822047531605
0.008851235003333537 0.006060273330453208 0.0032191157806664705
0.00837623006287423 0.0057860291002126245 0.003390518482774496
0.007901225122414922 0.005511784869972041 0.0035619211848825216
0.0074262193754066055 0.00523754017407017 0.003664197865873575
0.0069512144349472985 0.004963295943829587 0.0036970002111047506
0.006476209494487991 0.0046890517135890035 0.003764485940337181
0.006001204150754179 0.004414807250517777 0.0038667626213282347
0.005526198807020367 0.00414056278744655 0.004072445910423994
0.005051193463286555 0.003866318324375323 0.004174722824245691
0.004576188119552743 0.003592073861304096 0.002886028029024601
0.004101183179093435 0.0033178296310635126 0.0037546646781265736
0.0036261778353596226 0.003043585167992286 0.0023192111402750015
0.0031511724916258106 0.002769340704921059 0.0012785833096131682
0.0026761673495292507 0.0024950963582651537 0.0011005677515640855
0.002201162207432691 0.0022208520116092484 0.0010107135167345405
-0.00017386395673392566 0.0008496300163952489 0.0012631388381123543
-0.0020738848779853565 -0.0002473475739551848 0.0008419204386882484
0.012852038288799775 0.009003478508178793 0.001494543976150453
0.012377032541791459 0.008729233812276922 0.0019779272843152285
0.011902027601332152 0.008454989582036339 0.00269970647059381
0.011427022660872845 0.008180745351795755 0.0022205314598977566
0.010952016913864528 0.007906500655893885 0.003364669857546687
0.01047701197340522 0.007632256425653301 0.002642717445269227
0.010002006226396904 0.0073580117297514305 0.002299912041053176
0.009527001285937595 0.007083767499510847 0.003515831660479307
0.009051996345478288 0.0068095232692702646 0.0033101483713835478
0.008576990598469971 0.006535278573368394 0.0030701844953000546
0.008101985658010664 0.00626103434312781 0.002898781793192029
0.007626980717551356 0.005986790112887227 0.002590256743133068
0.00715197497054304 0.005712545416985356 0.004168216604739428
0.006676970030083732 0.005438301186744773 0.00420424435287714
0.0062019650896244245 0.005164056956504189 0.004171443171799183
0.0057269597458906125 0.004889812493432963 0.004069166257977486
0.005251954402156801 0.004615568030361736 0.004070887342095375
0.004776949058422989 0.004341323567290509 0.0037280817050486803
0.004301943714689177 0.004067079104219282 0.003522398415952921
0.003826938774229869 0.0037928348739786986 0.003179592778906226
0.003351933430496057 0.003518590410907472 0.0027004173025488853
0.002876928086762245 0.003244345947836245 0.002118871547281742
0.002401922944665685 0.0029701016011803396 0.00326301041059196
0.001926917802569125 0.0026958572545244344 0.0032302080653607845
0.001451912458835313 0.0024216127914532077 0.003058805363252759
0.0009769073167387532 0.0021473684447973025 0.0028874026611447334
0.0005019020738235672 0.0018731240399337365 0.002681719372048974
2.6896830908381248e-05 0.0015988796350701704 0.0018865378806367517
-0.00044810836159749165 0.001324635259310435 0.0013392537366598845
0.01257779388393621 0.009478483751093978 0.0011296881129965186
0.012102788136927892 0.009204239055192107 0.0020714031998068094
0.011627783196468585 0.008929994824951524 0.0026529489550739527
0.011152778256009278 0.00865575059471094 0.001860894844867289
0.010677772509000961 0.008381505898809071 0.0028389310464262962
0.010202767568541654 0.008107261668568488 0.0032841817010194063
0.009727761821533338 0.007833016972666617 0.003865727921947837
0.009252756881074029 0.007558772742426033 0.0026498083025217056
0.008777751940614722 0.0072845285121854505 0.0029240527655929327
0.008302746193606405 0.00701028381628358 0.003266858169808984
0.007827741253147098 0.006736039586042996 0.003472541458904743
0.00735273631268779 0.006461795355802413 0.003781066508963704
0.006877730565679474 0.006187550659900542 0.00395246921107173
0.006402725625220166 0.005913306429659959 0.003916441462934017
0.005927720684760858 0.005639062199419375 0.0037493593990802765
0.005452715341027046 0.005364817736348149 0.003989323507994413
0.004977709997293234 0.005090573273276922 0.004160725977271795
0.0045027046535594225 0.004816328810205695 0.0042282105423510075
0.0040276993098256105 0.004542084347134468 0.0042610131204128265
0.0035526943693663026 0.0042678401168938845 0.004293814301490784
0.0030776890256324907 0.003993595653822657 0.0028218126390129328
0.0026026836818986787 0.003719351190751431 0.001459776540286839
0.002127678539802119 0.0034451068440955255 0.0022549580316990614
0.001652673397705559 0.0031708624974396203 0.0011108190519735217
0.001177668053971747 0.0028966180343683937 0.001331163803115487
-0.0011973580093762436 0.0015253960973620547 0.0009737067157402635
-0.0035723841735428603 0.000154174102148055 0.00217363890260458
0.012303549537280304 0.009953488893190539 0.001882862183265388
0.011828543790271989 0.009679244197288668 0.0022884896025061607
0.01135353884981268 0.009404999967048085 0.002745023462921381
0.010878533909353373 0.009130755736807501 0.003636613953858614
0.010403528162345056 0.00885651104090563 0.0031574394088238478
0.00992852322188575 0.008582266810665047 0.002644265303388238
0.009453517474877432 0.008308022114763176 0.003718712367117405
0.008978512534418125 0.008033777884522593 0.003205539658665657
0.008503507593958817 0.00775953365428201 0.0020860310178250074
0.0080285018469505 0.00748528895838014 0.0030064000748097897
0.007553496906491193 0.007211044728139556 0.0019214272033423185
0.007078491966031885 0.006936800497898973 0.0030304105021059513
0.006603486219023569 0.006662555801997102 0.004319104366004467
0.006128481278564261 0.006388311571756519 0.0040105790831148624
0.005653476338104954 0.006114067341515935 0.003839176381006837
0.005178470994371141 0.005839822878444709 0.0036334930919110775
0.004703465650637329 0.005565578415373482 0.003427809802815318
0.004228460306903517 0.005291333952302255 0.003119284985587001
0.0037534549631697053 0.005017089489231028 0.002606112277135253
0.003278450022710398 0.004742845258990444 0.0014866042183712125
0.0028034446789765854 0.004468600795919217 0.0019271863857284188
0.0023284393352427735 0.00419435633284799 0.003071325831115246
0.0018534341931462138 0.003920111986192086 0.0025240422692149878
0.001378429051049654 0.00364586763953618 0.0019080452620983124
0.0009034237073158418 0.0033716231764649536 0.0008230744278989732
0.00042841856521928204 0.0030973788298090483 0.0013854311546310782
-4.6586677695903895e-05 0.002823134424945482 0.002459877636283636
-0.0005215919206110898 0.0025488900200819164 0.002117072232067585
-0.0009965971131169627 0.0022746456443221807 0.0013585705310106277
0.012029305074209077 0.01042849423692435 0.0013351601082831621
0.011554299327200762 0.01015424954102248 0.0024546682834625244
0.011079294386741453 0.009880005310781896 0.0029678407590836287
0.010604289446282146 0.009605761080541312 0.0036897931713610888
0.01012928369927383 0.009331516384639443 0.004066879395395517
0.009654278758814522 0.00905727215439886 0.003026253078132868
0.009179273011806205 0.00878302745849699 0.0036769243888556957
0.008704268071346898 0.008508783228256406 0.004019729793071747
0.00822926313088759 0.008234538998015822 0.002945282496511936
0.0077542573838792735 0.007960294302113952 0.0034584549721330404
0.007279252443419966 0.007686050071873368 0.002507273806259036
0.006804247502960658 0.007411805841632785 0.003302454948425293
0.006329241755952342 0.007137561145730914 0.003747707698494196
0.005854236815493034 0.006863316915490331 0.0033596849534660578
0.005379231875033727 0.006589072685249747 0.0037367711775004864
0.004904226531299914 0.006314828222178521 0.003942454233765602
0.004429221187566102 0.006040583759107294 0.004044731147587299
0.00395421584383229 0.005766339296036067 0.004147007595747709
0.0030042055596391708 0.005217850602724256 0.0011691084364429116
0.0025292002159053584 0.004943606139653029 0.0011739328037947416
0.0020541948721715464 0.004669361676581802 0.0010840781033039093
0.0015791897300749867 0.004395117329925898 0.0022704098373651505
0.0011041845879784268 0.004120872983269993 0.002715662121772766
0.0006291792442446148 0.0038466285201987655 0.0032288345973938704
0.00015417410214805497 0.0035723841735428603 0.0035276981070637703
-0.00032083114076713096 0.003298139768679294 0.003423915011808276
0.01223006486146347 0.011177743143600207 0.0009368113242089748
0.011755060727553172 0.01090349937902091 0.0018062074668705463
0.011280054980544857 0.01062925468311904 0.0036960169672966003
0.010805050040085548 0.010355010452878457 0.0034217725042253733
0.01033004509962624 0.010080766222637873 0.002699819393455982
0.009855039352617924 0.009806521526736002 0.003808803390711546
0.009380034412158617 0.009532277296495419 0.004849430173635483
0.0089050286651503 0.009258032600593548 0.004678027704358101
0.008430023724690993 0.008983788370352965 0.004438063595443964
0.007955018784231684 0.008709544140112381 0.004129539243876934
0.007480013037223368 0.00843529944421051 0.0036842874251306057
0.00700500809676406 0.008161055213969927 0.002815650776028633
0.006530003156304753 0.007886810983729346 0.004031570628285408
0.0060549974092964365 0.007612566287827474 0.003791606519371271
