ply
format ascii 1.0
element vertex 762
property float x
property float y
property float z
end_header
-0.004055041819810867 0.02277677319943905 -0.11329999566078186
-0.003447245340794325 0.02267625741660595 -0.1127999946475029
-0.002847211668267846 0.0225958451628685 -0.11239999532699585
-0.0022573918104171753 0.02257574163377285 -0.11229999363422394
-0.0016686180606484413 0.02255563996732235 -0.11219999939203262
-0.0010808901861310005 0.0225355364382267 -0.11209999769926071
0.0006790411425754428 0.02257574163377285 -0.11229999363422394
0.0012663278030231595 0.02257574163377285 -0.11229999363422394
0.0018536144634708762 0.02257574163377285 -0.11229999363422394
0.002440901007503271 0.02257574163377285 -0.11229999363422394
0.0030308840796351433 0.0225958451628685 -0.11239999532699585
0.0036186936777085066 0.0225958451628685 -0.11239999532699585
0.004210245795547962 0.02261594869196415 -0.11249999701976776
0.004798578098416328 0.02261594869196415 -0.11249999701976776
0.005386910866945982 0.02261594869196415 -0.11249999701976776
0.005969931837171316 0.0225958451628685 -0.11239999532699585
0.006563575938344002 0.02261594869196415 -0.11249999701976776
0.007158265449106693 0.0226360522210598 -0.11259999871253967
0.007747121155261993 0.0226360522210598 -0.11259999871253967
0.009513688273727894 0.0226360522210598 -0.11259999871253967
0.010102543979883194 0.0226360522210598 -0.11259999871253967
0.010710388422012329 0.02267625741660595 -0.1127999946475029
0.0113203264772892 0.02271646447479725 -0.11299999803304672
0.011921814642846584 0.0227365680038929 -0.11309999972581863
0.012502220459282398 0.02271646447479725 -0.11299999803304672
0.013093167915940285 0.02271646447479725 -0.11299999803304672
0.013684115372598171 0.02271646447479725 -0.11299999803304672
0.014275062829256058 0.02271646447479725 -0.11299999803304672
0.014866010285913944 0.02271646447479725 -0.11299999803304672
0.015470636077225208 0.0227365680038929 -0.11309999972581863
0.016076307743787766 0.0227566696703434 -0.11319999396800995
0.016697751358151436 0.0227968767285347 -0.11339999735355377
0.017931140959262848 0.0228571854531765 -0.11369999498128891
-0.004668068140745163 0.022282157093286514 -0.11379999667406082
-0.004062199965119362 0.022223416715860367 -0.11349999904632568
-0.0034533576108515263 0.022125516086816788 -0.11299999803304672
-0.0028522778302431107 0.022047195583581924 -0.11259999871253967
-0.0022573918104171753 0.021988455206155777 -0.11229999363422394
-0.0016686180606484413 0.02196887508034706 -0.11219999939203262
0.0006778318784199655 0.021949294954538345 -0.11209999769926071
0.0012652002042159438 0.02196887508034706 -0.11219999939203262
0.001851963927038014 0.02196887508034706 -0.11219999939203262
0.0024365540593862534 0.021949294954538345 -0.11209999769926071
0.0030227946117520332 0.021949294954538345 -0.11209999769926071
0.0036090353969484568 0.021949294954538345 -0.11209999769926071
0.00419527618214488 0.021949294954538345 -0.11209999769926071
0.004785782191902399 0.02196887508034706 -0.11219999939203262
0.005959309171885252 0.02196887508034706 -0.11219999939203262
0.0065519073978066444 0.021988455206155777 -0.11229999363422394
0.0071455505676567554 0.022008035331964493 -0.11239999532699585
0.007740240544080734 0.02202761545777321 -0.11249999701976776
0.008328573778271675 0.02202761545777321 -0.11249999701976776
0.008916906081140041 0.02202761545777321 -0.11249999701976776
0.009505239315330982 0.02202761545777321 -0.11249999701976776
0.010111515410244465 0.02206677757203579 -0.11270000040531158
0.010710388422012329 0.022086355835199356 -0.1127999946475029
0.0113203264772892 0.022125516086816788 -0.11299999803304672
0.011932355351746082 0.02216467633843422 -0.11319999396800995
0.012524348683655262 0.02216467633843422 -0.11319999396800995
0.013116341084241867 0.02216467633843422 -0.11319999396800995
0.013708334416151047 0.02216467633843422 -0.11319999396800995
0.014312961138784885 0.022184256464242935 -0.11329999566078186
0.014905476942658424 0.022184256464242935 -0.11329999566078186
0.015497993677854538 0.022184256464242935 -0.11329999566078186
0.01610471121966839 0.02220383659005165 -0.11339999735355377
0.016712475568056107 0.022223416715860367 -0.11349999904632568
0.01791536994278431 0.022242996841669083 -0.1136000007390976
-0.0040693581104278564 0.0216679684817791 -0.11369999498128891
-0.002857343992218375 0.021496454253792763 -0.1127999946475029
-0.0022614123299717903 0.021439284086227417 -0.11249999701976776
-0.0016701051499694586 0.021401168778538704 -0.11229999363422394
9.159116598311812e-05 0.02136305533349514 -0.11209999769926071
0.0006778318784199655 0.02136305533349514 -0.11209999769926071
0.0012640726054087281 0.02136305533349514 -0.11209999769926071
0.0018503132741898298 0.02136305533349514 -0.11209999769926071
0.0024365540593862534 0.02136305533349514 -0.11209999769926071
0.0030227946117520332 0.02136305533349514 -0.11209999769926071
0.003605815814808011 0.02134399674832821 -0.1119999960064888
0.004191533662378788 0.02134399674832821 -0.1119999960064888
0.004777251277118921 0.02134399674832821 -0.1119999960064888
0.0053629688918590546 0.02134399674832821 -0.1119999960064888
0.00595399783924222 0.02136305533349514 -0.11209999769926071
0.006540238857269287 0.02136305533349514 -0.11209999769926071
0.007726479787379503 0.021401168778538704 -0.11229999363422394
0.008313767611980438 0.021401168778538704 -0.11229999363422394
0.008908980526030064 0.021420225501060486 -0.11239999532699585
0.009505239315330982 0.021439284086227417 -0.11249999701976776
0.010102543979883194 0.0214583408087492 -0.11259999871253967
0.010710388422012329 0.021496454253792763 -0.1127999946475029
0.0113203264772892 0.021534569561481476 -0.11299999803304672
0.011911273933947086 0.021534569561481476 -0.11299999803304672
0.01251328457146883 0.021553626284003258 -0.11309999972581863
0.013116341084241867 0.02157268300652504 -0.11319999396800995
0.013720444403588772 0.02159173972904682 -0.11329999566078186
0.01432559359818697 0.021610798314213753 -0.11339999735355377
0.014918632805347443 0.021610798314213753 -0.11339999735355377
0.015525351278483868 0.021629855036735535 -0.11349999904632568
0.016118913888931274 0.021629855036735535 -0.11349999904632568
0.016712475568056107 0.021629855036735535 -0.11349999904632568
0.01791536994278431 0.021648911759257317 -0.1136000007390976
-0.0040693581104278564 0.0210733599960804 -0.11369999498128891
-0.003468638053163886 0.021036293357610703 -0.11349999904632568
-0.0028624103870242834 0.020943621173501015 -0.11299999803304672
-0.0022654326166957617 0.02088801935315132 -0.11270000040531158
-0.0010828186059370637 0.02081388235092163 -0.11229999363422394
-0.0004950907896272838 0.020795349031686783 -0.11219999939203262
9.159116598311812e-05 0.020776813849806786 -0.11209999769926071
0.0006778318784199655 0.020776813849806786 -0.11209999769926071
0.0012640726054087281 0.020776813849806786 -0.11209999769926071
0.0018503132741898298 0.020776813849806786 -0.11209999769926071
0.0024365540593862534 0.020776813849806786 -0.11209999769926071
0.0030227946117520332 0.020776813849806786 -0.11209999769926071
0.003605815814808011 0.020758280530571938 -0.1119999960064888
0.004191533662378788 0.020758280530571938 -0.1119999960064888
0.004777251277118921 0.020758280530571938 -0.1119999960064888
0.0053629688918590546 0.020758280530571938 -0.1119999960064888
0.005948686506599188 0.020758280530571938 -0.1119999960064888
0.0065344045870006084 0.020758280530571938 -0.1119999960064888
0.007126479409635067 0.020776813849806786 -0.11209999769926071
0.007719600107520819 0.020795349031686783 -0.11219999939203262
0.008313767611980438 0.02081388235092163 -0.11229999363422394
0.008908980526030064 0.02083241567015648 -0.11239999532699585
0.009505239315330982 0.020850950852036476 -0.11249999701976776
0.010111515410244465 0.02088801935315132 -0.11270000040531158
0.010710388422012329 0.02090655267238617 -0.1127999946475029
0.011300290003418922 0.02090655267238617 -0.1127999946475029
0.011890191584825516 0.02090655267238617 -0.1127999946475029
0.012502220459282398 0.020943621173501015 -0.11299999803304672
0.01310475543141365 0.020962156355381012 -0.11309999972581863
0.013708334416151047 0.02098068967461586 -0.11319999396800995
0.01432559359818697 0.021017758175730705 -0.11339999735355377
0.014931788668036461 0.021036293357610703 -0.11349999904632568
0.015525351278483868 0.021036293357610703 -0.11349999904632568
0.016118913888931274 0.021036293357610703 -0.11349999904632568
0.016712475568056107 0.021036293357610703 -0.11349999904632568
0.01791536994278431 0.02105482667684555 -0.1136000007390976
0.018509455025196075 0.02105482667684555 -0.1136000007390976
-0.004072937183082104 0.020496763288974762 -0.11379999667406082
-0.0028700095135718584 0.020406708121299744 -0.11329999566078186
-0.002271462930366397 0.020352674648165703 -0.11299999803304672
-0.0016775410622358322 0.020316651090979576 -0.1127999946475029
-0.0010837828740477562 0.02024460770189762 -0.11239999532699585
-0.0004955320036970079 0.020226595923304558 -0.11229999363422394
9.16728749871254e-05 0.020208586007356644 -0.11219999939203262
0.0006778318784199655 0.02019057422876358 -0.11209999769926071
0.0012640726054087281 0.02019057422876358 -0.11209999769926071
0.0018503132741898298 0.02019057422876358 -0.11209999769926071
0.0024365540593862534 0.02019057422876358 -0.11209999769926071
0.0030227946117520332 0.02019057422876358 -0.11209999769926071
0.0036090353969484568 0.02019057422876358 -0.11209999769926071
0.00419527618214488 0.02019057422876358 -0.11209999769926071
0.00478151673451066 0.02019057422876358 -0.11209999769926071
0.00536775728687644 0.02019057422876358 -0.11209999769926071
0.00595399783924222 0.02019057422876358 -0.11209999769926071
0.007132836617529392 0.020208586007356644 -0.11219999939203262
0.007726479787379503 0.020226595923304558 -0.11229999363422394
0.008321170695126057 0.02024460770189762 -0.11239999532699585
0.008916906081140041 0.020262617617845535 -0.11249999701976776
0.009513688273727894 0.0202806293964386 -0.11259999871253967
0.010111515410244465 0.020298641175031662 -0.11270000040531158
0.010700894519686699 0.020298641175031662 -0.11270000040531158
0.011290272697806358 0.020298641175031662 -0.11270000040531158
0.011879650875926018 0.020298641175031662 -0.11270000040531158
0.012469029054045677 0.020298641175031662 -0.11270000040531158
0.013069993816316128 0.020316651090979576 -0.1127999946475029
0.013684115372598171 0.020352674648165703 -0.11299999803304672
0.014300327748060226 0.02038869634270668 -0.11319999396800995
0.014892321079969406 0.02038869634270668 -0.11319999396800995
0.015511672012507915 0.020424719899892807 -0.11339999735355377
0.016118913888931274 0.02044273167848587 -0.11349999904632568
0.016712475568056107 0.02044273167848587 -0.11349999904632568
0.01791536994278431 0.020460741594433784 -0.1136000007390976
-0.004076516255736351 0.019919121637940407 -0.11389999836683273
-0.003474750090390444 0.019884144887328148 -0.11369999498128891
-0.0028750759083777666 0.01984916813671589 -0.11349999904632568
-0.0022774934768676758 0.01981419138610363 -0.11329999566078186
-0.0016805154737085104 0.01976172812283039 -0.11299999803304672
-0.0010876397136598825 0.019726749509572983 -0.1127999946475029
-0.0004964145482517779 0.019674286246299744 -0.11249999701976776
9.183627844322473e-05 0.019656797870993614 -0.11239999532699585
0.0006790411425754428 0.019639309495687485 -0.11229999363422394
0.0012663278030231595 0.019639309495687485 -0.11229999363422394
0.0018536144634708762 0.019639309495687485 -0.11229999363422394
0.002440901007503271 0.019639309495687485 -0.11229999363422394
0.0030308840796351433 0.019656797870993614 -0.11239999532699585
0.0036186936777085066 0.019656797870993614 -0.11239999532699585
0.0047943126410245895 0.019656797870993614 -0.11239999532699585
0.005377333611249924 0.019639309495687485 -0.11229999363422394
0.005964620504528284 0.019639309495687485 -0.11229999363422394
0.0065519073978066444 0.019639309495687485 -0.11229999363422394
0.0071455505676567554 0.019656797870993614 -0.11239999532699585
0.007740240544080734 0.019674286246299744 -0.11249999701976776
0.008335976861417294 0.019691774621605873 -0.11259999871253967
0.008932759054005146 0.019709262996912003 -0.11270000040531158
0.009530586190521717 0.019726749509572983 -0.1127999946475029
0.01012048777192831 0.019726749509572983 -0.1127999946475029
0.010700894519686699 0.019709262996912003 -0.11270000040531158
0.01128025446087122 0.019691774621605873 -0.11259999871253967
0.01184802781790495 0.019656797870993614 -0.11239999532699585
0.01242477260529995 0.019639309495687485 -0.11229999363422394
0.013023646548390388 0.019656797870993614 -0.11239999532699585
0.013635676354169846 0.019691774621605873 -0.11259999871253967
0.014249796979129314 0.019726749509572983 -0.1127999946475029
0.014866010285913944 0.01976172812283039 -0.11299999803304672
0.015484314411878586 0.0197967030107975 -0.11319999396800995
0.016090508550405502 0.01981419138610363 -0.11329999566078186
0.016697751358151436 0.01983167976140976 -0.11339999735355377
-0.004083673935383558 0.01935739815235138 -0.11409999430179596
-0.003477805992588401 0.019306501373648643 -0.11379999667406082
-0.002880142070353031 0.019289536401629448 -0.11369999498128891
-0.002281513763591647 0.019255606457591057 -0.11349999904632568
-0.0016849769745022058 0.019221674650907516 -0.11329999566078186
-0.0010905324015766382 0.019187746569514275 -0.11309999972581863
-0.000497738306876272 0.01913684979081154 -0.1127999946475029
9.208139817928895e-05 0.019119884818792343 -0.11270000040531158
0.000680855184327811 0.019102919846773148 -0.11259999871253967
0.0012685831170529127 0.019085953012108803 -0.11249999701976776
0.0018585663056001067 0.019102919846773148 -0.11259999871253967
0.002449595369398594 0.019119884818792343 -0.11270000040531158
0.0030416701920330524 0.01913684979081154 -0.1127999946475029
0.0036380107048898935 0.01917077973484993 -0.11299999803304672
0.004228957928717136 0.01917077973484993 -0.11299999803304672
0.004819905385375023 0.01917077973484993 -0.11299999803304672
0.005401275586336851 0.01913684979081154 -0.1127999946475029
0.0059911771677434444 0.01913684979081154 -0.1127999946475029
0.006581078749150038 0.01913684979081154 -0.1127999946475029
0.007170979864895344 0.01913684979081154 -0.1127999946475029
0.008365590125322342 0.01917077973484993 -0.11299999803304672
0.008956537581980228 0.01917077973484993 -0.11299999803304672
0.00954748410731554 0.01917077973484993 -0.11299999803304672
0.010138431563973427 0.01917077973484993 -0.11299999803304672
0.010710388422012329 0.01913684979081154 -0.1127999946475029
0.011270236223936081 0.019085953012108803 -0.11249999701976776
0.011837486177682877 0.01905202306807041 -0.11229999363422394
0.012413709424436092 0.019035058096051216 -0.11219999939203262
0.013000473380088806 0.019035058096051216 -0.11219999939203262
0.01359934639185667 0.01905202306807041 -0.11229999363422394
0.014211898669600487 0.019085953012108803 -0.11249999701976776
0.01482654269784689 0.019119884818792343 -0.11270000040531158
0.015429599210619926 0.01913684979081154 -0.1127999946475029
0.016076307743787766 0.01920470967888832 -0.11319999396800995
0.016697751358151436 0.01923864148557186 -0.11339999735355377
-0.0034808621276170015 0.01872781291604042 -0.11389999836683273
-0.002880142070353031 0.018694927915930748 -0.11369999498128891
-0.0022855340503156185 0.018694927915930748 -0.11369999498128891
-0.001687951385974884 0.018662044778466225 -0.11349999904632568
-0.001093425089493394 0.018645601347088814 -0.11339999735355377
-0.000499503337778151 0.01861271634697914 -0.11319999396800995
9.232651063939556e-05 0.018579833209514618 -0.11299999803304672
0.0006820645066909492 0.018546948209404945 -0.1127999946475029
0.0012719659134745598 0.018546948209404945 -0.1127999946475029
0.0018618673784658313 0.018546948209404945 -0.1127999946475029
0.0036444496363401413 0.01861271634697914 -0.11319999396800995
0.004240185022354126 0.018629159778356552 -0.11329999566078186
0.004832701291888952 0.018629159778356552 -0.11329999566078186
0.005420429166406393 0.01861271634697914 -0.11319999396800995
0.006604415830224752 0.01861271634697914 -0.11319999396800995
0.007196408696472645 0.01861271634697914 -0.11319999396800995
0.007781521882861853 0.01859627477824688 -0.11309999972581863
0.00837299320846796 0.01859627477824688 -0.11309999972581863
0.008956537581980228 0.018579833209514618 -0.11299999803304672
0.00954748410731554 0.018579833209514618 -0.11299999803304672
0.010138431563973427 0.018579833209514618 -0.11299999803304672
0.010710388422012329 0.018546948209404945 -0.1127999946475029
0.011270236223936081 0.01849762164056301 -0.11249999701976776
0.011837486177682877 0.01846473664045334 -0.11229999363422394
0.012413709424436092 0.018448295071721077 -0.11219999939203262
0.01298888586461544 0.018431851640343666 -0.11209999769926071
0.01358723733574152 0.018448295071721077 -0.11219999939203262
0.014186632819473743 0.01846473664045334 -0.11229999363422394
0.014813386835157871 0.018514063209295273 -0.11259999871253967
0.01545695774257183 0.018579833209514618 -0.11299999803304672
0.016076307743787766 0.01861271634697914 -0.11319999396800995
0.016697751358151436 0.018645601347088814 -0.11339999735355377
-0.0034869741648435593 0.018163997679948807 -0.11409999430179596
-0.0028826750349253416 0.018116239458322525 -0.11379999667406082
-0.0022855340503156185 0.018100321292877197 -0.11369999498128891
-0.0016909257974475622 0.018100321292877197 -0.11369999498128891
-0.001095353509299457 0.01808440126478672 -0.1136000007390976
-0.0005008270964026451 0.018068483099341393 -0.11349999904632568
9.265332482755184e-05 0.018052563071250916 -0.11339999735355377
0.0012753489427268505 0.018004804849624634 -0.11309999972581863
0.0018651686841621995 0.017988884821534157 -0.11299999803304672
0.002458289498463273 0.018004804849624634 -0.11309999972581863
0.003052456071600318 0.01802072301506996 -0.11319999396800995
0.003650888567790389 0.018052563071250916 -0.11339999735355377
0.004243927542120218 0.018052563071250916 -0.11339999735355377
0.00484123220667243 0.018068483099341393 -0.11349999904632568
0.0054347943514585495 0.018068483099341393 -0.11349999904632568
0.006028356496244669 0.018068483099341393 -0.11349999904632568
0.006616084836423397 0.018052563071250916 -0.11339999735355377
0.0077884020283818245 0.01802072301506996 -0.11319999396800995
0.008365590125322342 0.017988884821534157 -0.11299999803304672
0.008956537581980228 0.017988884821534157 -0.11299999803304672
0.00954748410731554 0.017988884821534157 -0.11299999803304672
0.010138431563973427 0.017988884821534157 -0.11299999803304672
0.010710388422012329 0.017957046627998352 -0.1127999946475029
0.01128025446087122 0.017925208434462547 -0.11259999871253967
0.011858568526804447 0.01790928840637207 -0.11249999701976776
0.01242477260529995 0.017877448350191116 -0.11229999363422394
0.013000473380088806 0.01786153018474579 -0.11219999939203262
0.013611456379294395 0.017893368378281593 -0.11239999532699585
0.014224532060325146 0.017925208434462547 -0.11259999871253967
0.014839698560535908 0.017957046627998352 -0.1127999946475029
0.015484314411878586 0.01802072301506996 -0.11319999396800995
0.016712475568056107 0.018068483099341393 -0.11349999904632568
-0.0034961425699293613 0.01761348731815815 -0.1143999993801117
-0.0028852082323282957 0.017536506056785583 -0.11389999836683273
-0.0022875440772622824 0.01752110943198204 -0.11379999667406082
-0.0016909257974475622 0.017505712807178497 -0.11369999498128891
-0.0010963177774101496 0.017505712807178497 -0.11369999498128891
-0.0005012683686800301 0.017490316182374954 -0.1136000007390976
9.273503383155912e-05 0.01747491955757141 -0.11349999904632568
0.0006862971931695938 0.01747491955757141 -0.11349999904632568
0.0012776041403412819 0.017444126307964325 -0.11329999566078186
0.001868469757027924 0.017428729683160782 -0.11319999396800995
0.002460462972521782 0.017428729683160782 -0.11319999396800995
0.003052456071600318 0.017428729683160782 -0.11319999396800995
0.003650888567790389 0.017459522932767868 -0.11339999735355377
0.004247670061886311 0.01747491955757141 -0.11349999904632568
0.00484123220667243 0.01747491955757141 -0.11349999904632568
0.0054347943514585495 0.01747491955757141 -0.11349999904632568
0.006028356496244669 0.01747491955757141 -0.11349999904632568
0.006621919106692076 0.01747491955757141 -0.11349999904632568
0.00720276590436697 0.017444126307964325 -0.11329999566078186
0.0077884020283818245 0.017428729683160782 -0.11319999396800995
0.008365590125322342 0.017397938296198845 -0.11299999803304672
0.008940684609115124 0.01736714504659176 -0.1127999946475029
0.009530586190521717 0.01736714504659176 -0.1127999946475029
0.01012048777192831 0.01736714504659176 -0.1127999946475029
0.011300290003418922 0.01736714504659176 -0.1127999946475029
0.011879650875926018 0.017351748421788216 -0.11270000040531158
0.012457964941859245 0.017336351796984673 -0.11259999871253967
0.013058408163487911 0.017351748421788216 -0.11270000040531158
0.014287696219980717 0.017413334921002388 -0.11309999972581863
0.014918632805347443 0.017459522932767868 -0.11339999735355377
0.015525351278483868 0.01747491955757141 -0.11349999904632568
0.016118913888931274 0.01747491955757141 -0.11349999904632568
0.016727199777960777 0.017490316182374954 -0.1136000007390976
0.017321284860372543 0.017490316182374954 -0.1136000007390976
-0.0034991984721273184 0.01703009195625782 -0.11449999362230301
-0.0028902743943035603 0.016970599070191383 -0.11409999430179596
-0.00228955433703959 0.016940852627158165 -0.11389999836683273
-0.0016924130031839013 0.016925977542996407 -0.11379999667406082
-0.0010972819291055202 0.016925977542996407 -0.11379999667406082
-0.0005017096409574151 0.016911104321479797 -0.11369999498128891
9.289844456361607e-05 0.016911104321479797 -0.11369999498128891
0.0006869018543511629 0.016896231099963188 -0.1136000007390976
0.0012787317391484976 0.01686648465692997 -0.11339999735355377
0.0018701204098761082 0.01685161143541336 -0.11329999566078186
0.002460462972521782 0.016836736351251602 -0.11319999396800995
0.0036444496363401413 0.016836736351251602 -0.11319999396800995
0.004243927542120218 0.01686648465692997 -0.11339999735355377
0.004836966749280691 0.01686648465692997 -0.11339999735355377
0.005430005956441164 0.01686648465692997 -0.11339999735355377
0.006023045163601637 0.01686648465692997 -0.11339999735355377
0.006616084836423397 0.01686648465692997 -0.11339999735355377
0.00720276590436697 0.01685161143541336 -0.11329999566078186
0.007781521882861853 0.016821864992380142 -0.11309999972581863
0.008365590125322342 0.016806991770863533 -0.11299999803304672
0.008940684609115124 0.016777243465185165 -0.1127999946475029
0.009530586190521717 0.016777243465185165 -0.1127999946475029
0.01012048777192831 0.016777243465185165 -0.1127999946475029
0.010729379020631313 0.016806991770863533 -0.11299999803304672
0.0113203264772892 0.016806991770863533 -0.11299999803304672
0.012502220459282398 0.016806991770863533 -0.11299999803304672
0.01310475543141365 0.016821864992380142 -0.11309999972581863
0.013708334416151047 0.016836736351251602 -0.11319999396800995
0.014944945462048054 0.016896231099963188 -0.1136000007390976
0.015552707947790623 0.016911104321479797 -0.11369999498128891
0.016147315502166748 0.016911104321479797 -0.11369999498128891
0.016741923987865448 0.016911104321479797 -0.11369999498128891
0.017336532473564148 0.016911104321479797 -0.11369999498128891
-0.0035053107421845198 0.016460001468658447 -0.11469999700784683
-0.0028928075917065144 0.016388248652219772 -0.11419999599456787
-0.00228955433703959 0.016345197334885597 -0.11389999836683273
-0.0016924130031839013 0.016330847516655922 -0.11379999667406082
-0.0010972819291055202 0.016330847516655922 -0.11379999667406082
-0.0005021508550271392 0.016330847516655922 -0.11379999667406082
9.289844456361607e-05 0.016316495835781097 -0.11369999498128891
0.0006869018543511629 0.016302146017551422 -0.1136000007390976
0.001279859454371035 0.016287796199321747 -0.11349999904632568
0.0018717710627242923 0.01627344638109207 -0.11339999735355377
0.002460462972521782 0.01624474488198757 -0.11319999396800995
0.003052456071600318 0.01624474488198757 -0.11319999396800995
0.0036412302870303392 0.016230395063757896 -0.11309999972581863
0.004236442968249321 0.01624474488198757 -0.11319999396800995
0.004828435834497213 0.01624474488198757 -0.11319999396800995
0.0054252175614237785 0.016259094700217247 -0.11329999566078186
0.006023045163601637 0.01627344638109207 -0.11339999735355377
0.006616084836423397 0.01627344638109207 -0.11339999735355377
0.00720276590436697 0.016259094700217247 -0.11329999566078186
0.0077884020283818245 0.01624474488198757 -0.11319999396800995
0.00837299320846796 0.016230395063757896 -0.11309999972581863
0.008940684609115124 0.016187341883778572 -0.1127999946475029
0.009530586190521717 0.016187341883778572 -0.1127999946475029
0.010729379020631313 0.016216043382883072 -0.11299999803304672
0.011330344714224339 0.016230395063757896 -0.11309999972581863
0.012524348683655262 0.01624474488198757 -0.11319999396800995
0.013139515183866024 0.01627344638109207 -0.11339999735355377
0.013744664378464222 0.016287796199321747 -0.11349999904632568
0.014350860379636288 0.016302146017551422 -0.1136000007390976
0.015552707947790623 0.016316495835781097 -0.11369999498128891
0.016147315502166748 0.016316495835781097 -0.11369999498128891
0.016741923987865448 0.016316495835781097 -0.11369999498128891
0.017336532473564148 0.016316495835781097 -0.11369999498128891
0.017931140959262848 0.016316495835781097 -0.11369999498128891
-0.0028953407891094685 0.015804853290319443 -0.11429999768733978
-0.00228955433703959 0.01574954390525818 -0.11389999836683273
-0.0016924130031839013 0.015735715627670288 -0.11379999667406082
-0.0010972819291055202 0.015735715627670288 -0.11379999667406082
-0.0005021508550271392 0.015735715627670288 -0.11379999667406082
9.289844456361607e-05 0.015721889212727547 -0.11369999498128891
0.000687506515532732 0.015721889212727547 -0.11369999498128891
0.001279859454371035 0.015694234520196915 -0.11349999904632568
0.0018717710627242923 0.015680406242609024 -0.11339999735355377
0.002462636446580291 0.015666577965021133 -0.11329999566078186
0.003052456071600318 0.015652751550078392 -0.11319999396800995
0.0036444496363401413 0.015652751550078392 -0.11319999396800995
0.004240185022354126 0.015666577965021133 -0.11329999566078186
0.004832701291888952 0.015666577965021133 -0.11329999566078186
0.0054252175614237785 0.015666577965021133 -0.11329999566078186
0.006023045163601637 0.015680406242609024 -0.11339999735355377
0.006616084836423397 0.015680406242609024 -0.11339999735355377
0.007215480785816908 0.015694234520196915 -0.11349999904632568
0.0078021627850830555 0.015680406242609024 -0.11339999735355377
0.008387799374759197 0.015666577965021133 -0.11329999566078186
0.008972388692200184 0.015652751550078392 -0.11319999396800995
0.00954748410731554 0.01562509685754776 -0.11299999803304672
0.010147403925657272 0.0156389232724905 -0.11309999972581863
0.010748368687927723 0.015652751550078392 -0.11319999396800995
0.01136039849370718 0.015680406242609024 -0.11339999735355377
0.011953437700867653 0.015680406242609024 -0.11339999735355377
0.012557541020214558 0.015694234520196915 -0.11349999904632568
0.01315110269933939 0.015694234520196915 -0.11349999904632568
0.013756775297224522 0.015708060935139656 -0.1136000007390976
0.016147315502166748 0.015721889212727547 -0.11369999498128891
0.016741923987865448 0.015721889212727547 -0.11369999498128891
0.017336532473564148 0.015721889212727547 -0.11369999498128891
0.017931140959262848 0.015721889212727547 -0.11369999498128891
-0.00228955433703959 0.01515389047563076 -0.11389999836683273
-0.0016924130031839013 0.015140585601329803 -0.11379999667406082
-0.0010963177774101496 0.015127280727028847 -0.11369999498128891
-0.0005017096409574151 0.015127280727028847 -0.11369999498128891
0.001279859454371035 0.015100671909749508 -0.11349999904632568
0.0018717710627242923 0.015087367035448551 -0.11339999735355377
0.002462636446580291 0.015074062161147594 -0.11329999566078186
0.003052456071600318 0.015060757286846638 -0.11319999396800995
0.0036476689856499434 0.015074062161147594 -0.11329999566078186
0.004836966749280691 0.015087367035448551 -0.11339999735355377
0.005430005956441164 0.015087367035448551 -0.11339999735355377
0.006028356496244669 0.015100671909749508 -0.11349999904632568
0.006621919106692076 0.015100671909749508 -0.11349999904632568
0.007221837993711233 0.015113976784050465 -0.1136000007390976
0.007809042930603027 0.015100671909749508 -0.11349999904632568
0.008996168151497841 0.015100671909749508 -0.11349999904632568
0.009581280872225761 0.015087367035448551 -0.11339999735355377
0.010174320079386234 0.015087367035448551 -0.11339999735355377
0.010767359286546707 0.015087367035448551 -0.11339999735355377
0.011370416730642319 0.015100671909749508 -0.11349999904632568
0.011963978409767151 0.015100671909749508 -0.11349999904632568
0.01256860513240099 0.015113976784050465 -0.1136000007390976
0.013174275867640972 0.015127280727028847 -0.11369999498128891
0.013768884353339672 0.015127280727028847 -0.11369999498128891
0.014363491907715797 0.015127280727028847 -0.11369999498128891
0.014958100393414497 0.015127280727028847 -0.11369999498128891
0.015552707947790623 0.015127280727028847 -0.11369999498128891
0.016147315502166748 0.015127280727028847 -0.11369999498128891
0.016741923987865448 0.015127280727028847 -0.11369999498128891
0.017336532473564148 0.015127280727028847 -0.11369999498128891
0.017931140959262848 0.015127280727028847 -0.11369999498128891
-0.0016924130031839013 0.014545454643666744 -0.11379999667406082
0.000687506515532732 0.014532672241330147 -0.11369999498128891
0.0012809870531782508 0.014519891701638699 -0.1136000007390976
0.0018734215991571546 0.014507110230624676 -0.11349999904632568
0.0024648101534694433 0.014494327828288078 -0.11339999735355377
0.003057849360629916 0.014494327828288078 -0.11339999735355377
0.003650888567790389 0.014494327828288078 -0.11339999735355377
0.004243927542120218 0.014494327828288078 -0.11339999735355377
0.00484123220667243 0.014507110230624676 -0.11349999904632568
0.0054347943514585495 0.014507110230624676 -0.11349999904632568
0.006028356496244669 0.014507110230624676 -0.11349999904632568
0.006633587647229433 0.014532672241330147 -0.11369999498128891
0.007228195201605558 0.014532672241330147 -0.11369999498128891
0.007822803221642971 0.014532672241330147 -0.11369999498128891
0.008417411707341671 0.014532672241330147 -0.11369999498128891
0.009012020193040371 0.014532672241330147 -0.11369999498128891
0.009606627747416496 0.014532672241330147 -0.11369999498128891
0.010795843787491322 0.014532672241330147 -0.11369999498128891
0.011390452273190022 0.014532672241330147 -0.11369999498128891
0.011985059827566147 0.014532672241330147 -0.11369999498128891
0.012579668313264847 0.014532672241330147 -0.11369999498128891
0.013174275867640972 0.014532672241330147 -0.11369999498128891
0.013768884353339672 0.014532672241330147 -0.11369999498128891
0.014363491907715797 0.014532672241330147 -0.11369999498128891
0.014958100393414497 0.014532672241330147 -0.11369999498128891
0.015552707947790623 0.014532672241330147 -0.11369999498128891
0.016147315502166748 0.014532672241330147 -0.11369999498128891
0.016741923987865448 0.014532672241330147 -0.11369999498128891
0.017336532473564148 0.014532672241330147 -0.11369999498128891
0.017931140959262848 0.014532672241330147 -0.11369999498128891
-0.0029004067182540894 0.014036132954061031 -0.11449999362230301
-0.0022935746237635612 0.013987097889184952 -0.11409999430179596
-0.0016924130031839013 0.01395032275468111 -0.11379999667406082
-0.0005017096409574151 0.013938063755631447 -0.11369999498128891
9.289844456361607e-05 0.013938063755631447 -0.11369999498128891
0.0012809870531782508 0.013925805687904358 -0.1136000007390976
0.0018734215991571546 0.013913546688854694 -0.11349999904632568
0.002466983627527952 0.013913546688854694 -0.11349999904632568
0.0030605457723140717 0.013913546688854694 -0.11349999904632568
0.0036541081499308348 0.013913546688854694 -0.11349999904632568
0.004247670061886311 0.013913546688854694 -0.11349999904632568
0.00484123220667243 0.013913546688854694 -0.11349999904632568
0.0054443711414933205 0.013938063755631447 -0.11369999498128891
0.006038979161530733 0.013938063755631447 -0.11369999498128891
0.00664525618776679 0.013962581753730774 -0.11389999836683273
0.0072472672909498215 0.013974839821457863 -0.11400000005960464
0.007843444123864174 0.013974839821457863 -0.11400000005960464
0.008439621888101101 0.013974839821457863 -0.11400000005960464
0.009035798721015453 0.013974839821457863 -0.11400000005960464
0.009623526595532894 0.013962581753730774 -0.11389999836683273
0.010219180025160313 0.013962581753730774 -0.11389999836683273
0.010814834386110306 0.013962581753730774 -0.11389999836683273
0.011420506052672863 0.013974839821457863 -0.11400000005960464
0.012006142176687717 0.013962581753730774 -0.11389999836683273
0.01260179653763771 0.013962581753730774 -0.11389999836683273
0.014376125298440456 0.01395032275468111 -0.11379999667406082
0.014958100393414497 0.013938063755631447 -0.11369999498128891
0.015552707947790623 0.013938063755631447 -0.11369999498128891
0.016147315502166748 0.013938063755631447 -0.11369999498128891
0.016741923987865448 0.013938063755631447 -0.11369999498128891
0.017336532473564148 0.013938063755631447 -0.11369999498128891
0.017931140959262848 0.013938063755631447 -0.11369999498128891
0.0185257475823164 0.013938063755631447 -0.11369999498128891
-0.002295584650710225 0.01340213418006897 -0.11419999599456787
-0.0016939002089202404 0.01336692739278078 -0.11389999836683273
-0.0010963177774101496 0.013343455269932747 -0.11369999498128891
9.289844456361607e-05 0.013343455269932747 -0.11369999498128891
0.000687506515532732 0.013343455269932747 -0.11369999498128891
0.0012809870531782508 0.013331720605492592 -0.1136000007390976
0.0018750722520053387 0.013331720605492592 -0.1136000007390976
0.0024691573344171047 0.013331720605492592 -0.1136000007390976
0.0030632424168288708 0.013331720605492592 -0.1136000007390976
0.0036573277320712805 0.013331720605492592 -0.1136000007390976
0.004251412581652403 0.013331720605492592 -0.1136000007390976
0.004849763121455908 0.013343455269932747 -0.11369999498128891
0.005449159536510706 0.013355191797018051 -0.11379999667406082
0.006049601826816797 0.01336692739278078 -0.11389999836683273
0.006656924728304148 0.01339039858430624 -0.11409999430179596
0.0072726961225271225 0.013425606302917004 -0.1143999993801117
0.007864084094762802 0.0134138697758317 -0.11429999768733978
0.008454428054392338 0.01340213418006897 -0.11419999599456787
0.009043724276125431 0.01339039858430624 -0.11409999430179596
0.009640424512326717 0.01339039858430624 -0.11409999430179596
0.010228152386844158 0.01337866298854351 -0.11400000005960464
0.01082432921975851 0.01337866298854351 -0.11400000005960464
0.011430524289608002 0.01339039858430624 -0.11409999430179596
0.012016682885587215 0.01337866298854351 -0.11400000005960464
0.01260179653763771 0.01336692739278078 -0.11389999836683273
0.014958100393414497 0.013343455269932747 -0.11369999498128891
0.015552707947790623 0.013343455269932747 -0.11369999498128891
0.016147315502166748 0.013343455269932747 -0.11369999498128891
0.016741923987865448 0.013343455269932747 -0.11369999498128891
0.017336532473564148 0.013343455269932747 -0.11369999498128891
0.01854204200208187 0.013355191797018051 -0.11379999667406082
-0.002301615197211504 0.012838548980653286 -0.11449999362230301
-0.0016983617097139359 0.012804911471903324 -0.11419999599456787
0.0012821146519854665 0.012748847715556622 -0.11369999498128891
0.0024691573344171047 0.012737635523080826 -0.1136000007390976
0.0030659388285130262 0.012748847715556622 -0.11369999498128891
0.0036605470813810825 0.012748847715556622 -0.11369999498128891
0.0042588976211845875 0.012760060839354992 -0.11379999667406082
0.004854028578847647 0.012760060839354992 -0.11379999667406082
0.005458736326545477 0.012782486155629158 -0.11400000005960464
0.0060708471573889256 0.012816124595701694 -0.11429999768733978
0.006680261809378862 0.012838548980653286 -0.11449999362230301
0.0072790528647601604 0.012838548980653286 -0.11449999362230301
0.007870964705944061 0.01282733678817749 -0.1143999993801117
0.008454428054392338 0.012804911471903324 -0.11419999599456787
0.009043724276125431 0.012793698348104954 -0.11409999430179596
0.010210208594799042 0.012760060839354992 -0.11379999667406082
0.010814834386110306 0.012771273031830788 -0.11389999836683273
0.011410487815737724 0.012771273031830788 -0.11389999836683273
0.012006142176687717 0.012771273031830788 -0.11389999836683273
0.01260179653763771 0.012771273031830788 -0.11389999836683273
0.013780994340777397 0.012760060839354992 -0.11379999667406082
0.014363491907715797 0.012748847715556622 -0.11369999498128891
0.014958100393414497 0.012748847715556622 -0.11369999498128891
0.015552707947790623 0.012748847715556622 -0.11369999498128891
0.016147315502166748 0.012748847715556622 -0.11369999498128891
0.016741923987865448 0.012748847715556622 -0.11369999498128891
0.017336532473564148 0.012748847715556622 -0.11369999498128891
0.01854204200208187 0.012760060839354992 -0.11379999667406082
0.019153989851474762 0.012771273031830788 -0.11389999836683273
-0.002307645510882139 0.012271827086806297 -0.11479999870061874
-0.0017028232105076313 0.012239756993949413 -0.11449999362230301
-0.001102103036828339 0.012218378484249115 -0.11429999768733978
0.001876722788438201 0.012154239229857922 -0.11369999498128891
0.0024713308084756136 0.012154239229857922 -0.11369999498128891
0.0030659388285130262 0.012154239229857922 -0.11369999498128891
0.0036637664306908846 0.012164929881691933 -0.11379999667406082
0.0042588976211845875 0.012164929881691933 -0.11379999667406082
0.0048625594936311245 0.012186309322714806 -0.11400000005960464
0.005468313116580248 0.012207688763737679 -0.11419999599456787
0.006081469357013702 0.012239756993949413 -0.11449999362230301
0.00669193034991622 0.01226113736629486 -0.11469999700784683
0.007291767746210098 0.01226113736629486 -0.11469999700784683
0.007870964705944061 0.012229068204760551 -0.1143999993801117
0.008439621888101101 0.012186309322714806 -0.11400000005960464
0.009019945748150349 0.012164929881691933 -0.11379999667406082
0.009606627747416496 0.012154239229857922 -0.11369999498128891
0.010201236233115196 0.012154239229857922 -0.11369999498128891
0.010795843787491322 0.012154239229857922 -0.11369999498128891
0.01140047051012516 0.012164929881691933 -0.11379999667406082
0.01199560146778822 0.012164929881691933 -0.11379999667406082
0.012590732425451279 0.012164929881691933 -0.11379999667406082
0.013174275867640972 0.012154239229857922 -0.11369999498128891
0.014363491907715797 0.012154239229857922 -0.11369999498128891
0.014971256256103516 0.012164929881691933 -0.11379999667406082
0.015566387213766575 0.012164929881691933 -0.11379999667406082
0.016161518171429634 0.012164929881691933 -0.11379999667406082
0.01675664819777012 0.012164929881691933 -0.11379999667406082
0.017351780086755753 0.012164929881691933 -0.11379999667406082
0.017962681129574776 0.01217561960220337 -0.11389999836683273
0.018574628978967667 0.012186309322714806 -0.11400000005960464
0.019187621772289276 0.012196998111903667 -0.11409999430179596
0.019853679463267326 0.012239756993949413 -0.11449999362230301
-0.001710259122774005 0.011691799387335777 -0.11499999463558197
-0.0011059599928557873 0.011661299504339695 -0.11469999700784683
-0.0005052396445535123 0.011640965938568115 -0.11449999362230301
0.0012832422507926822 0.011569798924028873 -0.11379999667406082
0.0030686352401971817 0.011569798924028873 -0.11379999667406082
0.0036637664306908846 0.011569798924028873 -0.11379999667406082
0.00426264014095068 0.011579965241253376 -0.11389999836683273
0.004866824485361576 0.011600298807024956 -0.11409999430179596
0.005473101511597633 0.011620632372796535 -0.11429999768733978
0.006081469357013702 0.011640965938568115 -0.11449999362230301
0.00669193034991622 0.011661299504339695 -0.11469999700784683
0.0072790528647601604 0.011640965938568115 -0.11449999362230301
0.007857204414904118 0.011610466055572033 -0.11419999599456787
0.008432218804955482 0.011579965241253376 -0.11389999836683273
0.009012020193040371 0.011559631675481796 -0.11369999498128891
0.00959817972034216 0.011549465358257294 -0.1136000007390976
0.010192264802753925 0.011549465358257294 -0.1136000007390976
0.010795843787491322 0.011559631675481796 -0.11369999498128891
0.011390452273190022 0.011559631675481796 -0.11369999498128891
0.011985059827566147 0.011559631675481796 -0.11369999498128891
0.012579668313264847 0.011559631675481796 -0.11369999498128891
0.013174275867640972 0.011559631675481796 -0.11369999498128891
0.013768884353339672 0.011559631675481796 -0.11369999498128891
0.014363491907715797 0.011559631675481796 -0.11369999498128891
0.014971256256103516 0.011569798924028873 -0.11379999667406082
0.01617571897804737 0.011579965241253376 -0.11389999836683273
0.01677137427031994 0.011579965241253376 -0.11389999836683273
0.017397522926330566 0.011600298807024956 -0.11409999430179596
0.018009992316365242 0.011610466055572033 -0.11419999599456787
0.018639802932739258 0.011630799621343613 -0.1143999993801117
0.019254887476563454 0.011640965938568115 -0.11449999362230301
9.371549094794318e-05 0.011061461642384529 -0.11469999700784683
0.0006923438631929457 0.011042173951864243 -0.11449999362230301
0.004266382660716772 0.0109939556568861 -0.11400000005960464
0.004866824485361576 0.01100359857082367 -0.11409999430179596
0.005477889906615019 0.011032531037926674 -0.1143999993801117
0.006081469357013702 0.011042173951864243 -0.11449999362230301
0.00669193034991622 0.011061461642384529 -0.11469999700784683
0.007291767746210098 0.011061461642384529 -0.11469999700784683
0.007864084094762802 0.01102288719266653 -0.11429999768733978
0.008432218804955482 0.010984311811625957 -0.11389999836683273
0.009012020193040371 0.010965023189783096 -0.11369999498128891
0.009606627747416496 0.010965023189783096 -0.11369999498128891
0.010192264802753925 0.010955380275845528 -0.1136000007390976
0.010795843787491322 0.010965023189783096 -0.11369999498128891
0.011390452273190022 0.010965023189783096 -0.11369999498128891
0.011985059827566147 0.010965023189783096 -0.11369999498128891
0.012579668313264847 0.010965023189783096 -0.11369999498128891
0.013174275867640972 0.010965023189783096 -0.11369999498128891
0.013768884353339672 0.010965023189783096 -0.11369999498128891
0.014363491907715797 0.010965023189783096 -0.11369999498128891
0.014971256256103516 0.010974667966365814 -0.11379999667406082
0.015566387213766575 0.010974667966365814 -0.11379999667406082
0.016189921647310257 0.0109939556568861 -0.11400000005960464
0.01681554690003395 0.011013242416083813 -0.11419999599456787
0.017458513379096985 0.011042173951864243 -0.11449999362230301
0.018088845536112785 0.011061461642384529 -0.11469999700784683
0.01870497688651085 0.011071106418967247 -0.11479999870061874
0.019338971003890038 0.011090393178164959 -0.11499999463558197
0.0006959718302823603 0.01049810741096735 -0.11509999632835388
0.0012945185881108046 0.010470745153725147 -0.11479999870061874
0.0018899274291470647 0.01044338196516037 -0.11449999362230301
0.006092092487961054 0.010461624711751938 -0.11469999700784683
0.006697765085846186 0.010470745153725147 -0.11479999870061874
0.0072981249541044235 0.010470745153725147 -0.11479999870061874
0.007877844385802746 0.01044338196516037 -0.11449999362230301
0.009027872234582901 0.010388657450675964 -0.11389999836683273
0.009606627747416496 0.010370415635406971 -0.11369999498128891
0.010201236233115196 0.010370415635406971 -0.11369999498128891
0.010795843787491322 0.010370415635406971 -0.11369999498128891
0.011390452273190022 0.010370415635406971 -0.11369999498128891
0.011985059827566147 0.010370415635406971 -0.11369999498128891
0.012579668313264847 0.010370415635406971 -0.11369999498128891
0.013174275867640972 0.010370415635406971 -0.11369999498128891
0.013768884353339672 0.010370415635406971 -0.11369999498128891
0.014363491907715797 0.010370415635406971 -0.11369999498128891
0.014971256256103516 0.010379537008702755 -0.11379999667406082
0.016204122453927994 0.010406899265944958 -0.11409999430179596
0.01684499718248844 0.010434262454509735 -0.1143999993801117
0.01815192773938179 0.01049810741096735 -0.11509999632835388
0.01877015084028244 0.010507228784263134 -0.1151999980211258
0.019389420747756958 0.010516350157558918 -0.1152999997138977
0.0018998309969902039 0.009896178729832172 -0.11509999632835388
0.002495239954441786 0.009870384819805622 -0.11479999870061874
0.0036863028071820736 0.009844590909779072 -0.11449999362230301
0.004892417229712009 0.009861786849796772 -0.11469999700784683
0.006715267430990934 0.009896178729832172 -0.11509999632835388
0.007317196577787399 0.009896178729832172 -0.11509999632835388
0.007905365899205208 0.009878982789814472 -0.11490000039339066
0.00849144347012043 0.009861786849796772 -0.11469999700784683
0.009640424512326717 0.009810199029743671 -0.11409999430179596
0.010805339552462101 0.009784406051039696 -0.11379999667406082
0.01140047051012516 0.009784406051039696 -0.11379999667406082
0.011985059827566147 0.009775807149708271 -0.11369999498128891
0.012579668313264847 0.009775807149708271 -0.11369999498128891
0.013174275867640972 0.009775807149708271 -0.11369999498128891
0.013768884353339672 0.009775807149708271 -0.11369999498128891
0.014376125298440456 0.009784406051039696 -0.11379999667406082
0.014971256256103516 0.009784406051039696 -0.11379999667406082
0.015580065548419952 0.009793004021048546 -0.11389999836683273
0.01621832512319088 0.009818796999752522 -0.11419999599456787
0.016889171674847603 0.009861786849796772 -0.11469999700784683
0.017534751445055008 0.009887579828500748 -0.11499999463558197
0.018183469772338867 0.009913374669849873 -0.1152999997138977
0.018802737817168236 0.009921971708536148 -0.11539999395608902
0.019406236708164215 0.009921971708536148 -0.11539999395608902
0.0019047828391194344 0.009318473748862743 -0.11539999395608902
0.0025082810316234827 0.009318473748862743 -0.11539999395608902
0.0031063866335898638 0.009302323684096336 -0.1151999980211258
0.003702400252223015 0.00928617361932993 -0.11499999463558197
0.005520984996110201 0.009310399182140827 -0.1152999997138977
0.00673277024179697 0.009318473748862743 -0.11539999395608902
0.007932886481285095 0.009310399182140827 -0.1152999997138977
0.008521056734025478 0.00929424911737442 -0.11509999632835388
0.0091071343049407 0.009278099052608013 -0.11490000039339066
0.01025506854057312 0.009229649789631367 -0.11429999768733978
0.011410487815737724 0.009197349660098553 -0.11389999836683273
0.01199560146778822 0.009189275093376637 -0.11379999667406082
0.012579668313264847 0.009181199595332146 -0.11369999498128891
0.013174275867640972 0.009181199595332146 -0.11369999498128891
0.014376125298440456 0.009189275093376637 -0.11379999667406082
0.014984412118792534 0.009197349660098553 -0.11389999836683273
0.015607423149049282 0.00921349972486496 -0.11409999430179596
0.01626092940568924 0.009245798923075199 -0.11449999362230301
0.016918620094656944 0.009278099052608013 -0.11490000039339066
0.018199238926172256 0.009318473748862743 -0.11539999395608902
0.018802737817168236 0.009318473748862743 -0.11539999395608902
0.019423052668571472 0.00932654831558466 -0.11549999564886093
0.0037152781151235104 0.00871497392654419 -0.11539999395608902
0.004318776540458202 0.00871497392654419 -0.11539999395608902
0.007348983082920313 0.008730078116059303 -0.11559999734163284
0.007946646772325039 0.008722526021301746 -0.11549999564886093
0.008543265983462334 0.00871497392654419 -0.11539999395608902
0.00913883838802576 0.008707422763109207 -0.1152999997138977
0.009724915027618408 0.008692318573594093 -0.11509999632835388
