ply
format ascii 1.0
element vertex 742
property float x
property float y
property float z
end_header
0.0029209626372903577 0.012480475939810276 0.0021570639219135046
0.0034520465414971105 0.012480475939810276 0.0013871152186766267
0.003983130678534507 0.012480475939810276 0.0022191337775439024
0.004514215048402547 0.012480475939810276 0.0017880103550851345
0.0050452989526093 0.012480475939810276 0.002300430089235306
0.0055763828568160525 0.012480475939810276 0.0019685025326907635
0.006107467226684093 0.012480475939810276 0.0016365749761462212
0.006638551130890845 0.012480475939810276 0.001537543605081737
0.0071696355007588855 0.012480475939810276 0.0010406550718471408
0.00823180377483368 0.012480475939810276 0.001273373723961413
0.008762887679040432 0.012480475939810276 0.0009082533069886267
-0.015135896392166615 0.011949392035603522 0.0012790766777470708
-0.014604812487959862 0.011949392035603522 0.0018089943332597613
-0.014073728583753109 0.011949392035603523 0.0022729646880179644
-0.013542644679546356 0.011949392035603523 0.0025716994423419237
-0.013011560775339603 0.011949392035603523 0.002770855324342847
-0.012480475939810276 0.011949392035603523 0.002970011904835701
-0.011949392035603523 0.011949392035603523 0.0030690431594848633
-0.01141830813139677 0.011949392035603523 0.003100804751738906
-0.010887224227190018 0.011949392035603523 0.00316614774055779
-0.010356140322983265 0.011949392035603523 0.0032314930576831102
-0.009825055487453938 0.011949392035603523 0.0032632534857839346
-0.009293971583247185 0.011949392035603523 0.0032283691689372063
-0.008762887679040432 0.011949392035603523 0.0033274004235863686
-0.00823180377483368 0.011949392035603523 0.003426431678235531
-0.00770071940496564 0.011949392035603523 0.0032359531614929438
-0.007169635500758887 0.011949392035603523 0.003234286792576313
-0.006107467226684094 0.011949392035603523 0.0013774757971987128
-0.005576382856816054 0.011949392035603523 0.00232447637245059
-0.0050452989526093015 0.011949392035603523 0.0028875679709017277
-0.004514215048402549 0.011949392035603523 0.003186302725225687
-0.003983130678534509 0.011949392035603523 0.003352266503497958
-0.003452046541497112 0.011949392035603523 0.0036178086884319782
-0.0029209626372903594 0.011949392035603523 0.003716840874403715
-0.002389878500252963 0.011949392035603523 0.003748602233827114
-0.0018587943632155663 0.011949392035603523 0.0038139454554766417
-0.00132771022617817 0.011949392035603523 0.003879289608448744
-0.0007966261473484345 0.011949392035603523 0.003911050967872143
-0.00026554203941486846 0.011949392035603523 0.002439711941406131
0.00026554203941486705 0.011949392035603523 0.001586194266565144
0.0013277102261781686 0.011949392035603523 0.0011032760376110673
0.001858794363215565 0.011949392035603523 0.0018377092201262712
0.0023898785002529612 0.011949392035603523 0.0021696367766708136
0.0029209626372903577 0.011949392035603523 0.0011620298027992249
0.003983130678534507 0.011949392035603523 0.0010941532673314214
0.004514215048402547 0.011949392035603523 0.001793195609934628
0.0050452989526093 0.011949392035603523 0.0020255448762327433
0.0055763828568160525 0.011949392035603523 0.000985192833468318
0.006107467226684093 0.011949392035603523 0.0014163163723424077
0.0071696355007588855 0.011949392035603523 0.0009725475683808327
0.008762887679040432 0.011949392035603523 0.0010657866951078176
-0.015666980296373367 0.011418308131396769 0.0009096982539631426
-0.015135896392166615 0.011418308131396769 0.002778223715722561
-0.014604812487959862 0.011418308131396769 0.0027128795627504587
-0.014073728583753109 0.01141830813139677 0.0031868547666817904
-0.013542644679546356 0.01141830813139677 0.003121510613709688
-0.013011560775339603 0.01141830813139677 0.002922354033216834
-0.012480475939810276 0.01141830813139677 0.002756390254944563
-0.011949392035603523 0.01141830813139677 0.0025904264766722918
-0.01141830813139677 0.01141830813139677 0.0022253061179071665
-0.010887224227190018 0.01141830813139677 0.003615210298448801
-0.010356140322983265 0.01141830813139677 0.0033828611485660076
-0.009825055487453938 0.01141830813139677 0.0034507042728364468
-0.009293971583247185 0.01141830813139677 0.003418942680582404
-0.008762887679040432 0.01141830813139677 0.0034538281615823507
-0.00823180377483368 0.01141830813139677 0.00355431716889143
-0.00770071940496564 0.01141830813139677 0.003321967786177993
-0.007169635500758887 0.01141830813139677 0.0036278623156249523
-0.006638551130890847 0.01141830813139677 0.0036627475637942553
-0.006107467226684094 0.01141830813139677 0.0036644130013883114
-0.005576382856816054 0.01141830813139677 0.003565381746739149
-0.0050452989526093015 0.01141830813139677 0.00400122907012701
-0.004514215048402549 0.01141830813139677 0.004101719241589308
-0.003983130678534509 0.01141830813139677 0.0041366033256053925
-0.003452046541497112 0.01141830813139677 0.004327081609517336
-0.0029209626372903594 0.01141830813139677 0.003995154518634081
-0.002389878500252963 0.01141830813139677 0.003896123031154275
-0.0018587943632155663 0.01141830813139677 0.003696966450661421
-0.00132771022617817 0.01141830813139677 0.0029270178638398647
-0.0007966261473484344 0.01141830813139677 0.0025950903072953224
-0.00026554203941486846 0.01141830813139677 0.0022963553201407194
0.00026554203941486705 0.01141830813139677 0.0017664377810433507
0.0007966261473484331 0.01141830813139677 0.0028067901730537415
0.0013277102261781686 0.01141830813139677 0.002574441023170948
0.001858794363215565 0.01141830813139677 0.0022425134666264057
0.0023898785002529612 0.01141830813139677 0.0017785431118682027
0.0029209626372903577 0.01141830813139677 0.0016795118572190404
0.0034520465414971105 0.01141830813139677 0.001083063310943544
0.003983130678534507 0.01141830813139677 0.002090668771415949
0.004514215048402547 0.01141830813139677 0.0019247049931436777
0.0050452989526093 0.01141830813139677 0.0016259702388197184
0.0055763828568160525 0.01141830813139677 0.0009959460003301501
0.006638551130890845 0.01141830813139677 0.0011567786568775773
0.0071696355007588855 0.01141830813139677 0.0008580437861382961
-0.015135896392166615 0.010887224227190016 0.0012833073269575834
-0.014604812487959862 0.010887224227190016 0.0019823512993752956
-0.014073728583753109 0.010887224227190018 0.0024463199079036713
-0.013542644679546356 0.010887224227190018 0.0027450541965663433
-0.013011560775339603 0.010887224227190018 0.0028103995136916637
-0.012480475939810276 0.010887224227190018 0.002976363291963935
-0.011949392035603523 0.010887224227190018 0.001833984162658453
-0.01141830813139677 0.010887224227190018 0.0023639018181711435
-0.010887224227190018 0.010887224227190018 0.002729022176936269
-0.010356140322983265 0.010887224227190018 0.002994564129039645
-0.009825055487453938 0.010887224227190018 0.0031605279073119164
-0.009293971583247185 0.010887224227190018 0.0031922892667353153
-0.008762887679040432 0.010887224227190018 0.001873472472652793
-0.00823180377483368 0.010887224227190018 0.0027853052597492933
-0.00770071940496564 0.010887224227190018 0.0029844618402421474
-0.007169635500758887 0.010887224227190018 0.003415584797039628
-0.006638551130890847 0.010887224227190018 0.002486187033355236
-0.006107467226684094 0.010887224227190018 0.002983077196404338
-0.005576382856816054 0.010887224227190018 0.0032486191485077143
-0.0050452989526093015 0.010887224227190018 0.0034145829267799854
-0.004514215048402549 0.010887224227190018 0.0035805467050522566
-0.003983130678534509 0.010887224227190018 0.003645889926701784
-0.003452046541497112 0.010887224227190018 0.0037112352438271046
-0.0029209626372903594 0.010887224227190018 0.003810266498476267
-0.002389878500252963 0.010887224227190018 0.0037753810174763203
-0.0018587943632155663 0.010887224227190018 0.003840726101770997
-0.00132771022617817 0.010887224227190018 0.0038390588015317917
-0.0007966261473484344 0.010887224227190018 0.003837392432615161
-0.0002655420394148684 0.010887224227190018 0.0022429742384701967
0.0002655420394148671 0.010887224227190018 0.002706944476813078
0.0007966261473484331 0.010887224227190018 0.002545164432376623
0.0013277102261781686 0.010887224227190018 0.0027111282106488943
0.001858794363215565 0.010887224227190018 0.0016032950952649117
0.0023898785002529612 0.010887224227190018 0.0020672648679465055
0.0029209626372903577 0.010887224227190018 0.002299614017829299
0.0034520465414971105 0.010887224227190018 0.0012592620914801955
0.003983130678534507 0.010887224227190018 0.001723230816423893
0.004514215048402547 0.010887224227190018 0.0020219655707478523
0.0050452989526093 0.010887224227190018 0.0008795864414423704
0.0055763828568160525 0.010887224227190018 0.00140950467903167
0.006638551130890845 0.010887224227190018 0.0009657368646003306
-0.015666980296373367 0.010356140322983263 0.0007970021688379347
-0.015135896392166615 0.010356140322983263 0.0017064536223188043
-0.014604812487959862 0.010356140322983263 0.0031982881482690573
-0.014073728583753109 0.010356140322983265 0.0032331724651157856
-0.013542644679546356 0.010356140322983265 0.0031678294762969017
-0.013011560775339603 0.010356140322983265 0.0030687979888170958
-0.012480475939810276 0.010356140322983265 0.0028364488389343023
-0.011949392035603523 0.010356140322983265 0.001959913643077016
-0.01141830813139677 0.010356140322983265 0.0031372499652206898
-0.010887224227190018 0.010356140322983265 0.0030382187105715275
-0.010356140322983265 0.010356140322983265 0.002772676758468151
-0.009825055487453938 0.010356140322983265 0.002341552870348096
-0.009293971583247185 0.010356140322983265 0.001642509363591671
-0.008762887679040432 0.010356140322983265 0.002716301241889596
-0.00823180377483368 0.010356140322983265 0.0017693013651296496
-0.00770071940496564 0.010356140322983265 0.002809653989970684
-0.007169635500758887 0.010356140322983265 0.0024777257349342108
-0.006638551130890847 0.010356140322983265 0.0036902304273098707
-0.006107467226684094 0.010356140322983265 0.003658468835055828
-0.005576382856816054 0.010356140322983265 0.0039061594288796186
-0.0050452989526093015 0.010356140322983265 0.0038743990007787943
-0.004514215048402549 0.010356140322983265 0.003809054847806692
-0.003983130678534509 0.010356140322983265 0.0037772944197058678
-0.0034520465414971118 0.010356140322983265 0.003711949335411191
-0.002920962637290359 0.010356140322983265 0.003646605182439089
-0.0023898785002529625 0.010356140322983265 0.0034806414041668177
-0.0018587943632155663 0.010356140322983265 0.0032482920214533806
-0.00132771022617817 0.010356140322983265 0.0030491354409605265
-0.0007966261473484344 0.010356140322983265 0.002618012484163046
-0.0002655420394148684 0.010356140322983265 0.002154043409973383
0.0002655420394148671 0.010356140322983265 0.0015575942816212773
0.0007966261473484331 0.010356140322983265 0.0025979462079703808
0.0013277102261781686 0.010356140322983265 0.0022660186514258385
0.001858794363215565 0.010356140322983265 0.0018348952289670706
0.0023898785002529617 0.010356140322983265 0.0011358518386259675
0.002920962637290358 0.010356140322983265 0.002176203764975071
0.003452046541497111 0.010356140322983265 0.0017122351564466953
0.003983130678534507 0.010356140322983265 0.0010822104522958398
0.0050452989526093 0.010356140322983265 0.0013828815426677465
0.0055763828568160525 0.010356140322983265 0.000918912177439779
0.006638551130890845 0.010356140322983265 0.0011871852912008762
-0.015135896392166615 0.009825055487453936 0.001547217951156199
-0.014604812487959862 0.009825055487453936 0.0021436666138470173
-0.014073728583753109 0.009825055487453938 0.002673584735020995
-0.013542644679546356 0.009825055487453938 0.0029723194893449545
-0.013011560775339603 0.009825055487453938 0.0032046688720583916
-0.012480475939810276 0.009825055487453938 0.0032700118608772755
-0.011949392035603523 0.009825055487453938 0.0034359756391495466
-0.01141830813139677 0.009825055487453938 0.002188174519687891
-0.010887224227190018 0.009825055487453938 0.002751267747953534
-0.010356140322983265 0.009825055487453938 0.0030831953044980764
-0.009825055487453938 0.009825055487453938 0.0032823518849909306
-0.009293971583247185 0.009825055487453938 0.0021745183039456606
-0.008762887679040432 0.009825055487453938 0.0029089506715536118
-0.00823180377483368 0.009825055487453938 0.002974294824525714
-0.00770071940496564 0.009825055487453938 0.003140258602797985
-0.007169635500758887 0.009825055487453938 0.0034721861593425274
-0.006638551130890847 0.009825055487453938 0.0023983935825526714
-0.006107467226684094 0.009825055487453938 0.002994842827320099
-0.005576382856816054 0.009825055487453938 0.003326770383864641
-0.0050452989526093015 0.009825055487453938 0.0035259267315268517
-0.004514215048402549 0.009825055487453938 0.003691890509799123
-0.003983130678534509 0.009825055487453938 0.003857854288071394
-0.0034520465414971118 0.009825055487453938 0.004189781844615936
-0.002920962637290359 0.009825055487453938 0.004154897760599852
-0.0023898785002529625 0.009825055487453938 0.0042202407494187355
-0.0018587943632155663 0.009825055487453938 0.0026923527475446463
-0.00132771022617817 0.009825055487453938 0.0029910877346992493
-0.0007966261473484344 0.009825055487453938 0.0018137522274628282
-0.00026554203941486836 0.009825055487453938 0.002310641808435321
0.00026554203941486716 0.009825055487453938 0.0025761837605386972
0.0007966261473484331 0.009825055487453938 0.0015358312521129847
0.0013277102261781686 0.009825055487453938 0.002065748441964388
0.001858794363215565 0.009825055487453938 0.002298097824677825
0.0023898785002529617 0.009825055487453938 0.0012243047822266817
0.002920962637290358 0.009825055487453938 0.001688275020569563
0.003452046541497111 0.009825055487453938 0.002119398443028331
0.003983130678534507 0.009825055487453938 0.0011748240794986486
0.004514215048402547 0.009825055487453938 0.001671712612733245
0.0055763828568160525 0.009825055487453938 0.001126972259953618
0.006638551130890845 0.009825055487453938 0.001035136985592544
-0.015135896392166615 0.009293971583247183 0.0023390704300254583
-0.014604812487959862 0.009293971583247183 0.002007142873480916
-0.014073728583753109 0.009293971583247185 0.0033615310676395893
-0.013542644679546356 0.009293971583247185 0.0033297697082161903
-0.013011560775339603 0.009293971583247185 0.0031306131277233362
-0.012480475939810276 0.009293971583247185 0.00286507117561996
-0.011949392035603523 0.009293971583247185 0.002766039688140154
-0.01141830813139677 0.009293971583247185 0.002202947624027729
-0.010887224227190018 0.009293971583247185 0.0034154520835727453
-0.010356140322983265 0.009293971583247185 0.0031831027008593082
-0.009825055487453938 0.009293971583247185 0.0028179825749248266
-0.009293971583247185 0.009293971583247185 0.002321092411875725
-0.008762887679040432 0.009293971583247185 0.0034634715411812067
-0.00823180377483368 0.009293971583247185 0.0032975077629089355
-0.00770071940496564 0.009293971583247185 0.0032321636099368334
-0.007169635500758887 0.009293971583247185 0.002900236053392291
-0.006638551130890847 0.009293971583247185 0.002535116160288453
-0.006107467226684094 0.009293971583247185 0.003712451783940196
-0.005576382856816054 0.009293971583247185 0.0036134193651378155
-0.0050452989526093015 0.009293971583247185 0.0034142627846449614
-0.004514215048402549 0.009293971583247185 0.002851171186193824
-0.003983130678534509 0.009293971583247185 0.0023542821872979403
-0.0034520465414971118 0.009293971583247185 0.0034280745312571526
-0.002920962637290359 0.009293971583247185 0.0032621107529848814
-0.0023898785002529625 0.009293971583247185 0.003029761603102088
-0.0018587943632155663 0.009293971583247185 0.0026978340465575457
-0.00132771022617817 0.009293971583247185 0.002233864739537239
-0.0007966261473484343 0.009293971583247185 0.003000785829499364
-0.0002655420394148683 0.009293971583247185 0.002702050842344761
0.0002655420394148672 0.009293971583247185 0.0017902185209095478
0.0007966261473484332 0.009293971583247185 0.0012603008653968573
0.0013277102261781686 0.009293971583247185 0.002402679529041052
0.001858794363215565 0.009293971583247185 0.0020707519724965096
0.0023898785002529617 0.009293971583247185 0.0016396285500377417
0.002920962637290358 0.009293971583247185 0.0011097107781097293
0.003452046541497111 0.009293971583247185 0.0022520895581692457
0.003983130678534507 0.009293971583247185 0.0018869690829887986
0.004514215048402547 0.009293971583247185 0.0014230003580451012
0.0050452989526093 0.009293971583247185 0.0012238438939675689
0.006107467226684093 0.009293971583247185 0.0019085528329014778
-0.015135896392166615 0.00876288767904043 0.001198548125103116
-0.014604812487959862 0.00876288767904043 0.0018285734113305807
-0.014073728583753109 0.008762887679040432 0.0024250224232673645
-0.013542644679546356 0.008762887679040432 0.0028561458457261324
-0.013011560775339603 0.008762887679040432 0.0029551771003752947
-0.012480475939810276 0.008762887679040432 0.003287104656919837
-0.011949392035603523 0.008762887679040432 0.0021097688004374504
-0.01141830813139677 0.008762887679040432 0.0026728613302111626
-0.010887224227190018 0.008762887679040432 0.0031039833556860685
-0.010356140322983265 0.008762887679040432 0.003369525307789445
-0.009825055487453938 0.008762887679040432 0.0034685577265918255
-0.009293971583247185 0.008762887679040432 0.003700906876474619
-0.008762887679040432 0.008762887679040432 0.003799938131123781
-0.00823180377483368 0.008762887679040432 0.003865282516926527
-0.00770071940496564 0.008762887679040432 0.003964314702898264
-0.007169635500758887 0.008762887679040432 0.004163471050560474
-0.006638551130890847 0.008762887679040432 0.004161803983151913
-0.006107467226684094 0.008762887679040432 0.00345041137188673
-0.005576382856816054 0.008762887679040432 0.0017417306080460548
-0.0050452989526093015 0.008762887679040432 0.0025828040670603514
-0.004514215048402549 0.008762887679040432 0.003013927023857832
-0.003983130678534509 0.008762887679040432 0.0033458545804023743
-0.0034520465414971118 0.008762887679040432 0.003444886766374111
-0.002920962637290359 0.008762887679040432 0.0036440433468669653
-0.0023898785002529625 0.008762887679040432 0.0021497306879609823
-0.0018587943632155661 0.008762887679040432 0.00258085411041975
-0.0013277102261781697 0.008762887679040432 0.0027800106909126043
-0.0007966261473484343 0.008762887679040432 0.0027451261412352324
-0.0002655420394148683 0.008762887679040432 0.00281046936288476
0.0002655420394148672 0.008762887679040432 0.0016331333899870515
0.0007966261473484332 0.008762887679040432 0.002130021806806326
0.0013277102261781688 0.008762887679040432 0.002295985585078597
0.0018587943632155652 0.008762887679040432 0.002528334967792034
0.0023898785002529617 0.008762887679040432 0.0012095195706933737
0.002920962637290358 0.008762887679040432 0.0016734893433749676
0.003452046541497111 0.008762887679040432 0.002038609702140093
0.003983130678534507 0.008762887679040432 0.0009307754808105528
0.004514215048402547 0.008762887679040432 0.0014276655856519938
0.0055763828568160525 0.008762887679040432 0.0011274594580754638
0.006638551130890845 0.008762887679040432 0.0009281808161176741
-0.015666980296373367 0.008231803774833677 0.0007590879686176777
-0.015135896392166615 0.008231803774833677 0.001183711807243526
-0.014604812487959862 0.008231803774833677 0.001831314992159605
-0.014073728583753109 0.00823180377483368 0.0013344264589250088
-0.013542644679546356 0.00823180377483368 0.0032264129258692265
-0.013011560775339603 0.00823180377483368 0.0030604491475969553
-0.012480475939810276 0.00823180377483368 0.002828099997714162
-0.011949392035603523 0.00823180377483368 0.0022316514514386654
-0.01141830813139677 0.00823180377483368 0.0015326074790209532
-0.010887224227190018 0.00823180377483368 0.0022520534694194794
-0.010356140322983265 0.00823180377483368 0.0038925919216126204
-0.009825055487453938 0.00823180377483368 0.0038608305621892214
-0.009293971583247185 0.00823180377483368 0.0036948667839169502
-0.008762887679040432 0.00823180377483368 0.003362939227372408
-0.00823180377483368 0.00823180377483368 0.0028989699203521013
-0.00770071940496564 0.00823180377483368 0.004288873635232449
-0.007169635500758887 0.00823180377483368 0.004122910089790821
-0.006638551130890847 0.00823180377483368 0.004284689202904701
-0.006107467226684094 0.00823180377483368 0.004185657948255539
-0.005576382856816054 0.00823180377483368 0.0039865016005933285
-0.0050452989526093015 0.00823180377483368 0.004021387081593275
-0.004514215048402549 0.00823180377483368 0.0037226523272693157
-0.003983130678534509 0.00823180377483368 0.0035566885489970446
-0.0034520465414971118 0.00823180377483368 0.0032579535618424416
-0.002920962637290359 0.00823180377483368 0.002959218807518482
-0.0023898785002529625 0.00823180377483368 0.002528094919398427
-0.0018587943632155661 0.00823180377483368 0.0019650026224553585
-0.0013277102261781697 0.00823180377483368 0.003072835737839341
-0.0007966261473484343 0.00823180377483368 0.002840486355125904
-0.00026554203941486825 0.00823180377483368 0.0024093640968203545
0.00026554203941486727 0.00823180377483368 0.0018794458592310548
0.0007966261473484332 0.00823180377483368 0.0013495282037183642
0.0013277102261781688 0.00823180377483368 0.0024233206640928984
0.0018587943632155652 0.00823180377483368 0.0018602294148877263
0.0023898785002529617 0.00823180377483368 0.0012971367686986923
0.002920962637290358 0.00823180377483368 0.0008002481772564352
0.003452046541497111 0.00823180377483368 0.0019080807687714696
0.003983130678534507 0.00823180377483368 0.0014769573463127017
0.004514215048402547 0.00823180377483368 0.0008805087418295443
0.0055763828568160525 0.00823180377483368 0.001181179890409112
-0.015135896392166615 0.007700719404965638 0.0009458990534767509
-0.014604812487959862 0.007700719404965638 0.0017158478731289506
-0.014073728583753109 0.007700719404965638 0.002212736289948225
-0.013542644679546356 0.007700719404965638 0.0026438592467457056
-0.013011560775339603 0.007700719404965638 0.002942594001069665
-0.012480475939810276 0.007700719404965638 0.003174943383783102
-0.011949392035603523 0.007700719404965638 0.0035400637425482273
-0.010356140322983265 0.007700719404965638 0.0017122032586485147
-0.009825055487453938 0.007700719404965638 0.002762747695669532
-0.009293971583247185 0.007700719404965638 0.0033591962419450283
-0.008762887679040432 0.007700719404965638 0.0036247381940484047
-0.00823180377483368 0.007700719404965638 0.0038902803789824247
-0.00770071940496564 0.007700719404965638 0.004056244157254696
-0.007169635500758887 0.007700719404965638 0.004155275411903858
-0.006638551130890847 0.007700719404965639 0.004254306200891733
-0.006107467226684094 0.007700719404965639 0.0042860666289925575
-0.005576382856816054 0.007700719404965639 0.004385099280625582
-0.0050452989526093015 0.007700719404965639 0.004416860640048981
-0.004514215048402549 0.007700719404965639 0.0043819742277264595
-0.003983130678534509 0.007700719404965639 0.002992071211338043
-0.0034520465414971118 0.007700719404965639 0.00379759119823575
-0.002920962637290359 0.007700719404965639 0.002407687483355403
-0.0023898785002529625 0.007700719404965639 0.0027396157383918762
-0.0018587943632155661 0.007700719404965639 0.0016317826230078936
-0.0013277102261781697 0.007700719404965639 0.002472854917868972
-0.0007966261473484342 0.007700719404965639 0.002837975276634097
-0.00026554203941486825 0.007700719404965639 0.0017301422776654363
0.00026554203941486727 0.007700719404965639 0.0022270306944847107
0.0007966261473484333 0.007700719404965639 0.002558958251029253
0.0013277102261781688 0.007700719404965639 0.0013816228602081537
0.0018587943632155652 0.007700719404965639 0.0018455926328897476
0.0023898785002529617 0.007700719404965639 0.0020779420156031847
0.002920962637290358 0.007700719404965639 0.0009701088420115411
0.003452046541497111 0.007700719404965639 0.0014669974334537983
0.004514215048402547 0.007700719404965639 0.0010590514866635203
-0.014604812487959862 0.0071696355007588855 0.0015152138657867908
-0.014073728583753109 0.0071696355007588855 0.002586854388937354
-0.013542644679546356 0.0071696355007588855 0.002321312204003334
-0.013011560775339603 0.0071696355007588855 0.0018573434790596366
-0.012480475939810276 0.0071696355007588855 0.0029311354737728834
-0.011949392035603523 0.0071696355007588855 0.0022320919670164585
-0.01141830813139677 0.0071696355007588855 0.0014265725621953607
-0.010887224227190018 0.0071696355007588855 0.0025780596770346165
-0.010356140322983265 0.0071696355007588855 0.004567380528897047
-0.009825055487453938 0.0071696355007588855 0.0037974321749061346
-0.009293971583247185 0.0071696355007588855 0.0033663082867860794
-0.008762887679040432 0.0071696355007588855 0.0031339589040726423
-0.00823180377483368 0.0071696355007588855 0.004505135118961334
-0.00770071940496564 0.0071696355007588855 0.004439790733158588
-0.007169635500758887 0.0071696355007588855 0.004340759478509426
-0.006638551130890847 0.007169635500758886 0.004275414627045393
-0.006107467226684094 0.007169635500758886 0.00431030010804534
-0.005576382856816054 0.007169635500758886 0.004211268853396177
-0.0050452989526093015 0.007169635500758886 0.00404530530795455
-0.004514215048402549 0.007169635500758886 0.0038129559252411127
-0.003983130678534509 0.007169635500758886 0.003381832968443632
-0.0034520465414971118 0.007169635500758886 0.002917862730100751
-0.002920962637290359 0.007169635500758886 0.002420974662527442
-0.0023898785002529625 0.007169635500758886 0.0016510247951373458
-0.0018587943632155661 0.007169635500758886 0.002724818419665098
-0.0013277102261781697 0.007169635500758886 0.002194900531321764
-0.0007966261473484342 0.007169635500758886 0.001598451635800302
-0.0002655420394148682 0.007169635500758886 0.0026722445618361235
0.0002655420394148673 0.007169635500758886 0.0020757955498993397
0.0007966261473484333 0.007169635500758886 0.0015789055032655597
0.0013277102261781688 0.007169635500758886 0.000808956625405699
0.0018587943632155652 0.007169635500758886 0.0015817458042874932
0.0023898785002529617 0.007169635500758886 0.000882701831869781
0.002920962637290358 0.007169635500758886 0.0020250810775905848
0.003452046541497111 0.007169635500758886 0.0017263462068513036
0.003983130678534507 0.007169635500758886 0.0011632544919848442
0.0055763828568160525 0.007169635500758886 0.0008271975675597787
-0.014604812487959862 0.006638551130890845 0.0014509267639368773
-0.014073728583753109 0.006638551130890845 0.001980844885110855
-0.013542644679546356 0.006638551130890845 0.002411968307569623
-0.013011560775339603 0.006638551130890845 0.002777088200673461
-0.012480475939810276 0.006638551130890845 0.0030426301527768373
-0.011949392035603523 0.006638551130890845 0.0033745577093213797
-0.01141830813139677 0.006638551130890845 0.0035737142898142338
-0.010887224227190018 0.006638551130890845 0.003839256474748254
-0.010356140322983265 0.006638551130890845 0.0039382874965667725
-0.009825055487453938 0.006638551130890845 0.003936621360480785
-0.009293971583247185 0.006638551130890845 0.004035653546452522
-0.008762887679040432 0.006638551130890845 0.00423481035977602
-0.00823180377483368 0.006638551130890845 0.0044007739052176476
-0.007700719404965639 0.006638551130890845 0.004432533867657185
-0.007169635500758886 0.006638551130890845 0.0037513524293899536
-0.006638551130890846 0.006638551130890846 0.002020501997321844
-0.0061074672266840935 0.006638551130890846 0.0031044858042150736
-0.005576382856816053 0.006638551130890846 0.00360137433744967
-0.005045298952609301 0.006638551130890846 0.003900109091773629
-0.004514215048402548 0.006638551130890846 0.004099265672266483
-0.003983130678534508 0.006638551130890846 0.002886762609705329
-0.0034520465414971118 0.006638551130890846 0.00335073284804821
-0.002920962637290359 0.006638551130890846 0.0023431258741766214
-0.0023898785002529625 0.006638551130890846 0.0028070961125195026
-0.0018587943632155661 0.006638551130890846 0.0030726382974535227
-0.0013277102261781697 0.006638551130890846 0.0019988452550023794
-0.0007966261473484342 0.006638551130890846 0.002462814562022686
-0.00026554203941486814 0.006638551130890846 0.001455208519473672
0.0002655420394148674 0.006638551130890846 0.001621172297745943
0.0007966261473484333 0.006638551130890846 0.0019530998542904854
0.0013277102261781688 0.006638551130890846 0.000945493346080184
0.0023898785002529617 0.006638551130890846 0.0010604752460494637
0.002920962637290358 0.006638551130890846 0.0015244450187310576
0.003983130678534508 0.006638551130890846 0.000980570213869214
0.006638551130890846 0.006638551130890846 0.0012854654341936111
-0.015135896392166615 0.006107467226684093 0.0007584802224300802
-0.014604812487959862 0.006107467226684093 0.001416983432136476
-0.014073728583753109 0.006107467226684093 0.0025155246257781982
-0.013542644679546356 0.006107467226684093 0.002416493371129036
-0.013011560775339603 0.006107467226684093 0.002150951186195016
-0.012480475939810276 0.006107467226684093 0.0031913036946207285
-0.011949392035603523 0.006107467226684093 0.0028261833358556032
-0.01141830813139677 0.006107467226684093 0.004216087516397238
-0.010887224227190018 0.006107467226684093 0.0042509716004133224
-0.010356140322983265 0.006107467226684093 0.004252638202160597
-0.009825055487453938 0.006107467226684093 0.0041536069475114346
-0.009293971583247185 0.006107467226684093 0.004054575692862272
-0.008762887679040432 0.006107467226684093 0.004273627419024706
-0.00823180377483368 0.006107467226684093 0.004275294952094555
-0.007700719404965639 0.006107467226684093 0.004276960156857967
-0.007169635500758886 0.006107467226684093 0.0042116171680390835
-0.006638551130890846 0.0061074672266840935 0.004112585913389921
-0.0061074672266840935 0.0061074672266840935 0.003946622367948294
-0.005576382856816053 0.0061074672266840935 0.0035815020091831684
-0.005045298952609301 0.0061074672266840935 0.003216381650418043
-0.004514215048402548 0.0061074672266840935 0.002785257762297988
-0.003983130678534508 0.0061074672266840935 0.0021552324760705233
-0.0034520465414971118 0.0061074672266840935 0.0031955866143107414
-0.002920962637290359 0.0061074672266840935 0.002830466255545616
-0.0023898785002529625 0.0061074672266840935 0.0023005481343716383
-0.0018587943632155661 0.0061074672266840935 0.0015661147190257907
-0.0013277102261781697 0.0061074672266840935 0.002673947252333164
-0.0007966261473484341 0.0061074672266840935 0.00230882759205997
-0.00026554203941486814 0.0061074672266840935 0.0018119390588253736
0.0002655420394148674 0.0061074672266840935 0.0015463969903066754
0.0013277102261781688 0.0061074672266840935 0.0018487100023776293
0.0018587943632155652 0.0061074672266840935 0.0013847403461113572
0.0023898785002529617 0.0061074672266840935 0.0008216475252993405
0.002920962637290358 0.0061074672266840935 0.0018954400438815355
0.003452046541497111 0.0061074672266840935 0.0017294762656092644
0.003983130678534508 0.0061074672266840935 0.001397548709064722
0.005045298952609301 0.0061074672266840935 0.0011954266810789704
0.005576382856816053 0.0061074672266840935 0.0008303063223138452
-0.014604812487959862 0.0055763828568160525 0.000943000428378582
-0.014073728583753109 0.0055763828568160525 0.0017129492480307817
-0.013542644679546356 0.0055763828568160525 0.002078069606795907
-0.013011560775339603 0.0055763828568160525 0.0024431899655610323
-0.012480475939810276 0.0055763828568160525 0.002907159738242626
-0.011949392035603523 0.0055763828568160525 0.0032722800970077515
-0.01141830813139677 0.0055763828568160525 0.003537822049111128
-0.010887224227190018 0.0055763828568160525 0.003703785827383399
-0.010356140322983265 0.0055763828568160525 0.00386974960565567
-0.009825055487453938 0.0055763828568160525 0.004035713151097298
-0.009293971583247185 0.0055763828568160525 0.0039352234452962875
-0.008762887679040432 0.0055763828568160525 0.003900339128449559
-0.00823180377483368 0.0055763828568160525 0.004165881313383579
-0.007700719404965639 0.0055763828568160525 0.004365037195384502
-0.007169635500758886 0.0055763828568160525 0.004396797623485327
-0.006638551130890846 0.005576382856816053 0.004361913539469242
-0.0061074672266840935 0.005576382856816053 0.004460944794118404
-0.005576382856816053 0.005576382856816053 0.004492706153541803
-0.005045298952609301 0.005576382856816053 0.004524466581642628
-0.003983130678534508 0.005576382856816053 0.0008645642083138227
-0.0034520465414971118 0.005576382856816053 0.0018115652492269874
-0.002920962637290359 0.005576382856816053 0.0025106086395680904
-0.0023898785002529625 0.005576382856816053 0.0029745774809271097
-0.0018587943632155661 0.005576382856816053 0.0019342253217473626
-0.0013277102261781697 0.005576382856816053 0.0024973175022751093
-0.0007966261473484341 0.005576382856816053 0.0020651735831052065
-0.0002655420394148681 0.005576382856816053 0.0009913810063153505
0.00026554203941486743 0.005576382856816053 0.001725813839584589
0.0007966261473484334 0.005576382856816053 0.0021897826809436083
0.0013277102261781688 0.005576382856816053 0.0009419813868589699
0.0018587943632155652 0.005576382856816053 0.0014718996826559305
0.0023898785002529617 0.005576382856816053 0.001737441634759307
0.002920962637290358 0.005576382856816053 0.001836473005823791
0.003983130678534508 0.005576382856816053 0.0011890546884387732
0.004514215048402548 0.005576382856816053 0.0015541749307885766
0.005576382856816053 0.005576382856816053 0.0007437238818965852
-0.014604812487959862 0.0050452989526093 0.0025484163779765368
-0.014073728583753109 0.0050452989526093 0.0026489058509469032
-0.013542644679546356 0.0050452989526093 0.002416557166725397
-0.013011560775339603 0.0050452989526093 0.0018534654518589377
-0.012480475939810276 0.0050452989526093 0.0028291139751672745
-0.011949392035603523 0.0050452989526093 0.004423531703650951
-0.01141830813139677 0.0050452989526093 0.0044913762249052525
-0.010887224227190018 0.0050452989526093 0.004591864999383688
-0.010356140322983265 0.0050452989526093 0.0046923537738621235
-0.009825055487453938 0.0050452989526093 0.00462701078504324
-0.009293971583247185 0.0050452989526093 0.0040639182552695274
-0.008762887679040432 0.0050452989526093 0.004225697368383408
-0.00823180377483368 0.0050452989526093 0.004387477412819862
-0.007700719404965639 0.0050452989526093 0.004422362893819809
-0.007169635500758886 0.0050452989526093 0.004323331639170647
-0.006638551130890846 0.005045298952609301 0.004257986322045326
-0.0061074672266840935 0.005045298952609301 0.004158955533057451
-0.005576382856816053 0.005045298952609301 0.003793835174292326
-0.005045298952609301 0.005045298952609301 0.0033627122174948454
-0.004514215048402548 0.005045298952609301 0.002159374998882413
-0.003983130678534508 0.005045298952609301 0.0010426444932818413
-0.0034520465414971118 0.005045298952609301 0.0021125643979758024
-0.002920962637290359 0.005045298952609301 0.002633544383570552
-0.0023898785002529625 0.005045298952609301 0.0021036260295659304
-0.001858794363215566 0.005045298952609301 0.001087122829630971
-0.0013277102261781695 0.005045298952609301 0.0019191413884982467
-0.0007966261473484341 0.005045298952609301 0.0008024103590287268
-0.0002655420394148681 0.005045298952609301 0.0016508323606103659
0.0007966261473484334 0.005045298952609301 0.0018468319904059172
0.001327710226178169 0.005045298952609301 0.0014157096156850457
0.0018587943632155655 0.005045298952609301 0.0007856847951188684
0.0023898785002529617 0.005045298952609301 0.0017932914197444916
0.002920962637290358 0.005045298952609301 0.0015277493512257934
0.003452046541497111 0.005045298952609301 0.001162628992460668
0.005045298952609301 0.005045298952609301 0.0012830981286242604
0.005576382856816053 0.005045298952609301 0.0009179777116514742
-0.013542644679546356 0.004514215048402547 0.001511097769252956
-0.013011560775339603 0.004514215048402547 0.0021075468976050615
-0.012480475939810276 0.004514215048402547 0.0026706389617174864
-0.011949392035603523 0.004514215048402547 0.0030357593204826117
-0.01141830813139677 0.004514215048402547 0.003301301272585988
-0.010887224227190018 0.004514215048402547 0.003533650655299425
-0.010356140322983265 0.004514215048402547 0.003598995739594102
-0.009825055487453938 0.004514215048402547 0.003798152320086956
-0.009293971583247185 0.004514215048402547 0.003997309133410454
-0.008762887679040432 0.004514215048402547 0.004096340388059616
-0.00823180377483368 0.004514215048402547 0.004195371642708778
-0.007700719404965639 0.004514215048402547 0.004294402431696653
-0.007169635500758886 0.004514215048402547 0.004460366442799568
-0.006638551130890846 0.004514215048402548 0.0031132237054407597
-0.0061074672266840935 0.004514215048402548 0.0036101131699979305
-0.005576382856816053 0.004514215048402548 0.003942040726542473
-0.005045298952609301 0.004514215048402548 0.0041080042719841
-0.004514215048402548 0.004514215048402548 0.004139766097068787
-0.003983130678534508 0.004514215048402548 0.004104879684746265
-0.0034520465414971118 0.004514215048402548 0.0029625019524246454
-0.002920962637290359 0.004514215048402548 0.0017146996688097715
-0.0023898785002529625 0.004514215048402548 0.0011701872572302818
-0.001858794363215566 0.004514215048402548 0.002082019578665495
-0.0013277102261781695 0.004514215048402548 0.0009741865214891732
-0.0007966261473484341 0.004514215048402548 0.0017797074979171157
0.0002655420394148675 0.004514215048402548 0.0018705014372244477
0.001327710226178169 0.004514215048402548 0.0011796416947618127
0.0018587943632155655 0.004514215048402548 0.001544762053526938
0.002920962637290358 0.004514215048402548 0.0010877326130867004
0.003452046541497111 0.004514215048402548 0.0013200818793848157
0.004514215048402548 0.004514215048402548 0.001459491322748363
-0.014073728583753109 0.003983130678534507 0.001154731959104538
-0.013542644679546356 0.003983130678534507 0.0029059976805001497
-0.013011560775339603 0.003983130678534507 0.0027400339022278786
-0.012480475939810276 0.003983130678534507 0.0029305124189704657
-0.011949392035603523 0.003983130678534507 0.0026981632690876722
-0.01141830813139677 0.003983130678534507 0.0022670398466289043
-0.010887224227190018 0.003983130678534507 0.0015326074790209532
-0.010356140322983265 0.003983130678534507 0.0023433370515704155
-0.009825055487453938 0.003983130678534507 0.0018984100315719843
-0.009293971583247185 0.003983130678534507 0.0034983691293746233
-0.008762887679040432 0.003983130678534507 0.004599386360496283
-0.00823180377483368 0.003983130678534507 0.004667229484766722
-0.007700719404965639 0.003983130678534507 0.004501265473663807
-0.007169635500758886 0.003983130678534507 0.004469504114240408
-0.006638551130890846 0.003983130678534508 0.0043035405687987804
-0.0061074672266840935 0.003983130678534508 0.004004805814474821
-0.005576382856816053 0.003983130678534508 0.0037392638623714447
-0.005045298952609301 0.003983130678534508 0.0036402326077222824
-0.004514215048402548 0.003983130678534508 0.003275112248957157
-0.003983130678534508 0.003983130678534508 0.0025406810455024242
-0.0034520465414971118 0.003983130678534508 0.0014901370741426945
-0.002920962637290359 0.003983130678534508 0.002353434218093753
-0.0023898785002529625 0.003983130678534508 0.0014768991386517882
-0.0013277102261781695 0.003983130678534508 0.0012787398882210255
-0.000796626147348434 0.003983130678534508 0.0015820293920114636
0.00026554203941486754 0.003983130678534508 0.0015756944194436073
0.001327710226178169 0.003983130678534508 0.001745822955854237
0.0018587943632155655 0.003983130678534508 0.0013146995333954692
0.002920962637290358 0.003983130678534508 0.001484828069806099
0.003452046541497111 0.003983130678534508 0.0010537055786699057
0.005045298952609301 0.003983130678534508 0.0011991220526397228
-0.014073728583753109 0.0034520465414971105 0.0012798075331375003
-0.013542644679546356 0.0034520465414971105 0.0018097251886501908
-0.013011560775339603 0.0034520465414971105 0.0022408475633710623
-0.012480475939810276 0.0034520465414971105 0.0034206111449748278
-0.011949392035603523 0.0034520465414971105 0.0021373466588556767
-0.01141830813139677 0.0034520465414971105 0.0027673719450831413
-0.010887224227190018 0.0034520465414971105 0.0030992995016276836
-0.010356140322983265 0.003452046541497111 0.0024969715159386396
-0.009825055487453938 0.003452046541497111 0.0018984100315719843
-0.009293971583247185 0.003452046541497111 0.002676191972568631
-0.008762887679040432 0.003452046541497111 0.0020818666089326143
-0.00823180377483368 0.003452046541497111 0.003230554983019829
-0.007700719404965639 0.003452046541497111 0.003727443516254425
-0.007169635500758886 0.003452046541497111 0.003893407294526696
-0.006638551130890846 0.003452046541497111 0.004158949479460716
-0.0061074672266840935 0.003452046541497111 0.004190709907561541
-0.005045298952609301 0.003452046541497111 0.001801574369892478
-0.004514215048402548 0.003452046541497111 0.002748574363067746
-0.003983130678534508 0.003452046541497111 0.0033785984851419926
-0.0034520465414971113 0.0034520465414971113 0.002434025052934885
-0.0029209626372903585 0.0034520465414971113 0.0027991454117000103
-0.002389878500252962 0.0034520465414971113 0.0015158819733187556
-0.001858794363215566 0.0034520465414971113 0.0011820708168670535
-0.0013277102261781695 0.0034520465414971113 0.002198574598878622
-0.000796626147348434 0.0034520465414971113 0.0010212386259809136
0.00026554203941486754 0.0034520465414971113 0.0017714118584990501
0.001327710226178169 0.0034520465414971113 0.0014354425948113203
0.0029209626372903585 0.0034520465414971113 0.0008372922311536968
0.0034520465414971113 0.0034520465414971113 0.001136027043685317
0.0061074672266840935 0.0034520465414971118 0.0008526958408765495
-0.014604812487959862 0.0029209626372903577 0.0008809114224277437
-0.014073728583753109 0.0029209626372903577 0.001668260432779789
-0.013542644679546356 0.0029209626372903577 0.00319209904409945
-0.013011560775339603 0.0029209626372903577 0.002959749661386013
-0.012480475939810276 0.0029209626372903577 0.002894405508413911
-0.011949392035603523 0.0029209626372903577 0.0027284417301416397
-0.01141830813139677 0.0029209626372903577 0.00239651370793581
-0.010887224227190018 0.0029209626372903577 0.0032099292147904634
-0.010356140322983265 0.002920962637290358 0.002646838314831257
-0.009825055487453938 0.002920962637290358 0.003789216047152877
-0.009293971583247185 0.002920962637290358 0.0032261244487017393
-0.008762887679040432 0.002920962637290358 0.004580511711537838
-0.00823180377483368 0.002920962637290358 0.004648354835808277
-0.007700719404965639 0.002920962637290358 0.00448239129036665
-0.007169635500758886 0.002920962637290358 0.004417046904563904
-0.006638551130890846 0.002920962637290358 0.004517535679042339
-0.0061074672266840935 0.002920962637290358 0.004318379331380129
-0.005576382856816053 0.002920962637290358 0.004152415785938501
-0.005045298952609301 0.002920962637290358 0.003953259438276291
-0.004514215048402548 0.002920962637290358 0.003754102624952793
-0.003983130678534508 0.002920962637290358 0.003388982266187668
-0.0034520465414971113 0.0029209626372903585 0.0030238621402531862
-0.0029209626372903585 0.0029209626372903585 0.002559893298894167
-0.002389878500252962 0.0029209626372903585 0.0015779355308040977
-0.001858794363215566 0.0029209626372903585 0.0027904389426112175
-0.0013277102261781695 0.0029209626372903585 0.0022273464128375053
-0.000796626147348434 0.0029209626372903585 0.0009803310967981815
-0.0002655420394148679 0.0029209626372903585 0.0020541236735880375
0.0007966261473484335 0.0029209626372903585 0.001804540865123272
0.0018587943632155655 0.0029209626372903585 0.0017943494021892548
0.002389878500252962 0.0029209626372903585 0.0012644327944144607
0.0034520465414971113 0.0029209626372903585 0.0014992642682045698
0.003983130678534508 0.002920962637290359 0.0012669150019064546
0.004514215048402548 0.002920962637290359 0.0008357925107702613
-0.014073728583753109 0.0023898785002529612 0.001320226234383881
-0.013542644679546356 0.0023898785002529612 0.0020901761017739773
-0.013011560775339603 0.0023898785002529612 0.002455296227708459
-0.012480475939810276 0.0023898785002529612 0.002654452808201313
-0.011949392035603523 0.0023898785002529612 0.00288680219091475
-0.01141830813139677 0.0023898785002529612 0.0029185626190155745
-0.010887224227190018 0.0023898785002529612 0.0032836829777806997
-0.010356140322983265 0.0023898785002529617 0.0036488031037151814
-0.009825055487453938 0.0023898785002529617 0.0038811524864286184
-0.009293971583247185 0.0023898785002529617 0.0041135018691420555
-0.008762887679040432 0.0023898785002529617 0.004279465414583683
-0.00823180377483368 0.0023898785002529617 0.004311225842684507
-0.007700719404965639 0.0023898785002529617 0.0037186560221016407
-0.007169635500758886 0.0023898785002529617 0.00195951946079731
-0.006638551130890846 0.0023898785002529617 0.0030100634321570396
-0.0061074672266840935 0.0023898785002529617 0.0035399815533310175
-0.005576382856816053 0.0023898785002529617 0.0038719093427062035
-0.005045298952609301 0.0023898785002529617 0.004071065690368414
-0.004514215048402548 0.0023898785002529617 0.00413641007617116
-0.003983130678534508 0.0023898785002529617 0.0025751653593033552
-0.0034520465414971113 0.002389878500252962 0.003072054823860526
-0.0029209626372903585 0.002389878500252962 0.00209640571847558
-0.002389878500252962 0.002389878500252962 0.002726431004703045
-0.001858794363215566 0.002389878500252962 0.00309155136346817
-0.0013277102261781695 0.002389878500252962 0.0008916189544834197
-0.0007966261473484338 0.002389878500252962 0.0017326914239674807
-0.0002655420394148679 0.002389878500252962 0.0016761088045313954
0.0002655420394148676 0.002389878500252962 0.002107231179252267
0.0007966261473484336 0.002389878500252962 0.000999398180283606
0.0018587943632155655 0.002389878500252962 0.0011027897708117962
0.003983130678534508 0.0023898785002529625 0.0011020503006875515
0.005045298952609301 0.0023898785002529625 0.000998130883090198
-0.014073728583753109 0.0018587943632155648 0.001458790386095643
-0.013542644679546356 0.0018587943632155648 0.0027435622178018093
-0.013011560775339603 0.0018587943632155648 0.0029912528116256
-0.012480475939810276 0.0018587943632155648 0.0028252890333533287
-0.011949392035603523 0.001858794363215565 0.0026593252550810575
-0.01141830813139677 0.001858794363215565 0.0024269758723676205
-0.010887224227190018 0.001858794363215565 0.0039548627100884914
-0.010356140322983265 0.001858794363215565 0.0041166432201862335
-0.009825055487453938 0.001858794363215565 0.004217132925987244
-0.009293971583247185 0.001858794363215565 0.004185371566563845
-0.008762887679040432 0.0018587943632155652 0.004086339380592108
-0.00823180377483368 0.0018587943632155652 0.004186829086393118
-0.007700719404965639 0.0018587943632155652 0.004121486097574234
-0.007169635500758886 0.0018587943632155652 0.003922329284250736
-0.006638551130890846 0.0018587943632155652 0.0037563657388091087
-0.0061074672266840935 0.0018587943632155652 0.0033912453800439835
-0.005576382856816053 0.0018587943632155652 0.0027947956696152687
-0.005045298952609301 0.0018587943632155655 0.001953722443431616
-0.004514215048402548 0.0018587943632155655 0.0009031783556565642
-0.003983130678534508 0.0018587943632155655 0.0021859758999198675
-0.0034520465414971113 0.0018587943632155655 0.002051618183031678
-0.0029209626372903585 0.0018587943632155655 0.0022133977618068457
-0.002389878500252962 0.0018587943632155655 0.003157972125336528
-0.001858794363215566 0.0018587943632155655 0.0026280551683157682
-0.0013277102261781695 0.0018587943632155657 0.002131165936589241
-0.0007966261473484338 0.0018587943632155657 0.0016342764720320702
0.00026554203941486765 0.0018587943632155657 0.0014276134315878153
0.001327710226178169 0.0018587943632155657 0.0012491268571466208
0.0029209626372903585 0.001858794363215566 0.0014136056415736675
0.0034520465414971113 0.001858794363215566 0.0009496358688920736
0.005045298952609301 0.001858794363215566 0.0007983711548149586
