ply
format ascii 1.0
element vertex 761
property float x
property float y
property float z
end_header
0.014694083482027054 0.022191597148776054 -0.13939999043941498
0.015478413552045822 0.02227119542658329 -0.13989999890327454
0.016233211383223534 0.022303035482764244 -0.14010000228881836
0.017038540914654732 0.02239855006337166 -0.14069999754428864
0.008162171579897404 0.02153957076370716 -0.13989999890327454
0.008855652064085007 0.02144719287753105 -0.13930000364780426
0.00955661665648222 0.02138560637831688 -0.1388999968767166
0.010268205776810646 0.021354813128709793 -0.1386999934911728
0.010985628701746464 0.02133941650390625 -0.13859999179840088
0.011702004820108414 0.021324019879102707 -0.13849999010562897
0.012426307424902916 0.021324019879102707 -0.13849999010562897
0.013169600628316402 0.021354813128709793 -0.1386999934911728
0.013914985582232475 0.02138560637831688 -0.1388999968767166
0.014662462286651134 0.021416399627923965 -0.13910000026226044
0.015423092991113663 0.021462587639689445 -0.13939999043941498
0.01618686318397522 0.021508777514100075 -0.1396999955177307
0.01696588099002838 0.021570364013314247 -0.14010000228881836
0.01773644983768463 0.021616552025079727 -0.1403999924659729
0.005314265377819538 0.021120287477970123 -0.1419999897480011
0.006044075824320316 0.021075669676065445 -0.14169999957084656
0.006756382994353771 0.02098642662167549 -0.1410999894142151
0.007435858249664307 0.02082282118499279 -0.14000000059604645
0.008127165958285332 0.020718706771731377 -0.13930000364780426
0.008830222301185131 0.02065921202301979 -0.1388999968767166
0.009542856365442276 0.020629465579986572 -0.1386999934911728
0.01025339961051941 0.020599717274308205 -0.13849999010562897
0.010969776660203934 0.020584845915436745 -0.13840000331401825
0.011685107834637165 0.020569972693920135 -0.13830000162124634
0.012417335994541645 0.020584845915436745 -0.13840000331401825
0.013150610029697418 0.020599717274308205 -0.13849999010562897
0.013894949108362198 0.020629465579986572 -0.1386999934911728
0.014641379937529564 0.02065921202301979 -0.1388999968767166
0.015400966629385948 0.020703833550214767 -0.13920000195503235
0.01615210250020027 0.020733578130602837 -0.13939999043941498
0.01690533198416233 0.020763326436281204 -0.1395999938249588
0.01767328567802906 0.02080794796347618 -0.13989999890327454
0.0023537438828498125 0.020463787019252777 -0.14259999990463257
0.0030994878616183996 0.020463787019252777 -0.14259999990463257
0.0038452320732176304 0.020463787019252777 -0.14259999990463257
0.004587756935507059 0.020449435338377953 -0.14249999821186066
0.00531800789758563 0.020392032340168953 -0.142099991440773
0.006044075824320316 0.020334631204605103 -0.14169999957084656
0.006751595064997673 0.020234178751707077 -0.14100000262260437
0.007430546917021275 0.020076323300600052 -0.13989999890327454
0.00812133215367794 0.019975870847702026 -0.13920000195503235
0.008830222301185131 0.019932817667722702 -0.1388999968767166
0.009542856365442276 0.019904116168618202 -0.1386999934911728
0.010260802693665028 0.019889766350388527 -0.13859999179840088
0.010977702215313911 0.019875414669513702 -0.13849999010562897
0.011693556793034077 0.019861066713929176 -0.13840000331401825
0.012426307424902916 0.019875414669513702 -0.13849999010562897
0.013160104863345623 0.019889766350388527 -0.13859999179840088
0.013894949108362198 0.019904116168618202 -0.1386999934911728
0.014641379937529564 0.019932817667722702 -0.1388999968767166
0.015389902517199516 0.019961519166827202 -0.13910000026226044
0.016140516847372055 0.0199902206659317 -0.13930000364780426
0.01688111200928688 0.020004570484161377 -0.13939999043941498
0.017635386437177658 0.020033271983265877 -0.1395999938249588
0.00086104596266523 0.019690386950969696 -0.14239999651908875
0.0016057442408055067 0.019690386950969696 -0.14239999651908875
0.0023504425771534443 0.019690386950969696 -0.14239999651908875
0.0030973143875598907 0.019704215228557587 -0.14249999821186066
0.0038425354287028313 0.019704215228557587 -0.14249999821186066
0.004581317771226168 0.019676558673381805 -0.14229999482631683
0.005314265377819538 0.019635075703263283 -0.1419999897480011
0.006048341281712055 0.0196074228733778 -0.14180000126361847
0.006756382994353771 0.019510628655552864 -0.1410999894142151
0.007441170047968626 0.019372355192899704 -0.14010000228881836
0.008132999762892723 0.019275560975074768 -0.13939999043941498
0.008830222301185131 0.019206423312425613 -0.1388999968767166
0.009542856365442276 0.01917876861989498 -0.1386999934911728
0.010268205776810646 0.01917876861989498 -0.1386999934911728
0.010985628701746464 0.01916494034230709 -0.13859999179840088
0.011710453778505325 0.01916494034230709 -0.13859999179840088
0.012435279786586761 0.01916494034230709 -0.13859999179840088
0.013169600628316402 0.01917876861989498 -0.1386999934911728
0.013904967345297337 0.019192595034837723 -0.1387999951839447
0.014641379937529564 0.019206423312425613 -0.1388999968767166
0.015389902517199516 0.019234079867601395 -0.13910000026226044
0.01612892933189869 0.019247906282544136 -0.13920000195503235
0.01688111200928688 0.019275560975074768 -0.13939999043941498
0.017622753977775574 0.01928938739001751 -0.1394999921321869
0.000116266033728607 0.018932383507490158 -0.14229999482631683
0.0008592319791205227 0.018905773758888245 -0.142099991440773
0.0016023613279685378 0.018905773758888245 -0.142099991440773
0.002345490735024214 0.018905773758888245 -0.142099991440773
0.003090793499723077 0.0189190786331892 -0.14219999313354492
0.0038344457279890776 0.0189190786331892 -0.14219999313354492
0.004578098189085722 0.0189190786331892 -0.14219999313354492
0.005314265377819538 0.018892468884587288 -0.1419999897480011
0.007457103114575148 0.018679596483707428 -0.1403999924659729
0.00814466830343008 0.018573161214590073 -0.1395999938249588
0.008836580440402031 0.01849333383142948 -0.13899999856948853
0.00955661665648222 0.018480028957128525 -0.1388999968767166
0.010275609791278839 0.018466724082827568 -0.1387999951839447
0.011001480743288994 0.018466724082827568 -0.1387999951839447
0.011727352626621723 0.018466724082827568 -0.1387999951839447
0.012453223578631878 0.018466724082827568 -0.1387999951839447
0.013179095461964607 0.018466724082827568 -0.1387999951839447
0.013914985582232475 0.018480028957128525 -0.1388999968767166
0.014651920646429062 0.01849333383142948 -0.13899999856948853
0.015389902517199516 0.018506638705730438 -0.13910000026226044
0.01612892933189869 0.018519943580031395 -0.13920000195503235
0.01686900295317173 0.01853324845433235 -0.13930000364780426
0.00011602091399254277 0.018149863928556442 -0.1419999897480011
0.0023438401985913515 0.018149863928556442 -0.1419999897480011
0.006048341281712055 0.018124300986528397 -0.14180000126361847
0.007483660243451595 0.01800926774740219 -0.14090000092983246
0.008173840120434761 0.01790701411664486 -0.14010000228881836
0.008855652064085007 0.017804762348532677 -0.13930000364780426
0.010283012874424458 0.017753634601831436 -0.1388999968767166
0.011009407229721546 0.017753634601831436 -0.1388999968767166
0.011735801585018635 0.017753634601831436 -0.1388999968767166
0.012462195940315723 0.017753634601831436 -0.1388999968767166
0.013188590295612812 0.017753634601831436 -0.1388999968767166
0.01392500288784504 0.01776641607284546 -0.13899999856948853
0.014662462286651134 0.017779197543859482 -0.13910000026226044
0.015400966629385948 0.017791980877518654 -0.13920000195503235
0.01612892933189869 0.017791980877518654 -0.13920000195503235
0.01686900295317173 0.017804762348532677 -0.13930000364780426
0.017622753977775574 0.017830323427915573 -0.1394999921321869
-0.0006265854462981224 0.017407255247235298 -0.1419999897480011
0.00011593921954045072 0.01739499904215336 -0.14190000295639038
0.0023421896621584892 0.01739499904215336 -0.14190000295639038
0.00308427307754755 0.01739499904215336 -0.14190000295639038
0.006052607204765081 0.01739499904215336 -0.14190000295639038
0.006780324969440699 0.017358222976326942 -0.14159999787807465
0.007504905108362436 0.017321445047855377 -0.1412999927997589
0.008214680477976799 0.017260152846574783 -0.14079999923706055
0.008900152519345284 0.017162084579467773 -0.14000000059604645
0.009591017849743366 0.017088530585169792 -0.13939999043941498
0.011033185757696629 0.017064016312360764 -0.13920000195503235
0.011761149391531944 0.017064016312360764 -0.13920000195503235
0.01248911302536726 0.017064016312360764 -0.13920000195503235
0.013207580894231796 0.017051756381988525 -0.13910000026226044
0.013945039361715317 0.017064016312360764 -0.13920000195503235
0.014673002995550632 0.017064016312360764 -0.13920000195503235
0.015400966629385948 0.017064016312360764 -0.13920000195503235
0.01612892933189869 0.017064016312360764 -0.13920000195503235
0.01686900295317173 0.017076274380087852 -0.13930000364780426
0.017622753977775574 0.01710079051554203 -0.1394999921321869
-0.0006257029599510133 0.016641179099678993 -0.14180000126361847
0.00011577580880839378 0.016629444435238838 -0.14169999957084656
0.004565220791846514 0.016641179099678993 -0.14180000126361847
0.005306781269609928 0.016641179099678993 -0.14180000126361847
0.006048341281712055 0.016641179099678993 -0.14180000126361847
0.006785113364458084 0.016629444435238838 -0.14169999957084656
0.00752083957195282 0.016617707908153534 -0.14159999787807465
0.008249686099588871 0.016594236716628075 -0.14139999449253082
0.008957368321716785 0.016535557806491852 -0.14090000092983246
0.00965982023626566 0.01647687889635563 -0.1403999924659729
0.010371850803494453 0.016441673040390015 -0.14010000228881836
0.011088668368756771 0.016418201848864555 -0.13989999890327454
0.011803394183516502 0.016394730657339096 -0.1396999955177307
0.012525000609457493 0.016382994130253792 -0.1395999938249588
0.01323606539517641 0.016359522938728333 -0.13939999043941498
0.013965073972940445 0.016359522938728333 -0.13939999043941498
0.01468354370445013 0.016347788274288177 -0.13930000364780426
0.01541203074157238 0.016347788274288177 -0.13930000364780426
0.016140516847372055 0.016347788274288177 -0.13930000364780426
0.01688111200928688 0.016359522938728333 -0.13939999043941498
-0.0013672634959220886 0.015899619087576866 -0.14180000126361847
-0.0006248204153962433 0.015877192839980125 -0.14159999787807465
0.0023388885892927647 0.015888405963778496 -0.14169999957084656
0.003079925896599889 0.015888405963778496 -0.14169999957084656
0.0038236600812524557 0.015899619087576866 -0.14180000126361847
0.004565220791846514 0.015899619087576866 -0.14180000126361847
0.005306781269609928 0.015899619087576866 -0.14180000126361847
0.006048341281712055 0.015899619087576866 -0.14180000126361847
0.006785113364458084 0.015888405963778496 -0.14169999957084656
0.00752083957195282 0.015877192839980125 -0.14159999787807465
0.008255519904196262 0.015865979716181755 -0.14149999618530273
0.008989153429865837 0.015854766592383385 -0.14139999449253082
0.009714861400425434 0.015832342207431793 -0.141199991106987
0.010445881634950638 0.015821129083633423 -0.1410999894142151
0.01116793043911457 0.01579870469868183 -0.14090000092983246
0.01189633458852768 0.01578749157488346 -0.14079999923706055
0.012596776708960533 0.01574264094233513 -0.1403999924659729
0.013293036259710789 0.015697790309786797 -0.14000000059604645
0.013995128683745861 0.015664150938391685 -0.1396999955177307
0.014704625122249126 0.015641726553440094 -0.1394999921321869
0.015423092991113663 0.015630513429641724 -0.13939999043941498
0.01615210250020027 0.015630513429641724 -0.13939999043941498
0.01689322106540203 0.015641726553440094 -0.1394999921321869
0.01767328567802906 0.015686577185988426 -0.13989999890327454
0.0008537899702787399 0.015093918889760971 -0.141199991106987
0.0015933403046801686 0.015104608610272408 -0.1412999927997589
0.002333936747163534 0.015115299262106419 -0.14139999449253082
0.00307775242254138 0.015136678703129292 -0.14159999787807465
0.0038182667922228575 0.015136678703129292 -0.14159999787807465
0.005303038749843836 0.015147368423640728 -0.14169999957084656
0.006044075824320316 0.015147368423640728 -0.14169999957084656
0.006785113364458084 0.015147368423640728 -0.14169999957084656
0.007526150904595852 0.015147368423640728 -0.14169999957084656
0.008261354640126228 0.015136678703129292 -0.14159999787807465
0.009001868776977062 0.015136678703129292 -0.14159999787807465
0.009742382913827896 0.015136678703129292 -0.14159999787807465
0.01048289891332388 0.015136678703129292 -0.14159999787807465
0.011207560077309608 0.015115299262106419 -0.14139999449253082
0.011921681463718414 0.015083229169249535 -0.1410999894142151
0.01263266522437334 0.0150511609390378 -0.14079999923706055
0.013331015594303608 0.01500840112566948 -0.1403999924659729
0.014035201631486416 0.014976332895457745 -0.14010000228881836
0.014746788889169693 0.014954953454434872 -0.13989999890327454
0.015445221215486526 0.014922883361577988 -0.1395999938249588
0.016175275668501854 0.014922883361577988 -0.1395999938249588
0.01694166101515293 0.014954953454434872 -0.13989999890327454
0.017711183056235313 0.014987021684646606 -0.14019998908042908
-0.002107336651533842 0.01440633088350296 -0.14169999957084656
-0.0013605138519778848 0.014345329254865646 -0.1410999894142151
0.0008513713255524635 0.014314830303192139 -0.14079999923706055
0.0015888299094513059 0.014324997551739216 -0.14090000092983246
0.002325683832168579 0.014324997551739216 -0.14090000092983246
0.0030668843537569046 0.014345329254865646 -0.1410999894142151
0.0038101770915091038 0.0143656637519598 -0.1412999927997589
0.004552342463284731 0.014375830069184303 -0.14139999449253082
0.006039810366928577 0.014396164566278458 -0.14159999787807465
0.008261354640126228 0.014396164566278458 -0.14159999787807465
0.008995511569082737 0.01438599731773138 -0.14149999618530273
0.009735502302646637 0.01438599731773138 -0.14149999618530273
0.01046068873256445 0.0143656637519598 -0.1412999927997589
0.011183781549334526 0.014345329254865646 -0.1410999894142151
0.011913233436644077 0.014335163868963718 -0.14100000262260437
0.01262369379401207 0.014304663054645061 -0.14069999754428864
0.013331015594303608 0.014274162240326405 -0.1403999924659729
0.014035201631486416 0.014243663288652897 -0.14010000228881836
0.014757330529391766 0.01423349604010582 -0.14000000059604645
0.015489477664232254 0.01423349604010582 -0.14000000059604645
0.01624479703605175 0.014253828674554825 -0.14019998908042908
0.017002210021018982 0.014274162240326405 -0.1403999924659729
0.017799613997340202 0.014324997551739216 -0.14090000092983246
-0.001359549816697836 0.013597787357866764 -0.14100000262260437
0.0023190812207758427 0.013549567200243473 -0.1404999941587448
0.004542683716863394 0.013607430271804333 -0.1410999894142151
0.005288068670779467 0.01362671796232462 -0.1412999927997589
0.0060312794521451 0.013636361807584763 -0.14139999449253082
0.006770748179405928 0.013636361807584763 -0.14139999449253082
0.007504905108362436 0.01362671796232462 -0.1412999927997589
0.008238016627728939 0.013617074117064476 -0.141199991106987
0.00896372552961111 0.013597787357866764 -0.14100000262260437
0.009694221429526806 0.01358814351260662 -0.14090000092983246
0.010401463136076927 0.013549567200243473 -0.1404999941587448
0.011128298938274384 0.01353992335498333 -0.1403999924659729
0.011837190948426723 0.013510992750525475 -0.14010000228881836
0.0125608891248703 0.013501348905265331 -0.14000000059604645
0.015533732250332832 0.01353992335498333 -0.1403999924659729
0.016314320266246796 0.013578499667346478 -0.14079999923706055
0.017086979001760483 0.013607430271804333 -0.1410999894142151
0.017875410616397858 0.013646005652844906 -0.14149999618530273
-0.0028544047381728888 0.012951618060469627 -0.1419999897480011
-0.0013614781200885773 0.012878651730716228 -0.141199991106987
0.0015798088861629367 0.012778323143720627 -0.14010000228881836
0.0023124790750443935 0.012778323143720627 -0.14010000228881836
0.003051669569686055 0.012805684469640255 -0.1403999924659729
0.004533025901764631 0.012842169031500816 -0.14079999923706055
0.006005687173455954 0.012842169031500816 -0.14079999923706055
0.006742018274962902 0.012842169031500816 -0.14079999923706055
0.007473037578165531 0.012833047658205032 -0.14069999754428864
0.00819134246557951 0.012805684469640255 -0.1403999924659729
0.008900152519345284 0.012769201770424843 -0.14000000059604645
0.009611658751964569 0.012741838581860065 -0.1396999955177307
0.01032002829015255 0.012714475393295288 -0.13939999043941498
0.011049037799239159 0.012714475393295288 -0.13939999043941498
0.011769598349928856 0.012705355882644653 -0.13930000364780426
0.012498085387051105 0.012705355882644653 -0.13930000364780426
0.015533732250332832 0.012805684469640255 -0.1403999924659729
0.016337493434548378 0.01286041084676981 -0.14100000262260437
0.017147528007626534 0.012915135361254215 -0.14159999787807465
0.01791330985724926 0.012933377176523209 -0.14180000126361847
-0.003624875331297517 0.012303588911890984 -0.14309999346733093
-0.002108823973685503 0.012191817164421082 -0.14180000126361847
0.002314129378646612 0.01205424964427948 -0.14019998908042908
0.003047322388738394 0.01205424964427948 -0.14019998908042908
0.00378590845502913 0.01207144558429718 -0.1403999924659729
0.00598009442910552 0.01205424964427948 -0.14019998908042908
0.006703711114823818 0.012037054635584354 -0.14000000059604645
0.008849294856190681 0.011968271806836128 -0.13920000195503235
0.010283012874424458 0.011942477896809578 -0.1388999968767166
0.011009407229721546 0.011942477896809578 -0.1388999968767166
0.011735801585018635 0.011942477896809578 -0.1388999968767166
0.013955057598650455 0.011976869776844978 -0.13930000364780426
0.014715165831148624 0.012002662755548954 -0.1395999938249588
0.015511604025959969 0.01205424964427948 -0.14019998908042908
0.016337493434548378 0.012123034335672855 -0.14100000262260437
0.017147528007626534 0.012174621224403381 -0.14159999787807465
0.017925942316651344 0.012200415134429932 -0.14190000295639038
0.018681179732084274 0.012209012173116207 -0.1419999897480011
-0.003624875331297517 0.011555230244994164 -0.14309999346733093
-0.0013672634959220886 0.01145025622099638 -0.14180000126361847
0.00011544898734427989 0.01140988152474165 -0.1412999927997589
0.0008531852508895099 0.011393731459975243 -0.1410999894142151
0.0015877023106440902 0.01136950682848692 -0.14079999923706055
0.0023190812207758427 0.011345282196998596 -0.1404999941587448
0.005239417310804129 0.011304907500743866 -0.14000000059604645
0.008115497417747974 0.011232233606278896 -0.13910000026226044
0.009549736976623535 0.011208008043467999 -0.1387999951839447
0.010260802693665028 0.011191857978701591 -0.13859999179840088
0.010993554256856441 0.011199932545423508 -0.1386999934911728
0.011718902736902237 0.011199932545423508 -0.1386999934911728
0.012453223578631878 0.011208008043467999 -0.1387999951839447
0.013188590295612812 0.01121608354151249 -0.1388999968767166
0.013935021124780178 0.011232233606278896 -0.13910000026226044
0.014694083482027054 0.011256457306444645 -0.13939999043941498
0.015489477664232254 0.011304907500743866 -0.14000000059604645
0.016314320266246796 0.01136950682848692 -0.14079999923706055
0.017123308032751083 0.011417956091463566 -0.14139999449253082
0.017900675535202026 0.011442181654274464 -0.14169999957084656
0.018681179732084274 0.011466405354440212 -0.1419999897480011
-0.0036274082958698273 0.010814421810209751 -0.14319999516010284
-0.0006265854462981224 0.010723798535764217 -0.1419999897480011
0.00011585751781240106 0.010708695277571678 -0.14180000126361847
0.0008562086732126772 0.010693591088056564 -0.14159999787807465
0.002324033062905073 0.010633175261318684 -0.14079999923706055
0.0045040505938231945 0.010565207339823246 -0.13989999890327454
0.0052244472317397594 0.010542551055550575 -0.1395999938249588
0.005945971235632896 0.010527446866035461 -0.13939999043941498
0.009542856365442276 0.010474583134055138 -0.1386999934911728
0.01025339961051941 0.010459478944540024 -0.13849999010562897
0.010977702215313911 0.010459478944540024 -0.13849999010562897
0.011710453778505325 0.01046703103929758 -0.13859999179840088
0.012444252148270607 0.010474583134055138 -0.1386999934911728
0.013179095461964607 0.010482135228812695 -0.1387999951839447
0.01392500288784504 0.010497239418327808 -0.13899999856948853
0.014673002995550632 0.010512343607842922 -0.13920000195503235
0.015434157103300095 0.010534998960793018 -0.1394999921321869
0.016233211383223534 0.01058031152933836 -0.14010000228881836
0.017050649970769882 0.010633175261318684 -0.14079999923706055
0.01785014383494854 0.010670934803783894 -0.1412999927997589
0.01864171400666237 0.010701143182814121 -0.14169999957084656
-0.0036324746906757355 0.010079598985612392 -0.14339999854564667
-0.002878526458516717 0.010065540671348572 -0.14319999516010284
-0.0021236957982182503 0.010037424974143505 -0.1428000032901764
-0.0013749772915616632 0.010023366659879684 -0.14259999990463257
-0.0006274679326452315 0.009995250031352043 -0.14219999313354492
0.0008574179955758154 0.009967134334146976 -0.14180000126361847
0.002324033062905073 0.009896844625473022 -0.14079999923706055
0.003051669569686055 0.009868727996945381 -0.1403999924659729
0.0037778192199766636 0.009847641922533512 -0.14010000228881836
0.00881750788539648 0.009749234654009342 -0.1386999934911728
0.009535975754261017 0.00974220596253872 -0.13859999179840088
0.010245997458696365 0.009728148579597473 -0.13840000331401825
0.010969776660203934 0.009728148579597473 -0.13840000331401825
0.011702004820108414 0.009735176339745522 -0.13849999010562897
0.012435279786586761 0.00974220596253872 -0.13859999179840088
0.013169600628316402 0.009749234654009342 -0.1386999934911728
0.013904967345297337 0.00975626427680254 -0.1387999951839447
0.014651920646429062 0.00977032259106636 -0.13899999856948853
0.015400966629385948 0.009784380905330181 -0.13920000195503235
0.01615210250020027 0.009798437356948853 -0.13939999043941498
0.01694166101515293 0.009833583608269691 -0.13989999890327454
0.017711183056235313 0.00985466968268156 -0.14019998908042908
0.018510155379772186 0.009889815002679825 -0.14069999754428864
-0.0036426070146262646 0.009355694055557251 -0.14379999041557312
-0.002888577524572611 0.009349189698696136 -0.1437000036239624
-0.002132618799805641 0.009329671040177345 -0.14339999854564667
-0.0013797982828691602 0.009310152381658554 -0.14309999346733093
0.0008574179955758154 0.00922557432204485 -0.14180000126361847
0.0015955956187099218 0.009206055663526058 -0.14149999618530273
0.002325683832168579 0.009167020209133625 -0.14090000092983246
0.003051669569686055 0.009134489111602306 -0.1403999924659729
0.0037751225754618645 0.009108465164899826 -0.14000000059604645
0.004497611429542303 0.009088946506381035 -0.1396999955177307
0.007388056255877018 0.009049911051988602 -0.13910000026226044
0.008103828877210617 0.009036898612976074 -0.1388999968767166
0.008823865093290806 0.00903039239346981 -0.1387999951839447
0.009542856365442276 0.009023886173963547 -0.1386999934911728
0.01025339961051941 0.00901087373495102 -0.13849999010562897
0.010977702215313911 0.00901087373495102 -0.13849999010562897
0.011710453778505325 0.009017379954457283 -0.13859999179840088
0.012435279786586761 0.009017379954457283 -0.13859999179840088
0.013169600628316402 0.009023886173963547 -0.1386999934911728
0.013904967345297337 0.00903039239346981 -0.1387999951839447
0.014641379937529564 0.009036898612976074 -0.1388999968767166
0.015378838405013084 0.009043404832482338 -0.13899999856948853
0.01612892933189869 0.009056417271494865 -0.13920000195503235
0.01686900295317173 0.00906292349100113 -0.13930000364780426
0.01761012151837349 0.009069428779184818 -0.13939999043941498
0.018365442752838135 0.009082440286874771 -0.1395999938249588
-0.0036527395714074373 0.00862760841846466 -0.14419999718666077
-0.0028946076054126024 0.008615641854703426 -0.14399999380111694
-0.0021370805334299803 0.008597693406045437 -0.1437000036239624
-0.0013807625509798527 0.008567777462303638 -0.14319999516010284
-0.0006292330217547715 0.00853187870234251 -0.14259999990463257
0.0008574179955758154 0.008484014309942722 -0.14180000126361847
0.0015967232175171375 0.008472047746181488 -0.14159999787807465
0.0023273343686014414 0.008436149917542934 -0.14100000262260437
0.0030538432765752077 0.008406233973801136 -0.1404999941587448
0.0037751225754618645 0.008376318961381912 -0.14000000059604645
0.004497611429542303 0.008358369581401348 -0.1396999955177307
0.006670192815363407 0.008334437385201454 -0.13930000364780426
0.007388056255877018 0.00832247082144022 -0.13910000026226044
0.008109662681818008 0.00831648800522089 -0.13899999856948853
0.008823865093290806 0.008304521441459656 -0.1387999951839447
0.009542856365442276 0.008298538625240326 -0.1386999934911728
0.010268205776810646 0.008298538625240326 -0.1386999934911728
0.010985628701746464 0.008292554877698421 -0.13859999179840088
0.011718902736902237 0.008298538625240326 -0.1386999934911728
0.012444252148270607 0.008298538625240326 -0.1386999934911728
0.013179095461964607 0.008304521441459656 -0.1387999951839447
0.013914985582232475 0.008310504257678986 -0.1388999968767166
0.014641379937529564 0.008310504257678986 -0.1388999968767166
0.015378838405013084 0.00831648800522089 -0.13899999856948853
0.016117343679070473 0.00832247082144022 -0.13910000026226044
0.01684478297829628 0.00832247082144022 -0.13910000026226044
0.01758485659956932 0.008328454568982124 -0.13920000195503235
0.01832597516477108 0.008334437385201454 -0.13930000364780426
-0.003657805733382702 0.007884416729211807 -0.1444000005722046
-0.0029006381519138813 0.007878956384956837 -0.14429999887943268
-0.002141541801393032 0.007862575352191925 -0.14399999380111694
0.00011610262299655005 0.00775883300229907 -0.142099991440773
0.0008574179955758154 0.007742453366518021 -0.14180000126361847
0.0015967232175171375 0.007731533143669367 -0.14159999787807465
0.0023289849050343037 0.007704231888055801 -0.1410999894142151
0.0030538432765752077 0.00767147121950984 -0.1404999941587448
0.0037778192199766636 0.00764963123947382 -0.14010000228881836
0.0045040505938231945 0.007638711016625166 -0.13989999890327454
0.00812133215367794 0.007600490469485521 -0.13920000195503235
0.008836580440402031 0.00758956978097558 -0.13899999856948853
0.00955661665648222 0.00758410943672061 -0.1388999968767166
0.010283012874424458 0.00758410943672061 -0.1388999968767166
0.011009407229721546 0.00758410943672061 -0.1388999968767166
0.011735801585018635 0.00758410943672061 -0.1388999968767166
0.012462195940315723 0.00758410943672061 -0.1388999968767166
0.013198086060583591 0.00758956978097558 -0.13899999856948853
0.01392500288784504 0.00758956978097558 -0.13899999856948853
0.014651920646429062 0.00758956978097558 -0.13899999856948853
0.015389902517199516 0.007595030125230551 -0.13910000026226044
0.016117343679070473 0.007595030125230551 -0.13910000026226044
0.01684478297829628 0.007595030125230551 -0.13910000026226044
0.01758485659956932 0.007600490469485521 -0.13920000195503235
0.018312819302082062 0.007600490469485521 -0.13920000195503235
0.019068138673901558 0.0076114097610116005 -0.13939999043941498
-0.003660338930785656 0.007134196348488331 -0.1445000022649765
-0.0029006381519138813 0.00712432200089097 -0.14429999887943268
-0.002141541801393032 0.007109510246664286 -0.14399999380111694
-0.0006292330217547715 0.007040390279144049 -0.14259999990463257
0.0015967232175171375 0.006991018541157246 -0.14159999787807465
0.0023289849050343037 0.0069663324393332005 -0.1410999894142151
0.003058190457522869 0.0069465842097997665 -0.14069999754428864
0.0037805153988301754 0.006921897642314434 -0.14019998908042908
0.00450727017596364 0.006912024226039648 -0.14000000059604645
0.007414612919092178 0.0068922750651836395 -0.1395999938249588
0.008132999762892723 0.006882400717586279 -0.13939999043941498
0.009584138169884682 0.00687746424227953 -0.13930000364780426
0.010305222123861313 0.006872526835650206 -0.13920000195503235
0.011041112244129181 0.00687746424227953 -0.13930000364780426
0.011778046377003193 0.006882400717586279 -0.13939999043941498
0.012498085387051105 0.00687746424227953 -0.13930000364780426
0.013217076659202576 0.006872526835650206 -0.13920000195503235
0.013945039361715317 0.006872526835650206 -0.13920000195503235
0.014673002995550632 0.006872526835650206 -0.13920000195503235
0.015400966629385948 0.006872526835650206 -0.13920000195503235
0.01612892933189869 0.006872526835650206 -0.13920000195503235
0.01685689389705658 0.006872526835650206 -0.13920000195503235
0.01758485659956932 0.006872526835650206 -0.13920000195503235
0.01832597516477108 0.00687746424227953 -0.13930000364780426
0.01908181793987751 0.006887337658554316 -0.1394999921321869
-0.004419074859470129 0.006382929626852274 -0.14459998905658722
-0.0036628716625273228 0.006382929626852274 -0.14459998905658722
-0.002902648411691189 0.006374101620167494 -0.1444000005722046
0.0015955956187099218 0.006246089935302734 -0.14149999618530273
0.0023273343686014414 0.0062240189872682095 -0.14100000262260437
0.003058190457522869 0.006210776045918465 -0.14069999754428864
0.0037805153988301754 0.0061887046322226524 -0.14019998908042908
0.00450727017596364 0.00617987709119916 -0.14000000059604645
0.005239417310804129 0.00617987709119916 -0.14000000059604645
0.008173840120434761 0.00618429109454155 -0.14010000228881836
0.008906509727239609 0.00618429109454155 -0.14010000228881836
0.009639180265367031 0.00618429109454155 -0.14010000228881836
0.010371850803494453 0.00618429109454155 -0.14010000228881836
0.011104521341621876 0.00618429109454155 -0.14010000228881836
0.011828741990029812 0.00617987709119916 -0.14000000059604645
0.012533972971141338 0.006166634149849415 -0.1396999955177307
0.013255055993795395 0.0061622196808457375 -0.1395999938249588
0.013965073972940445 0.00615339120849967 -0.13939999043941498
0.014694083482027054 0.00615339120849967 -0.13939999043941498
0.01541203074157238 0.006148977670818567 -0.13930000364780426
0.016140516847372055 0.006148977670818567 -0.13930000364780426
0.01685689389705658 0.00614456320181489 -0.13920000195503235
0.01761012151837349 0.00615339120849967 -0.13939999043941498
0.018352286890149117 0.006157805677503347 -0.1394999921321869
0.01915021240711212 0.00617987709119916 -0.14000000059604645
-0.00442213099449873 0.005630617495626211 -0.14469999074935913
-0.0036628716625273228 0.005626726429909468 -0.14459998905658722
-0.0029046584386378527 0.005622835364192724 -0.1445000022649765
-0.002143029123544693 0.005607270170003176 -0.14409999549388885
-0.0013826909707859159 0.005580031778663397 -0.14339999854564667
0.002325683832168579 0.005482750944793224 -0.14090000092983246
0.0030538432765752077 0.005467185750603676 -0.1404999941587448
0.0037805153988301754 0.005455512087792158 -0.14019998908042908
0.00450727017596364 0.005447729956358671 -0.14000000059604645
0.005239417310804129 0.005447729956358671 -0.14000000059604645
0.005975829903036356 0.005451621022075415 -0.14010000228881836
0.006713287439197302 0.005455512087792158 -0.14019998908042908
0.007462414912879467 0.005467185750603676 -0.1404999941587448
0.008214680477976799 0.005478859879076481 -0.14079999923706055
0.008957368321716785 0.005482750944793224 -0.14090000092983246
0.009701102040708065 0.005486642476171255 -0.14100000262260437
0.010431076399981976 0.005482750944793224 -0.14090000092983246
0.01116793043911457 0.005482750944793224 -0.14090000092983246
0.011887885630130768 0.00547496834769845 -0.14069999754428864
0.012596776708960533 0.005463294684886932 -0.1403999924659729
0.013293036259710789 0.005447729956358671 -0.14000000059604645
0.013985110446810722 0.005432164762169123 -0.1395999938249588
0.014694083482027054 0.0054243821650743484 -0.13939999043941498
0.015423092991113663 0.0054243821650743484 -0.13939999043941498
0.01615210250020027 0.0054243821650743484 -0.13939999043941498
0.01688111200928688 0.0054243821650743484 -0.13939999043941498
0.017622753977775574 0.005428273230791092 -0.1394999921321869
0.01840491034090519 0.00544383842498064 -0.13989999890327454
0.01920492760837078 0.005463294684886932 -0.1403999924659729
-0.0059437877498567104 0.004880628082901239 -0.14489999413490295
-0.005182436667382717 0.004877259489148855 -0.14479999244213104
-0.00442518712952733 0.004877259489148855 -0.14479999244213104
-0.003665404859930277 0.004873891361057758 -0.14469999074935913
-0.0029066684655845165 0.004870522767305374 -0.14459998905658722
-0.002146003535017371 0.0048604183830320835 -0.14429999887943268
-0.0013846195070073009 0.004836840555071831 -0.1436000019311905
-0.0006292330217547715 0.004803157877177 -0.14259999990463257
0.00011602091399254277 0.004782947711646557 -0.1419999897480011
0.0008562086732126772 0.004769475199282169 -0.14159999787807465
0.0015910849906504154 0.004752633161842823 -0.1410999894142151
0.002322382526472211 0.0047391606494784355 -0.14069999754428864
0.003051669569686055 0.004729055799543858 -0.1403999924659729
0.0037805153988301754 0.0047223190777003765 -0.14019998908042908
0.00450727017596364 0.004715582821518183 -0.14000000059604645
0.005239417310804129 0.004715582821518183 -0.14000000059604645
0.005971564445644617 0.004715582821518183 -0.14000000059604645
0.006713287439197302 0.0047223190777003765 -0.14019998908042908
0.007462414912879467 0.0047324239276349545 -0.1404999941587448
0.008214680477976799 0.004742528777569532 -0.14079999923706055
0.008970081806182861 0.004752633161842823 -0.1410999894142151
0.011175856925547123 0.0047492654994130135 -0.14100000262260437
0.01189633458852768 0.004742528777569532 -0.14079999923706055
0.012605749070644379 0.0047324239276349545 -0.1404999941587448
0.013293036259710789 0.004715582821518183 -0.14000000059604645
0.013995128683745861 0.004705477971583605 -0.1396999955177307
0.014694083482027054 0.0046953726559877396 -0.13939999043941498
0.015423092991113663 0.0046953726559877396 -0.13939999043941498
0.01615210250020027 0.0046953726559877396 -0.13939999043941498
0.01688111200928688 0.0046953726559877396 -0.13939999043941498
0.01764802075922489 0.004705477971583605 -0.1396999955177307
0.018431222066283226 0.00471895094960928 -0.14010000228881836
0.019245963543653488 0.0047391606494784355 -0.14069999754428864
-0.005182436667382717 0.0041200099512934685 -0.14479999244213104
-0.00442518712952733 0.0041200099512934685 -0.14479999244213104
-0.0029086784925311804 0.004117164760828018 -0.14469999074935913
-0.0021489779464900494 0.004111474379897118 -0.1445000022649765
-0.0013894404983147979 0.004100093152374029 -0.14409999549388885
-0.0006318805390037596 0.004074485041201115 -0.14319999516010284
0.0008568133343942463 0.004031805787235498 -0.14169999957084656
0.001592212705872953 0.004017578903585672 -0.141199991106987
0.002324033062905073 0.004006197676062584 -0.14079999923706055
0.003051669569686055 0.0039948164485394955 -0.1403999924659729
0.0037805153988301754 0.003989125601947308 -0.14019998908042908
0.004510489758104086 0.003986280877143145 -0.14010000228881836
0.005239417310804129 0.003983435221016407 -0.14000000059604645
0.005971564445644617 0.003983435221016407 -0.14000000059604645
0.006708499975502491 0.003986280877143145 -0.14010000228881836
0.007457103114575148 0.0039948164485394955 -0.1403999924659729
0.008214680477976799 0.004006197676062584 -0.14079999923706055
0.00896372552961111 0.004011888522654772 -0.14100000262260437
0.00970798172056675 0.004014733713120222 -0.1410999894142151
0.010445881634950638 0.004014733713120222 -0.1410999894142151
0.011175856925547123 0.004011888522654772 -0.14100000262260437
0.01189633458852768 0.004006197676062584 -0.14079999923706055
0.012605749070644379 0.003997661639004946 -0.1404999941587448
0.013302531093358994 0.003986280877143145 -0.14010000228881836
0.013995128683745861 0.003974899183958769 -0.1396999955177307
0.014704625122249126 0.003969208803027868 -0.1394999921321869
0.015423092991113663 0.003966363146901131 -0.13939999043941498
0.01615210250020027 0.003966363146901131 -0.13939999043941498
0.01690533198416233 0.0039720539934933186 -0.1395999938249588
0.01767328567802906 0.003980590030550957 -0.13989999890327454
0.01847068779170513 0.0039948164485394955 -0.1403999924659729
0.01925964280962944 0.004006197676062584 -0.14079999923706055
0.020052779465913773 0.004017578903585672 -0.141199991106987
-0.0059396857395768166 0.003362760879099369 -0.14479999244213104
-0.0029086784925311804 0.0033604383934289217 -0.14469999074935913
-0.002150464802980423 0.003358116140589118 -0.14459998905658722
-0.0013913690345361829 0.0033511491492390633 -0.14429999887943268
-0.0006327630835585296 0.003330248175188899 -0.14339999854564667
0.00011634774273261428 0.003307024482637644 -0.14239999651908875
0.0008574179955758154 0.0032930904999375343 -0.14180000126361847
0.0015944680199027061 0.0032838010229170322 -0.14139999449253082
0.002325683832168579 0.00327218952588737 -0.14090000092983246
0.003058190457522869 0.0032675445545464754 -0.14069999754428864
0.00378590845502913 0.0032605775631964207 -0.1403999924659729
0.004510489758104086 0.003253610571846366 -0.14010000228881836
0.005243159830570221 0.003253610571846366 -0.14010000228881836
0.005975829903036356 0.003253610571846366 -0.14010000228881836
0.006708499975502491 0.003253610571846366 -0.14010000228881836
0.0074464804492890835 0.0032559328246861696 -0.14019998908042908
0.008197177201509476 0.0032628998160362244 -0.1404999941587448
0.008957368321716785 0.00327218952588737 -0.14090000092983246
0.009694221429526806 0.00327218952588737 -0.14090000092983246
0.010438479483127594 0.003274511778727174 -0.14100000262260437
0.011175856925547123 0.003274511778727174 -0.14100000262260437
0.01189633458852768 0.0032698670402169228 -0.14079999923706055
0.012605749070644379 0.0032628998160362244 -0.1404999941587448
0.013312024995684624 0.0032559328246861696 -0.14019998908042908
0.014015165157616138 0.003248965833336115 -0.13989999890327454
0.014715165831148624 0.00324199884198606 -0.1395999938249588
0.015434157103300095 0.003239676356315613 -0.1394999921321869
0.016163690015673637 0.003239676356315613 -0.1394999921321869
0.01694166101515293 0.003248965833336115 -0.13989999890327454
0.01769855245947838 0.003253610571846366 -0.14010000228881836
0.01848384365439415 0.0032628998160362244 -0.1404999941587448
0.019287001341581345 0.003274511778727174 -0.14100000262260437
0.02006698027253151 0.003281478537246585 -0.1412999927997589
-0.0059396857395768166 0.002605511574074626 -0.14479999244213104
-0.0029066684655845165 0.002601912710815668 -0.14459998905658722
-0.002150464802980423 0.002601912710815668 -0.14459998905658722
-0.0006336456281132996 0.0025839190930128098 -0.1436000019311905
0.00011642945173662156 0.002564125694334507 -0.14249999821186066
0.0008580227149650455 0.0025533295702189207 -0.14190000295639038
0.002330635441467166 0.00254073366522789 -0.141199991106987
0.0030625376384705305 0.0025353357195854187 -0.14090000092983246
0.0037939981557428837 0.002531736856326461 -0.14069999754428864
0.004523367155343294 0.002528137993067503 -0.1404999941587448
0.005246901419013739 0.002522739814594388 -0.14019998908042908
0.00598009442910552 0.002522739814594388 -0.14019998908042908
0.006708499975502491 0.002520940499380231 -0.14010000228881836
0.0074464804492890835 0.002522739814594388 -0.14019998908042908
0.008197177201509476 0.002528137993067503 -0.1404999941587448
0.008951010182499886 0.002533536171540618 -0.14079999923706055
0.009694221429526806 0.0025353357195854187 -0.14090000092983246
0.010431076399981976 0.0025353357195854187 -0.14090000092983246
0.01116793043911457 0.0025353357195854187 -0.14090000092983246
0.011904784478247166 0.0025353357195854187 -0.14090000092983246
0.01263266522437334 0.002533536171540618 -0.14079999923706055
0.013340510427951813 0.002528137993067503 -0.1404999941587448
0.014045218005776405 0.002522739814594388 -0.14019998908042908
0.014746788889169693 0.0025173418689519167 -0.13989999890327454
0.015478413552045822 0.0025173418689519167 -0.13989999890327454
0.01621003821492195 0.0025173418689519167 -0.13989999890327454
0.01696588099002838 0.002520940499380231 -0.14010000228881836
0.017749082297086716 0.002528137993067503 -0.1404999941587448
0.01854962296783924 0.002537135034799576 -0.14100000262260437
0.019328035414218903 0.002542532980442047 -0.1412999927997589
0.02010958641767502 0.0025479313917458057 -0.14159999787807465
-0.006692310329526663 0.0018469857750460505 -0.14469999074935913
-0.005931481719017029 0.0018457092810422182 -0.14459998905658722
-0.0051752785220742226 0.0018457092810422182 -0.14459998905658722
-0.004416019190102816 0.0018444330198690295 -0.1445000022649765
-0.0036552727688103914 0.0018418801482766867 -0.14429999887943268
-0.00289661786518991 0.0018393272766843438 -0.14409999549388885
-0.0013826909707859159 0.0018303924007341266 -0.14339999854564667
-0.0006314392667263746 0.0018265630351379514 -0.14309999346733093
0.00011634774273261428 0.0018176280427724123 -0.14239999651908875
0.0008580227149650455 0.001811246038414538 -0.14190000295639038
0.0015967232175171375 0.0018074166728183627 -0.14159999787807465
0.0023322859779000282 0.0018035874236375093 -0.1412999927997589
0.0030668843537569046 0.0018010344356298447 -0.1410999894142151
0.0037993912119418383 0.0017984817968681455 -0.14090000092983246
0.0052581289783120155 0.001793375937268138 -0.1404999941587448
0.005988625343888998 0.0017920995596796274 -0.1403999924659729
0.006722864229232073 0.0017920995596796274 -0.1403999924659729
0.008208845742046833 0.0017959289252758026 -0.14069999754428864
0.008957368321716785 0.0017984817968681455 -0.14090000092983246
0.009694221429526806 0.0017984817968681455 -0.14090000092983246
0.010438479483127594 0.001799758174456656 -0.14100000262260437
0.011183781549334526 0.0018010344356298447 -0.1410999894142151
0.011913233436644077 0.001799758174456656 -0.14100000262260437
0.012650609947741032 0.001799758174456656 -0.14100000262260437
0.013378491625189781 0.0017984817968681455 -0.14090000092983246
0.014095309190452099 0.0017959289252758026 -0.14069999754428864
0.01481003500521183 0.001793375937268138 -0.1404999941587448
0.015533732250332832 0.0017920995596796274 -0.1403999924659729
0.01630273275077343 0.0017959289252758026 -0.14069999754428864
0.017050649970769882 0.0017972053028643131 -0.14079999923706055
0.01782487891614437 0.0018010344356298447 -0.1410999894142151
-0.007443888578563929 0.0010895058512687683 -0.14459998905658722
-0.006687685381621122 0.0010895058512687683 -0.14459998905658722
-0.005923278164118528 0.0010879990877583623 -0.1444000005722046
-0.005160962697118521 0.0010864920914173126 -0.14419999718666077
-0.0044007389806210995 0.001084985095076263 -0.14399999380111694
-0.003640074050053954 0.001082724891602993 -0.1437000036239624
-0.0028805367182940245 0.0010797108989208937 -0.14329999685287476
-0.0021251828875392675 0.0010766970226541162 -0.1428999900817871
-0.0013740130234509706 0.0010736832628026605 -0.14249999821186066
-0.0006270267185755074 0.001070669386535883 -0.142099991440773
0.00011593921954045072 0.001069162506610155 -0.14190000295639038
0.0008568133343942463 0.0010676556266844273 -0.14169999957084656
0.0023322859779000282 0.001064641634002328 -0.1412999927997589
0.003069058060646057 0.001063888194039464 -0.141199991106987
0.003804784035310149 0.0010631347540766 -0.1410999894142151
0.004539465066045523 0.0010623813141137362 -0.14100000262260437
0.005273099057376385 0.0010616278741508722 -0.14090000092983246
0.006005687173455954 0.0010608744341880083 -0.14079999923706055
0.006737229879945517 0.0010601208778098226 -0.14069999754428864
0.007478348910808563 0.0010608744341880083 -0.14079999923706055
0.008226349018514156 0.0010623813141137362 -0.14100000262260437
0.00896372552961111 0.0010623813141137362 -0.14100000262260437
0.009714861400425434 0.001063888194039464 -0.141199991106987
0.010453285649418831 0.001063888194039464 -0.141199991106987
0.01119963452219963 0.001064641634002328 -0.1412999927997589
0.011938579380512238 0.001064641634002328 -0.1412999927997589
0.012677525170147419 0.001064641634002328 -0.1412999927997589
0.013406976126134396 0.001063888194039464 -0.141199991106987
0.014145398512482643 0.001063888194039464 -0.141199991106987
0.014873280189931393 0.0010631347540766 -0.1410999894142151
0.015611179172992706 0.0010631347540766 -0.1410999894142151
0.016372252255678177 0.001064641634002328 -0.1412999927997589
-0.006678435951471329 0.0003328415332362056 -0.1444000005722046
-0.005143067799508572 0.0003312280459795147 -0.1437000036239624
-0.004379346501082182 0.0003303060366306454 -0.14329999685287476
-0.003617276204749942 0.0003291535540483892 -0.1428000032901764
-0.0028624453116208315 0.00032823154469951987 -0.14239999651908875
-0.0021117981523275375 0.00032730953535065055 -0.1419999897480011
-0.00136919179931283 0.00032730953535065055 -0.1419999897480011
-0.0006257029599510133 0.00032684855978004634 -0.14180000126361847
0.00011569410708034411 0.0003263875551056117 -0.14159999787807465
0.0008549992926418781 0.000325926550431177 -0.14139999449253082
0.0015910849906504154 0.00032523501431569457 -0.1410999894142151
0.0023273343686014414 0.00032500457018613815 -0.14100000262260437
0.0030647111125290394 0.00032500457018613815 -0.14100000262260437
0.0038020878564566374 0.00032500457018613815 -0.14100000262260437
0.004539465066045523 0.00032500457018613815 -0.14100000262260437
0.005273099057376385 0.0003247740678489208 -0.14090000092983246
0.006014218553900719 0.00032500457018613815 -0.14100000262260437
0.006751595064997673 0.00032500457018613815 -0.14100000262260437
0.007494282443076372 0.00032523501431569457 -0.1410999894142151
0.008238016627728939 0.00032546554575674236 -0.141199991106987
0.008982796221971512 0.0003256960480939597 -0.1412999927997589
0.009728622622787952 0.000325926550431177 -0.14139999449253082
0.010468091815710068 0.000325926550431177 -0.14139999449253082
0.01121548656374216 0.00032615705276839435 -0.14149999618530273
0.011963927187025547 0.0003263875551056117 -0.14159999787807465
0.012704442255198956 0.0003263875551056117 -0.14159999787807465
0.01344495639204979 0.0003263875551056117 -0.14159999787807465
0.014185470528900623 0.0003263875551056117 -0.14159999787807465
0.01493652630597353 0.000326618057442829 -0.14169999957084656
0.015677563846111298 0.000326618057442829 -0.14169999957084656
-0.007423297502100468 -0.00042173106339760125 -0.14419999718666077
-0.006659936159849167 -0.0004211461346130818 -0.14399999380111694
-0.005890462081879377 -0.0004199763061478734 -0.1436000019311905
-0.003602077253162861 -0.00041588180465623736 -0.14219999313354492
-0.0028544047381728888 -0.0004152968467678875 -0.1419999897480011
-0.002108823973685503 -0.00041471197619102895 -0.14180000126361847
0.0001153672783402726 -0.0004129571607336402 -0.141199991106987
0.0008525807061232626 -0.0004123722610529512 -0.14100000262260437
0.0015888299094513059 -0.0004120797966606915 -0.14090000092983246
0.002324033062905073 -0.0004117873322684318 -0.14079999923706055
0.0030625376384705305 -0.0004120797966606915 -0.14090000092983246
0.0038020878564566374 -0.0004123722610529512 -0.14100000262260437
0.004542683716863394 -0.0004126646963413805 -0.1410999894142151
0.005280583631247282 -0.0004126646963413805 -0.1410999894142151
0.006022748537361622 -0.0004129571607336402 -0.141199991106987
0.006761171389371157 -0.0004129571607336402 -0.141199991106987
0.007504905108362436 -0.0004132496251258999 -0.1412999927997589
0.008249686099588871 -0.00041354208951815963 -0.14139999449253082
0.008995511569082737 -0.00041383455391041934 -0.14149999618530273
0.009742382913827896 -0.0004141270474065095 -0.14159999787807465
0.01048289891332388 -0.0004141270474065095 -0.14159999787807465
0.011231339536607265 -0.00041441951179876924 -0.14169999957084656
0.011980826035141945 -0.00041471197619102895 -0.14180000126361847
0.012722386047244072 -0.00041471197619102895 -0.14180000126361847
0.013473441824316978 -0.00041500444058328867 -0.14190000295639038
0.01421552523970604 -0.00041500444058328867 -0.14190000295639038
0.014968148432672024 -0.0004152968467678875 -0.1419999897480011
