ply
format ascii 1.0
element vertex 765
property float x
property float y
property float z
end_header
-0.003030469962140044 -0.009870071731944324 0.11179348244445836
-0.003563868130119753 -0.008773615166273764 0.11151996897953231
0.008339988786966259 -0.031651875777394055 0.11224300780866044
0.00805506733095442 -0.03108880196606157 0.11271200190103996
0.00776239670685051 -0.030519416439470037 0.11343863392123676
0.007509504615873363 -0.029982435772888085 0.11284288236509843
0.007173583580960751 -0.029377817084149858 0.11500731584320498
0.006909189704105383 -0.02883146669646592 0.11479392561485648
0.006647103154929286 -0.028286995931396636 0.1145038313959772
0.006397671415108507 -0.02775283417707695 0.11379304514202959
0.006151805539293351 -0.027221577289147064 0.11296371655819147
0.0058566379142278874 -0.026650157626044134 0.11377335800086061
0.0055294563441889676 -0.026052658383739196 0.11564725977991983
0.005260398059655546 -0.02550250822100188 0.11558893148125933
0.004996003766078883 -0.024956156991905742 0.11537554145276259
0.004737378204922435 -0.024414505657907842 0.11497039136441488
0.004483341957564663 -0.023876592925097476 0.11441267574091582
0.004164871557473592 -0.023286190079278048 0.11599698644749913
0.003900477673619729 -0.022739839685892913 0.11578359645180623
0.0036246923962840096 -0.022184209249598928 0.1159488911111301
0.003357972169832869 -0.021635963743441306 0.11581283723122023
0.0030947319603163853 -0.021090553169915295 0.11556109489127854
0.0028233572570552975 -0.020538515978705756 0.11557977280276704
0.002563577837695563 -0.019995924424096825 0.11521297434429942
0.0022991839538417 -0.019449574030711687 0.11499958434860652
0.002039404732344867 -0.018906982888257054 0.11463278613919643
0.0017796254014188356 -0.018364391531173477 0.11426598815424095
0.0015244474636983626 -0.017825548615547002 0.1137462230705768
0.0012738563807571414 -0.01729044242339696 0.11307397761191013
0.000965189725841276 -0.016708025957898956 0.11433237435242531
0.000703103099842152 -0.016163555036133863 0.1140422801273953
0.00044792515734904705 -0.015624712179361667 0.11352251690907637
0.00019618100671387265 -0.015088666598801335 0.11288860192093207
-5.5563161417547524e-05 -0.014552621003988004 0.11225468751442673
-0.0003630467074280091 -0.013971168305314608 0.11347375254491482
-0.0006136378765770681 -0.013436061980194694 0.11280150824542563
-0.0008642289455212948 -0.012900955799447049 0.11212926232144775
-0.0011171211389291386 -0.012363974923937348 0.11153351075710845
-0.0014257878240648602 -0.011781558371079071 0.11279190679555635
-0.001680965683849376 -0.011242715644426146 0.11227214253438775
-0.0019303974166716541 -0.010708553895807663 0.11156135604778455
-0.002481172296247598 -0.009597941456463175 0.1118655010499153
0.008614497666637213 -0.030824926086111627 0.11244717359279892
0.008317574737887891 -0.030252076496722364 0.1133151677342873
0.008030142436757972 -0.029686958274863166 0.11386765878638273
0.007744995907934676 -0.029123702115925538 0.1143441624271806
0.0074644507373244455 -0.02856419436993902 0.11466770013254776
0.007186212887394988 -0.028006566240865956 0.11491453408003974
0.006903360375108497 -0.027445178860862382 0.11531477624124889
0.006156403821270933 -0.02584378411755703 0.11313791534980897
0.00584972836712456 -0.025262989810366735 0.11433011901837443
0.005558835298116979 -0.02469505183483307 0.11499764496813086
0.005279443787847135 -0.02413648389730328 0.11528283079456042
0.005000052277577291 -0.02357791595977349 0.11556801662098998
0.004724121748328598 -0.02302216744761388 0.11573814681060673
0.004450517575674181 -0.022468314059629152 0.11583094041912927
0.0041769131981583656 -0.021914460253788924 0.11592373401124989
0.003905647111580219 -0.021362511545188687 0.11593880110790065
0.003632042896934815 -0.020808658122996763 0.11603159611235678
0.003360776782362679 -0.020256709391591732 0.11604666413962993
0.003091826909650798 -0.019706647293608222 0.11598472500972978
0.002869972868645326 -0.019194951211078105 0.1143571554276927
0.0025718136203003207 -0.018621094476370094 0.11526624934335379
0.002349959497859641 -0.018109398202015826 0.11363867905514896
0.0020682605364843384 -0.017548950415840033 0.11400056956187517
0.0018366027410792948 -0.01702926788273181 0.11269891254587215
0.001537207758786541 -0.016454404417050296 0.11364908505994628
0.0012543551766755253 -0.01589301688605211 0.11404932698234913
0.001022697323056633 -0.015373334242778813 0.11274767019490123
0.0007352649707113666 -0.01480821591645574 0.11330016124289619
0.0004535660745484081 -0.01424776824614622 0.11366205128841166
0.0002243238632433954 -0.013730053430667586 0.112280088883441
-6.196435721598711e-05 -0.013165867150618729 0.11279454481309122
-0.0003402022001469489 -0.012608239027246863 0.11304137852792757
-0.0005718601014819422 -0.012088556282360292 0.11173972162005141
-0.0008592925120410556 -0.011523437845872148 0.11229221289660146
-0.0013854381369452513 -0.01043288943278043 0.1117775984383542
0.00887571287447082 -0.029987147950229838 0.11309329683881895
0.008568304201726612 -0.029405756339817134 0.11430987536878391
0.008307371312890898 -0.028862225383204574 0.11398142927096701
0.008053335044537632 -0.02832431263329061 0.11342371434543473
0.007745851592846441 -0.027742860105566026 0.11464277880043457
0.0074999856995350365 -0.027211603203383138 0.11381345079823543
0.007257820538276738 -0.026683361035397 0.11286109696017042
0.006947636670791645 -0.026099708662959936 0.11416993308884528
0.006608332632118273 -0.02549233407161138 0.11644682995512277
0.006364931161762039 -0.024963084766858292 0.11553557554224705
0.006109752902752471 -0.02442424121304617 0.11501581089929121
0.005847666353576372 -0.023879770447976886 0.11472571668041191
0.005529846869751214 -0.023289897859279006 0.11628838855539546
0.005261955808646548 -0.02274069855392218 0.11619125749125384
0.004995235582195406 -0.02219245304776456 0.11605520361134396
0.004727344344223332 -0.021643253347357033 0.11595807160017803
0.00445596965495924 -0.021091216167549887 0.11597674904635534
0.004189249428508098 -0.020542970661392268 0.11584069516644546
0.003924855544654235 -0.01999662026800713 0.11562730517075256
0.0036627687906167364 -0.01945214908508235 0.11533721093547135
0.0034075909203344747 -0.018913306349877625 0.11481744702328613
0.003153554700970694 -0.018375393639872055 0.11425973046916471
0.0029006624865673576 -0.01783841274725876 0.11366397960279218
0.002657260945273662 -0.017309163259233318 0.11275272413476531
0.002349777441093736 -0.016727710688749738 0.11397179033468209
0.0020980332764615663 -0.016191665096787006 0.11333787581184897
0.0018486014843125077 -0.015657503205725707 0.11262708873745607
0.0015411179429142274 -0.01507605054218065 0.11384615446796117
0.0012916861798720923 -0.014541888706201888 0.11313536727929072
0.0010387940866690816 -0.014004907975064453 0.1125396140904627
0.0007953925359905738 -0.013475658510764958 0.11162835978776406
0.000498370838717831 -0.012902728398648575 0.11249963564865027
0.00025250496290267314 -0.012371471510718683 0.11167030706481215
-5.736244397062766e-05 -0.011788076811690645 0.1129686194747477
-0.0003171417678981608 -0.011245485460308265 0.11260182125713662
-0.0005677328718348739 -0.010710379251054624 0.11192957649643674
-0.001366539511769251 -0.009066745525249057 0.11147639481935309
0.009429112487319091 -0.02971835870571362 0.11302896566267134
0.009140532187633355 -0.029152305287667733 0.11361962037532784
0.008855385644813064 -0.028589049117327705 0.11409612448143691
0.008572533153522067 -0.02802766175442773 0.11449636594467928
0.008293141643252223 -0.027469093816897938 0.11478155177110885
0.008011442805303113 -0.02690864625675349 0.11514344158806922
0.007734358615714038 -0.026351957936137156 0.11535192365662357
0.007454967105444194 -0.025793389998607367 0.11563710948305313
0.007181362932789776 -0.025239536610622636 0.11572990309157567
0.006911258638806241 -0.024688534335272426 0.1157063479634872
0.006637654014438039 -0.024134680077369505 0.11579914293513947
0.006360569838845959 -0.023577991768155566 0.11600762453838262
0.006084639323594263 -0.023022243267398358 0.11617775426268817
0.005813373237016117 -0.02247029455879812 0.11619282135933895
0.0055668865349755275 -0.02193853192605202 0.11538413130436896
0.005356882439202519 -0.021436488935353663 0.11336261948057709
0.005049044751556187 -0.020854747835737795 0.1145934600311843
0.004761612450426269 -0.020289629613878597 0.11514595108327973
0.004481067265819046 -0.01973012185648968 0.11546948925395809
0.004203982885365567 -0.019173433129420242 0.11567797084079931
0.003975963041990795 -0.018656714187902664 0.11425537502594729
0.0036896748622490157 -0.018092528003765884 0.11476983130868139
0.0034545334552283065 -0.017570007484199974 0.11358397883965124
0.003168245166057331 -0.017005821085434247 0.11409843534683997
0.002888853655787487 -0.016447253147904455 0.11438362117326953
0.002656012692150259 -0.015926606705528815 0.11312129527950392
0.0023697244635794475 -0.015362420387501019 0.11363575062546491
0.0021345830762808486 -0.01483989994674359 0.11244989920748541
0.0018586525028153047 -0.014284151335821307 0.11262002916034608
0.0015769536101515966 -0.013723703668362387 0.11298191908953377
0.0013418122147415678 -0.013201183189626018 0.11179606708786505
0.0007974913948329242 -0.01209582862107144 0.11188566071855179
0.0005112031266574406 -0.01153164223940931 0.11240011652777374
-1.0218187880869922e-05 -0.010444942274523904 0.11172844534256413
-0.0013716264805980604 -0.007681061894212156 0.1119725805866903
0.010274506505154503 -0.030018404663829257 0.11226046855551565
0.009981457036628226 -0.029448710518505276 0.11299969474655652
0.009673113392597018 -0.02886655725070386 0.11424735513341983
0.009406393173144376 -0.02831831175024744 0.11411130102085433
0.009145460284308658 -0.027774780793634882 0.11378285492303743
0.008839139073115922 -0.02719427506403706 0.11496328226333992
0.008581667179298355 -0.026653563544197085 0.11451978006339901
0.008263196779207282 -0.02606316069837766 0.11610409076998231
0.007991822117937182 -0.025511123541375316 0.11612276728553723
0.007721602012815159 -0.024960026922583173 0.11610306214223838
0.007454881772367024 -0.024411781405023154 0.11596700872763968
0.0071881611501900785 -0.023863535074556935 0.11583095434961477
0.006910385467045932 -0.023306283441266947 0.11606242418690992
0.006640165319932924 -0.022755186788267615 0.11604272043954461
0.006369945242804891 -0.022204090192280267 0.11602301436562339
0.006102054139709239 -0.021654890852716248 0.11592588469741533
0.005835333708396699 -0.02110664492870313 0.11578983080110353
0.005570939838539831 -0.020560294546720388 0.11557644034009944
0.005313467930725268 -0.020019583015478015 0.11513293860546972
0.005055996043906198 -0.01947887150133924 0.11468943617287322
0.004800817996756528 -0.018940028371083818 0.1141696713136637
0.00455255327040958 -0.01840681730310865 0.11342008927390282
0.0042462320032288624 -0.017826311527901238 0.11460051847545007
0.003988760006980596 -0.017285599799133515 0.11415701626730819
0.003737015805130071 -0.01674955411410931 0.11352310127506339
0.003492379939764996 -0.016219299231867216 0.11265288265607168
0.0031837133058446243 -0.015636882783472812 0.11391127869862008
0.00292624131420854 -0.015096171089833427 0.11346777719049524
0.0026733491720160466 -0.0145591903187876 0.11287202563025639
0.0024124162319649816 -0.014015659257711168 0.11254357952833902
0.0018615843634625338 -0.012905000487485413 0.11284962161034387
0.0016075480753871595 -0.012367087658762972 0.11229190563376094
0.0013569570099421823 -0.011831981480865925 0.11161965959345527
0.0010494734348247955 -0.011250528727109991 0.11283872473822092
0.0007850794555387302 -0.010704178130498305 0.11262533450167146
0.0005264538978815309 -0.010162526799351 0.11222018429699597
-6.845652674045133e-06 -0.009066150319606172 0.11194338560233576
-0.0002643175464916124 -0.008525438799766196 0.11149988340239483
0.01054909582617839 -0.029191521506510457 0.11246198748255508
0.010252172900928311 -0.028618671919971795 0.11332998150771567
0.009969320395640323 -0.02805728454566942 0.11373022343626923
0.009686467890352329 -0.02749589717136705 0.1141304653648228
0.009400179724607546 -0.026931710998632667 0.11464492118224572
0.009117327219319554 -0.026370323624330293 0.11504516311079928
0.00883793570904971 -0.025811755686800504 0.11533034893722884
0.008562005193798013 -0.025256007186043292 0.11550047866153439
0.008286074664549323 -0.02470025867388368 0.11567060885115113
0.00801014414929763 -0.024144510173126472 0.11584073857545668
0.00774347421024039 -0.023596305130743796 0.11570299930561122
0.007474524472404933 -0.023046243393603796 0.11564106251866894
0.0071951329621350885 -0.022487675456074004 0.1159262483450985
0.006918048786543008 -0.021930987146860065 0.11613472994834168
0.006646782713961858 -0.021379038449662227 0.11614979657968125
0.0063778327712650015 -0.020828976294666728 0.11608785977633705
0.006104228584613588 -0.020275122895279597 0.11618065385017078
0.005832962470041452 -0.019723174163874566 0.11619572187744394
0.005561696383463306 -0.019171225455274332 0.1162107889740947
0.005148577182443064 -0.018172751715939368 0.11193875697313636
0.004845500541229067 -0.017594889116384006 0.11301132296926907
0.004551041940002708 -0.017024046921197994 0.11379739045922428
0.004264753706819713 -0.01645986056804186 0.11431184510516824
0.004030750504909896 -0.015938267392094935 0.11308815795878961
0.003741017137530208 -0.015371274585638752 0.11371714314196849
0.0034858746728078163 -0.01483246059881742 0.11319619965976481
0.0032530336916743443 -0.01431181414218878 0.11193387434763817
0.002957345124214754 -0.013739970040077647 0.11276083210950309
0.0026710569422471082 -0.013175783791385386 0.11327528675954752
0.002444263876176975 -0.012660064127619018 0.11181190583106462
0.0021556835182773935 -0.012094010599408053 0.11240256077227624
0.0018762920045083007 -0.01153544265902766 0.1126877467150336
0.0016026877224246854 -0.010981589056413985 0.11278054054801079
0.0010848652173195026 -0.009897820796312915 0.1119892318066962
0.0008020127120315105 -0.009336433422010543 0.11238947373524977
0.0002898565553121745 -0.008257281024290242 0.11140979148608725
0.011044461977705654 -0.028875456901738206 0.11432688639901095
0.010770807121931528 -0.028321562225669936 0.11442136489935405
0.010508720551759936 -0.027777091443497052 0.11413127137844153
0.01025812944782322 -0.027241985234243413 0.11345902661774164
0.009954057119856191 -0.026663311516546953 0.11456469287438896
0.00962847852770135 -0.026067118111080353 0.11638530581998656
0.009355958310351103 -0.025514147747609784 0.11644206479929983
0.009082303454576977 -0.024960253071541514 0.11653654329964293
0.008808648612799848 -0.024406358406875637 0.11663102133467483
0.008540757523701193 -0.023857159078714017 0.11653389120115559
0.008290166031037171 -0.023322052050852977 0.11586164570968506
0.008014380958562852 -0.022766422032414493 0.11602694038541085
0.007738595844097547 -0.022210791979768812 0.11619223645707022
0.0074672211548334555 -0.021658754799961665 0.11621091390324755
0.007200500928382313 -0.021110509293804047 0.11607486002333765
0.006932609704407234 -0.02056130960479892 0.11597772754686053
0.006665889477956093 -0.020013064098641297 0.11584167366695064
0.00640841757014153 -0.019472352567398925 0.11539817193232094
0.006153239699859268 -0.018933509832194204 0.11487840802013571
0.0059249010870102885 -0.01841653095994142 0.11346640243892037
0.005693552534219235 -0.01789710034571576 0.1121544650701316
0.005386203656638625 -0.017315757446347765 0.11336905579069104
0.005097933924829695 -0.016749956901301297 0.11394938268061938
0.00484618972297917 -0.01621391121627709 0.11331546768837458
0.004611357622511414 -0.0156916427931649 0.11211933615436541
0.004312277317166045 -0.015117035673347016 0.11305904765858409
0.004080928703298587 -0.014597604915253245 0.11174710976016951
0.0037812782705941147 -0.014022533351530388 0.11270577437796066
0.003234141504966373 -0.012914884761164484 0.1128889786118708
0.002978963536865594 -0.012376041852160354 0.11236921539150165
0.0027306987435566765 -0.011842830666893617 0.11161963387111538
0.002425515664787747 -0.011263252096217124 0.11276222553708214
0.00216458267702058 -0.010719720933527417 0.11243377931473648
0.0019071106807723136 -0.010179009204759693 0.11199027710659461
0.0010924367916064128 -0.008522449512366918 0.11206458068691143
0.0008349648977888455 -0.007981737992526942 0.11162107848697052
0.011091356367387648 -0.027532118940922033 0.11309502215125043
0.01080046368710737 -0.02696418178399577 0.11376254883177749
0.010510730370943033 -0.026397189082003465 0.11439153401905683
0.01022787786565504 -0.02583580170770109 0.1147917759476104
0.009948486355385196 -0.025277233770171298 0.11507696177403996
0.009670248505455737 -0.024719605641098236 0.11532379572153191
0.009397815139460853 -0.024166706029507913 0.11537766744490859
0.00912073094987178 -0.023610017708891578 0.11558614951346292
0.0088436463645569 -0.023053328563966642 0.11579463108390224
0.008570042177905489 -0.022499475164579515 0.11588742515773598
0.008296437991254076 -0.02194562176519239 0.1159802192315697
0.008022833832596651 -0.021391768388610056 0.11607301237478107
0.007746903303347962 -0.020836019876450448 0.11624314256439781
0.00752356287052516 -0.02032311268083629 0.11466497924284746
0.007236130527404256 -0.019757994424769894 0.11521747169087646
0.006954431682456648 -0.01919754685892425 0.11557936174049242
0.006678501167204952 -0.018641798358167042 0.11574949146479797
0.006407234847771417 -0.018089849208906512 0.1157645594756692
0.006138285179920935 -0.0175397875287785 0.11570262036217097
0.005907828025770747 -0.01702108307627625 0.1143610496502197
0.005681034965586177 -0.01650536338593334 0.11289766767273637
0.005429798007844086 -0.01596973091811531 0.11224689003560599
0.00512794370672679 -0.015392864075733585 0.11327882098711743
0.004896285856607148 -0.014873181435310887 0.11197716408334175
0.0045981264859488846 -0.014299324506849275 0.11288625950511347
0.0040546463128498045 -0.01319465469321769 0.11294790526199674
0.0035383336485095476 -0.012112116366120222 0.11210640305153685
0.0032554810920062066 -0.011550728887353973 0.11250664497598996
0.0027310413359455023 -0.010461570003868716 0.11193531780001315
0.002452803383585343 -0.009903941665867902 0.11218215173930414
0.0019076335991527254 -0.008797895566515258 0.11229996975496927
0.011925069394065355 -0.02782264919160743 0.11271484380921958
0.011594039318696254 -0.02722201483428773 0.11471668394703763
0.011329645441840886 -0.02667566444660379 0.11450329371868914
0.011052862873501903 -0.02611922183626425 0.11470174879640092
0.0107907763243258 -0.025574751071194966 0.11441165457752163
0.010535598468040535 -0.025035908347392645 0.11389189020002523
0.010290962564183725 -0.024505653433793958 0.11302167286063929
0.00999262224021075 -0.023931649189112246 0.11393678639084315
0.009737924144933796 -0.023393197293907417 0.11340107300698357
0.009412152558398865 -0.022796846167134278 0.11522808813644646
0.009103722853842523 -0.022214622791688104 0.1164786094891641
0.008831202664486263 -0.02166165245102233 0.11653536753785498
0.0085668087806324 -0.02111530205763719 0.1163219775421621
0.008297750496098977 -0.020565151894899873 0.1162636492435016
0.00803335642138071 -0.020018801095061635 0.11605025876609561
0.007773577192885379 -0.0194762099469058 0.1156834607893411
0.007512644304049664 -0.018932678990293248 0.1153550146915242
0.007245924077598522 -0.01838443348413563 0.11521896081161431
0.006988451978919556 -0.017843721546440153 0.11477545859527148
0.006743816043569505 -0.017313466607186072 0.11390524230283572
0.006510167074115578 -0.016792162000279824 0.11266977917717749
0.006209999577934279 -0.016216669157438336 0.11364563116480077
0.005970302575876387 -0.01569043750506193 0.11261122329626422
0.0054368654485338515 -0.01459394913911136 0.11233900327601928
0.005156161884586866 -0.014034312266754646 0.11266780399378287
0.004616057569782481 -0.01293239253480916 0.11261722390385792
0.004069819970015022 -0.011825476402219872 0.11277053573055003
0.0038146420590151565 -0.011286633571103072 0.11225077146528094
0.00326840448485537 -0.010179717490745721 0.1124040832940233
0.0030132264911469156 -0.009640874529509654 0.11188432007160388
0.002197685523119352 -0.007983608487060182 0.11198744851688987
0.012471887002358968 -0.027548498582217792 0.11286930857795283
0.012183306716670231 -0.026982445175574295 0.11345996282529813
0.011898160208842426 -0.026419189033740267 0.11393646576812921
0.011586993559833898 -0.02583473605617316 0.11527797314040113
0.011361433142486999 -0.025320020641429256 0.1137736170309675
0.011069373469728389 -0.024751132815262068 0.11447993879934103
0.010787674631779279 -0.024190685255117625 0.1148418286163014
0.010538447241090279 -0.023656689970109092 0.11412424905162913
0.010289088943503447 -0.023122588044172276 0.11341102130986533
0.009991893356475713 -0.022549515836727645 0.11428806595385932
0.009742387824496114 -0.022015293968965143 0.11357973282050766
0.00943230123962708 -0.02143172084604552 0.11488533492008123
0.009144868931498663 -0.020866602618485122 0.11543782620483226
0.008868938416246967 -0.020310854117727914 0.1156079559291378
0.008589546701115724 -0.01975228576234262 0.11589314173916544
0.00831828061453758 -0.019200337053742383 0.1159082088358162
0.007860994208424902 -0.018165883553406686 0.11310446270649935
0.007557917393842746 -0.01758802056165122 0.11417702763927995
0.007265857756076623 -0.01701913276399003 0.1148833482443755
0.007028525627797096 -0.016494827738597857 0.1137703267563836
0.006745673020078406 -0.015933440155367733 0.1141705686767362
0.006520112465308319 -0.015418724503190087 0.11266621372237959
0.006261552375097032 -0.014877126503909327 0.11225888714093864
0.005956060007747635 -0.014297295914162293 0.11341175898109898
0.005726817810439617 -0.013779581110086056 0.11202979611081713
0.005160419912655054 -0.012656241788008683 0.11285331065342143
0.004631772501250773 -0.011563655183097916 0.11242186043969389
0.0038420753634794544 -0.009927442410629254 0.11166584738063896
0.003561530083440029 -0.009367934450013788 0.11198938531046075
0.0022205664843010925 -0.006620708968243189 0.11155386434592461
0.01330707844317757 -0.027840232923314008 0.11243998930651151
0.013009550746255583 -0.027266890670509764 0.1133280881486048
0.012686425253486778 -0.026672695637932897 0.11506715112027886
0.012424338697312179 -0.026128224867162417 0.11477705713405516
0.012156447636207515 -0.025579025561805593 0.11467992606991355
0.011892053759352147 -0.025032675174121652 0.11446653584156506
0.011633428212192695 -0.02449102385152615 0.11406138528790616
0.01133499453875932 -0.023916943561400866 0.11497960209476679
0.011084403399830117 -0.02338183732364123 0.11430735849734489
0.01077453614787625 -0.022798442876299934 0.11560566917056442
0.010523944641215234 -0.022263335837036494 0.11493342414440508
0.010206708671125489 -0.02167393859721207 0.11647669789382639
0.009934188481769229 -0.0211209682565463 0.1165334559425173
0.009669794597915365 -0.020574617863161157 0.11632006594682441
0.0094019035368107 -0.020025418557804334 0.11622293488268279
0.00912824849017217 -0.019471523475282963 0.11631741290131276
0.008865008280655687 -0.01892611290175695 0.11606567056137107
0.008600614382804827 -0.01837976249696941 0.11585228103098938
0.008337374173288344 -0.017834351923443403 0.11560053869104768
0.008074133758910461 -0.017288940932061892 0.11534879633470407
0.007816661865092894 -0.016748229412221913 0.11490529413476316
0.007559189964276829 -0.01620751788668074 0.11446179216747786
0.007305153593492866 -0.015669604927839028 0.11390407723374461
0.0070691207073485685 -0.015146358180985925 0.11274786078341634
0.00675681612712304 -0.014560978208406959 0.1141271971411756
0.006506225013961961 -0.014025871928896639 0.11345495098044166
0.006279404618758652 -0.013510130001947968 0.11199247857205807
0.005971921098355865 -0.012928677355506507 0.1132115436045964
0.005440271220612923 -0.011833644877260466 0.1128799071800504
0.004900300915427133 -0.010731834282447311 0.11282487126811566
0.004648556763518576 -0.01019578876359186 0.11219095802898879
0.0041000702351956225 -0.009087040488060794 0.11241902988623516
0.003837983686019524 -0.00854256972299151 0.11212893566735586
0.003582805794741769 -0.008003726970683193 0.11160917245313744
0.013572812205516298 -0.027006135473010562 0.11293590626521534
0.013275889245273736 -0.0264332858579659 0.11380390145365389
0.012993036739985742 -0.02587189848366353 0.11420414338220745
0.012715952557395167 -0.02531521016874839 0.11441262521810622
0.012437714707465705 -0.024757582039675326 0.11465945916559818
0.012166448627886059 -0.02420563333677629 0.11467452602959334
0.011883596122598067 -0.023644245962473918 0.11507476795814692
0.011600743617310075 -0.023082858588171544 0.1154750098867005
0.011322505767380617 -0.02252523045909848 0.11572184383419244
0.011044267507728358 -0.02196760149431442 0.11596867774888055
0.010768337006473658 -0.021411853004959607 0.1161388070078749
0.010497070919895511 -0.020859904296359373 0.11615387410452567
0.010247504375013728 -0.020325632725543524 0.11544756926265311
0.01003848360505269 -0.019824391034338862 0.11339337492786974
0.00973180796704041 -0.019243596326396665 0.11458557788206651
0.009443227660356178 -0.01867754290264957 0.1151762328273786
0.009161528829405567 -0.018117095348206325 0.11553812241168339
0.008884444639816491 -0.01756040702758999 0.11574660448023773
0.0086120110969542 -0.017007507020948966 0.11580047525659008
0.008396112301518864 -0.016500662271131596 0.11397493158360561
0.008108679965396458 -0.015935544020766402 0.11452742379897901
0.007872427805824225 -0.015412118646795162 0.1133784967974322
0.007580368030634914 -0.014843230611700228 0.11408481855760479
0.00729751553234542 -0.014281843243099054 0.11448506025350275
0.007103815230768595 -0.013793082030646487 0.11192155594497225
0.006804420219368917 -0.013218218509882437 0.1128717285733239
0.006536224577923053 -0.012668771020936736 0.11278472116432418
0.006251078022379148 -0.012105514777489432 0.113261223986727
0.006019420172259506 -0.011585832137066734 0.11195956708295131
0.005475502116048895 -0.010480805578535047 0.11203576881877117
0.004394878811459609 -0.008276628307197774 0.11194839394824894
0.0038581660831208202 -0.0071774713441228955 0.11178506173635842
0.014119160998451865 -0.026731602951698748 0.11310595616696084
0.013804344625940084 -0.02614417679312419 0.1145687936647929
0.013525573567476046 -0.02558611429539646 0.11483335340942868
0.013261179690620682 -0.025039763907712523 0.11461996318108021
0.012996785806766817 -0.02449341351432738 0.11440657318538731
0.01273469925759072 -0.0239489427492581 0.11411647896650802
0.012411433053028921 -0.023354633088373076 0.11586021971157948
0.012135647938563615 -0.02279900303572739 0.11602551578323886
0.011861993068792497 -0.02224510834825672 0.11611999474889313
0.011592934374536276 -0.021694957349808405 0.1160616664174288
0.01132621419007612 -0.021146711877857983 0.11592561114158534
0.011052559306308003 -0.020592817178984913 0.1160200905725508
0.010784668203212352 -0.020043617839420894 0.11592296090434276
0.010521427993695869 -0.019498207265894883 0.11567121856440107
0.010257033904980607 -0.018951856454654244 0.11545782855230625
0.00999956201116304 -0.01841114493481427 0.11501432635236535
0.009750130313333247 -0.01787698321470178 0.11430353870248418
0.00950920088729608 -0.017349747715984267 0.11331010451698867
0.00927555171648 -0.016828442694073117 0.11207464125860071
0.008960803964237304 -0.016241072435755278 0.1135351975683217
0.008695311568204241 -0.01569382715936195 0.11335832612547614
0.00841952637230373 -0.015138196914892117 0.11352362149096774
0.008116533964054509 -0.014560402808708198 0.11459338386264935
0.007864789836640691 -0.014024357309806943 0.11395946980922789
0.007611897708445194 -0.013487376550163514 0.11336371778367786
0.007359005572138266 -0.012950395752541147 0.11276796517443861
0.006825863957630787 -0.011854148058015716 0.11248591952266827
0.0062917429967492685 -0.010757102525371234 0.1122364300642529
0.005475539539166604 -0.009099296860572467 0.11236158378618277
0.00522150320337513 -0.008561383930236751 0.11180386768917155
0.004416273832227117 -0.0069125180430240785 0.1115642010314845
0.00360302083943864 -0.005257116109044007 0.11159127565870242
0.014676032399476768 -0.026465642345658305 0.11292619965860184
0.014386299069315437 -0.025898649632263602 0.11355518531119237
0.01409886676118702 -0.025333531404703204 0.11410767659594338
0.013817167916239414 -0.02477308383885756 0.11446956664555935
0.013553626085472838 -0.02422742755505475 0.11422785129646024
0.013273080907864113 -0.023667919803367035 0.11455138923448299
0.012992535730255389 -0.023108412051679315 0.11487492717250575
0.012711990552646662 -0.022548904299991596 0.11519846511052853
0.012422257222485331 -0.021981911586596892 0.11582745076311905
0.012150990740181382 -0.021429962053688058 0.1158425173616548
0.011680519290540292 -0.02038476759695769 0.1134770901859221
0.011391939004851553 -0.019818714190314196 0.1140677444332674
0.011097480506055893 -0.019247872204055935 0.11485381193142359
0.010811192121452717 -0.018683685602063654 0.11536826819775577
0.010530646936845493 -0.018124177844674735 0.11569180636843412
0.010259380864264341 -0.0175722291474769 0.11570687299977371
0.009986947526263449 -0.017019329558691378 0.11576074379252799
0.009761386834070174 -0.016504613669079984 0.11425638999324839
0.009476240312245374 -0.015941357515843555 0.11473289340139066
0.009236570727754361 -0.015415148324174802 0.11369757748626695
0.008946837309159324 -0.014848155413254748 0.11432656266534533
0.0086662920291199 -0.01428864745263928 0.11465010059516713
0.00844073158377901 -0.013773932015090579 0.11314574541635587
0.00821027438191272 -0.013255227460975053 0.11180417458397632
0.015507878341729175 -0.02675465140527896 0.11260809522813676
0.015211340949715558 -0.026182115886393742 0.11346327272186817
0.014907751749034193 -0.02560383573957152 0.114552878064811
0.01463753163691367 -0.02505273911507818 0.11453317315416774
0.014378906075757222 -0.02451108778108028 0.11412802306582004
0.01412601403376956 -0.023974107154406718 0.11353226988109251
0.013888766258381756 -0.023449870845566736 0.11241644419521146
0.013233321822428841 -0.02225399150289834 0.11620019397341294
0.012961947119167755 -0.0217019543116888 0.11621887188490145
0.012686161594979652 -0.02114632342333212 0.11638416792375697
0.012410376522505331 -0.020590693404893633 0.11654946259948276
0.012136721638737216 -0.020036798706020566 0.11664394203044823
0.0118757887499015 -0.019493267749408006 0.11631549593263134
0.011613702200725402 -0.018948796984338726 0.11602540171375204
0.011351615446687903 -0.01840432580141394 0.11573530747847083
0.01108722156283404 -0.0178579754080288 0.11552191748277793
0.01082513501365794 -0.017313504642959516 0.11523182326389864
0.010560741129804077 -0.01676715424957438 0.11501843326820575
0.010300961703445844 -0.01622456268926425 0.11465163504239372
0.010045783861157573 -0.015685719976864326 0.11413187019958612
0.009803618703398522 -0.015157477811728786 0.11317951624519332
0.009494951997267307 -0.01457506124176691 0.114437912981608
0.009235172673339774 -0.014032469890384532 0.11407111476399695
0.008977700779522207 -0.013491758370544555 0.11362761256405604
0.00873183484899245 -0.01296050137530019 0.11279828409244524
0.008424351306481236 -0.012379048679477393 0.11401734900660554
0.00816341834543468 -0.011835517601297363 0.11368890360265493
0.007903639072722495 -0.01129292635437886 0.11332210538914436
0.007633418909386625 -0.010741829625421645 0.11330240047440061
0.007374793271407153 -0.01020017813472793 0.11289725037990217
0.007120756986831027 -0.009662265308856086 0.11233953428699146
0.006867864895853884 -0.009125284642274134 0.1117437827308531
0.01605186041024452 -0.026478190738458047 0.11285682716016952
0.015753701154901014 -0.02590433399804884 0.1137659213084862
0.015472002316951906 -0.02534388643790439 0.11412781112544657
0.015186855774131612 -0.024780630267564368 0.11460431523155563
0.014908617924202155 -0.024223002138491306 0.1148511491790476
0.01463268740195196 -0.02366725363203289 0.11502127913600874
0.014359083222299045 -0.023113400238346966 0.11511407297718687
0.014086649891296649 -0.02256050065526264 0.11516794353728556
0.013810719376044953 -0.022004752154505428 0.11533807326159112
0.013519826674769187 -0.02143681498047557 0.11600560064008496
0.013293033279298526 -0.020921094640544615 0.11454221956862112
0.013002140620013744 -0.02035315750072195 0.1152097455511814
0.012735471062685313 -0.019804953271245478 0.11507200724476215
0.012454925892075086 -0.019245445525258958 0.11539554495012933
0.012182492554074192 -0.01869254593647343 0.1154494157428836
0.011911226234640658 -0.0181405967872129 0.11546448375375483
0.011637622047989245 -0.017586743387825773 0.11555727782758855
0.01136981788023093 -0.017037614868556393 0.11545725811157675
0.011144257406896051 -0.0165228994082029 0.11395290386338788
0.010859110694206848 -0.01595964284851337 0.11442940678981704
0.010629868577221101 -0.015441928203983544 0.11304744380935812
0.010342436220103203 -0.014876809936514754 0.1135999367226983
0.010059583612384512 -0.014315422353284632 0.11400017864305091
0.009834023075110668 -0.013800706715359982 0.1124958231070553
0.009530946454892164 -0.013222844132908218 0.11356838840522121
0.009299288604772523 -0.01270316149248552 0.11226673150144553
0.009034543197041795 -0.012156524642441116 0.11206502488195462
0.01688709700411181 -0.02676996199908334 0.11242600336127194
0.016554051996544052 -0.026167686213820134 0.11449482719701662
0.016272498874313722 -0.025607357358341177 0.11485187289182902
0.016012719652816892 -0.025064766215886543 0.11448507468241892
0.015757541740543644 -0.02452592344647463 0.11396531216616727
0.015450058260858459 -0.023944470895945244 0.11518437755178948
0.015185664377004594 -0.023398120502560106 0.1149709875560966
0.014933920277584771 -0.02286207502646365 0.11433707257205275
0.014679884044223995 -0.022324162305055684 0.1137793564832425
0.014357784797148044 -0.02173080328490558 0.11548430330374546
0.014087564650035038 -0.02117970663190625 0.11546459955638017
0.013820844055852082 -0.020631460324244823 0.11532854424773287
0.013559911167016367 -0.02008792936763227 0.11500009814991596
0.013295517290161001 -0.01954157897994833 0.11478670792156746
0.01304148104280323 -0.019003666247137962 0.11422899229806843
0.012730398760683416 -0.018419281997525443 0.11556769500714001
0.012462507494717352 -0.01787008227431312 0.11547056392659646
0.012200420945541253 -0.017325611509243832 0.11518046970771717
0.01193136266100783 -0.016775461346506516 0.11512214140905669
0.011673890760191765 -0.016234749820965344 0.11467863944177137
0.011418712685048104 -0.015695906667905123 0.11415887551318424
0.011170447923708667 -0.015162695571423964 0.11340929463670132
0.010933200162317856 -0.014638459273986376 0.1122934684855091
0.010634766365458289 -0.014064378757829748 0.11321168598213555
0.010395069328407908 -0.013538147076947346 0.11217727927687698
0.010085202055458549 -0.012954752612502453 0.1134755906480633
0.009849169224028849 -0.012431505972963821 0.11231937408550771
0.009301540910809886 -0.011323456920903476 0.11251891830145853
0.007643461668184481 -0.007986932064336271 0.11362266672431547
0.017140454475046786 -0.025925782564041794 0.11333334992676533
0.016841059536970883 -0.025350919197122956 0.11428352267759553
0.016559360699021773 -0.02479047163697851 0.1146454124945559
0.01627996918875193 -0.02423190369944872 0.11493059832098546
0.01604712825533456 -0.023711257344433356 0.11366827312928712
0.01575854796964582 -0.023145203937789863 0.11425892737663243
0.01547225982489653 -0.02258101778215908 0.11477338249608854
0.015194021974967071 -0.022023389653086017 0.11502021644358049
0.014926217765217771 -0.02147426109960944 0.11492019812350227
0.014650287249966077 -0.020918512598852232 0.11509032784780782
0.014374356324991582 -0.02036276326238402 0.11526045753930951
0.014100752138340169 -0.019808909862996896 0.11535325161314325
0.013829486023768033 -0.019256961131591865 0.1153683196404164
0.01355705268576714 -0.01870406154280634 0.11542219043317069
0.013283448513112722 -0.01815020815482161 0.11551498404169323
0.013006364118662248 -0.017593519416349776 0.11572346609384565
0.012732759932010835 -0.017039666016962645 0.11581626016767939
0.012505966960259969 -0.01652394652414509 0.11435287866370822
0.012206572008187071 -0.015949083145823852 0.1153030518798496
0.01198471779031419 -0.015437386668243033 0.11367548135078823
0.011749576468227935 -0.014914866343351877 0.11248962947159803
0.011485405133098892 -0.01436869724524603 0.1122688411443051
0.011218266748962187 -0.013820110969035218 0.11214668493817441
0.009858960448164769 -0.01105794284417528 0.1123209397415711
0.008792486935885304 -0.008865292412945617 0.11176317329466393
0.01796688057429263 -0.02621037644693027 0.11319542085257477
0.017680450786950165 -0.02564607490473185 0.11371458468862243
0.017385998110904518 -0.0250752376618712 0.11450045861732341
0.017131961877543744 -0.02453732494046323 0.11394274252851316
0.01682329529483872 -0.023954908596532702 0.11520113857516204
0.01657742940152732 -0.023423651694349817 0.11437181057296293
0.01631880384037087 -0.02288200036035191 0.11396666048461522
0.016007721565249555 -0.02229761611644059 0.11530536296103121
0.015744481348734574 -0.02175220553721338 0.11505362085374511
0.015482394799558473 -0.021207734772144094 0.11476352663486582
0.015218000915704612 -0.020661384378758956 0.11455013663917293
0.014958221284484978 -0.020118792400593326 0.11418333839695897
0.014634955044930693 -0.019524482711202308 0.1159270803053084
0.01436358038366059 -0.01897244555419996 0.11594575682086333
0.014094522071133177 -0.018422295368657846 0.11588742945282524
0.013827801858679031 -0.017874049873902623 0.11575137510760417
0.013557581534698614 -0.017322952825852587 0.11573167041321457
0.013298955980540662 -0.01678130149755588 0.11532652009221125
0.013035715757027184 -0.016235890912627473 0.11507477821758078
0.012777090202869231 -0.01569423958433077 0.11466962789657746
0.012523053778644053 -0.015156326456469702 0.11411191132605411
0.01227246269570283 -0.014621220264319659 0.11343966586738742
0.011963796092002316 -0.014038803903285532 0.11469806261200309
0.011694737705038193 -0.013488653531620466 0.11463973430514163
0.011430343725752128 -0.012942302935008778 0.11442634406859219
0.011165949848896763 -0.01239595254732484 0.1142129538402437
0.010902709581166431 -0.011850541863633752 0.11396121172885713
0.010659308026988674 -0.011321292396483657 0.11304995754248628
0.010407563862356504 -0.010785246804520926 0.11241604301965315
0.018530324194440163 -0.025949769779908708 0.1127971798013054
0.01822846989332287 -0.025372902937526986 0.11382911075281683
0.01793873657715853 -0.02480591023553468 0.11445809594009619
0.01769522984939821 -0.024276575184747833 0.1135503406673725
0.01739215321168346 -0.023698712588043073 0.1146229065471774
0.01710700672485115 -0.02313545646331264 0.11509940879204171
0.016817273387691317 -0.022568463744216734 0.11572839467728784
0.016588031270705572 -0.02205074909968691 0.1143464316968289
0.016308639760435728 -0.02149218116215712 0.11463161752325846
0.016026940915488123 -0.02093173359631147 0.11499350757287444
0.015749856732897544 -0.020375045281396335 0.11520198940877319
0.015469311152564518 -0.019815536699698814 0.11552552708133651
0.015193380623315827 -0.01925978818753921 0.11569565727095324
0.014924430885480369 -0.018709726450399207 0.11563372048401097
0.014659891600840115 -0.018163257608902538 0.11542516414096428
0.014381653750910654 -0.017605629479829476 0.11567199808845623
0.01410572303079756 -0.017049880561216764 0.11584212779635986
0.013833289734787653 -0.016496981006638434 0.11589599719318056
0.013562023620215517 -0.015945032275233403 0.11591106522045372
0.01329075753363737 -0.015393083566633168 0.11592613231710448
0.013070133294721335 -0.01488238906908475 0.11425767279983969
0.012845808521615097 -0.014368680249493882 0.1127122393674983
0.012548885596365023 -0.013795830662955219 0.1135802333926589
0.01231722769503003 -0.013276147918068647 0.11227857648478272
0.01203964999843085 -0.012719057445439512 0.11250346111358216
0.010700868487743476 -0.009973609531048769 0.11199539871404673
0.009309675163226047 -0.00718546522108225 0.11322969452828648
0.01905614197432793 -0.025658512041466623 0.11364975548582461
0.01877232894623816 -0.025096342194697797 0.11408192869685463
0.018486802734922404 -0.024532776734309134 0.11457105436900411
0.018186635309678567 -0.02395728407474 0.11554690741177853
0.017932599055322296 -0.023419371336228435 0.11498919202093506
0.01767970701333464 -0.02288239070955488 0.11439343883620756
0.0173733858021419 -0.022301884979957054 0.11557386617651003
0.01712049370416626 -0.021764904307673905 0.11497811485302727
0.016888007013702525 -0.02124454653025102 0.11370401333306593
0.016586871073372634 -0.020668264887446112 0.11471206335100655
0.01635322212141495 -0.020146960294792862 0.11347659964370932
0.01604573822500847 -0.01956550690285128 0.11469566522918327
0.01573220684664326 -0.01897912754143488 0.11611578483317793
0.015472427618147929 -0.018436536393279055 0.11574898685642343
0.015208033734294066 -0.017890185999893914 0.11553559686073055
0.014944793524777582 -0.017344775426367903 0.11528385452078885
0.0146815531034012 -0.016799364429285195 0.11503211239710083
0.014421773881904368 -0.01625677328683056 0.11466531418769073
0.014168881783928727 -0.015719792614547413 0.11406956286420798
0.01393639507596875 -0.015199434822871529 0.11279546192588562
0.013651405490048686 -0.014636306263652542 0.11326674138521882
0.013342738872351174 -0.01405388989121602 0.11452513859514567
0.013090994737938861 -0.013517844386613565 0.11389122477437981
0.012841562958673863 -0.012983682474676924 0.11318043641833088
0.012607913836050129 -0.012462377617509235 0.11194497497122476
0.012318826304503332 -0.011895910992234263 0.11255249192161955
0.01201250505609224 -0.011315405169574964 0.11373291879251037
0.011753879418112768 -0.01077375367888125 0.11332776869801194
0.0115092434840361 -0.010243498677922286 0.11245755065655871
0.01962573912798673 -0.0254029181024125 0.11304695200434844
0.019317901440340398 -0.024821177002796638 0.11427779255495567
0.019030469139210478 -0.02425605878093744 0.1148302836070511
0.018736010633416324 -0.023685216788977975 0.11561635133786287
0.018453158128128328 -0.023123829414675605 0.11601659326641645
0.018218016753553345 -0.022601309047025456 0.11483074313214321
0.01792595711578722 -0.022032421249364265 0.11553706373723878
0.017644258270839614 -0.021471973683518622 0.11589895378685473
0.017410255110920782 -0.02095038054177889 0.11467526524454254
0.017122822802792367 -0.020385262314218493 0.11522775652929357
0.016884671276415412 -0.01986028978103877 0.11414197482370059
0.016587747958938782 -0.019287439373042108 0.11500996823441834
0.016302601402121492 -0.018724183191299683 0.11548647280583858
0.01604549755929335 -0.018183771497517917 0.11503073524814532
0.015762645054005358 -0.017622384123215543 0.11543097717669891
0.015485560878413279 -0.017065695814001604 0.11563945877994206
0.015211956486900467 -0.01651184199675898 0.11573225283737387
0.01493835231424605 -0.01595798860877425 0.11582504644589642
0.014498244959256577 -0.014937529710626892 0.11245020597808421
0.014227920196696293 -0.014386347583583382 0.11243397320314201
0.013960781932486531 -0.013837761530553315 0.1123118164235733
0.013650695393107731 -0.013254188444691485 0.11361741701088551
0.01336554874785674 -0.01269093206542371 0.11409392110879361
0.013078116344296122 -0.012125813634636764 0.11464641215268807
0.012797896295890966 -0.01156657074355346 0.11495914160972392
0.012531226729338173 -0.011018366443820305 0.11482140190327064
0.02046047302864831 -0.025694280720599927 0.11263287034406785
0.02016105169161804 -0.02511939484437655 0.11358389338549084
0.01982729058902648 -0.02451653570529972 0.1156765228325574
0.01956635770718926 -0.023973004754388363 0.11534807650208492
0.019320491827874858 -0.02344174786360787 0.11451874803457461
0.01901300832719418 -0.022860295295974893 0.11573781411816358
0.018707825281668113 -0.022280716752379096 0.11688040467901628
0.01844343139781425 -0.021734366358993958 0.11666701468332338
0.01818134484863815 -0.021189895593924674 0.11637692046444409
0.017921565606145825 -0.020647304434366447 0.11601012295300077
0.017666387735863563 -0.020108461699161723 0.11549035904081556
0.0174254582888309 -0.019581226183340614 0.11449692555328683
0.017114375603986785 -0.01899684110371829 0.11583562799689898
0.016852289054810687 -0.018452370338649007 0.11554553377801968
0.016592509826315355 -0.017909779190493177 0.11517873580126517
0.016358860860360678 -0.017388474586437528 0.11394327255927916
0.016047778599236357 -0.016804090353928606 0.11528197457038396
0.015794886303397815 -0.016267109269491153 0.11468622299784367
0.015552721138640264 -0.015738867098654415 0.11373386927610646
0.015317889041671756 -0.015216598678392826 0.11253773762576949
0.015008705353975164 -0.014633761084266655 0.11381332412903761
0.014724971288028983 -0.014071655311606016 0.11424286552357264
0.014476706547685039 -0.013538444232228455 0.11349328394912295
0.014240673746475196 -0.013015197680050102 0.11233706808863463
0.013940506246794649 -0.012439704834358016 0.1133129201925857
0.013416826699037822 -0.011351165240769314 0.11271632091890647
0.012890862840547444 -0.010260764743531903 0.11219565961516058
0.012584541574640108 -0.009680258906619606 0.11337608706769037
0.012325915962268308 -0.00913860746815783 0.11297093697524219
0.012070738054767691 -0.008599764639891632 0.11245117259364529
0.011815560090166162 -0.0080609217337381 0.11193140925694835
0.02073070456829827 -0.024863846571905455 0.11297923051672588
0.02042641297040255 -0.024284994229941462 0.11409218610582687
0.02012212135151134 -0.02370614187087387 0.11520514239289466
0.019832388021350008 -0.023139149157479163 0.1158341280454852
0.019547241534517694 -0.02257589303274873 0.11631063029034949
0.01926900369858523 -0.022018264915078068 0.11655746377253026
0.01899076584865577 -0.021460636786005 0.11680429772002221
0.01875058101377506 -0.020934007854958355 0.115786110607785
0.018522236727049484 -0.02041702461155387 0.11437430047367154
0.01821916013132572 -0.019839162049056298 0.11544686495754289
0.01793287193758695 -0.01927497585351712 0.11596132170558816
0.017661605413292012 -0.01872302628640109 0.11597638970005747
0.017398063624516423 -0.018177370036805477 0.11573467295502478
0.017111775444774643 -0.0176131838526687 0.11624912923775886
0.016881318318618447 -0.017094479422971244 0.11490755759518521
0.016595030201863148 -0.016530293290145257 0.11542201178401894
0.016313331166051135 -0.01596984531784651 0.11578390135192179
0.016032785981443913 -0.01541033756045759 0.11610743952260014
0.01576151988086877 -0.014858388840454958 0.11612250708456211
0.015493715657122476 -0.014309260275575986 0.11602248922979506
0.015332733349699791 -0.01384715199498494 0.11237131430127133
0.015027241047562742 -0.013267321521104181 0.11352418568022095
0.014712732489971434 -0.01268014611836758 0.11497679028700869
0.014436801872289039 -0.012124397408682621 0.11514692000311327
0.014166697489871798 -0.011573394935807061 0.11512336440151265
0.013944308644674294 -0.011061263184748893 0.11351357366209512
0.013653633699425863 -0.010493503338972093 0.1141738603290542
0.013356166966577028 -0.009920210655330176 0.1150599299428953
0.02124249185115358 -0.02456115914371708 0.1142982311140092
0.02097627794500919 -0.024013326102207366 0.1141453452997523
0.02068661479578191 -0.023446390560436767 0.11477199788203403
0.020383622524955878 -0.02286859669168659 0.1158417590986386
0.02013187843253455 -0.02233255122129133 0.11520784388193916
0.019818346984184363 -0.021746171802862944 0.1166279658124898
0.01955856775568903 -0.021203580654707115 0.11626116783573529
0.019307976686744808 -0.02066847447395947 0.1155889219117574
0.019074327720790128 -0.020147169869903826 0.11435345866977138
