ply
format ascii 1.0
element vertex 618
property float x
property float y
property float z
property uchar red
property uchar green
property uchar blue
end_header
-0.018005531281232834 0.04299505054950714 0.16609999537467957 93.0 111.0 107.0
-0.017698349431157112 0.04330567270517349 0.1673000007867813 99.0 117.0 113.0
-0.01739521138370037 0.04364217445254326 0.16859999299049377 107.0 120.0 107.0
-0.0 0.0 0.0 110.0 123.0 110.0
-0.016670599579811096 0.04405633360147476 0.17019999027252197 117.0 125.0 112.0
-0.016340157017111778 0.04436695575714111 0.17139999568462372 118.0 126.0 113.0
-0.016012711450457573 0.044703464955091476 0.17270000278949738 118.0 126.0 113.0
-0.015642426908016205 0.04493642598390579 0.1735999882221222 119.0 127.0 114.0
-0.015214943327009678 0.04501408338546753 0.17389999330043793 121.0 126.0 114.0
-0.014760428108274937 0.04501408338546753 0.17389999330043793 120.0 125.0 113.0
-0.014314140193164349 0.04503996670246124 0.17399999499320984 117.0 125.0 112.0
-0.013875293545424938 0.04509173706173897 0.17419999837875366 118.0 126.0 113.0
-0.01341999415308237 0.04509173706173897 0.17419999837875366 120.0 125.0 113.0
-0.01297213789075613 0.04511762410402298 0.17430000007152557 117.0 122.0 110.0
-0.012523757293820381 0.04514351114630699 0.17440000176429749 120.0 125.0 111.0
-0.012067936360836029 0.04514351114630699 0.17440000176429749 119.0 124.0 110.0
-0.011625428684055805 0.04519527778029442 0.17459999024868011 117.0 122.0 108.0
-0.01116908434778452 0.04519527778029442 0.17459999024868011 119.0 124.0 110.0
-0.010712739080190659 0.04519527778029442 0.17459999024868011 117.0 122.0 108.0
-0.010256394743919373 0.04519527778029442 0.17459999024868011 119.0 124.0 110.0
-0.009800050407648087 0.04519527778029442 0.17459999024868011 119.0 124.0 110.0
-0.009343705140054226 0.04519527778029442 0.17459999024868011 116.0 121.0 107.0
-0.008887359872460365 0.04519527778029442 0.17459999024868011 115.0 120.0 106.0
-0.00843101553618908 0.04519527778029442 0.17459999024868011 114.0 119.0 105.0
-0.007974671199917793 0.04519527778029442 0.17459999024868011 115.0 120.0 106.0
-0.007518325932323933 0.04519527778029442 0.17459999024868011 115.0 120.0 106.0
-0.007061980664730072 0.04519527778029442 0.17459999024868011 115.0 120.0 106.0
-0.006605635862797499 0.04519527778029442 0.17459999024868011 114.0 119.0 105.0
-0.006142247933894396 0.04514351114630699 0.17440000176429749 114.0 119.0 105.0
-0.005686425603926182 0.04514351114630699 0.17440000176429749 114.0 119.0 105.0
-0.005230603273957968 0.04514351114630699 0.17440000176429749 115.0 120.0 106.0
-0.004774781409651041 0.04514351114630699 0.17440000176429749 115.0 120.0 106.0
-0.004318959079682827 0.04514351114630699 0.17440000176429749 117.0 122.0 108.0
-0.0038631372153759003 0.04514351114630699 0.17440000176429749 116.0 121.0 107.0
-0.003411222016438842 0.04519527778029442 0.17459999024868011 117.0 122.0 108.0
-0.002954877447336912 0.04519527778029442 0.17459999024868011 119.0 124.0 110.0
-0.002498532645404339 0.04519527778029442 0.17459999024868011 117.0 122.0 108.0
-0.0020421878434717655 0.04519527778029442 0.17459999024868011 116.0 121.0 107.0
-0.0015867511974647641 0.04522116109728813 0.17469999194145203 116.0 121.0 107.0
-0.0011307918466627598 0.045247048139572144 0.17479999363422394 115.0 120.0 106.0
-0.0006739242817275226 0.045247048139572144 0.17479999363422394 117.0 119.0 106.0
-0.00021730507432948798 0.04529881849884987 0.17499999701976776 116.0 118.0 105.0
0.00024008526816032827 0.04529881849884987 0.17499999701976776 115.0 118.0 102.0
0.0006978741730563343 0.04532470554113388 0.17509999871253967 116.0 119.0 103.0
0.0011555259115993977 0.04532470554113388 0.17509999871253967 115.0 118.0 102.0
0.0016131774755194783 0.04532470554113388 0.17509999871253967 115.0 118.0 102.0
0.002070829039439559 0.04532470554113388 0.17509999871253967 115.0 118.0 102.0
0.00252703670412302 0.04529881849884987 0.17499999701976776 114.0 117.0 101.0
0.0029844273813068867 0.04529881849884987 0.17499999701976776 114.0 117.0 101.0
0.003441817359998822 0.04529881849884987 0.17499999701976776 115.0 118.0 102.0
0.0038947516586631536 0.045247048139572144 0.17479999363422394 114.0 117.0 101.0
0.00435161916539073 0.045247048139572144 0.17479999363422394 114.0 117.0 101.0
0.00480848690494895 0.045247048139572144 0.17479999363422394 116.0 118.0 102.0
0.005262341815978289 0.04522116109728813 0.17469999194145203 115.0 117.0 101.0
0.005718948319554329 0.04522116109728813 0.17469999194145203 117.0 119.0 103.0
0.006175554823130369 0.04522116109728813 0.17469999194145203 117.0 119.0 103.0
0.006628363858908415 0.04519527778029442 0.17459999024868011 117.0 119.0 103.0
0.0070847091265022755 0.04519527778029442 0.17459999024868011 115.0 117.0 101.0
0.007541053928434849 0.04519527778029442 0.17459999024868011 115.0 117.0 101.0
0.00799739919602871 0.04519527778029442 0.17459999024868011 113.0 115.0 99.0
0.008458585478365421 0.04522116109728813 0.17469999194145203 115.0 117.0 101.0
0.008915191516280174 0.04522116109728813 0.17469999194145203 116.0 118.0 102.0
0.009377162903547287 0.045247048139572144 0.17479999363422394 116.0 118.0 102.0
0.009834030643105507 0.045247048139572144 0.17479999363422394 115.0 117.0 101.0
0.010290897451341152 0.045247048139572144 0.17479999363422394 115.0 117.0 101.0
0.010760062374174595 0.04529881849884987 0.17499999701976776 113.0 115.0 99.0
0.011217452585697174 0.04529881849884987 0.17499999701976776 113.0 115.0 99.0
0.011674843728542328 0.04529881849884987 0.17499999701976776 113.0 115.0 99.0
0.012132233008742332 0.04529881849884987 0.17499999701976776 113.0 115.0 99.0
0.01259681861847639 0.04532470554113388 0.17509999871253967 115.0 117.0 101.0
0.013054469600319862 0.04532470554113388 0.17509999871253967 115.0 116.0 103.0
0.013527555391192436 0.045376475900411606 0.1753000020980835 115.0 116.0 103.0
0.013985729776322842 0.045376475900411606 0.1753000020980835 115.0 116.0 103.0
0.014452142640948296 0.04540235549211502 0.1753999888896942 113.0 114.0 101.0
0.014936081133782864 0.04548001289367676 0.17569999396800995 112.0 114.0 101.0
0.01540406420826912 0.04550589993596077 0.17579999566078186 115.0 117.0 104.0
0.015890616923570633 0.04558355361223221 0.1761000007390976 115.0 117.0 104.0
0.016360167413949966 0.04560944065451622 0.1762000024318695 115.0 117.0 104.0
0.01686842553317547 0.045738864690065384 0.17669999599456787 114.0 116.0 103.0
-0.0757012888789177 0.04442274197936058 0.16990000009536743 141.0 139.0 118.0
-0.07525722682476044 0.04442274197936058 0.16990000009536743 141.0 139.0 118.0
-0.07490123063325882 0.04447503387928009 0.17009998857975006 142.0 140.0 119.0
-0.0745004191994667 0.044501181691884995 0.17019999027252197 140.0 138.0 117.0
-0.07405557483434677 0.044501181691884995 0.17019999027252197 141.0 139.0 118.0
-0.07374047487974167 0.04457962140440941 0.1704999953508377 142.0 140.0 119.0
-0.07342381030321121 0.04465806111693382 0.17080000042915344 141.0 139.0 118.0
-0.07302013039588928 0.04468420892953873 0.17090000212192535 141.0 141.0 119.0
-0.07261591404676437 0.04471035301685333 0.17099998891353607 138.0 138.0 116.0
-0.0721689835190773 0.04471035301685333 0.17099998891353607 138.0 141.0 118.0
-0.07184787094593048 0.04478879272937775 0.1712999939918518 140.0 143.0 120.0
-0.07140015065670013 0.04478879272937775 0.1712999939918518 138.0 141.0 118.0
-0.07095243036746979 0.04478879272937775 0.1712999939918518 138.0 141.0 118.0
-0.07050471752882004 0.04478879272937775 0.1712999939918518 140.0 143.0 120.0
-0.07005699723958969 0.04478879272937775 0.1712999939918518 139.0 142.0 119.0
-0.06960927695035934 0.04478879272937775 0.1712999939918518 138.0 141.0 118.0
-0.06904043257236481 0.04471035301685333 0.17099998891353607 137.0 140.0 117.0
-0.06859349459409714 0.04471035301685333 0.17099998891353607 140.0 140.0 118.0
-0.06810671091079712 0.04468420892953873 0.17090000212192535 139.0 139.0 117.0
-0.06766003370285034 0.04468420892953873 0.17090000212192535 141.0 141.0 119.0
-0.06721336394548416 0.04468420892953873 0.17090000212192535 140.0 140.0 118.0
-0.06672762334346771 0.04465806111693382 0.17080000042915344 138.0 138.0 116.0
-0.06620359420776367 0.04460576921701431 0.17059999704360962 138.0 138.0 116.0
-0.06575770676136017 0.04460576921701431 0.17059999704360962 140.0 140.0 118.0
-0.06531181186437607 0.04460576921701431 0.17059999704360962 139.0 139.0 117.0
-0.06486592441797256 0.04460576921701431 0.17059999704360962 138.0 138.0 116.0
-0.06442003697156906 0.04460576921701431 0.17059999704360962 136.0 136.0 114.0
-0.06397414207458496 0.04460576921701431 0.17059999704360962 136.0 134.0 111.0
-0.06352825462818146 0.04460576921701431 0.17059999704360962 136.0 134.0 111.0
-0.06304538249969482 0.04457962140440941 0.1704999953508377 137.0 135.0 112.0
-0.06259975582361221 0.04457962140440941 0.1704999953508377 136.0 134.0 111.0
-0.062154125422239304 0.04457962140440941 0.1704999953508377 135.0 133.0 110.0
-0.06170850247144699 0.04457962140440941 0.1704999953508377 137.0 135.0 112.0
-0.06126287207007408 0.04457962140440941 0.1704999953508377 136.0 134.0 111.0
-0.06081724166870117 0.04457962140440941 0.1704999953508377 136.0 134.0 111.0
-0.06037161126732826 0.04457962140440941 0.1704999953508377 136.0 134.0 111.0
-0.05996112897992134 0.04460576921701431 0.17059999704360962 136.0 134.0 111.0
-0.05951523780822754 0.04460576921701431 0.17059999704360962 136.0 134.0 111.0
-0.059069350361824036 0.04460576921701431 0.17059999704360962 136.0 134.0 111.0
-0.05862346291542053 0.04460576921701431 0.17059999704360962 136.0 135.0 109.0
-0.05817757174372673 0.04460576921701431 0.17059999704360962 135.0 134.0 108.0
-0.057799361646175385 0.04465806111693382 0.17080000042915344 135.0 134.0 106.0
-0.0573529489338398 0.04465806111693382 0.17080000042915344 135.0 134.0 106.0
-0.05690653622150421 0.04465806111693382 0.17080000042915344 138.0 134.0 107.0
-0.056460119783878326 0.04465806111693382 0.17080000042915344 141.0 137.0 110.0
-0.0560465082526207 0.04468420892953873 0.17090000212192535 139.0 135.0 108.0
-0.05559983476996422 0.04468420892953873 0.17090000212192535 137.0 133.0 106.0
-0.05515315756201744 0.04468420892953873 0.17090000212192535 135.0 132.0 102.0
-0.05470648407936096 0.04468420892953873 0.17090000212192535 135.0 132.0 102.0
-0.054259806871414185 0.04468420892953873 0.17090000212192535 139.0 136.0 106.0
-0.053813133388757706 0.04468420892953873 0.17090000212192535 138.0 135.0 105.0
-0.05336645618081093 0.04468420892953873 0.17090000212192535 138.0 135.0 105.0
-0.05291978642344475 0.04468420892953873 0.17090000212192535 137.0 134.0 104.0
-0.05247311294078827 0.04468420892953873 0.17090000212192535 138.0 135.0 105.0
-0.052056875079870224 0.04471035301685333 0.17099998891353607 136.0 133.0 103.0
-0.05160994082689285 0.04471035301685333 0.17099998891353607 137.0 134.0 104.0
-0.05116300284862518 0.04471035301685333 0.17099998891353607 136.0 133.0 103.0
-0.05071606487035751 0.04471035301685333 0.17099998891353607 136.0 133.0 103.0
-0.05026913434267044 0.04471035301685333 0.17099998891353607 136.0 133.0 103.0
-0.04982220008969307 0.04471035301685333 0.17099998891353607 137.0 134.0 104.0
-0.0493752621114254 0.04471035301685333 0.17099998891353607 138.0 135.0 105.0
-0.04892832413315773 0.04471035301685333 0.17099998891353607 139.0 134.0 103.0
-0.04848138988018036 0.04471035301685333 0.17099998891353607 139.0 134.0 103.0
-0.04803445190191269 0.04471035301685333 0.17099998891353607 139.0 134.0 103.0
-0.04758751764893532 0.04471035301685333 0.17099998891353607 137.0 132.0 101.0
-0.04714058339595795 0.04471035301685333 0.17099998891353607 136.0 131.0 100.0
-0.046693649142980576 0.04471035301685333 0.17099998891353607 135.0 130.0 99.0
-0.046246711164712906 0.04471035301685333 0.17099998891353607 137.0 132.0 101.0
-0.045799776911735535 0.04471035301685333 0.17099998891353607 137.0 132.0 101.0
-0.045352838933467865 0.04471035301685333 0.17099998891353607 136.0 131.0 100.0
-0.044905900955200195 0.04471035301685333 0.17099998891353607 133.0 128.0 97.0
-0.04445897042751312 0.04471035301685333 0.17099998891353607 130.0 125.0 94.0
-0.043986301869153976 0.04468420892953873 0.17090000212192535 129.0 124.0 93.0
-0.04356509819626808 0.04471035301685333 0.17099998891353607 130.0 125.0 94.0
-0.04311816021800041 0.04471035301685333 0.17099998891353607 131.0 126.0 95.0
-0.04264627397060394 0.04468420892953873 0.17090000212192535 130.0 125.0 94.0
-0.042199600487947464 0.04468420892953873 0.17090000212192535 131.0 126.0 95.0
-0.04172849655151367 0.04465806111693382 0.17080000042915344 129.0 126.0 94.0
-0.041209571063518524 0.04457962140440941 0.1704999953508377 129.0 126.0 94.0
-0.0 0.0 0.0 128.0 125.0 95.0
-0.0 0.0 0.0 129.0 126.0 96.0
-0.0 0.0 0.0 130.0 126.0 99.0
-0.0 0.0 0.0 131.0 127.0 100.0
-0.0 0.0 0.0 131.0 127.0 100.0
-0.0 0.0 0.0 131.0 127.0 100.0
-0.0361689068377018 0.0423310324549675 0.16189999878406525 130.0 126.0 99.0
-0.03565743938088417 0.04222644492983818 0.1614999920129776 129.0 125.0 98.0
-0.035191696137189865 0.04217414930462837 0.16129998862743378 129.0 125.0 98.0
-0.03474855795502663 0.042148005217313766 0.16120000183582306 128.0 124.0 97.0
-0.03432723879814148 0.042148005217313766 0.16120000183582306 121.0 124.0 106.0
-0.03392694517970085 0.04217414930462837 0.16129998862743378 119.0 122.0 104.0
-0.033505361527204514 0.04217414930462837 0.16129998862743378 94.0 126.0 133.0
-0.03314531594514847 0.042252589017152786 0.1615999937057495 93.0 125.0 132.0
-0.03278369456529617 0.0423310324549675 0.16189999878406525 77.0 121.0 137.0
-0.032420504838228226 0.042409468442201614 0.1621999889612198 79.0 123.0 139.0
-0.032213564962148666 0.042697079479694366 0.16329999268054962 85.0 131.0 151.0
-0.0 0.0 0.0 94.0 140.0 160.0
-0.03185924515128136 0.04337688535451889 0.16589999198913574 54.0 102.0 124.0
-0.03165294975042343 0.04369064420461655 0.1670999974012375 36.0 84.0 106.0
-0.03158983215689659 0.04421357437968254 0.16910000145435333 35.0 82.0 107.0
-0.031313639134168625 0.044448889791965485 0.17000000178813934 30.0 77.0 102.0
-0.030978266149759293 0.04460576921701431 0.17059999704360962 36.0 70.0 88.0
-0.030675552785396576 0.04481493681669235 0.17139999568462372 32.0 66.0 84.0
-0.030368655920028687 0.04502410814166069 0.17219999432563782 43.0 64.0 70.0
-0.0300749521702528 0.04525942727923393 0.17309999465942383 57.0 78.0 84.0
-0.02963964268565178 0.04528557509183884 0.17319999635219574 73.0 80.0 72.0
-0.029186956584453583 0.04528557509183884 0.17319999635219574 76.0 83.0 75.0
-0.028717679902911186 0.04525942727923393 0.17309999465942383 91.0 93.0 77.0
-0.02826525643467903 0.04525942727923393 0.17309999465942383 95.0 97.0 81.0
-0.02776462957262993 0.04518098756670952 0.1727999895811081 101.0 99.0 78.0
-0.02731298841536045 0.04518098756670952 0.1727999895811081 109.0 107.0 86.0
-0.02684580720961094 0.04515484347939491 0.17270000278949738 113.0 112.0 86.0
-0.026348575949668884 0.0450764037668705 0.17239999771118164 114.0 113.0 87.0
-0.025807848200201988 0.04491952434182167 0.17180000245571136 116.0 115.0 89.0
-0.025240736082196236 0.04471035301685333 0.17099998891353607 118.0 117.0 91.0
-0.02473580464720726 0.04460576921701431 0.17059999704360962 116.0 115.0 87.0
-0.024218721315264702 0.04447503387928009 0.17009998857975006 115.0 114.0 86.0
-0.023704256862401962 0.044344302266836166 0.1695999950170517 114.0 114.0 90.0
-0.0 0.0 0.0 119.0 119.0 95.0
-0.02250826731324196 0.043742936104536057 0.1673000007867813 98.0 106.0 91.0
-0.021939076483249664 0.04348147287964821 0.1662999987602234 62.0 70.0 55.0
-0.021439768373966217 0.043350737541913986 0.16579999029636383 72.0 94.0 97.0
-0.020968416705727577 0.04327230155467987 0.1655000001192093 104.0 126.0 129.0
-0.020486220717430115 0.04316771402955055 0.16509999334812164 88.0 121.0 125.0
-0.020042559131979942 0.04314156621694565 0.16499999165534973 89.0 122.0 126.0
-0.019646963104605675 0.04322000965476036 0.16529999673366547 87.0 121.0 127.0
-0.019226549193263054 0.043246153742074966 0.16539999842643738 85.0 119.0 125.0
-0.01880561374127865 0.04327230155467987 0.1655000001192093 83.0 113.0 116.0
-0.018406355753540993 0.043350737541913986 0.16579999029636383 80.0 110.0 113.0
-0.018059732392430305 0.043559908866882324 0.16659998893737793 97.0 112.0 107.0
-0.017761822789907455 0.043899815529584885 0.1678999960422516 102.0 117.0 112.0
-0.01745711639523506 0.04423971846699715 0.16920000314712524 110.0 120.0 108.0
-0.0 0.0 0.0 113.0 123.0 111.0
-0.01672936975955963 0.04465806111693382 0.17080000042915344 117.0 125.0 112.0
-0.016406890004873276 0.044997964054346085 0.1720999926328659 119.0 127.0 114.0
-0.01604979857802391 0.04525942727923393 0.17309999465942383 122.0 127.0 115.0
-0.015651438385248184 0.04541630297899246 0.1736999899148941 122.0 127.0 115.0
-0.015214943327009678 0.04546859860420227 0.17389999330043793 122.0 127.0 115.0
-0.014768916182219982 0.045494746416807175 0.17399999499320984 121.0 126.0 114.0
-0.014314140193164349 0.045494746416807175 0.17399999499320984 121.0 126.0 114.0
-0.013875293545424938 0.045547038316726685 0.17419999837875366 121.0 126.0 114.0
-0.01341999415308237 0.045547038316726685 0.17419999837875366 117.0 122.0 110.0
-0.01297213789075613 0.04557318612933159 0.17430000007152557 117.0 122.0 110.0
-0.012516576796770096 0.04557318612933159 0.17430000007152557 119.0 124.0 112.0
-0.012067936360836029 0.04559933394193649 0.17440000176429749 119.0 124.0 112.0
-0.011612112633883953 0.04559933394193649 0.17440000176429749 117.0 122.0 108.0
-0.011156291700899601 0.04559933394193649 0.17440000176429749 117.0 122.0 108.0
-0.010712739080190659 0.045651622116565704 0.17459999024868011 117.0 122.0 108.0
-0.010256394743919373 0.045651622116565704 0.17459999024868011 117.0 122.0 108.0
-0.009800050407648087 0.045651622116565704 0.17459999024868011 117.0 122.0 108.0
-0.009343705140054226 0.045651622116565704 0.17459999024868011 116.0 121.0 107.0
-0.008887359872460365 0.045651622116565704 0.17459999024868011 116.0 121.0 107.0
-0.00843101553618908 0.045651622116565704 0.17459999024868011 115.0 120.0 106.0
-0.007974671199917793 0.045651622116565704 0.17459999024868011 115.0 120.0 106.0
-0.007518325932323933 0.045651622116565704 0.17459999024868011 114.0 119.0 105.0
-0.007061980664730072 0.045651622116565704 0.17459999024868011 115.0 120.0 106.0
-0.006605635862797499 0.045651622116565704 0.17459999024868011 115.0 120.0 106.0
-0.006149291526526213 0.045651622116565704 0.17459999024868011 115.0 120.0 106.0
-0.005692946258932352 0.045651622116565704 0.17459999024868011 115.0 120.0 106.0
-0.005236601456999779 0.045651622116565704 0.17459999024868011 117.0 122.0 108.0
-0.004780256655067205 0.045651622116565704 0.17459999024868011 119.0 124.0 110.0
-0.004323911853134632 0.045651622116565704 0.17459999024868011 119.0 124.0 110.0
-0.003867567051202059 0.045651622116565704 0.17459999024868011 117.0 122.0 108.0
-0.003411222016438842 0.045651622116565704 0.17459999024868011 116.0 121.0 107.0
-0.002954877447336912 0.045651622116565704 0.17459999024868011 116.0 121.0 107.0
-0.002498532645404339 0.045651622116565704 0.17459999024868011 113.0 119.0 102.0
-0.002043357351794839 0.04567776992917061 0.17469999194145203 113.0 119.0 102.0
-0.0015876594698056579 0.04570391774177551 0.17479999363422394 115.0 118.0 102.0
-0.0011307918466627598 0.04570391774177551 0.17479999363422394 115.0 118.0 102.0
-0.0006746954168193042 0.04575620964169502 0.17499999701976776 116.0 119.0 103.0
-0.00021730507432948798 0.04575620964169502 0.17499999701976776 115.0 118.0 102.0
0.00024022244906518608 0.04578235745429993 0.17509999871253967 115.0 118.0 102.0
0.0006978741730563343 0.04578235745429993 0.17509999871253967 114.0 117.0 101.0
0.0011568457121029496 0.04583464935421944 0.1753000020980835 114.0 117.0 101.0
0.001615020097233355 0.04583464935421944 0.1753000020980835 116.0 119.0 103.0
0.0020731945987790823 0.04583464935421944 0.1753000020980835 116.0 119.0 103.0
0.0025313689839094877 0.04583464935421944 0.1753000020980835 116.0 119.0 103.0
0.002989543601870537 0.04583464935421944 0.1753000020980835 114.0 117.0 101.0
0.00344378431327641 0.04578235745429993 0.17509999871253967 116.0 119.0 103.0
0.0039014359936118126 0.04578235745429993 0.17509999871253967 115.0 118.0 102.0
0.004359087441116571 0.04578235745429993 0.17509999871253967 116.0 119.0 103.0
0.004813988693058491 0.04575620964169502 0.17499999701976776 117.0 119.0 103.0
0.00527137890458107 0.04575620964169502 0.17499999701976776 117.0 119.0 103.0
0.005722221918404102 0.04570391774177551 0.17479999363422394 116.0 118.0 102.0
0.006179089657962322 0.04570391774177551 0.17479999363422394 116.0 118.0 102.0
0.006632160395383835 0.04567776992917061 0.17469999194145203 116.0 118.0 102.0
0.007088766898959875 0.04567776992917061 0.17469999194145203 116.0 118.0 102.0
0.007545372936874628 0.04567776992917061 0.17469999194145203 115.0 117.0 101.0
0.008001979440450668 0.04567776992917061 0.17469999194145203 115.0 117.0 101.0
0.008458585478365421 0.04567776992917061 0.17469999194145203 116.0 118.0 102.0
0.008915191516280174 0.04567776992917061 0.17469999194145203 116.0 118.0 102.0
0.009377162903547287 0.04570391774177551 0.17479999363422394 117.0 119.0 103.0
0.009834030643105507 0.04570391774177551 0.17479999363422394 115.0 117.0 101.0
0.010290897451341152 0.04570391774177551 0.17479999363422394 116.0 118.0 102.0
0.010747765190899372 0.04570391774177551 0.17479999363422394 115.0 117.0 101.0
0.011217452585697174 0.04575620964169502 0.17499999701976776 116.0 118.0 102.0
0.011674843728542328 0.04575620964169502 0.17499999701976776 115.0 117.0 101.0
0.012132233008742332 0.04575620964169502 0.17499999701976776 116.0 117.0 104.0
0.012589624151587486 0.04575620964169502 0.17499999701976776 117.0 118.0 105.0
0.013054469600319862 0.04578235745429993 0.17509999871253967 117.0 118.0 105.0
0.013512121513485909 0.04578235745429993 0.17509999871253967 115.0 116.0 103.0
0.013985729776322842 0.04583464935421944 0.1753000020980835 116.0 117.0 104.0
0.014452142640948296 0.04586079344153404 0.1753999888896942 116.0 117.0 104.0
0.014936081133782864 0.045939233154058456 0.17569999396800995 115.0 117.0 104.0
0.015395301394164562 0.045939233154058456 0.17569999396800995 115.0 117.0 104.0
0.015890616923570633 0.046043820679187775 0.1761000007390976 115.0 117.0 104.0
0.016360167413949966 0.04606996849179268 0.1762000024318695 115.0 117.0 104.0
0.016849331557750702 0.046148404479026794 0.17649999260902405 115.0 117.0 104.0
-0.07561217248439789 0.044813986867666245 0.1696999967098236 140.0 140.0 118.0
-0.07525722682476044 0.04486680403351784 0.16990000009536743 140.0 140.0 118.0
-0.074857197701931 0.044893212616443634 0.17000000178813934 140.0 140.0 118.0
-0.07445664703845978 0.04491961747407913 0.17009998857975006 140.0 140.0 118.0
-0.07405557483434677 0.04494602605700493 0.17019999027252197 141.0 141.0 119.0
-0.07369722425937653 0.04499884322285652 0.1703999936580658 142.0 142.0 120.0
-0.07329484820365906 0.04502525180578232 0.1704999953508377 141.0 141.0 119.0
-0.0728919506072998 0.045051660388708115 0.17059999704360962 142.0 142.0 120.0
-0.07253099232912064 0.04510447382926941 0.17080000042915344 140.0 140.0 118.0
-0.07212678343057632 0.045130882412195206 0.17090000212192535 140.0 140.0 118.0
-0.07168010622262955 0.045130882412195206 0.17090000212192535 141.0 141.0 119.0
-0.07123342901468277 0.045130882412195206 0.17090000212192535 139.0 142.0 119.0
-0.07078675925731659 0.045130882412195206 0.17090000212192535 138.0 141.0 118.0
-0.07034008949995041 0.045130882412195206 0.17090000212192535 137.0 140.0 117.0
-0.06989341229200363 0.045130882412195206 0.17090000212192535 137.0 140.0 117.0
-0.06940609961748123 0.04510447382926941 0.17080000042915344 137.0 140.0 117.0
-0.06895968317985535 0.04510447382926941 0.17080000042915344 137.0 140.0 117.0
-0.06851327419281006 0.04510447382926941 0.17080000042915344 139.0 139.0 117.0
-0.06806685775518417 0.04510447382926941 0.17080000042915344 139.0 139.0 117.0
-0.06754126399755478 0.045051660388708115 0.17059999704360962 139.0 139.0 117.0
-0.06705604493618011 0.04502525180578232 0.1704999953508377 136.0 136.0 114.0
-0.0666104182600975 0.04502525180578232 0.1704999953508377 135.0 135.0 113.0
-0.06612598150968552 0.04499884322285652 0.1703999936580658 136.0 136.0 114.0
-0.0656806156039238 0.04499884322285652 0.1703999936580658 136.0 136.0 114.0
-0.0651586726307869 0.04494602605700493 0.17019999027252197 136.0 136.0 114.0
-0.06471382826566696 0.04494602605700493 0.17019999027252197 136.0 136.0 114.0
-0.06434451043605804 0.04499884322285652 0.1703999936580658 136.0 136.0 114.0
-0.06382414698600769 0.04494602605700493 0.17019999027252197 136.0 134.0 111.0
-0.06337929517030716 0.04494602605700493 0.17019999027252197 136.0 134.0 111.0
-0.06293445080518723 0.04494602605700493 0.17019999027252197 137.0 135.0 112.0
-0.06248960644006729 0.04494602605700493 0.17019999027252197 137.0 135.0 112.0
-0.06204476207494736 0.04494602605700493 0.17019999027252197 136.0 134.0 111.0
-0.06159992143511772 0.04494602605700493 0.17019999027252197 136.0 134.0 111.0
-0.06115507706999779 0.04494602605700493 0.17019999027252197 136.0 134.0 111.0
-0.0607815720140934 0.04499884322285652 0.1703999936580658 137.0 135.0 112.0
-0.06033620238304138 0.04499884322285652 0.1703999936580658 140.0 138.0 115.0
-0.05992598459124565 0.04502525180578232 0.1704999953508377 137.0 135.0 112.0
-0.05951523780822754 0.045051660388708115 0.17059999704360962 135.0 133.0 110.0
-0.059069350361824036 0.045051660388708115 0.17059999704360962 137.0 135.0 112.0
-0.05862346291542053 0.045051660388708115 0.17059999704360962 139.0 138.0 112.0
-0.05824577808380127 0.04510447382926941 0.17080000042915344 136.0 135.0 109.0
-0.05773168057203293 0.045051660388708115 0.17059999704360962 135.0 134.0 108.0
-0.0573529489338398 0.04510447382926941 0.17080000042915344 135.0 134.0 108.0
-0.05690653622150421 0.04510447382926941 0.17080000042915344 137.0 133.0 106.0
-0.056460119783878326 0.04510447382926941 0.17080000042915344 137.0 133.0 106.0
-0.05601371079683304 0.04510447382926941 0.17080000042915344 138.0 134.0 107.0
-0.05559983476996422 0.045130882412195206 0.17090000212192535 139.0 135.0 108.0
-0.05515315756201744 0.045130882412195206 0.17090000212192535 136.0 132.0 105.0
-0.05470648407936096 0.045130882412195206 0.17090000212192535 137.0 133.0 106.0
-0.054259806871414185 0.045130882412195206 0.17090000212192535 139.0 136.0 106.0
-0.053813133388757706 0.045130882412195206 0.17090000212192535 139.0 136.0 106.0
-0.05336645618081093 0.045130882412195206 0.17090000212192535 137.0 134.0 104.0
-0.05291978642344475 0.045130882412195206 0.17090000212192535 138.0 135.0 105.0
-0.052503813058137894 0.045157287269830704 0.17099998891353607 137.0 134.0 104.0
-0.052056875079870224 0.045157287269830704 0.17099998891353607 139.0 136.0 106.0
-0.05160994082689285 0.045157287269830704 0.17099998891353607 141.0 138.0 108.0
-0.05116300284862518 0.045157287269830704 0.17099998891353607 138.0 135.0 105.0
-0.05071606487035751 0.045157287269830704 0.17099998891353607 136.0 133.0 103.0
-0.05026913434267044 0.045157287269830704 0.17099998891353607 136.0 133.0 103.0
-0.04982220008969307 0.045157287269830704 0.17099998891353607 138.0 135.0 105.0
-0.0493752621114254 0.045157287269830704 0.17099998891353607 138.0 135.0 105.0
-0.04892832413315773 0.045157287269830704 0.17099998891353607 138.0 135.0 105.0
-0.04848138988018036 0.045157287269830704 0.17099998891353607 139.0 136.0 106.0
-0.04803445190191269 0.045157287269830704 0.17099998891353607 139.0 134.0 103.0
-0.04758751764893532 0.045157287269830704 0.17099998891353607 139.0 134.0 103.0
-0.04714058339595795 0.045157287269830704 0.17099998891353607 138.0 133.0 102.0
-0.046693649142980576 0.045157287269830704 0.17099998891353607 137.0 132.0 101.0
-0.046327847987413406 0.04523651301860809 0.1712999939918518 134.0 127.0 96.0
-0.04588012769818306 0.04523651301860809 0.1712999939918518 135.0 128.0 97.0
-0.04543240740895271 0.04523651301860809 0.1712999939918518 133.0 128.0 97.0
-0.044984687119722366 0.04523651301860809 0.1712999939918518 135.0 130.0 99.0
-0.04445897042751312 0.045157287269830704 0.17099998891353607 135.0 130.0 99.0
-0.04408925026655197 0.04523651301860809 0.1712999939918518 132.0 127.0 96.0
-0.043641529977321625 0.04523651301860809 0.1712999939918518 130.0 125.0 94.0
-0.04311816021800041 0.045157287269830704 0.17099998891353607 131.0 126.0 95.0
-0.04264627397060394 0.045130882412195206 0.17090000212192535 132.0 127.0 96.0
-0.04222429171204567 0.045157287269830704 0.17099998891353607 132.0 127.0 96.0
-0.041777353733778 0.045157287269830704 0.17099998891353607 131.0 128.0 96.0
-0.04128208011388779 0.04510447382926941 0.17080000042915344 134.0 131.0 99.0
-0.04078785330057144 0.045051660388708115 0.17059999704360962 130.0 127.0 97.0
-0.0 0.0 0.0 129.0 126.0 96.0
-0.0 0.0 0.0 130.0 126.0 99.0
-0.0 0.0 0.0 131.0 127.0 100.0
-0.0 0.0 0.0 130.0 126.0 99.0
-0.0 0.0 0.0 129.0 125.0 98.0
-0.0 0.0 0.0 128.0 124.0 97.0
-0.03574575483798981 0.04275418445467949 0.16189999878406525 129.0 125.0 98.0
-0.03523533046245575 0.0426485501229763 0.1614999920129776 129.0 125.0 98.0
-0.03477011248469353 0.04259573295712471 0.16129998862743378 128.0 124.0 97.0
-0.03432723879814148 0.04256932809948921 0.16120000183582306 122.0 122.0 98.0
-0.033905915915966034 0.04256932809948921 0.16120000183582306 124.0 124.0 100.0
-0.033505361527204514 0.04259573295712471 0.16129998862743378 103.0 129.0 131.0
-0.03312480449676514 0.0426485501229763 0.1614999920129776 103.0 129.0 131.0
-0.032743196934461594 0.042701367288827896 0.16169999539852142 79.0 121.0 136.0
-0.03238053247332573 0.042780593037605286 0.16200000047683716 79.0 121.0 136.0
-0.032095205038785934 0.042965445667505264 0.16269999742507935 83.0 127.0 143.0
-0.03192301094532013 0.043308742344379425 0.1639999896287918 86.0 130.0 146.0
-0.0317632257938385 0.04367845505475998 0.16539999842643738 88.0 134.0 154.0
-0.03146352618932724 0.04386330768465996 0.16609999537467957 40.0 86.0 106.0
-0.03136565536260605 0.0443386472761631 0.1678999960422516 31.0 80.0 104.0
-0.031239958480000496 0.044787582010030746 0.1695999950170517 31.0 80.0 104.0
-0.03088747151196003 0.04491961747407913 0.17009998857975006 37.0 76.0 96.0
-0.03056817129254341 0.04510447382926941 0.17080000042915344 29.0 68.0 88.0
-0.030280480161309242 0.04534214362502098 0.17170000076293945 37.0 64.0 73.0
-0.02991858310997486 0.045474182814359665 0.17219999432563782 34.0 61.0 70.0
-0.029554080218076706 0.04560622200369835 0.17270000278949738 65.0 76.0 72.0
-0.029119549319148064 0.04563262686133385 0.1727999895811081 69.0 80.0 76.0
-0.028651319444179535 0.04560622200369835 0.17270000278949738 81.0 83.0 70.0
-0.028199942782521248 0.04560622200369835 0.17270000278949738 90.0 92.0 79.0
-0.027668224647641182 0.045474182814359665 0.17219999432563782 99.0 98.0 81.0
-0.027202345430850983 0.04544777423143387 0.1720999926328659 106.0 105.0 88.0
-0.026752537116408348 0.04544777423143387 0.1720999926328659 109.0 107.0 84.0
-0.026241593062877655 0.04534214362502098 0.17170000076293945 112.0 110.0 87.0
-0.025687670335173607 0.045157287269830704 0.17099998891353607 112.0 111.0 85.0
-0.025181695818901062 0.045051660388708115 0.17059999704360962 115.0 114.0 88.0
-0.024663306772708893 0.04491961747407913 0.17009998857975006 118.0 114.0 89.0
-0.024161770939826965 0.044813986867666245 0.1696999967098236 117.0 113.0 88.0
-0.0 0.0 0.0 117.0 117.0 95.0
-0.023000391200184822 0.04428583383560181 0.16769999265670776 113.0 113.0 91.0
-0.022414088249206543 0.04399534687399864 0.16659998893737793 59.0 68.0 59.0
-0.021899497136473656 0.04383689910173416 0.16599999368190765 57.0 66.0 57.0
-0.021413909271359444 0.04373127222061157 0.1656000018119812 96.0 121.0 128.0
-0.02094307541847229 0.04365204647183418 0.16529999673366547 87.0 112.0 119.0
-0.020473813638091087 0.04357282072305679 0.16499999165534973 81.0 113.0 122.0
-0.020054705440998077 0.04359922930598259 0.16509999334812164 82.0 114.0 123.0
-0.019658848643302917 0.04367845505475998 0.16539999842643738 83.0 117.0 123.0
-0.019238173961639404 0.043704863637685776 0.1655000001192093 83.0 117.0 123.0
-0.018839700147509575 0.04378408566117287 0.16579999029636383 84.0 110.0 112.0
-0.01843966171145439 0.04386330768465996 0.16609999537467957 86.0 112.0 114.0
-0.018135614693164825 0.04418020322918892 0.1673000007867813 103.0 115.0 107.0
-0.017857031896710396 0.04457631707191467 0.1687999963760376 108.0 120.0 112.0
-0.017508704215288162 0.044813986867666245 0.1696999967098236 112.0 122.0 110.0
-0.01711544394493103 0.04494602605700493 0.17019999027252197 116.0 126.0 114.0
-0.016748957335948944 0.045157287269830704 0.17099998891353607 119.0 127.0 114.0
-0.01641642302274704 0.045474182814359665 0.17219999432563782 119.0 127.0 114.0
-0.016059070825576782 0.04573826119303703 0.17319999635219574 121.0 126.0 114.0
-0.015651438385248184 0.04587029665708542 0.1736999899148941 119.0 124.0 112.0
-0.015214943327009678 0.04592311382293701 0.17389999330043793 120.0 125.0 113.0
-0.014768916182219982 0.04594952240586281 0.17399999499320984 121.0 126.0 114.0
-0.014314140193164349 0.04594952240586281 0.17399999499320984 121.0 126.0 114.0
-0.013875293545424938 0.0460023395717144 0.17419999837875366 119.0 124.0 112.0
-0.01341999415308237 0.0460023395717144 0.17419999837875366 119.0 121.0 110.0
-0.01297213789075613 0.0460287481546402 0.17430000007152557 122.0 124.0 113.0
-0.012516576796770096 0.0460287481546402 0.17430000007152557 121.0 123.0 112.0
-0.012067936360836029 0.046055156737565994 0.17440000176429749 121.0 123.0 112.0
-0.011612112633883953 0.046055156737565994 0.17440000176429749 119.0 121.0 110.0
-0.011156291700899601 0.046055156737565994 0.17440000176429749 118.0 120.0 109.0
-0.0107004689052701 0.046055156737565994 0.17440000176429749 118.0 120.0 107.0
-0.010244647040963173 0.046055156737565994 0.17440000176429749 118.0 120.0 107.0
-0.009788825176656246 0.046055156737565994 0.17440000176429749 118.0 120.0 107.0
-0.009333002381026745 0.046055156737565994 0.17440000176429749 119.0 121.0 108.0
-0.008887359872460365 0.04610796645283699 0.17459999024868011 119.0 121.0 108.0
-0.00843101553618908 0.04610796645283699 0.17459999024868011 118.0 120.0 107.0
-0.007974671199917793 0.04610796645283699 0.17459999024868011 118.0 120.0 107.0
-0.007518325932323933 0.04610796645283699 0.17459999024868011 118.0 120.0 107.0
-0.007061980664730072 0.04610796645283699 0.17459999024868011 118.0 120.0 107.0
-0.006605635862797499 0.04610796645283699 0.17459999024868011 118.0 120.0 107.0
-0.006149291526526213 0.04610796645283699 0.17459999024868011 118.0 120.0 107.0
-0.005692946258932352 0.04610796645283699 0.17459999024868011 117.0 119.0 106.0
-0.005236601456999779 0.04610796645283699 0.17459999024868011 118.0 120.0 107.0
-0.004780256655067205 0.04610796645283699 0.17459999024868011 118.0 120.0 107.0
-0.004323911853134632 0.04610796645283699 0.17459999024868011 117.0 119.0 106.0
-0.003867567051202059 0.04610796645283699 0.17459999024868011 117.0 119.0 106.0
-0.003411222016438842 0.04610796645283699 0.17459999024868011 116.0 119.0 103.0
-0.002954877447336912 0.04610796645283699 0.17459999024868011 116.0 119.0 103.0
-0.002498532645404339 0.04610796645283699 0.17459999024868011 116.0 119.0 103.0
-0.002043357351794839 0.04613437503576279 0.17469999194145203 116.0 119.0 103.0
-0.0015876594698056579 0.04616078361868858 0.17479999363422394 116.0 119.0 103.0
-0.0011320856865495443 0.046213600784540176 0.17499999701976776 115.0 118.0 102.0
-0.0006750809261575341 0.04624000936746597 0.17509999871253967 115.0 118.0 102.0
-0.00021742926037404686 0.04624000936746597 0.17509999871253967 115.0 118.0 102.0
0.00024049683997873217 0.046292826533317566 0.1753000020980835 116.0 119.0 103.0
0.0006990698166191578 0.046319231390953064 0.1753999888896942 116.0 119.0 103.0
0.0011575055541470647 0.046319231390953064 0.1753999888896942 115.0 118.0 102.0
0.0016159412916749716 0.046319231390953064 0.1753999888896942 115.0 118.0 102.0
0.0020743769127875566 0.046319231390953064 0.1753999888896942 116.0 119.0 103.0
0.0025371448136866093 0.046398453414440155 0.17569999396800995 116.0 119.0 103.0
0.0029963648412376642 0.046398453414440155 0.17569999396800995 115.0 118.0 102.0
0.003449684241786599 0.046319231390953064 0.1753999888896942 115.0 118.0 102.0
0.003908120095729828 0.046319231390953064 0.1753999888896942 115.0 118.0 102.0
0.004366555716842413 0.046319231390953064 0.1753999888896942 115.0 118.0 102.0
0.0048222411423921585 0.046292826533317566 0.1753000020980835 116.0 118.0 102.0
0.005274390801787376 0.04624000936746597 0.17509999871253967 115.0 117.0 101.0
0.0057320427149534225 0.04624000936746597 0.17509999871253967 116.0 118.0 102.0
0.006186159793287516 0.046213600784540176 0.17499999701976776 115.0 117.0 101.0
0.0066435495391488075 0.046213600784540176 0.17499999701976776 113.0 115.0 99.0
0.007092824671417475 0.04616078361868858 0.17479999363422394 113.0 115.0 99.0
0.007545372936874628 0.04613437503576279 0.17469999194145203 113.0 115.0 99.0
0.008001979440450668 0.04613437503576279 0.17469999194145203 113.0 115.0 99.0
0.008463427424430847 0.04616078361868858 0.17479999363422394 116.0 118.0 102.0
0.008920295163989067 0.04616078361868858 0.17479999363422394 116.0 118.0 102.0
0.009377162903547287 0.04616078361868858 0.17479999363422394 117.0 119.0 103.0
0.009834030643105507 0.04616078361868858 0.17479999363422394 115.0 117.0 101.0
0.010290897451341152 0.04616078361868858 0.17479999363422394 115.0 117.0 101.0
0.010747765190899372 0.04616078361868858 0.17479999363422394 116.0 118.0 102.0
0.011204631999135017 0.04616078361868858 0.17479999363422394 116.0 118.0 102.0
0.011674843728542328 0.046213600784540176 0.17499999701976776 116.0 118.0 102.0
0.012132233008742332 0.046213600784540176 0.17499999701976776 116.0 117.0 104.0
0.012589624151587486 0.046213600784540176 0.17499999701976776 116.0 117.0 104.0
0.013054469600319862 0.04624000936746597 0.17509999871253967 115.0 116.0 103.0
0.013512121513485909 0.04624000936746597 0.17509999871253967 116.0 117.0 104.0
0.013985729776322842 0.046292826533317566 0.1753000020980835 115.0 117.0 104.0
0.014443904161453247 0.046292826533317566 0.1753000020980835 115.0 117.0 104.0
0.014936081133782864 0.046398453414440155 0.17569999396800995 116.0 118.0 105.0
0.015395301394164562 0.046398453414440155 0.17569999396800995 115.0 117.0 104.0
0.015890616923570633 0.04650408774614334 0.1761000007390976 115.0 117.0 104.0
0.016360167413949966 0.04653049632906914 0.1762000024318695 115.0 117.0 104.0
0.016849331557750702 0.04660971462726593 0.17649999260902405 115.0 117.0 104.0
-0.07561217248439789 0.04525752365589142 0.1696999967098236 140.0 140.0 118.0
-0.07525722682476044 0.045310862362384796 0.16990000009536743 140.0 140.0 118.0
-0.074857197701931 0.045337531715631485 0.17000000178813934 140.0 140.0 118.0
-0.07445664703845978 0.045364197343587875 0.17009998857975006 139.0 139.0 117.0
-0.07405557483434677 0.045390866696834564 0.17019999027252197 138.0 138.0 116.0
-0.07361072301864624 0.045390866696834564 0.17019999027252197 140.0 140.0 118.0
-0.07325185835361481 0.04544420540332794 0.1703999936580658 141.0 141.0 119.0
-0.07284922152757645 0.04547087475657463 0.1704999953508377 140.0 140.0 118.0
-0.07240359485149384 0.04547087475657463 0.1704999953508377 141.0 141.0 119.0
-0.0720001682639122 0.04549754410982132 0.17059999704360962 141.0 141.0 119.0
-0.0715542733669281 0.04549754410982132 0.17059999704360962 138.0 138.0 116.0
-0.0711083859205246 0.04549754410982132 0.17059999704360962 141.0 141.0 119.0
-0.0706624910235405 0.04549754410982132 0.17059999704360962 141.0 141.0 119.0
-0.07021661102771759 0.04549754410982132 0.17059999704360962 139.0 142.0 119.0
-0.06977071613073349 0.04549754410982132 0.17059999704360962 136.0 139.0 116.0
-0.06928419321775436 0.04547087475657463 0.1704999953508377 138.0 138.0 116.0
-0.06883855909109116 0.04547087475657463 0.1704999953508377 136.0 136.0 114.0
-0.06835281848907471 0.04544420540332794 0.1703999936580658 138.0 138.0 116.0
-0.06794729828834534 0.04547087475657463 0.1704999953508377 136.0 136.0 114.0
-0.06746207922697067 0.04544420540332794 0.1703999936580658 136.0 136.0 112.0
-0.06693805754184723 0.045390866696834564 0.17019999027252197 134.0 134.0 110.0
-0.0664932131767273 0.045390866696834564 0.17019999027252197 135.0 135.0 111.0
-0.06600955873727798 0.045364197343587875 0.17009998857975006 139.0 139.0 115.0
-0.06556497514247894 0.045364197343587875 0.17009998857975006 138.0 138.0 114.0
-0.0651203915476799 0.045364197343587875 0.17009998857975006 135.0 135.0 111.0
-0.06467580795288086 0.045364197343587875 0.17009998857975006 135.0 135.0 111.0
-0.06423123180866241 0.045364197343587875 0.17009998857975006 138.0 138.0 114.0
-0.06378664076328278 0.045364197343587875 0.17009998857975006 139.0 137.0 114.0
-0.06334205716848373 0.045364197343587875 0.17009998857975006 139.0 137.0 114.0
-0.06289747357368469 0.045364197343587875 0.17009998857975006 140.0 138.0 115.0
-0.06245288997888565 0.045364197343587875 0.17009998857975006 137.0 135.0 112.0
-0.06200830638408661 0.045364197343587875 0.17009998857975006 139.0 137.0 114.0
-0.061563726514577866 0.045364197343587875 0.17009998857975006 139.0 137.0 114.0
-0.06115507706999779 0.045390866696834564 0.17019999027252197 137.0 135.0 112.0
-0.060710228979587555 0.045390866696834564 0.17019999027252197 140.0 138.0 115.0
-0.06026538461446762 0.045390866696834564 0.17019999027252197 140.0 138.0 115.0
-0.05989083647727966 0.04544420540332794 0.1703999936580658 139.0 137.0 114.0
-0.05948035418987274 0.04547087475657463 0.1704999953508377 136.0 134.0 111.0
-0.05903472378849983 0.04547087475657463 0.1704999953508377 136.0 134.0 111.0
-0.05862346291542053 0.04549754410982132 0.17059999704360962 137.0 135.0 112.0
-0.05817757174372673 0.04549754410982132 0.17059999704360962 137.0 135.0 112.0
-0.05773168057203293 0.04549754410982132 0.17059999704360962 135.0 134.0 108.0
-0.0573529489338398 0.0455508828163147 0.17080000042915344 134.0 133.0 107.0
-0.05690653622150421 0.0455508828163147 0.17080000042915344 134.0 133.0 105.0
-0.056460119783878326 0.0455508828163147 0.17080000042915344 135.0 134.0 106.0
-0.05601371079683304 0.0455508828163147 0.17080000042915344 136.0 132.0 105.0
-0.05556729808449745 0.0455508828163147 0.17080000042915344 136.0 132.0 105.0
-0.05515315756201744 0.045577552169561386 0.17090000212192535 136.0 132.0 105.0
-0.05470648407936096 0.045577552169561386 0.17090000212192535 136.0 132.0 105.0
-0.054259806871414185 0.045577552169561386 0.17090000212192535 137.0 134.0 104.0
-0.05384461581707001 0.045604217797517776 0.17099998891353607 137.0 134.0 104.0
-0.053397681564092636 0.045604217797517776 0.17099998891353607 137.0 134.0 104.0
-0.052950747311115265 0.045604217797517776 0.17099998891353607 138.0 135.0 105.0
-0.052503813058137894 0.045604217797517776 0.17099998891353607 137.0 134.0 104.0
-0.052056875079870224 0.045604217797517776 0.17099998891353607 137.0 134.0 104.0
-0.05160994082689285 0.045604217797517776 0.17099998891353607 136.0 133.0 103.0
-0.05116300284862518 0.045604217797517776 0.17099998891353607 136.0 133.0 103.0
-0.05071606487035751 0.045604217797517776 0.17099998891353607 136.0 133.0 103.0
-0.05026913434267044 0.045604217797517776 0.17099998891353607 135.0 132.0 102.0
-0.04982220008969307 0.045604217797517776 0.17099998891353607 136.0 133.0 103.0
-0.0493752621114254 0.045604217797517776 0.17099998891353607 136.0 133.0 103.0
-0.04892832413315773 0.045604217797517776 0.17099998891353607 135.0 132.0 102.0
-0.04848138988018036 0.045604217797517776 0.17099998891353607 135.0 132.0 102.0
-0.04803445190191269 0.045604217797517776 0.17099998891353607 136.0 133.0 101.0
-0.04758751764893532 0.045604217797517776 0.17099998891353607 132.0 129.0 97.0
-0.04714058339595795 0.045604217797517776 0.17099998891353607 132.0 127.0 96.0
-0.046693649142980576 0.045604217797517776 0.17099998891353607 135.0 130.0 99.0
-0.046246711164712906 0.045604217797517776 0.17099998891353607 135.0 128.0 97.0
-0.04588012769818306 0.04568422958254814 0.1712999939918518 138.0 131.0 100.0
-0.04543240740895271 0.04568422958254814 0.1712999939918518 138.0 131.0 100.0
-0.044984687119722366 0.04568422958254814 0.1712999939918518 138.0 131.0 100.0
-0.04453697055578232 0.04568422958254814 0.1712999939918518 137.0 132.0 101.0
-0.04408925026655197 0.04568422958254814 0.1712999939918518 135.0 130.0 99.0
-0.043641529977321625 0.04568422958254814 0.1712999939918518 131.0 126.0 95.0
-0.04311816021800041 0.045604217797517776 0.17099998891353607 131.0 126.0 95.0
-0.04277104139328003 0.04571089893579483 0.17139999568462372 130.0 125.0 94.0
-0.042298369109630585 0.04568422958254814 0.1712999939918518 130.0 125.0 94.0
-0.04185064882040024 0.04568422958254814 0.1712999939918518 130.0 127.0 95.0
-0.04140292853116989 0.04568422958254814 0.1712999939918518 132.0 129.0 97.0
-0.04085958003997803 0.045577552169561386 0.17090000212192535 130.0 127.0 97.0
-0.04038925841450691 0.0455508828163147 0.17080000042915344 131.0 128.0 98.0
-0.0 0.0 0.0 131.0 127.0 100.0
-0.0 0.0 0.0 131.0 127.0 100.0
-0.0 0.0 0.0 129.0 125.0 98.0
-0.0 0.0 0.0 127.0 123.0 96.0
-0.0 0.0 0.0 128.0 124.0 97.0
-0.03587822988629341 0.043337345123291016 0.16249999403953552 129.0 125.0 98.0
-0.03525714948773384 0.043097320944070816 0.1615999937057495 129.0 126.0 96.0
-0.03477011248469353 0.04301731288433075 0.16129998862743378 129.0 126.0 96.0
-0.03434853255748749 0.04301731288433075 0.16129998862743378 123.0 122.0 94.0
-0.03392694517970085 0.04301731288433075 0.16129998862743378 125.0 124.0 96.0
-0.03348459303379059 0.04299064725637436 0.16120000183582306 109.0 127.0 125.0
-0.033083781599998474 0.04301731288433075 0.16129998862743378 107.0 125.0 123.0
-0.032722946256399155 0.043097320944070816 0.1615999937057495 87.0 127.0 140.0
-0.03232056647539139 0.043123990297317505 0.16169999539852142 89.0 129.0 142.0
-0.03199657052755356 0.04325733333826065 0.1621999889612198 90.0 132.0 149.0
-0.03176729008555412 0.04352402687072754 0.1631999909877777 87.0 129.0 146.0
-0.031648002564907074 0.04395073652267456 0.1648000031709671 89.0 133.0 151.0
-0.031406696885824203 0.04421742260456085 0.16579999029636383 68.0 112.0 130.0
-0.031122799962759018 0.04443077743053436 0.16659998893737793 38.0 87.0 111.0
-0.031092600896954536 0.04501749947667122 0.1687999963760376 31.0 80.0 104.0
-0.030796680599451065 0.04523085430264473 0.1695999950170517 37.0 80.0 101.0
-0.030460787937045097 0.045390866696834564 0.17019999027252197 30.0 73.0 94.0
-0.030139394104480743 0.045577552169561386 0.17090000212192535 36.0 69.0 82.0
-0.029831713065505028 0.0457909069955349 0.17170000076293945 29.0 62.0 75.0
-0.029468514025211334 0.04592425003647804 0.17219999432563782 47.0 62.0 61.0
-0.02901844121515751 0.04592425003647804 0.17219999432563782 61.0 76.0 75.0
-0.028551777824759483 0.045897580683231354 0.1720999926328659 73.0 75.0 64.0
-0.028052983805537224 0.045817576348781586 0.17180000245571136 81.0 83.0 72.0
-0.027603955939412117 0.045817576348781586 0.17180000245571136 86.0 85.0 70.0
-0.027139121666550636 0.0457909069955349 0.17170000076293945 90.0 89.0 74.0
-0.026628177613019943 0.04568422958254814 0.1712999939918518 97.0 97.0 73.0
-0.026119325309991837 0.045577552169561386 0.17090000212192535 101.0 101.0 77.0
-0.025627583265304565 0.04549754410982132 0.17059999704360962 106.0 105.0 77.0
-0.025107890367507935 0.045364197343587875 0.17009998857975006 108.0 107.0 79.0
-0.02460530959069729 0.04525752365589142 0.1696999967098236 113.0 109.0 82.0
-0.024076344445347786 0.045097507536411285 0.16910000145435333 117.0 113.0 86.0
-0.023466654121875763 0.04477747902274132 0.1678999960422516 104.0 107.0 86.0
-0.02284952439367771 0.04443077743053436 0.16659998893737793 74.0 77.0 56.0
-0.022346818819642067 0.04429743438959122 0.16609999537467957 51.0 64.0 59.0
-0.021846728399395943 0.04416408762335777 0.1656000018119812 78.0 91.0 86.0
-0.021388046443462372 0.044110748916864395 0.16539999842643738 94.0 122.0 128.0
-0.020917735993862152 0.04403074085712433 0.16509999334812164 88.0 116.0 122.0
