ply
format ascii 1.0
element vertex 672
property float x
property float y
property float z
property uchar red
property uchar green
property uchar blue
end_header
0.0026436782374347698 -0.007007650202438502 0.2463017117088949 244 208 63
-0.03890189089394452 0.01031159819656105 0.2413098191466682 244 208 63
-0.0197987454713335 -0.00263855069098504 0.2453440930830136 244 208 63
0.02147475764866578 0.03253597494861475 0.24378510795426986 255 0 0
0.02629317024479601 0.02930000361832363 0.24354301091908093 255 0 0
0.015822368778923936 -0.014341795926437823 0.2458859001781063 244 208 63
0.01795484835037099 0.018228434860079155 0.25452876181754575 0 255 0
0.03228932349956848 -0.0003817781922888404 0.2479878025715384 255 0 0
0.026607718970116715 -0.0074652144454907905 0.24815448090149728 255 0 0
0.014336495309314835 0.016813460217125875 0.25017591334940115 255 0 0
-0.004922995158112016 -0.011543278942558178 0.24566077464580569 244 208 63
0.007627956850869099 -0.01789959496223012 0.24893665925387642 244 208 63
0.015719462062286655 0.055545567908908876 0.24283992387342884 255 0 0
0.017607390359862814 -0.015287606817506787 0.2588672131146514 0 0 255
0.017878788883007993 0.01807587653478275 0.24815542931723983 255 0 0
-0.015407426683419666 -0.008041918595929919 0.2566141330407435 0 0 255
-0.021185036109945123 0.06271403115137317 0.2409202787511606 255 0 0
0.004905574576748896 0.03871109058278518 0.24176947782740255 255 0 0
0.013207403850834628 0.017735199425823557 0.24526944740808235 255 0 0
0.003390565521701053 -0.0022273219501887497 0.24958014892404803 244 208 63
0.03249748116575891 0.02939007686369916 0.24818654655097408 255 0 0
-0.022556556703138907 0.018730097021619384 0.2416262698622505 244 208 63
0.012026125151795592 -0.013490070367771726 0.24728424316611303 244 208 63
0.00038090435290599745 -0.015665026738019172 0.24839922219833246 244 208 63
-0.012653333949668444 -0.007736555345973388 0.24535073713817793 244 208 63
-0.0013175993605002712 -0.013922146278653713 0.24570566467385516 244 208 63
-0.008032375328418967 0.01672398496383351 0.24260263406875443 244 208 63
0.02741864375414405 0.02577363375600622 0.24383807217316839 255 0 0
0.013166481756555867 0.02208899785180755 0.243855769694896 255 0 0
-0.013749436150698588 0.006216818000499728 0.2536276212035476 0 0 255
0.034237615775279326 0.003450014327049139 0.24676341698046483 255 0 0
0.03060531180979753 0.010502637920084826 0.2452401118460177 255 0 0
0.03628370458507452 0.030175413516070827 0.24509449106114267 255 0 0
-0.004044358336835732 0.005339797482486559 0.2512294935650352 0 0 255
-0.016437134767216317 -0.00274754231650675 0.24553165735506863 244 208 63
0.03522051307983375 0.03509887519277074 0.2500791307109896 255 0 0
-0.0029555126821888857 -0.012977321075840974 0.2576104995986236 0 0 255
-0.009558153750131436 0.016341359303622786 0.2435563275299542 244 208 63
-0.016421337448520784 0.05985116926234037 0.24136632864733404 255 0 0
0.0035203338710272265 -0.009589876565720329 0.24497358458220272 244 208 63
0.004816724493527371 -0.0007066229925437066 0.2459989131308299 244 208 63
0.02942505887874214 0.014423403776267042 0.24577496077964336 255 0 0
0.03222888850826539 -0.0006247236906470957 0.2465689065896314 255 0 0
0.00342583097012673 -0.009302504866096845 0.24813909694558442 244 208 63
-0.03013367198699434 0.0665849350938608 0.25085755149761274 0 255 0
-0.001542060781772949 0.003817202181547721 0.24481982471141522 244 208 63
-0.03277169554052553 -0.012277804775918102 0.2442159081478938 244 208 63
0.027501434180383012 0.022480445192591264 0.24406168678884332 255 0 0
0.0037770371597959187 0.025884881752051742 0.2439049105951928 255 0 0
-0.008851818329860196 0.016274430187667013 0.2441356062343474 244 208 63
-0.026050576733088398 -0.011447837857495903 0.24344731050835902 244 208 63
-0.0010211822852501141 -0.003142931125505001 0.25546488313094584 0 0 255
-0.001335445328598403 -0.013875999835770602 0.247082323628356 244 208 63
0.03132766907579009 0.0024274638507709324 0.24885502621318845 255 0 0
0.03034330492543648 0.010944885701360136 0.2454114002158753 255 0 0
-0.032677690448203 0.03879502742127901 0.23981179611729264 244 208 63
-0.0015429078987511322 -0.01706024410761134 0.24728311897319596 244 208 63
0.02266410035796238 0.03241653835921311 0.24528867429274048 255 0 0
0.010953560338538258 -0.014143469328577574 0.24727019892701024 244 208 63
0.024261392812503228 0.02466975572039927 0.24588992712530033 255 0 0
0.0131019489877731 0.02147611197193136 0.24335616757969972 255 0 0
-0.008956948005804377 0.008379821268345761 0.24310837671995397 244 208 63
0.016910877975585256 0.016638079821866415 0.247135967541056 255 0 0
0.010974040191807989 0.014905501277276094 0.24475319746532123 255 0 0
0.03743902793259377 0.033418477418247536 0.24601449086546184 255 0 0
0.014663265275478309 0.01868269417047737 0.2500690362348133 255 0 0
6.249845091738267e-05 -0.002962494483436274 0.2555110010008449 0 0 255
0.007076309849086547 0.05044779272022731 0.2539274115180409 0 255 0
0.02666075225356211 -0.01891519969897696 0.24683542788712268 244 208 63
0.0256776240967988 -0.003493358070490349 0.24649791700729332 255 0 0
0.013859530826419244 0.01865719396811824 0.2454099863930236 255 0 0
0.026936486361118304 0.011561383469859493 0.2543910021624252 0 255 0
0.01941392953971751 -0.01788588837680757 0.25594733134142184 0 0 255
-0.00381994021305078 0.005219490366970833 0.24827248267706914 244 208 63
-0.0036967270404221772 0.006018006256239164 0.2520535906820709 0 0 255
0.029711111621920114 0.014136866106522953 0.2479890130339948 255 0 0
0.03134990514190255 -0.0013603690971322573 0.24728662931911588 255 0 0
-0.0006566860281957141 0.0047050986709203345 0.24427128383253854 244 208 63
0.026971423902560944 -0.0119476706145724 0.2473984450617816 255 0 0
0.02444176631133741 0.026482990370927544 0.24416811828013366 255 0 0
0.019544261083597133 0.005382458097037061 0.24692055012500813 255 0 0
-0.029529382677890532 0.03358913730085728 0.2413372048804406 244 208 63
0.02720998398279652 0.02647933934198702 0.24439355080635095 255 0 0
0.012217924885887958 0.05057263907163208 0.2419091990958973 255 0 0
-0.009987240894359891 0.019901433049388878 0.24383331383291892 244 208 63
0.019484798329232837 0.008281416211451256 0.24479145894733684 255 0 0
0.0016275372197346524 -0.01590579699771718 0.24530531368791497 244 208 63
-0.032529254443326994 0.019471025949627373 0.2442955487682492 244 208 63
0.01644302074154827 0.02758918315471763 0.2442023973020912 255 0 0
0.03027232022212199 0.011008752015859817 0.24604766400304515 255 0 0
-0.03461877567756587 0.06489402354403005 0.23898076331656573 255 0 0
-0.019544868747392214 -0.01045179872176711 0.2437937746047615 244 208 63
-0.00779061469461834 0.046618084146689484 0.24056223841360158 255 0 0
-0.0017392677864281926 -0.013555969045267287 0.2453518540219947 244 208 63
0.027541332519779613 0.009079122076363612 0.24927247730744445 255 0 0
-0.004228980443176612 0.04577274695441095 0.24295727488046343 255 0 0
0.019782259403422854 0.006126123351075957 0.2511792957347867 255 0 0
-0.011019249931950317 -0.005546467324136628 0.2454716108074901 244 208 63
0.019345677755562715 0.0301852747112799 0.24636494963952268 255 0 0
-0.007421744487755249 0.017658048420312898 0.2430463520521578 244 208 63
-0.0009971984859418921 0.0059552968829052 0.24794962631181752 244 208 63
-0.011579924690060254 -0.004406718324109382 0.24456027966956387 244 208 63
0.012621014346690822 -0.012957750125209899 0.25047042721596613 244 208 63
0.01857611200497796 0.008963761882942626 0.2445463348658697 255 0 0
0.00170800033504288 0.031206732337133454 0.24343709257970755 255 0 0
0.010368030558964493 0.049209145280801656 0.24243765772033948 255 0 0
-0.016687261822038724 -0.003230630830708854 0.2434664558040746 244 208 63
-0.003079826296499808 -0.012895717404929109 0.25653516481703004 0 0 255
0.03124712025600137 -0.0016084653100161654 0.24586580453563245 255 0 0
0.003906858209511556 0.026503192862989647 0.2425283893564838 255 0 0
0.0029594183318058685 -0.00011004762282180221 0.24603856206797503 244 208 63
0.014881492589724533 0.016967351438429566 0.2501949039479094 255 0 0
0.02436191629346583 0.026260553595900987 0.24578944552673512 255 0 0
0.012066236244052338 -0.013166442245104212 0.25045455919526693 244 208 63
0.022041220699221445 0.03243162368325257 0.25273943755455147 0 255 0
-0.02021561916446909 0.0012482968865317537 0.2439891803196894 244 208 63
0.003512193396833927 -0.0048443274270669225 0.2552896627330128 0 0 255
-0.00021713198116558516 -0.016862544156208248 0.25801595717141257 0 0 255
0.020750355695213846 0.010612943282996867 0.24448939783111634 255 0 0
-0.007421208765554129 0.01706992356877326 0.24362246059028175 244 208 63
0.01986451920513821 0.02953228623680499 0.2435406858088523 255 0 0
-0.03874618858155344 0.0639080843347649 0.23775112611620036 244 208 63
0.024855692981836968 0.05555313818406316 0.24386640081064714 255 0 0
0.028727256232555492 -0.009740703742812875 0.25590478847174114 0 255 0
0.024016443692759563 0.031840176528161394 0.24432570211585095 255 0 0
0.022267287068030328 0.05546006868524644 0.2416498211697502 255 0 0
-0.037027776223232695 -0.005463774412946765 0.252093166716405 0 0 255
0.03794753516196732 0.03544001281536792 0.2448333572268929 255 0 0
0.012424386155471931 -0.014907103552919836 0.2500580048676078 244 208 63
-0.01153495368545238 -0.004401014807019219 0.24509924276304007 244 208 63
0.0018495302431570547 0.026155588439175127 0.24250497276352587 255 0 0
0.012351684727084256 0.018278069659799855 0.24571903804302664 255 0 0
-0.029997628256985934 0.06593503742643599 0.23814928145276573 255 0 0
0.00635505910215752 -0.0039707463231752034 0.24683559652361137 244 208 63
0.003853574930947026 0.026401088829925257 0.24333772992129366 255 0 0
0.027214873524859844 0.054498895013635834 0.24298923826062788 255 0 0
0.012852404542188342 0.052764171301461826 0.2540830668022868 0 255 0
-0.003964734287139815 -0.00262333098568167 0.2443131152131526 244 208 63
0.025944510492083038 -0.019566476547262252 0.24892429144751713 244 208 63
0.03165755933385114 0.00707846471090047 0.24745740914087444 255 0 0
-0.0010772503308943918 -0.003678902293430257 0.247523288559494 244 208 63
0.0006859827373408393 -0.015924096549978173 0.24630635672706783 244 208 63
0.0023035346917271264 0.039112023895463144 0.2480464359929699 255 0 0
0.0028401459503156028 -0.01801488328045739 0.25506692984939583 0 0 255
-0.011677884918401379 0.055835625621068516 0.23974027103395168 255 0 0
0.026938217904392023 -0.008214054318533826 0.25464398784183145 0 255 0
0.027243464963127968 0.05446341901052526 0.2424561949945578 255 0 0
-0.03538321723153742 0.018089994631338504 0.24098087309956073 244 208 63
0.01946938533928112 0.008318299878805125 0.24607682104063128 255 0 0
0.010740028309857728 0.016038796635068613 0.2564139725848816 0 255 0
0.02587416728604587 0.02994901153583655 0.24526712441509887 255 0 0
-0.037081420205770405 0.06340735327282607 0.24750666079044437 0 0 255
0.021302652095376757 0.030239691177232277 0.2432765894732786 255 0 0
0.02651940299507663 -0.019484564313313326 0.24787580769372008 244 208 63
0.01656001903962034 0.018706740913750866 0.2501691741395873 255 0 0
-0.013508743653020478 0.022483821389354213 0.2429356217215301 244 208 63
0.016436480344173977 0.009285809661607698 0.2465366069968637 255 0 0
-0.013620667268320612 0.007986556718560068 0.2444314028140481 244 208 63
0.026932267330650534 -0.009987208198881777 0.24833973708789167 255 0 0
0.026288687115534885 -0.0022547883605990252 0.24635877219858163 255 0 0
-0.03463673616826973 0.047187593782941205 0.24233786719391417 244 208 63
-0.009005309975650409 0.01726868940113187 0.2520833094618908 0 0 255
0.0003313695747813941 -0.004186447960532345 0.24598992236556483 244 208 63
-0.026888806192152344 0.03365420052279988 0.25109679070441165 0 0 255
-0.0005152430344169852 -0.009492903054734683 0.2543197837556938 0 0 255
0.0036004812530366723 -0.018488464097202784 0.2487598244589024 244 208 63
0.000842558855392978 0.03285624984000631 0.24838441692412933 255 0 0
0.010634873653739715 0.024551131947613398 0.2558418048523566 0 255 0
0.019308052935617676 -0.01589719209925692 0.2589990036143589 0 0 255
0.003415891657672178 0.024842608824348095 0.24297052775979275 255 0 0
-0.03727064525332547 -0.008491594505759946 0.24264873819369387 244 208 63
-0.024497549992470932 0.0641500777067074 0.25132191125614295 0 255 0
-0.0042049307882441244 0.005697183259333116 0.2554500381285573 0 0 255
0.019377094332047373 0.009095956892274342 0.24623488992458747 255 0 0
-0.0019135676658820558 -0.013334090226657797 0.24548114942922075 244 208 63
-0.01592507695201789 -0.003184810272522617 0.24415640168967823 244 208 63
-0.017137918518904068 0.025282798340681943 0.24362854567109704 244 208 63
-0.033633905293124294 0.019448864177852288 0.2506171792252733 0 0 255
0.029305104048606895 -0.015296537486693759 0.2482834365866664 255 0 0
-0.0005506719653180121 -0.014822332766873607 0.255735811478183 0 0 255
0.024428686934627866 0.023493534480778386 0.2518675075117607 0 255 0
0.003764047450620072 1.813913657674332e-05 0.2457152309675036 244 208 63
-0.000989613894024655 -0.003883769974623325 0.24435191694397324 244 208 63
-0.02836588805677225 0.06300753439755713 0.23836784084642498 255 0 0
0.03444691831422955 0.0068256224054719285 0.24654998435818035 255 0 0
-0.017597197321386034 -0.0008590475134250472 0.2439119241744577 244 208 63
0.012859633484703863 0.01830993936423902 0.2531868048659118 0 255 0
-0.012693666340966765 0.005448388975984587 0.24518698038548006 244 208 63
-0.042632357798117936 0.0006197758941322157 0.24229168110269744 244 208 63
0.010889911735879068 -0.013692444556615096 0.24665198416094297 244 208 63
-0.008005864446815959 0.008895374521263856 0.2435982093505674 244 208 63
0.01799376048061648 0.015172373771551392 0.24618582905051925 255 0 0
0.005491102798376596 -0.002800637128988575 0.24888038641978258 244 208 63
-0.021303281884545444 0.021489261908793307 0.2436575973104487 244 208 63
0.02602583215889557 0.010504035894873 0.25441252677999954 0 255 0
0.021410209484816107 0.012923446968646559 0.24508693207053242 255 0 0
0.007916498327844768 -0.01547850312402568 0.24768523301303236 244 208 63
-0.004776009528791363 -0.011472776414097335 0.24530601153301232 244 208 63
-0.0037653223999607414 -0.002875910001387245 0.2446090866222561 244 208 63
0.0001516709142300402 -0.012557157754604463 0.24492657913889299 244 208 63
-0.008320542287654088 0.04746018522419797 0.24047776914933355 255 0 0
0.03113862351280975 0.00915146812018314 0.24546603429334757 255 0 0
0.03058815714383857 0.010523923277512937 0.24555993413286292 255 0 0
0.019644351173961076 0.005338499505936054 0.24657088949904532 255 0 0
-0.011778668114812329 0.021195979740460884 0.2425771924334945 244 208 63
0.0039768596273260575 0.03006340787203115 0.2428321291328072 255 0 0
0.002505100206569374 -0.0020536060548597412 0.2533487360651508 0 0 255
-0.0074571640227897714 0.006813661687791449 0.24754599855391457 244 208 63
-0.02205474665064356 0.01884243683532518 0.24379344616302456 244 208 63
-0.03322183560046035 0.0654346680676094 0.24438905250782825 255 0 0
0.023926252461433158 0.031847869428853315 0.24324648399684115 255 0 0
0.0343392705038371 0.027898964728107344 0.24621556971405886 255 0 0
0.012967479526953462 -0.012781294302426301 0.24723971838703646 244 208 63
0.03507883220189009 0.0454132221864338 0.25257477706632553 0 255 0
-0.0043516522642762165 -0.011123738380227283 0.24637941189295504 244 208 63
-0.00275887652151037 -0.003787603969618459 0.24499221975034383 244 208 63
0.03135438187744588 0.008315952832487846 0.24735878785565046 255 0 0
0.0063665971815750014 -0.0165196780191973 0.2498403992620404 244 208 63
0.00325468671650368 -0.0020587247334052823 0.2521133996627091 0 0 255
0.02461375318003279 -0.016954954667199363 0.24814217515351134 244 208 63
0.025760593773489444 -0.0029681529620358494 0.24601996473099585 255 0 0
-0.005644095376380154 0.0029765760599776737 0.24572961441569724 244 208 63
-0.023574908169992297 0.018892556134843752 0.24370857193321355 244 208 63
-0.01813870582045916 0.0038027021173683753 0.24292050872707718 244 208 63
0.014445382854643439 0.05513477365902822 0.24333585506293104 255 0 0
0.03174923038061413 0.006496822736731448 0.2469641061069481 255 0 0
0.03183249860533836 0.007789437982974004 0.25171494815435047 255 0 0
-0.04300445119232328 0.0024546640072918985 0.24161267359114108 244 208 63
-0.001743352193374726 -0.013550901149340504 0.24542800148957997 244 208 63
-0.0017942854166279401 -0.013496599852051802 0.24557506692476866 244 208 63
-0.040243950064968455 -0.00461094662295506 0.24223098422978484 244 208 63
0.028890529760722778 0.014040980580031975 0.2463086791432197 255 0 0
0.012236681123499031 0.017807878031651046 0.25070592238883194 255 0 0
-0.00800023437571359 0.051293838396315836 0.24238754283336097 255 0 0
-0.0010092526537216848 -0.009907101339335441 0.24576180675501377 244 208 63
-0.004558296139891338 -0.013722176254255695 0.2448152819077012 244 208 63
0.021989017673575507 -0.016632458915699252 0.24851685651457947 244 208 63
-0.005668955072234183 0.002508783528252411 0.25218135584622653 0 0 255
0.012918233396728849 0.01667352497770936 0.25648856388759483 0 255 0
-0.0009517746261675439 -0.014223349894428979 0.24520839883652568 244 208 63
0.0038099626042460456 -0.0002640321531717617 0.25393756412031937 0 0 255
-0.036173484331593515 0.06078184343498515 0.23863411456482225 244 208 63
-0.018552813682150532 -0.0005147806867868351 0.2527547551026083 0 0 255
0.01657524780770841 0.00853231324244346 0.2444677267780579 255 0 0
0.0029505887564035124 -0.0004326377740131943 0.2491181311700244 244 208 63
-0.030921078930028524 -0.010587951554381567 0.246382344533528 244 208 63
-0.003157399116892565 0.04382993626137082 0.24207018538893657 255 0 0
-0.00322832047074984 -0.0034399330971308702 0.2460177692198469 244 208 63
0.013712657697356734 -0.01557947390149855 0.2459189115439696 244 208 63
0.00327503485191717 0.02481042138844918 0.24368102818947826 255 0 0
-0.012488322184082894 -0.004231674987693095 0.2543906508819338 0 0 255
0.027435165708263716 0.025844037660093175 0.24490814117916765 255 0 0
0.006786431608927317 0.04940426546006544 0.24760190336612142 255 0 0
0.026823006764471927 -0.0158649342611936 0.24876759587581934 255 0 0
0.014297488170830925 0.05291892171846002 0.2477708689255716 255 0 0
0.0005353453772020227 -0.01579634106900611 0.247353010028734 244 208 63
0.022258485037483698 -0.016710784121056883 0.2479995925460668 244 208 63
-0.024110290870348362 0.06215657983341101 0.25147535777210955 0 255 0
0.030326042497528596 0.010969800399646613 0.2465900757595503 255 0 0
0.03351373710110382 0.008858323612123718 0.24535457828935037 255 0 0
0.025247500282826962 0.00630306326286441 0.24662826094310406 255 0 0
-0.033892353329402554 0.0647438762524351 0.2379558516633572 255 0 0
0.02460368279606668 -0.01705940428838914 0.24653778024573733 244 208 63
-0.024610282712966648 -0.011449925072243143 0.2435247040826279 244 208 63
0.003948512654463786 0.02782034925664747 0.24271142724917705 255 0 0
-0.02702892141736748 0.03381615969059448 0.24044614754739294 244 208 63
0.03168959440238956 0.008698147655744653 0.2484571019806936 255 0 0
-0.00132054678835305 -0.0014636600112921012 0.2444672537075423 244 208 63
0.002453810303565878 -0.011228475050285068 0.245498563335705 244 208 63
0.0021204639906161216 -0.0037382291817770683 0.24551911758538844 244 208 63
0.03461206389808179 0.0463248202715926 0.24610966336129456 255 0 0
0.010251523505787938 0.02004382354822037 0.24365655512505316 255 0 0
-0.01759144488350829 0.00032808152444985597 0.24454913470958525 244 208 63
-0.023654530438429612 0.02721253353524389 0.24100283905734576 244 208 63
0.022861103839885318 0.03228901709820989 0.24387590491596955 255 0 0
0.031211703922682216 0.013535083832074855 0.25129925588888974 255 0 0
-0.017561356861417306 0.00044138630132269097 0.24454320772205598 244 208 63
-0.010668701384473503 0.008870409843168177 0.24506784753750674 244 208 63
0.02627377374895164 -0.01952228022106069 0.24840208055664323 244 208 63
0.004087260392010182 0.04545772962866793 0.2423504396235734 255 0 0
-0.0034289580418216357 -0.010821974591381577 0.24533495157020738 244 208 63
0.02421587192750695 0.008423424670780133 0.24807450939527723 255 0 0
0.02255962684124231 0.006766915635986253 0.2576650316327613 0 255 0
-0.03825059688158685 0.06584722840702598 0.2387225199445874 244 208 63
0.031215769770295325 0.01424329462230651 0.24516708454429584 255 0 0
-0.014256475216205104 -0.0037420305788586003 0.24464094236439915 244 208 63
-0.005329257677506937 0.0020872900126418115 0.2458482218827356 244 208 63
0.026892936378973647 -0.008924225699577465 0.24719301368432178 255 0 0
0.023981958530912926 0.028208197414240084 0.24563944239910968 255 0 0
0.004722475775872755 0.04643913641878983 0.24768853697401422 255 0 0
-0.030970396948535213 0.035479215929667525 0.24220798819777578 244 208 63
-0.017752466507420007 -0.002063841479170164 0.25609048634727444 0 0 255
0.012898498108046774 0.02060835850695498 0.2452822785855052 255 0 0
-0.01119207619427049 0.017855302363042287 0.25511668056584147 0 0 255
0.017929249263904688 0.03177517183429199 0.2434665848418731 255 0 0
-0.0011704018631972391 -0.01215713753431926 0.24808255003500293 244 208 63
0.027128320687558372 0.011825223222413854 0.2543837322824232 0 255 0
0.026454946154183027 -0.01553441753470674 0.255105263331957 0 255 0
-0.0006362373114123764 0.03263780718033056 0.24194022520742337 255 0 0
0.0008809068319407792 -0.008295043270828356 0.2575046550005251 0 0 255
-0.003462744692016729 -0.012532186590020136 0.25330072507678314 0 0 255
-0.010218262119605786 0.017624668524065835 0.2551842636572759 0 0 255
0.0028269029935575124 0.026992416026672357 0.25313405188264504 0 255 0
-0.010393579607245318 0.020160447112282417 0.24218347398325563 244 208 63
-0.002380363286116195 -0.003940349390841464 0.245291153523543 244 208 63
-0.017839373467128397 -0.008768398953562288 0.243709417427794 244 208 63
0.01081884570935503 0.0151464738149305 0.24580270385446232 255 0 0
-0.01783421119823954 0.058323733207270634 0.24568767478574774 255 0 0
0.0014559218023887151 0.03510491130066013 0.2428983179646937 255 0 0
0.030554828942684166 0.011006334180580236 0.25781173023459536 0 255 0
0.0029477592633475624 0.024621245119859844 0.24331810918240931 255 0 0
-0.00762850751634569 0.016478886605388213 0.24311373925716065 244 208 63
-0.004842946223786487 -0.013364823557603975 0.25434534454238655 0 0 255
-0.009058719421696523 0.018680677041563964 0.2551761780697461 0 0 255
0.0047928085322427915 -0.001473085011091788 0.24928618999023364 244 208 63
-0.01086163150652027 -0.004836817987647939 0.2457013006341292 244 208 63
0.012123448513167545 0.017948376050626744 0.25281696975450535 0 255 0
0.03708457985378403 0.04000412282884288 0.24985265335355034 255 0 0
0.013310464779374764 0.028325968640206402 0.24398533708962106 255 0 0
0.028706737232392004 -0.015126145373404173 0.24988270204984558 255 0 0
0.021286690919403276 0.05346478622491156 0.2432770232845225 255 0 0
0.023408560114822483 0.03217221770505322 0.24534486615815726 255 0 0
-0.02641761493021927 -0.011419939290727602 0.2434257665168526 244 208 63
-0.000577812742863738 -0.009816771893490957 0.24470506818134363 244 208 63
-0.004021711951102939 0.0053116980478528225 0.2508072866336284 0 0 255
0.02332234218659902 -0.016954750228158 0.2464620864301118 244 208 63
0.001185833865819344 0.0333836760566607 0.254747137613845 0 255 0
0.03161891974146241 0.007597591669514889 0.2455952127112215 255 0 0
0.02103755593605912 0.03260269075881449 0.2444731269108237 255 0 0
0.004316374705587373 -0.000830534396205734 0.2540024299349177 0 0 255
0.034916776680887086 0.041946342809458484 0.2496071145370974 255 0 0
0.03152473998093843 0.04724154339244286 0.2437034150144539 255 0 0
-0.0033582776760306375 -0.01112758714629091 0.24789667610071692 244 208 63
-0.02465672064948771 -0.012755550153430937 0.2564317279418564 0 0 255
0.027510732884293277 -0.009662842519629476 0.2462652406196186 255 0 0
0.023410579063184608 0.0296651272025327 0.2540602427288913 0 255 0
0.01697909656484313 0.011328396424100983 0.25706211904763776 0 255 0
0.003807046493527894 0.02663132550632403 0.24439377946403548 255 0 0
0.02416938878691413 0.05552496001801041 0.2513166414450851 0 255 0
0.02845322805585717 -0.012872603463811434 0.25928823603483186 0 255 0
0.013246597695583923 0.018377702537633562 0.24442923017118573 255 0 0
0.021719393657063765 0.030738776311928694 0.25389807540067244 0 255 0
0.0016534531211592346 0.025213695243687616 0.24410414804733102 255 0 0
-0.027125763735733242 0.06328108055931711 0.24485936356041826 255 0 0
0.0017226304274708497 -0.003366199820457035 0.2444629504180912 244 208 63
0.0020141042935287803 -0.01605573161224676 0.24561727451650572 244 208 63
-0.004182875135176432 -0.011173131108676442 0.24495992505213618 244 208 63
0.01868169660269344 0.012844971216924652 0.25067309941201005 255 0 0
-0.008123623529198792 0.016992826064181447 0.24576955428812625 244 208 63
0.012258397062958375 0.020874650060036005 0.24766769332918387 255 0 0
0.011106540361969773 0.04978129871657441 0.24208123612631488 255 0 0
-0.00290997743553598 -0.013106464365728094 0.2533685947852111 0 0 255
-0.002188186592751039 -0.0039699562821176905 0.24610883505035727 244 208 63
-0.02116295614010316 -0.010677329917697423 0.24365819312811726 244 208 63
0.020576743830537845 0.010345632200965064 0.24449787615952576 255 0 0
-0.010993859969649737 -0.004707527737836651 0.24461173505924366 244 208 63
-0.012160882487643836 -0.007185379119806124 0.2456984270792786 244 208 63
-0.025322694193553652 0.0627408204409859 0.2513714433623253 0 255 0
-0.034558442436248574 0.06760596201538979 0.23772964149115536 255 0 0
0.015929128832955747 0.008957650590511686 0.2464886989315922 255 0 0
-0.0019058526135442289 -0.013318546674899323 0.24525041355256602 244 208 63
0.01988332449243793 0.008122466087854704 0.24632683257597354 255 0 0
-0.036773698818730605 0.06148902135374316 0.24127143157625738 244 208 63
-0.022548306126936417 -0.013921459612487433 0.24433672492743527 244 208 63
-0.016778702137102572 0.005921592406201314 0.2433255670475036 244 208 63
0.0014934922328563383 0.03142848005913389 0.24723847523627773 255 0 0
0.036887088898051396 0.03181117850004522 0.246091857588227 255 0 0
-0.032465467242218854 0.0417250373125993 0.23962817636340827 244 208 63
-0.035585472895570756 0.06699464808649319 0.23777903896276456 255 0 0
0.004584302078170148 -0.0011505646548840634 0.24606383797675346 244 208 63
-0.00052926896887006 -0.014544116082726655 0.24502229423829422 244 208 63
0.003425614959782091 -0.005833413515674666 0.2446546972642157 244 208 63
-0.004969369925650663 0.041464205690326446 0.24105657437200007 255 0 0
0.03714443292601831 0.03414124598636355 0.243866649883291 255 0 0
0.029498880193310567 0.026397531061949656 0.24397192971578316 255 0 0
-0.01696943338106844 0.0017679894049685806 0.24412871215840995 244 208 63
0.02504980144357409 -0.017053242992912478 0.24656129915392164 244 208 63
0.010908277559442014 0.015872772268111922 0.25643404669456993 0 255 0
0.0042022502148748204 0.04008189171792119 0.24808373122779956 255 0 0
-0.007714329687425017 0.018040548772615395 0.24246827099401003 244 208 63
0.030322697795988084 0.014046919520013409 0.24483809667257492 255 0 0
0.01683895087753004 0.010518323436281262 0.2507291050219834 255 0 0
-0.017170678539170953 0.006199032210110972 0.25557176751988475 0 0 255
0.02649111865636489 0.006904417459900114 0.24504413768484637 255 0 0
-0.008961204145020864 0.016284365771807738 0.24412907773503606 244 208 63
-0.025417900517896552 -0.014147341557354845 0.24473477647754854 244 208 63
0.023588972779028786 0.006398437118646069 0.24923888967435293 255 0 0
0.005220167735086196 0.04023704048349216 0.24168479439656085 255 0 0
-0.022059997116315816 0.029414754642659163 0.24308953764064453 244 208 63
-0.0019467187814325056 -0.013304172909729453 0.2463211370292732 244 208 63
-0.012144955823802903 0.006989264281379297 0.2536622733504395 0 0 255
-0.01569430668364243 -0.0062354780462743845 0.2564785200296116 0 0 255
0.01308600517871326 -0.01284721935289708 0.24671352561589363 244 208 63
-0.0045787683564711655 -0.013614041653382586 0.25756580732928713 0 0 255
0.033735014161224486 0.0019430314322142136 0.24683675366686786 255 0 0
0.0018683672739027626 0.038036938614436834 0.2437991718335802 255 0 0
-0.03597882498936487 0.06396509735510081 0.23789576786694072 244 208 63
0.010901092466162814 -0.015048661337731193 0.25849159720209086 0 0 255
0.019232283602595664 0.01692452528785829 0.24405171239454104 255 0 0
0.024371755458577133 0.024774698992214204 0.2517791875723251 0 255 0
-0.002131004114990292 -0.004040907793541715 0.24504275595277125 244 208 63
0.02302675627292953 0.031774148360643774 0.24645665034333733 255 0 0
-0.002256710581195181 0.040468999649485464 0.24771152125219267 255 0 0
0.02623039088614381 -0.004448308759879498 0.25010246147532467 255 0 0
-0.036542816794595485 0.06443572620994774 0.24108770153455475 244 208 63
0.02036632117413842 0.015249322497794983 0.24635050240695983 255 0 0
-0.0008151262715788317 -0.012034033680177386 0.24809341333222862 244 208 63
-0.033911361251722 0.01959135085896789 0.253782520389125 0 0 255
0.001145406751080819 -0.012044954638325027 0.2454827227697826 244 208 63
0.0026680755253802773 -0.0002561349354586219 0.2456746990497651 244 208 63
0.03405676859098485 0.04811931691118603 0.24270694074911436 255 0 0
-0.0016296785324760484 -0.0012747841880750583 0.24551197048474283 244 208 63
-0.004010732998711245 -0.01514266364311204 0.2464861968723261 244 208 63
0.02826851481360261 0.01390545938166433 0.25749614912769014 0 255 0
0.035098928089322856 0.04046008030318417 0.24327259078145652 255 0 0
0.016400240922234036 0.010316364714069883 0.25284548257477313 0 255 0
0.031591601435081634 0.003918798598671476 0.24659029041867 255 0 0
-0.01701231574004644 0.0030867140921184578 0.24728152034934242 244 208 63
-0.0033022072746774836 -0.012717887275914712 0.25544816565938516 0 0 255
-0.01326317549581027 0.006692997623595149 0.25574848340675066 0 0 255
-0.01874659520568619 0.023701157680117414 0.2415635867860053 244 208 63
0.0232267018544089 0.00880265128664106 0.2575653265363859 0 255 0
0.01633472693670355 0.01015588798966795 0.24607275243812424 255 0 0
-0.03577549959404744 0.01579893730412068 0.25074522428318924 0 0 255
0.031732064906263464 0.004944397514562295 0.25508861289299073 0 255 0
0.012927907689425101 -0.012769772080641568 0.2472368289815721 244 208 63
0.002650635770425344 0.025782025925541484 0.2510786825941683 0 255 0
-0.002533243763201328 0.04075039970471263 0.2540573705482028 0 255 0
0.03083273671473896 0.014012521849988857 0.25762656376409543 0 255 0
0.006338689332464914 -0.004991529637134476 0.24690265538925493 244 208 63
0.013217475826530035 -0.012874889098499123 0.24725935679860553 244 208 63
-0.0019977126248150283 -0.0010316814476249566 0.2451180955635008 244 208 63
0.034008345948518634 0.04423475429122367 0.24621638269601942 255 0 0
-0.003534211614826945 -0.010894068267745936 0.2449761454780121 244 208 63
0.016452695286555467 0.009773212527450437 0.2486315093716668 255 0 0
-0.021496131071060024 -0.010255251543636245 0.2564348518919559 0 0 255
-0.009280069839968309 0.016356408031093766 0.2446441102233035 244 208 63
-0.041225928227835454 -0.003052721992086071 0.24261153767255758 244 208 63
0.025708745438955773 -0.003723837686383893 0.24651492556941304 255 0 0
0.0014800391363928413 0.03169366776631734 0.24211657426984953 255 0 0
0.01751262146621127 0.03167846387162106 0.2445245497202005 255 0 0
0.012953184004650897 -0.012763556545097794 0.24750623635045182 244 208 63
0.03753399413861857 0.0386531261567139 0.24358726288213045 255 0 0
0.013451317837306541 0.018025117978485 0.24685809071657386 255 0 0
0.031641041906233826 -0.00036333977026932127 0.24586786628526938 255 0 0
0.012438918955601678 0.017705083729492605 0.2493059651811824 255 0 0
0.02027470392120003 0.015182774472324698 0.2506029558654489 255 0 0
0.0031319576472663355 -0.019095536937477817 0.24713239571937068 244 208 63
0.0238641043195977 0.0311758912914004 0.24335167336895988 255 0 0
-0.03701801648873469 -0.0087618752746529 0.2448280136953739 244 208 63
0.03156156464612452 0.007573419079579459 0.2473119316075394 255 0 0
0.0025372334586119356 -3.636802743363539e-05 0.2554489965817735 0 0 255
-0.0021791027173961863 -0.013826034590590276 0.248139516496993 244 208 63
-0.016054539631922153 0.0036730821710370554 0.24516739759031483 244 208 63
0.006284580552935189 -0.016210719874944317 0.24657256340489964 244 208 63
0.01761615255585125 0.05454888928027764 0.2542198056963488 0 255 0
0.028908913942453516 -0.010315575884538377 0.25276308828374244 255 0 0
0.011917416299359565 -0.014770090664979625 0.2542746287887473 0 0 255
-0.006093852026854349 0.04358628909264709 0.24300276354280248 255 0 0
0.015219833645206108 0.05276190991461904 0.24145138147961692 255 0 0
0.017773183246077868 0.015448545614710287 0.2456186869201887 255 0 0
0.03292834299606456 0.030589056354333923 0.25344603199694393 0 255 0
-0.0014445682804045332 -0.013825066470046022 0.24530886674454222 244 208 63
-0.004861237072766908 -0.013235157170964565 0.2447666198024913 244 208 63
-0.019027267617202727 -0.003847594473014873 0.24439207170074037 244 208 63
0.032760812972393256 0.029941206815724434 0.25029045895163665 255 0 0
0.006486241114733697 0.04599183301375431 0.24781291172746095 255 0 0
0.03055631539188291 0.048398225313688925 0.24250062063608085 255 0 0
0.0013163659538814295 0.031810283825922346 0.25103120733271395 0 255 0
0.03401315502996575 0.03131252686459219 0.24707666272979373 255 0 0
0.018226959783210237 0.012249958932863833 0.24639283495115738 255 0 0
-0.026807814526294896 0.033544153810286706 0.242602581725006 244 208 63
-0.020606573880649653 -0.011735729783156582 0.25658109737536794 0 0 255
0.023625455484856894 0.006599838143649125 0.2513539100709662 255 0 0
-0.039424819003541584 -0.00576629252387938 0.243425681867021 244 208 63
0.001076615749601332 0.03431727630245561 0.2418565242870281 255 0 0
0.006114779641118333 -0.015903716959516846 0.2582917755017694 0 0 255
-0.0019174063698769485 -0.012538220127779328 0.24615402114798976 244 208 63
0.030484339253633096 0.011176096327345479 0.2577966510007857 0 255 0
-0.017930086691370025 -0.004924879699711436 0.24559648808683526 244 208 63
0.0014790583013782246 -0.01578063677853247 0.24659299965811746 244 208 63
-0.0030645395342087482 -0.01303391099787978 0.24591283321595941 244 208 63
0.0328214504912888 0.00033487984004001645 0.24796864861687953 255 0 0
-0.005281790229356465 -0.00079985784538842 0.24573191818039003 244 208 63
-0.01097438517045591 0.017800293840012398 0.2551320181238287 0 0 255
-0.013527188783871581 0.005512962839101904 0.24518050906530284 244 208 63
-0.029759238390439594 -0.010566728563623501 0.256012364305244 0 0 255
0.0010039173628710743 0.03206685541590483 0.2548250192443355 0 255 0
-0.01635588548936335 0.0026734071758315273 0.2444593176853268 244 208 63
0.0026138048625850216 -0.016698906237812637 0.2453980923191551 244 208 63
0.027873261037262325 0.02602239098580532 0.24456181477325173 255 0 0
0.027213755703051706 -0.01114693897892365 0.2527274934762627 255 0 0
0.01279619818752372 0.02712045890749876 0.24621762271360792 255 0 0
0.0002309196794762266 -0.015052863851868839 0.24578727024893382 244 208 63
0.005281175286540984 -0.0013295387821930993 0.24552834492978212 244 208 63
-0.0301694879334588 -0.010592944306088349 0.25280239765019585 0 0 255
-0.03848774670978639 0.05608621079440036 0.2382855630990953 244 208 63
-0.017761310778961654 0.057585080880317246 0.24144527157075088 255 0 0
-0.008729740812359046 0.016848692029793933 0.24574663595070398 244 208 63
-0.03734215420257106 -0.007551713603283314 0.24583585725414614 244 208 63
0.00022928746276932276 0.03616043966710637 0.2438361426284675 255 0 0
-0.017118800967961274 0.0037251660883019268 0.25361272347255 0 0 255
-0.03783358330194649 0.05547122342061083 0.23842538112918468 244 208 63
-0.0038193043913386663 0.005858522084671202 0.25290821774687344 0 0 255
0.002720600967207302 0.025884915604083163 0.25107558770664923 0 255 0
0.03519170958603323 0.04647496675654373 0.24395112288099963 255 0 0
0.02593783584060692 -0.0027506259195155067 0.2456570395228114 255 0 0
0.03263898767314563 0.010315565525848098 0.25796949380085693 0 255 0
0.013531487604046544 0.02515869456013966 0.24638762493635227 255 0 0
0.011708667933043725 0.053680572446505856 0.25077102263633394 0 255 0
-0.03437094534957394 -0.011198095689238935 0.24459520657866815 244 208 63
0.002696772169958792 0.04182700539745785 0.25107654027529597 0 255 0
0.004397693842552147 -0.00025355551550160574 0.24540934597618771 244 208 63
-0.038156269230052164 0.013584405186134584 0.2507649095899844 0 0 255
-0.011308529960691687 -0.006101292317722353 0.2456719956749206 244 208 63
0.01189472930203279 0.018222477908174856 0.2563305764999277 0 255 0
-0.007734353087500452 0.006729995027241623 0.24541022787860076 244 208 63
0.003901354566070765 0.029533861595066543 0.24393719818567952 255 0 0
0.014707558503792195 0.025667167287205726 0.2442372276444644 255 0 0
0.030863056590820392 0.009823472908710804 0.2463730098580298 255 0 0
-0.0367589920614597 0.06081418581846401 0.2413171332227127 244 208 63
0.02018205224806598 0.013707124371906226 0.25707560641362565 0 255 0
0.03137725482901346 0.008287572276975042 0.24693235695371715 255 0 0
0.03203800517057829 0.029223803226520306 0.2449300929180641 255 0 0
0.0055519290165354715 0.04139556670301858 0.24162548523803354 255 0 0
-0.0019142391459961022 -0.013291687731495014 0.24547829136922916 244 208 63
0.024043572373705115 0.006595175410994549 0.24925017987978215 255 0 0
0.0008309307871330945 0.027108447402186882 0.24393392672425704 255 0 0
0.03454314642988256 0.00496324183518768 0.2456052257363384 255 0 0
-0.03272127406967067 0.016641560477839257 0.24283085964084442 244 208 63
0.024394480665111216 0.024962258124705972 0.25176792375490137 255 0 0
0.0035571649632551946 0.02518489750213958 0.24438715181283463 255 0 0
0.01994050697360701 0.008051514572201643 0.24526075341484432 255 0 0
0.010581445195681653 0.016610244464115163 0.2542409629025841 0 255 0
-0.001955125163066826 -0.013266882935532402 0.2461647930230236 244 208 63
-0.03551571283448786 0.05448731409046245 0.23908832042609288 244 208 63
0.01109341125440651 0.014774649955378753 0.24476830894460005 255 0 0
-0.03467749989893048 -0.007343022846656354 0.24485912472049975 244 208 63
0.026321485574244925 -0.005982482540124269 0.2458927097979988 255 0 0
-0.041385223006532385 0.0033200008053087156 0.2512748487008852 0 0 255
0.027341002738551178 0.025912266659534604 0.24443831919277043 255 0 0
0.002698293686924654 0.025847392520536142 0.25107688848624 0 255 0
0.018871793147901765 0.014550300414781506 0.24738009679307268 255 0 0
0.019659226086585428 0.008174785467670627 0.24545223340788153 255 0 0
0.034275091076028094 0.003948701319123671 0.24780610596320496 255 0 0
-0.03437136062117643 0.01830311292033814 0.2442744705940698 244 208 63
0.0033199249547286366 -0.0022733931494202638 0.24702765940171142 244 208 63
0.005438399564163305 -0.008050972106447923 0.24491024598023572 244 208 63
0.021091509006724955 0.01165757335801646 0.24622795456031077 255 0 0
0.0032018524621061713 0.024798767591597094 0.24403583330423187 255 0 0
-0.014680374968517516 -0.003655741738740387 0.2531715080204624 0 0 255
-0.038842659719059924 0.05882919935167385 0.25090659070673377 0 0 255
-0.005252727898931511 -0.011788978364569908 0.24637535407482464 244 208 63
0.002055275549828559 0.024725966675889242 0.24308428545200989 255 0 0
0.012528134659309556 0.01785201651303805 0.2507186178289677 255 0 0
-0.004852950947140373 0.04189514626269568 0.25385675869545415 0 255 0
0.012900226944905613 0.019497747673827195 0.24428241823642777 255 0 0
-0.0054555610317698474 0.0033596471837993762 0.24499831877484957 244 208 63
-0.0018854788304213596 -0.01315358167465567 0.24673627600042813 244 208 63
-0.0030067866555941675 0.0019465964002390633 0.2452237101887356 244 208 63
-0.006020101053308718 0.008745258101242728 0.24532551902822858 244 208 63
-0.015557080055095516 -0.0033808062914299757 0.2441891846119098 244 208 63
0.024642344613188406 -0.01699043066396638 0.24760913198275605 244 208 63
0.024065380987495187 0.031235983538867758 0.2561172903801643 0 255 0
0.021948312468390605 0.007617718289608604 0.24694326896301835 255 0 0
0.02706732442603992 -0.00792609135966621 0.2503788123258933 255 0 0
0.024580832650809945 -0.019841005940999766 0.24672168049662233 244 208 63
0.0012967601726301733 -0.0013075149835385328 0.24855603696235393 244 208 63
-0.03762221163139885 0.06617879949727468 0.2415517329514301 244 208 63
0.01974295716025204 0.009634689443571855 0.24664820606757915 255 0 0
0.0009827594264363842 0.032231225343138825 0.2526864733318034 0 255 0
0.019620847033542534 0.006518763013923857 0.25752391648685985 0 255 0
-0.041534012021492456 0.005399931597731968 0.251128440842151 0 0 255
-0.03668714766483554 -0.009128211002090467 0.24379627353198266 244 208 63
-0.042769160956779156 0.0019495749232871888 0.25129182378894643 0 0 255
0.016328224660671933 0.05267583040751596 0.24198969267424533 255 0 0
-0.02751132424518323 0.06563020853019808 0.2382391293672834 255 0 0
-0.0158064093621351 -0.010357946243017745 0.2457140339635116 244 208 63
-0.04318309846847464 0.006351265715126113 0.2427755813323751 244 208 63
-0.01918833282248532 0.06153414003260097 0.23895816749913298 255 0 0
-0.04325094698557397 0.0047480369630926895 0.24180477446745158 244 208 63
0.032002050171397976 0.006794905631011197 0.25179023239204834 255 0 0
-0.007989399093980713 0.01621226291629167 0.24257519598189922 244 208 63
0.03322669584113375 0.0026610009986718294 0.24894134367534249 255 0 0
-0.004226240438424047 0.0017318204370351774 0.2565633923189883 0 0 255
0.012461335762466084 0.020102333855375562 0.24347703655992783 255 0 0
-0.03518348303429964 0.01771003043033162 0.24427038171101018 244 208 63
0.030329212708302185 0.010948595342839519 0.24519562229171202 255 0 0
0.01754911568312805 0.006417798490218553 0.24674462854128043 255 0 0
-0.007213468522792497 0.006099134844956188 0.24436374999842198 244 208 63
0.0308123040348568 0.014435929613771997 0.24513262282909593 255 0 0
0.019519857305282624 0.011691995837216158 0.25717420178792666 0 255 0
-0.03149426621019 0.017336574401554963 0.24285041828460346 244 208 63
0.011165096007983696 0.05233988042797389 0.24126198060375287 255 0 0
0.022207462317660787 0.05339840932505409 0.24386775988259535 255 0 0
0.03150438055215962 0.008614314380792472 0.25483215377603247 0 255 0
0.02894771263214652 0.013970028580154396 0.24524259270639434 255 0 0
0.0329358154519228 0.00019297681084841194 0.24583649032639268 255 0 0
0.0161371953151535 0.008217871798131937 0.24654909424426236 255 0 0
-0.0033321519053300143 -0.0033634054724159777 0.24493323835623457 244 208 63
-0.001204812061976466 0.004146499595650371 0.24481599813623126 244 208 63
0.00336085694633737 0.044616275356299466 0.2541162306857174 0 255 0
0.019345921105361395 0.008564398778343925 0.24476517629658737 255 0 0
-0.017354629055578052 -0.0024756419749204592 0.25294952605189186 0 0 255
0.014017133622755478 0.0289641533110266 0.24290689948443173 255 0 0
-0.011141431569155164 -0.005974810737044768 0.24459867229288212 244 208 63
0.0013364171772335728 -0.004075083726557359 0.24496254378976656 244 208 63
-0.018427615982053207 -0.011209392517671175 0.2481570651367262 244 208 63
0.02450992366395077 0.025044924891082922 0.25017376245908124 255 0 0
-0.010851730558109068 0.054913906105013406 0.24091979668674463 255 0 0
-0.012416243963633706 0.05347982486055026 0.2399212543554259 255 0 0
0.025311657333207144 0.008854478221440865 0.24491489008169295 255 0 0
-0.0010303707282091241 0.006761834947335895 0.24411435667315687 244 208 63
-0.0034531462139141397 0.005634260640757656 0.24741396060211063 244 208 63
-0.036205827924332364 0.05486485208130768 0.2417427540960737 244 208 63
0.003338997307092508 0.025865776697258973 0.2426041530200525 255 0 0
0.006757837095869676 0.04897911749034876 0.24443896171435986 255 0 0
-0.04117793196884973 -0.00211143549714923 0.24526804269668664 244 208 63
0.03036045959139544 0.010923600343932026 0.24509157792903005 255 0 0
0.031223451254477782 0.02837455462286927 0.24386905397719053 255 0 0
0.005046138576570087 -0.016322818870525082 0.24758746465368137 244 208 63
0.009457789236527467 0.04833740604186262 0.24208889662079391 255 0 0
0.022880151661960377 0.008666065522076218 0.2575558285242208 0 255 0
0.022872601058487235 0.02979865181518812 0.24339015138559567 255 0 0
-0.018314383398988422 -0.011349890502814593 0.24604601827939837 244 208 63
-0.02450260776853985 -0.011367786296227865 0.24459888136441205 244 208 63
-0.03775606759750612 0.015248360227840933 0.24110651940855468 244 208 63
0.0011589179066587314 -0.01562991055847873 0.24595215843867804 244 208 63
-0.01714020610435557 0.060340114152933104 0.241295228791716 255 0 0
0.003936364534214483 0.027423443197338387 0.24273719121476603 255 0 0
-0.0018979426801935748 -0.01333783445329998 0.2450987138301228 244 208 63
0.0008695268161048979 0.032371723362114524 0.2547975206974768 0 255 0
-0.002670125757333914 0.007578162892079014 0.24343514312639922 244 208 63
0.03145746877969968 0.008089988870414932 0.24630548763763033 255 0 0
-0.007930082377469267 0.016420934441949597 0.2447122265402251 244 208 63
0.03394240363035086 0.04826121994037763 0.24483909903960122 255 0 0
-0.014261339767532716 0.0061082231549386 0.2557338626587112 0 0 255
0.00027075333674275726 0.0361894464808375 0.2416886994851857 255 0 0
-0.03446617372555069 0.046974343244346385 0.23917150148358382 244 208 63
-0.018267186391207637 -0.00045648691027623534 0.24638678904356517 244 208 63
0.013054064996939355 -0.013218210099526926 0.2489161419927972 244 208 63
-0.0018822632267854848 -0.013128024270956232 0.24700321280128412 244 208 63
-0.010177278584116881 0.020057083320875527 0.244349691990295 244 208 63
0.012825983858154564 0.01944345680019272 0.24562438284128268 255 0 0
-0.008029512653004257 0.016244548941509923 0.2431078261350598 244 208 63
-0.011073191965450795 0.006029753117405834 0.24523520764697937 244 208 63
0.02067661428118841 0.011891162644740732 0.24446417249715247 255 0 0
0.03298945183221863 0.011601756057984669 0.24651189409474425 255 0 0
-0.033354151373183656 0.06755952612345506 0.2506199483985338 0 255 0
0.012990241652480097 0.020375144333613805 0.2434234492813238 255 0 0
0.0033777699365288155 0.024889909917954492 0.24368124845022845 255 0 0
-0.01678932043492909 -0.003152635603034311 0.24345579070082382 244 208 63
0.016909564777784852 0.015969109690226805 0.24446384284621853 255 0 0
-0.0036802570399298946 0.005335030141627651 0.24784699314551473 244 208 63
0.03159833642666958 0.0293268637090762 0.25664840293604185 0 255 0
0.01372114509978739 0.05460055206246713 0.24118482595332805 255 0 0
-0.0027144779205710576 0.002413537276831701 0.24377648911805883 244 208 63
0.033334694374697826 0.027054888425512492 0.24621786254323857 255 0 0
-0.002848585272514432 -0.010950687957050141 0.24791224174656826 244 208 63
0.02169167074452809 0.03214278274665039 0.24636050488319403 255 0 0
-0.03543337198531879 0.06491128114888553 0.23920438660694437 255 0 0
0.019790740752425165 0.05410567857995655 0.24479683053164325 255 0 0
-0.04208174342415708 0.00056587085201475 0.2418516723270606 244 208 63
0.02786078876983921 0.02592349530242962 0.25029502444715696 255 0 0
-0.04328015459791576 0.0050926446930962405 0.24249618643639836 244 208 63
-0.0014028104296242164 0.03415808352261433 0.24817733768666111 255 0 0
-0.037456019892666365 -0.008276582176268702 0.24262448518000826 244 208 63
-0.00351555521835891 0.005793209865697698 0.248675921505486 244 208 63
-0.022277792265783455 -0.010794119115595984 0.25323908229194575 0 0 255
0.016979248221587133 0.007779164546974889 0.25729834170574545 0 255 0
0.001499112439184218 0.03495595983588664 0.24183667946077608 255 0 0
-0.013178440586358614 -0.008359856740352434 0.24429018601358138 244 208 63
