ply
format ascii 1.0
element vertex 741
property float x
property float y
property float z
end_header
0.018390082425908203 -0.01291506698206032 -6.302901288699594e-05
0.005927967845828411 -0.007043169000057726 -0.006365876231998941
0.02148765595050077 -0.0010646006648217857 -6.302901288699487e-05
0.0385669340812131 0.01253341745919972 5.533437305624278e-09
0.0002012956340557921 0.04022012521067703 5.53343731090988e-09
0.01034107410107409 0.014886101923620235 -0.010567772986809333
-0.004271669708666495 0.027922579835098747 -0.009517298671628167
0.03240084629040884 0.027423160036224026 -0.0016387399165051894
-0.029532026567938623 -0.001087814377156102 5.533437308349503e-09
0.00863900629303031 0.016722026604281633 -0.007206255987692433
0.017663195367639915 0.03325100753415849 -0.0016672518533875258
0.008619977829864758 0.016335215659141443 -0.010567772986809333
0.03914561313488346 0.00023095818369051342 -0.0019097612253783135
0.0026400449479684236 0.017573083836459176 -6.302901288699174e-05
0.003185951110281906 -0.017124993253373334 -0.0005304809905984319
0.01596474678323326 -0.03802986739271085 -0.003214454551241119
0.007579737979231093 0.019647233371040882 -0.0007073158923750095
0.014633354551662708 -0.00958029172865045 -0.0005304809905984318
0.03248801702875506 -0.01946957116792486 -0.010567772986809339
0.021956442209117678 -0.018195278273702438 -0.0010609748187714143
0.043730836002092106 0.003350299255970581 5.533437304334141e-09
-0.0013123773519166226 0.0223818486510898 -0.0007073158923750087
-0.03333480374439427 -0.0037401607981683987 5.533437308301054e-09
0.00214326971527609 -0.012254434351510088 -0.006365876231998942
-0.013734495014077579 0.005319149709117759 -0.012668723640828737
-0.04310911063699121 -0.025863693784924355 -0.0018567118141033353
0.03300982116377915 -0.02332137951997966 -0.009517298671628175
0.001213229296340404 0.018390719070180302 -0.010567772986809333
0.016136784270949726 0.03327291019984655 -0.004264929625293679
0.018421414702823647 0.03347261225453765 -0.0002273479118687503
-0.02106717063635436 0.03668463337642479 -0.0021219550761211983
0.0216945413529265 0.022473276187305217 -0.00106097481877141
0.022691891659624933 -0.017714283669009314 -6.302901288699671e-05
0.02752614864184851 -0.014958882414308062 -0.006365876231998944
0.005571921255826318 0.028665282753534537 -0.0005304809905984271
0.04114903802991416 0.0040556982598628204 -0.0015914685520854693
0.02548102817059951 0.0003385532664145384 -0.0005304809905984314
0.01730437326366525 0.019309666308131933 -0.01109300913257138
0.04050091058231811 0.0021959192714858405 -0.0013262180807892816
0.03914561313488346 0.00023095818369051342 -0.00010609322587336362
-0.03018742355674843 -0.00148538778568258 5.5334373083474686e-09
0.006659642063078897 -0.003375626121251645 -0.0014146336819285284
0.028262244324397837 0.0036428844615447107 -0.0010609748187714123
0.027783782754861888 0.007116734463083953 -0.009517298671628172
0.010393771766667134 -0.03594995062361467 -0.0015914685520854717
0.034122768879986554 -0.017876010647897022 -0.001060974818771415
0.04691228927431197 0.024993525884890934 -0.0010609748187714112
0.0202455314916591 0.0010565400027883558 5.533437305528931e-09
-0.011526813632744144 -0.01953707892486928 5.533437305290318e-09
0.04301849137074888 0.007696322845098296 -0.009517298671628172
-0.002412396258238361 0.025289406066190914 -0.0003536533613394487
-0.015801039763565762 0.04050903235307356 -0.0032144545512411086
0.03221835834503683 -0.027419371925844007 -6.302901288699832e-05
0.030726213031067644 0.027261957248428125 -6.302901288699243e-05
0.022256764537062802 -0.03670972549629984 -6.30290128869987e-05
-0.002007778197756641 0.018420474200896184 -0.0005304809905984278
0.008678515683998994 0.016424016507883714 -0.004685117732440489
0.017160733788691145 0.029927554595025142 -0.012668723640828737
0.0175034314852274 -0.004160816071873019 -0.002121955076121205
-0.024991760307215668 0.03179694493706817 5.533437311559168e-09
0.03234773247698904 -0.03186724570215859 -0.0021219550761212088
0.02487126317629239 0.0045764203801161914 -0.0007073158923750122
0.01828678781125967 -0.002065743599660624 -0.0010609748187714123
0.04153749587395789 0.006903814287955326 -0.0032144545512411155
0.02597571153938981 -0.01323586145659633 -0.0005304809905984329
0.03719662642126718 -0.001537494792163526 -0.00035365336133945396
0.01856904107002261 -0.001679678283696937 -0.0010609748187714123
0.0025360879413084438 -0.011054142930906789 -0.006365876231998942
0.018774932063786 0.002343160986519014 5.533437305755435e-09
-0.04114500432446019 -0.01709067338264185 -0.00951729867162817
-0.0035716612661633495 0.02182337522976102 -6.302901288699091e-05
0.0017162294925952195 -0.011422854872363206 -0.002121955076121205
0.03207642123574774 0.0040132356742581775 -0.0032144545512411155
0.008650353017009484 0.016349947551764332 -0.00426492962529368
0.023795309403351055 -0.01752975392822757 -0.006365876231998944
0.018345940857591767 -0.0019489769107044256 -0.00026523772858056294
0.03994875216923024 0.009347331375634278 -0.0005304809905984312
0.010748981857301134 0.014486397684713255 -0.000530480990598429
-0.015466924039498517 0.042347857497939234 -6.302901288698801e-05
0.01079496067144611 0.01752591172875633 -0.0010609748187714097
0.026486575460200043 -0.011788582627194264 -0.00026523772858056446
0.0023040903627608005 0.015337920159562137 -0.0021219550761212022
0.018501059463991876 -0.037384490130198074 -0.0021219550761212088
0.032542438197324 -0.03159824883491409 -0.0010609748187714165
0.00991297028108096 0.020033406509048234 -0.008466823344618466
0.008567548871156275 0.01697864959998897 -0.010147581844176917
-0.022024951921096787 0.016021031882749958 -0.009517298671628167
-0.009276485562777563 0.04353317089404272 -0.012668723640828734
0.013033484676333619 0.021951998413459888 -0.0010609748187714095
-0.0047208279400266 0.025656907813542584 -0.009517298671628167
0.02011425623079452 0.03384024327837718 -0.0014398984080814664
0.01736207513078343 -0.0046479141867717365 -0.0007957315567535444
0.00018944966132173328 0.03951237337750676 -0.010567772986809332
0.035839347634362105 -0.004864478614133077 -0.0005304809905984325
0.022450372946767095 0.03438795529966935 -0.012668723640828737
-0.004838946689050594 0.02799554305361301 -0.0021219550761212
0.013690969173875155 0.032843604360918474 -0.00035365336133944886
0.03965448019223713 0.000848327392202356 -0.0021219550761212057
-0.009773691480553218 0.04408841628197248 -0.0010609748187714058
0.04294840183677346 0.026712534710020233 -0.00951729867162817
0.010366720451729672 0.023576062305668652 -0.002121955076121202
0.03237561475315921 -0.019165914829685427 -6.302901288699745e-05
0.020414544719001695 -0.017777688271291944 -0.0014146336819285306
0.0031839475473197064 -0.026473631537183854 5.5334373036538704e-09
0.019615000965225074 -0.013702209731289536 -0.0007073158923750138
0.031173432933785404 -0.01770218538612593 5.533437302870286e-09
0.01976959932325444 0.0007991935212167396 -0.003844734435347122
0.020043931760650485 -0.014932019411513824 -0.0032144545512411164
0.0350308505779688 -0.004243006005189295 5.533437304061535e-09
-0.027301529243962237 0.022042807230090757 -0.00321445455124111
0.04001495893025107 0.027005442327144028 5.5334373070704796e-09
0.023118610979155463 -0.0010210730170228085 -0.0010609748187714126
-0.0038735987326089763 0.021156969137568555 5.533437309137604e-09
0.035812353269835714 0.002661248094279618 5.53343730474593e-09
0.0032580336208124956 -0.009071111841521928 -0.003844734435347122
0.029219751428800404 0.03217957852689347 -0.003214454551241112
0.006734604795445782 -0.00486021930450606 -0.006365876231998941
-0.021946830065815298 0.038737047501560005 -0.003214454551241108
-0.0245105728407573 0.03369575855875798 -0.0032144545512411086
-0.0021421425835163373 0.03862280395331754 -0.001060974818771407
0.003063282404890316 -0.006771900311973529 -6.302901288699435e-05
0.01355695512541296 -0.03724454554681863 -0.0010609748187714158
-0.0005124336987268445 0.03775398721275817 -0.0021639794771885425
0.0032214109737644775 0.028834138539501772 5.5334373095173816e-09
0.019245215048014467 -0.01646037284114814 -6.302901288699637e-05
0.02381978672394788 -0.0009501706748932466 -0.0015914685520854687
0.019800596318455106 0.03428320954909438 -0.0011135041501788422
0.018009410333091846 0.03335962964622123 -0.001364111565379529
0.027272127227699696 -0.010084762154182013 -0.002121955076121206
0.028328914692242652 0.0034641646662593862 -0.0003536533613394529
0.01910227583412484 -0.0012275110345256572 -0.006365876231998941
0.01752072758936853 0.03319974094023652 -0.0017430351546895869
0.04439244573057882 0.02787308765410332 -6.30290128869932e-05
0.017458214243744025 0.03317510343451054 -0.0006062679281592898
0.018368007545356762 0.019369918651380078 -0.003214454551241113
0.0011645449158113497 -0.027328437587763637 -6.302901288699641e-05
0.02137152823482316 0.02424711554985472 -0.0032144545512411125
0.0010395614013598766 0.018523233365810226 -0.008466823344618466
-0.012631526039584604 0.005646011553208982 -6.302901288699207e-05
0.029271097737792573 0.005004876514711198 5.533437305395025e-09
0.03795055018027525 -0.0010500167655445247 5.533437304221395e-09
0.02720980119138291 -0.011097216125270374 -6.302901288699629e-05
-0.0022169722413251393 0.023007850739656433 -0.008466823344618466
0.02659037377925247 0.03193701461991474 5.533437308415528e-09
0.030963494562941795 0.026831829783621797 5.533437307606309e-09
-0.022996198030487146 0.013772048387199955 5.5334373095252985e-09
0.019928863599132766 0.01983949452624042 -0.0021219550761212027
0.03178910814983317 0.027346438130617306 -0.003214454551241113
-0.04434768946957022 -0.025835181899070563 -0.007626443588924975
-0.04397486742389604 -0.02602746754763292 -0.002584167331378221
-0.0021709415974651013 0.027342366970405107 -0.0003536533613394485
0.015081257730063094 -0.0028316745207356084 -0.00035365336133945277
-0.028247778031327025 -0.026656575878267703 -0.006365876231998941
0.025264437567577396 0.03608489356350272 5.533437308936632e-09
0.029443370392573203 -0.03413340486393585 -0.009517298671628175
0.031199224603716758 -0.03325128460894858 -0.002121955076121209
0.002821647434583784 -0.030769486885395634 -0.006365876231998944
0.007179774532371616 0.014216296828025126 -0.0021219550761212027
0.02436818043076696 -0.035614680540604675 -6.302901288699871e-05
0.010743978768342377 0.015082508676801573 -0.008466823344618466
0.0259185971980065 -0.014347287833988814 -6.302901288699655e-05
0.031935716010583204 0.026883089738555042 -0.0013262180807892786
0.001427717173649418 -0.012818412638916865 -0.001414633681928529
0.023654951794105455 -0.018207725052459132 5.533437303277044e-09
-0.04174985371763875 -0.018159286933243007 -0.012668723640828739
2.5344826472991786e-05 -0.02493237320347667 5.533437304010741e-09
0.03596649541206077 0.0023494096896970614 5.533437304703419e-09
-0.023846510757905767 -0.0007419645483378161 -0.0010609748187714097
0.010267126648972948 0.014337605304189921 5.533437307548489e-09
0.046302275872229764 0.02428863612334245 -0.012668723640828739
0.00948076065393483 0.023019071300506646 -0.0018567118141033334
0.0032640444600703263 -0.00903782963475359 -0.003844734435347122
0.03636390929057467 -0.004509053657875065 -6.302901288699615e-05
0.004128532483750275 0.03449940188763398 -0.0021219550761212
-0.016423165919260758 0.0425249157746687 -0.0010609748187714056
-0.01706240192744596 0.042224145610925544 5.533437312179518e-09
0.020013153973977037 0.02053603274715364 -0.012668723640828737
0.0013739604567931602 -0.011707093135422368 -0.0015914685520854684
0.028995549518034385 -0.014199066337967114 5.533437303375175e-09
0.033351914991206016 0.002427678463504826 -0.009517298671628172
0.00459461010205632 0.03359645731340017 -0.0010609748187714078
-0.0024740165540552005 -0.014741878164217416 -0.006365876231998942
0.001709251399252261 -0.011397037946918714 -0.002121955076121205
0.015412432178800312 -0.037540475652944695 -0.0021219550761212083
-0.004476329832595458 0.024084541934174725 -0.012668723640828735
0.03598552193737452 0.027291062373440464 -0.0021219550761212027
0.0004788214472147091 -0.020316549534685584 -0.006365876231998943
0.029259159763308073 -0.010854799726696462 -6.302901288699638e-05
0.018620551660883545 0.0023795228547400936 -0.0017682962129640881
0.007719848026990658 -0.03459313121102882 -0.003214454551241118
0.02523811455382417 -0.0025830731160663488 -0.004264929625293683
-0.022558231948647627 0.01755116977308198 -0.001591468552085464
-0.007010261797154751 0.043248752031336865 -0.012668723640828734
0.0216578350621926 -0.0030409699918447987 -0.004264929625293683
0.018792412993188408 -0.0007799164951898999 -0.0035646117287920125
0.02848509162656373 0.00045000021188232634 -0.0007073158923750129
0.020768301058685667 0.02156520522918944 -0.0021639794771885455
-0.0019177964591287283 0.008998444263265234 -0.0021219550761212027
0.0011433006853514677 -0.011925684508140227 -0.0010609748187714123
0.019642394383639294 0.024403366133293417 -0.012668723640828737
0.016982748288252567 -0.03801243734334666 -0.012668723640828744
0.02599758456397356 -0.03715401918020598 -0.0010609748187714167
0.03270479343891348 -0.025769319286801765 -0.009517298671628175
0.015089051850637917 -0.00929057371162042 -0.0032144545512411155
0.02359394018278029 -0.01590932836320803 -0.008466823344618471
0.002536087941308443 -0.011054142930906787 -0.009517298671628172
-0.028735532262302407 0.027463156732198957 -0.0010609748187714063
-0.0022987860103113674 0.030871050599988816 -0.0005304809905984265
-0.00518242653325015 0.025132967529265034 -0.001060974818771408
0.012624619816503114 0.02190560806430963 -0.002121955076121202
0.01628487765338546 0.03296738791560155 -0.0025841673313782183
0.009611563671229634 0.023107993871688423 -0.00026523772858055974
0.018368007545356762 0.01936991865138008 -0.01109300913257138
0.019839633192291088 -0.014746683953884947 -0.012668723640828742
0.004650163324651297 -0.030737709818467865 -0.006365876231998944
0.010418827942675088 0.023606650142302538 -0.0015914685520854652
0.03062062033103052 0.0075029917223592615 -0.0021219550761212044
-0.023828761819280727 0.0187183387260051 -0.0032144545512411103
0.019215422990764255 0.0021136605141945353 5.533437305704123e-09
-0.027415866646424134 -0.02655315500627495 -0.003214454551241115
-0.04456226820700823 -0.024946589566465983 -0.012668723640828739
0.004286707426136352 -0.033128839961470626 -0.0032144545512411177
-0.02329543640463852 0.037664680460254854 -0.003214454551241108
0.020655822813256314 -0.017295024295389656 -0.009517298671628174
0.022289299439810565 -0.0008348381616062978 -0.0007073158923750126
0.015478434164376826 0.021257225231109952 -0.0042649296252936795
-0.03992336635318567 -0.011189911115284239 5.533437307914385e-09
-0.0045566602257265465 0.04311447857549336 -0.0021219550761211988
-0.04404189355127154 -0.02599602851222609 -0.010147581844176919
-0.014505861999653513 -0.024294252507409547 -0.0010609748187714128
-0.019217918167498148 0.03802061575793311 -0.0010609748187714058
0.019650733650927014 0.019635080466128257 -0.0018567118141033345
0.030146657157343278 0.027125819060289193 -0.0021219550761212027
0.042608622069597604 0.026309110495783466 -0.001591468552085467
0.013062321246155455 0.024657232781943882 -0.0002652377285805598
-0.010193866475174193 0.041822987521653796 -0.0032144545512411086
0.04191657656444884 0.017074699206220494 -0.008466823344618468
-0.011878035984422853 -0.020381733792124834 -0.006365876231998942
-0.024886594853524895 0.035926290038084153 -0.009517298671628165
0.027809822105092682 -0.015461098445825869 -0.0017682962129640905
0.018365901132817834 0.02184142091171867 5.533437307848418e-09
0.019753201255775992 0.030381504609565756 -0.0005304809905984278
0.021142605214190768 0.026111623165890257 -6.302901288699197e-05
-0.025739592951885645 0.03561899157736489 -0.0021219550761211983
0.04172134955360003 8.313355125085549e-05 -0.006365876231998943
0.028128890494795434 0.004808028742073519 -0.0014853661881356409
0.027843254139909332 -0.03600143936619627 -0.002121955076121209
0.0021238780858259744 -0.02150186050045942 -0.01266872364082874
0.0189731827279759 0.03410684055822876 -0.005315401410903505
0.017208713556983647 0.0329993285267728 -0.0020461682334192636
0.0181206526913315 -0.015344636734135074 -0.0032144545512411164
0.028812827770507088 -0.014047260105505237 -0.0001515646421863367
0.00319787353600649 -0.00928259696216279 -6.302901288699462e-05
0.007558765414526461 0.01941255481088632 -0.0017682962129640857
-0.021846458812026612 0.015817236478157973 -0.009517298671628167
0.024798404811500283 -0.01542736386283305 -0.006365876231998944
0.04350639415097082 0.02016597499845665 -6.302901288699397e-05
0.026787896069361397 -0.011031655381455698 -0.0005304809905984327
0.0326901223551079 -0.020193466127214593 -0.009517298671628174
-0.01689164521567419 0.03996492291786582 -0.0032144545512411086
0.00861700441278589 0.02134912141152642 -0.012668723640828737
-0.01421023502665355 0.002919220956340069 5.53343730783629e-09
0.0032538637454596797 -0.009089255946949006 -0.01266872364082874
0.024998791580438693 -0.0002498878708127798 -0.0005304809905984314
0.005640513428494495 0.028680346588108495 -0.0015914685520854645
-0.010427754840937704 0.044075516903161915 -0.0010609748187714056
0.03127766706730456 0.02683898408183224 -0.0021219550761212027
0.04430003937766972 0.022694878499264996 -0.00636587623199894
0.0011466818333216498 0.0313251318110449 -6.302901288699019e-05
0.016136784270949726 0.03327291019984655 -0.008466823344618466
0.029566896709785864 0.028610765964250297 -6.302901288699222e-05
0.04124065270842581 0.007813351945921183 -0.009517298671628172
-0.025543290614652627 0.023789223676638604 -0.001060974818771407
0.009956460535542345 0.020177795721638487 -0.0042649296252936795
0.04170776379702469 0.005921853829053348 -0.009517298671628172
0.02922277590438954 0.02829672162465156 -0.0010609748187714097
-0.010708681891392253 -0.01894330162917844 -0.002121955076121205
0.04126929721251822 0.005061241325160398 -0.001591468552085469
0.023408428038363967 -0.001031775755694876 -0.0018567118141033369
-0.002886939522898468 0.026644443235430384 -0.012668723640828735
0.01839468393290399 0.001850501442059015 -6.302901288699438e-05
0.03427468567192519 0.029863581906511328 5.533437307725097e-09
0.031205836092869636 0.027285395197802716 -0.004790161723741583
0.005828554243560856 -0.004067191333433843 -0.012668723640828739
0.04340501062684508 0.008576908415675545 -0.0007073158923750129
0.017458214243744025 0.03317510343451054 -0.00037891445123358885
0.007003060786116753 -0.005656301901375365 -0.0018567118141033364
0.01204835631750991 -0.03965845629079169 5.5334373017127315e-09
0.02849054102144545 -0.010180776594603896 -0.003214454551241117
0.01036642311735816 0.019657125908056215 -0.00035365336133945006
0.019521998353779144 0.036433928755025186 5.533437309325273e-09
-0.00951540828699999 0.04181705157892957 -6.302901288698843e-05
0.02721362161941759 0.006943881127177281 -0.0032144545512411147
-0.043787439785900606 -0.02558452861191765 -0.0013262180807892794
0.014868528631014254 0.021142562728200323 -0.0007073158923750099
0.033051512637222565 0.029675631607486 -0.0021219550761212022
0.025310646945493582 0.005076702489709877 -0.010567772986809337
-0.025093760450961795 0.03156274520208623 -0.0021219550761211988
0.03135573410715945 0.027299467887421325 -0.012668723640828737
0.01852535650146867 -0.0006299918168023253 -0.01266872364082874
0.010841715566264426 0.015858273453382 -0.0021639794771885455
0.010318704614437445 0.019399045543710053 -0.0003536533613394501
0.005307539520284337 0.028632104253817438 -0.0002652377285805589
0.016752221551567796 0.029581388165826155 -0.0010609748187714089
-0.013195254949820406 0.008501578530001807 -0.0010609748187714093
0.015664646492106214 0.03537011781558566 -0.0015914685520854643
-0.02778220693343095 0.03026750138288443 -0.012668723640828734
0.017840609576286453 0.021877943366932193 -0.001856711814103334
0.04464559193212816 0.024613939019319936 -0.010567772986809335
-0.020068829170970495 0.011470023238894258 -0.0010609748187714086
0.030036456929323534 0.005291989012588626 -0.0021639794771885477
-0.03495608684566854 -0.026599989308217137 -0.0010609748187714117
0.04168104150024856 0.026602681326060147 -0.002121955076121203
-0.025188095467818503 0.021377054794392926 -6.302901288698963e-05
0.030782110291257388 0.027260001302689633 -0.012668723640828737
0.018009410333091846 0.03335962964622123 -0.001288328264077468
0.0244862769261311 -0.015603841579687054 -0.012668723640828742
0.040199512623332795 0.01009545673436924 -0.01266872364082874
-0.043974867423896044 -0.026027467547632917 -0.012668723640828739
-0.03124562338422571 -0.00548928101953273 5.533437307987622e-09
0.01719823950882896 -0.008478672479405732 -0.001591468552085469
0.019089833585462505 0.024931207797689547 5.533437308131785e-09
0.020730903702578782 0.0205547820164037 -0.00026523772858056066
-0.000631403796092091 0.029374465782421606 -6.302901288699029e-05
0.015288783473605896 0.03164438638124196 -0.012668723640828737
0.005178257048725124 0.03233825620655665 -0.001060974818771408
0.026030109362300276 0.03506956912328714 -0.012668723640828737
-0.042459970934319496 -0.016047782340853148 -6.302901288699255e-05
0.016407966379917975 -0.012723622370354647 -6.30290128869958e-05
0.015268805165094093 0.024126859478626413 -0.0015914685520854656
0.029623285588508432 -0.015066300825002939 -0.0010609748187714145
0.03710538875130186 -0.001281812916545777 -0.0019451238738427096
0.0022698480711279465 -0.0309813014183675 -0.0010609748187714145
-0.04328609619065756 -0.025801619777340672 -0.0013262180807892794
-0.004740685121390702 0.005390010644506275 -0.0021219550761212027
0.017616704392567347 0.03377128508879794 -0.010567772986809333
0.04135397073360109 0.01626224761129114 -0.006365876231998941
0.017206206851747043 0.001278154824578319 -0.0017682962129640881
-0.00029545106962956824 0.00805243497295568 -6.302901288699258e-05
0.02556225183052853 0.00652033298338518 5.533437305782852e-09
-0.04034307792098346 -0.02684938298300544 -0.00636587623199894
0.006732370048215589 -0.004071498509041827 -0.012668723640828739
-0.00554510790546174 -0.01752882991811358 -0.006365876231998942
0.007003083423915204 0.016433377384857978 -0.008466823344618466
0.02723375073582715 0.00746184316112818 -0.001060974818771412
0.020259249915617405 -0.002314675610629738 -0.01266872364082874
-0.026099153349260207 0.019402051831431195 -0.009517298671628167
0.02832199148291794 0.003483546412188712 5.533437305291793e-09
0.006729718016596783 -0.03357453433836794 -6.302901288699741e-05
0.017338674222365305 0.029738857767919326 -6.302901288699136e-05
0.0190505732671349 -0.0011541042977389494 -0.0016387399165051916
-0.0008320967424007978 0.03811421441886272 -6.302901288698935e-05
0.032178486852138644 0.0039284644807197535 -0.006365876231998942
0.0012312670944579355 -0.013635063726811258 -0.0017682962129640888
-0.0008774530858795182 -0.010880780575339576 -0.01266872364082874
0.006318597971403196 -0.007435666596875332 -0.000795731556753544
0.041646735174607145 0.006399879026558678 -0.01266872364082874
0.026517019771030034 0.007143098951170896 -0.000707315892375012
0.03714845364264335 -0.00485922437420843 -0.0003536533613394543
0.010841715566264426 0.015858273453382005 -0.010567772986809333
0.017010441033594174 -0.014885332044409307 -0.002121955076121206
-0.04106383539273964 -0.013861816408852333 -6.30290128869924e-05
-0.03392302786906701 -0.02704359227381208 -0.006365876231998941
0.00324759877549189 -0.016862616642240733 -0.0021219550761212057
0.002465882204374237 0.037294632065000916 -0.0003536533613394477
-0.004444703837237821 0.009357255955803568 -0.0021219550761212022
-0.041887353204363216 -0.019384186331615344 5.5334373071655805e-09
0.015278500393926512 0.03518253080384406 -0.0010609748187714082
0.002780122987971532 0.02893350208507097 -0.0010609748187714082
0.0008841654093540316 0.03945922376010987 -0.001060974818771407
0.00122607328366006 -0.011847093110726322 -0.002121955076121205
-0.009593520851068167 0.04354139084599674 -6.302901288698824e-05
0.016208326626379083 0.023598029962840772 -0.0021219550761212022
0.0006890500668215701 -0.011595497102665763 -0.006365876231998941
-0.02449969378212875 0.036406902730286524 -0.012668723640828734
0.02836608645440327 0.005013263305785197 -0.0006365833861679004
0.024592712257344114 0.036301009202429325 5.533437309000684e-09
0.035185798462203245 -0.003120240795530757 -0.01266872364082874
0.019310725238864932 0.02646212569605443 -0.012668723640828737
0.042478088826165626 0.01796910079222046 -6.302901288699413e-05
-0.005671749882603426 0.04348137718640637 -0.0021219550761211988
0.018009410333091846 0.03335962964622123 -0.0017430351546895869
0.020578397022952662 0.02039328744739645 -0.000530480990598429
0.0020540841382440784 0.029540962710524882 -0.012668723640828735
0.018354113120671808 -0.01285776879816028 -0.0032144545512411164
-0.025797369198891227 0.02509693961602463 -0.002121955076121199
0.02975454378851803 -0.030889587256535803 -0.0010609748187714162
-0.026347958119308193 0.025213667792256922 -6.302901288698916e-05
0.018421414702823647 0.03347261225453765 -0.0005304809905984275
0.0007982987291275566 0.03956169650689837 -0.002121955076121199
0.011432177415939727 -0.03886424303352274 -0.006365876231998946
0.02802469652882666 0.0011075041681219177 -0.01266872364082874
0.039854394186313286 0.029247418769157683 -6.302901288699278e-05
0.004679432137870614 0.032119573573381556 -0.012668723640828735
-0.04178543192263611 -0.026192211016857328 -0.002121955076121204
0.004283835122852355 -0.029107688853319783 5.533437303307159e-09
0.025927354465556055 0.0034912546053975143 -0.003214454551241115
0.03466323465745406 -0.023928395353741434 -0.006365876231998945
0.02045344307375583 -0.015252381088419057 -0.003214454551241117
0.03367452648313229 -0.028350272930816853 -0.009517298671628175
0.021367061027570255 -0.018079198986281356 -0.0017682962129640905
0.016589681706204378 0.0233224800629503 -0.001326218080789278
0.03456909799531851 -0.020871176284506958 -6.302901288699778e-05
0.020281792055460438 -0.039132993419990075 -0.012668723640828744
0.008102472695621171 0.018554548915974085 -0.010567772986809333
0.0032463179354540227 -0.009119006804281612 -0.011408153248417098
0.014778073343616142 -0.04018638282996256 5.533437301489594e-09
0.005023334710284577 -0.03414569785690716 -0.0032144545512411177
0.011385103728140823 0.024155577760836686 -0.002121955076121202
0.01034107410107409 0.014886101923620235 -0.0021639794771885455
-0.03635480355660734 -0.009928496237114792 -0.009517298671628168
0.016391154135293552 0.03339210864287226 -0.007416348017608763
-0.03656814496343172 -0.02932149499153034 5.533437305785947e-09
0.021407693930037754 0.021658699768733483 -0.0021219550761212027
0.021949125372150567 -0.039182348546974166 -0.0015914685520854726
0.009574054546529926 -0.0386688612481735 -0.0010609748187714158
0.007258399013632314 -0.0048741596209000366 -0.0007957315567535438
0.018139122895109112 0.03209339269802075 -0.0005304809905984276
0.042507587956424855 0.019080387327446303 -0.0010609748187714117
0.02094021885890575 0.033966530562478864 -0.0007578380721632884
0.02296695407119876 -0.01769544805121236 -0.009517298671628174
0.003913113760612417 0.03355790995380113 -6.302901288699012e-05
0.03077209039580341 -0.012955261387303943 -0.006365876231998944
0.009800892345141018 0.01928149174384488 -0.0042649296252936795
0.04370529614843206 0.022469187167813025 -0.0010609748187714112
-0.0026305532241669895 0.027512913116658568 -0.012668723640828735
0.0046194940620197305 -0.029741662037277492 -0.002121955076121207
0.0009145090044543882 -0.026526791999369075 -6.302901288699632e-05
0.02140421564852916 -0.0003796156808351786 -0.0007073158923750125
-0.04680724417455199 -0.0252546509886804 -0.0021219550761212035
0.013622867740573225 0.03326569897215305 -0.001414633681928525
0.00353269795795788 0.028774143283315557 -0.0013262180807892766
0.016948423862264632 -5.048571108632271e-05 -0.010567772986809337
0.02947542894072037 -0.013879582373714035 -0.008466823344618471
0.028443539873853653 0.0031091548157496404 -0.00035365336133945293
0.008715808185682059 -0.03753060228057655 -0.006365876231998945
0.02997780847202821 -0.01081826542239085 -0.001060974818771414
0.018438798974647355 -0.0007020851999557359 -0.0021639794771885477
0.0030789959383334857 -0.02768427381068818 -0.006365876231998944
0.01713933677546887 0.01940902170233573 -0.004790161723741583
0.025617815017354436 -0.016675865764207938 -0.0032144545512411173
0.015393366040901569 -0.01039614699675128 -0.01266872364082874
0.015448131212933904 -0.003283151415902708 -0.009517298671628172
0.009820025124821576 0.018813137012783546 -0.002163979477188545
0.0029642016286719414 0.017433637394379545 -0.008466823344618466
0.021447703547205876 -0.002968843117990934 -0.006365876231998942
0.0023790032196188463 -0.007498958865133767 -0.006365876231998941
-0.02356316445947414 -0.025823733843725626 -0.01266872364082874
0.03240084629040884 0.027423160036224026 -0.003214454551241113
0.0008274620595682592 0.03498584576629097 -0.0021219550761212
0.028688529737505474 -0.014165982291451992 -0.0018188147881132103
0.03550934062337787 -0.00472624372431264 -0.0015914685520854698
0.04118397305773633 0.004234514796691591 -0.0021219550761212057
0.023779243751029307 -0.0354981787129724 5.533437301435651e-09
-0.026417538116357962 0.028088897190085376 -6.302901288698885e-05
0.02060190511724655 0.03392041381813154 -0.0015914685520854648
0.02481838660040307 -0.014908446464808102 -0.0015914685520854702
0.00022123328071239039 0.019287868422841747 -0.0021639794771885442
0.006398135631591106 -0.00724119217125892 5.533437305496802e-09
0.027135449393607465 -0.015481961318125272 -6.302901288699675e-05
0.009358723317910737 0.02293250718350242 -0.0013262180807892775
-0.011748479062058465 0.043390421229825886 -0.009517298671628165
0.024297076146039844 0.03390699727661544 -0.008466823344618466
0.027076434066915595 -0.03393330366547677 -0.009517298671628175
0.016307104308529313 0.019439944977097782 -0.0014146336819285264
0.005867947611675981 -0.03170041652328687 -0.0015914685520854708
0.02092234547935655 0.020802410306837892 -0.0005304809905984289
0.006826228447553086 -0.006143509410150876 -0.00026523772858056267
-0.0007106692213508568 0.03798467612597312 -0.0021639794771885425
0.029034751787522874 -0.009938509886476347 5.5334373038246386e-09
0.03849065658604996 0.029424207160447056 -0.003214454551241113
0.0011433006853514677 -0.011925684508140227 5.533437305321743e-09
0.015782866675542455 0.03120587511865614 -0.0032144545512411116
0.015388046908183222 -0.012021445853119539 5.533437304439347e-09
0.008618764574147208 0.016802175393044235 -0.011408153248417095
0.016391154135293552 0.03339210864287226 -0.005315401410903505
0.016875598046089207 -0.039650038246972434 -0.009517298671628175
-0.025984946236799217 0.01771156961707544 5.533437310126123e-09
0.0036663996169409357 -0.02898205844296413 -6.302901288699674e-05
0.0003878108486820271 0.03929641758503289 -0.004264929625293677
0.0377309624359397 -0.0039229066975079874 -0.012668723640828742
0.018243846694607192 0.021774143537269034 -0.0002652377285805604
0.01745291290419485 0.032737114073411046 -0.001326218080789277
0.02653937470775709 -0.03619744136357739 -0.0032144545512411194
-0.01896929352328935 0.04121164133423429 -0.0010609748187714054
0.017027408886557963 0.019493507827963715 -0.0016387399165051892
-0.019910170343590505 -0.026342900177637615 -0.01266872364082874
0.010793382462265426 0.015138257013164633 -0.012668723640828737
0.005176708956035879 0.029390097501540056 -6.302901288699064e-05
0.031730355395080935 -0.018848240430740803 -0.001060974818771415
0.01791211932095379 0.020984998032976127 -0.007626443588924974
-0.024705490925117837 0.03615583680750906 -0.0032144545512411086
7.373694934536042e-05 -0.025273929854657803 5.533437303971553e-09
0.006471576455867341 -0.0033091669849454517 -0.0014146336819285282
-0.004903332407545531 0.005351093251757056 -0.0010609748187714102
-0.022498085754919864 0.013302240277342283 -0.0010609748187714082
0.01596205455872321 0.023755034574495577 -0.001326218080789278
0.043976178666387956 0.026214286925837448 -0.003214454551241114
0.0038976421706451163 0.01709363464614035 -0.012668723640828737
0.028864434373171967 0.005631076393056323 -6.302901288699461e-05
0.0255361152024781 -0.00042645601829819464 -6.302901288699506e-05
-0.04221339941246041 -0.019997145203283488 -0.0005304809905984294
0.005499811874134531 -0.035638597123385886 5.533437302540051e-09
-0.00470350918456133 0.02627858711243984 -0.012668723640828735
0.01631520263350419 -0.04025323641539839 -0.0021219550761212088
0.027820307448747778 -0.010197083596506874 -0.001638739916505193
-0.02759575358016414 -0.00039848524680127594 -6.302901288699179e-05
0.020291127712990922 0.02083686131702051 -0.00426492962529368
0.02041588062975676 -0.0030551022662957776 -0.0021219550761212053
0.042982835554291464 0.02616923972154203 -0.0010609748187714108
0.038546532374737784 0.013193343864752337 -0.001060974818771412
0.02601329129657945 0.006298047842607867 -0.010567772986809337
0.016752221551567796 0.029581388165826155 -0.001591468552085465
0.017509330585586128 0.029550526101009812 -6.302901288699138e-05
-0.03887105163523526 -0.014397378396054794 -0.0021219550761212027
-0.032193139795952515 -0.006278785388601639 -0.0021219550761212022
0.037079789107596614 0.029495284818204844 -0.00951729867162817
0.039461081424604964 0.0006067073216093024 -0.0011670698469643545
0.005935059334088897 0.0294743765296877 -0.0013262180807892766
0.017949182330941817 -0.0028636736386385762 -0.0007957315567535442
-0.0022372906126896246 0.024225322338791128 -0.0017682962129640847
-0.0017958796173667782 0.008976509260023288 -0.0021219550761212027
0.01752072758936853 0.03319974094023652 -0.001894601630815142
-0.02396046849214242 0.01575976001581514 -6.30290128869903e-05
0.043822958574943935 0.007102685954694445 -0.00035365336133945347
0.04158997812486678 0.0066870408929979 -0.01266872364082874
0.02885994355347304 0.029678799868621628 -6.302901288699206e-05
0.04386076153438219 0.0067766513182893505 -0.0014146336819285295
0.020808501364012313 0.027218757722596333 -0.003214454551241112
0.01644127408835295 0.02343497977263566 -0.001326218080789278
0.00025681994048559656 -0.02627994842707181 -0.002121955076121206
0.0255378244424588 -0.01743081928411372 -0.0007073158923750145
0.03575314848394265 0.0027750493721329385 -0.0005304809905984317
0.0166561699885657 -0.0005719508057948636 -0.006365876231998941
0.028041022390908485 0.0012468747920039189 -0.010567772986809337
0.02140421564852916 -0.0003796156808351786 -0.0003536533613394529
0.01724462504374421 0.033064602213416956 -0.0011367579935949027
0.027836686005788355 -0.014416547068729352 -6.302901288699668e-05
0.016495559414993397 0.022636540038544695 -0.009517298671628168
0.007749377481691096 0.02052416760170206 -0.0014146336819285258
-0.02942182744818423 -0.0283849844724008 -6.302901288699465e-05
0.041210829803386875 0.004395381925452677 -0.0021219550761212057
-0.04313524508181524 -0.01716686459992661 -6.302901288699262e-05
0.02150713336347191 0.03401381354003248 -0.0018188147881132047
0.0026486046120539133 -0.021964296777506408 -0.0010609748187714134
0.01249719519919315 -0.03692975871770046 -0.0021219550761212083
0.03692797745803868 -0.00064135668973302 -0.0017682962129640897
0.02544099288887208 0.0033824699388131305 -0.000530480990598431
-0.023687899675864984 0.015375333943771628 -0.012668723640828735
0.031294546642930875 -0.02940870640340916 -0.012668723640828744
0.0340343735675956 -0.027277798636570982 -0.012668723640828744
0.023151345638889813 -0.01597069320419293 -0.004264929625293685
0.020582545486425873 -0.037386924455755 -0.009517298671628175
0.008650353017009484 0.016349947551764336 -0.007626443588924974
0.04391258706619129 0.006109035634428799 -0.0003536533613394536
-0.0029484792682219867 0.026229273698103468 -6.302901288699047e-05
0.020397390788646007 0.033888496878264396 -0.0021219550761212014
0.020455783508220894 -0.014560513338311907 -0.0014146336819285303
0.04135699046094164 0.0074947683441591445 -0.0032144545512411155
0.0023279799876005044 -0.007553358100494394 -6.302901288699439e-05
0.04460751297284823 0.027755876745042988 -0.00951729867162817
-0.027066563027840815 0.033633102970853375 -0.001768296212964082
0.021551921962891987 -0.0030066383176873966 -0.006365876231998942
-0.03729182927595895 -0.026579086782303633 -0.002121955076121204
0.0004039446040090694 0.007930643808976713 -0.000530480990598429
0.03248533795912821 -0.02309586746663155 5.533437302217915e-09
0.014095070342706673 0.03216265036649864 -0.0017682962129640847
0.006463259889505004 -0.0357471206940601 -0.003214454551241118
0.01898975445210208 0.0022526979081407754 5.533437305732687e-09
0.027944199424870312 0.007668766168965809 -0.0014146336819285284
0.028074386981146407 0.004276502322546634 -0.0010609748187714123
0.0053651003063328 0.014427358409729939 -0.0015914685520854658
0.032944471425529066 -0.029931226474960063 -0.003214454551241119
0.01370406055472871 0.03365633958397745 -0.002121955076121201
-0.0014615912548393197 0.03870621748541786 -6.302901288698924e-05
0.007003060786116753 -0.005656301901375365 -0.0015914685520854682
0.03394778764749017 -0.02916125268856422 -0.0021219550761212088
0.024421888557357874 -0.003515499566779352 -0.00035365336133945336
0.00042973085401437963 0.007705360719599016 -0.0010609748187714102
-0.0057905970080082145 -0.018449220616782423 -0.0021219550761212053
0.028157109458533357 -0.03578978747912561 5.5334373011366564e-09
0.035809453949412304 0.029445570786466747 -0.012668723640828737
0.017755704670668487 0.02104539510910276 -0.001323599974452186
0.01207011053475512 0.02172743161460708 -0.001414633681928526
0.0013029967524686862 -0.011774196733971166 -0.002121955076121205
0.022283280712517 -0.017708027211922075 -0.003214454551241117
-0.00076677547362621 -0.01076877948792 -0.006365876231998941
0.018438798974647355 -0.0007020851999557341 -0.010567772986809337
-0.0029779647184279548 0.025164973022116347 -0.004264929625293679
0.0014099528071312832 0.018251228555644074 -6.30290128869916e-05
0.0029218873439524097 -0.025230631182567423 -0.00159146855208547
-0.020825582463540528 0.040116232115579464 -0.0005304809905984243
0.0017088898178247876 -0.011496539691873833 -0.0007073158923750125
0.043584700825438534 0.008116386632562981 -0.0014146336819285293
-0.023419483171326805 -2.5406773921062002e-05 -0.0042649296252936795
0.01667135210703492 -0.008688196599794015 -0.01266872364082874
-0.002216630389079859 0.018659107629555933 5.533437308771227e-09
0.023514878325125534 -0.018230064060535765 -0.0017682962129640907
0.0021225021600601445 -0.021594020561879274 -0.006365876231998943
-0.0345475534584016 -0.028695357249233215 -0.01266872364082874
0.0020632814989367783 -0.029354840457544384 -0.003214454551241117
-0.029012994523927586 -0.02892310048570319 -0.002121955076121205
0.018020721000356996 -0.0026800996986009787 5.533437305268863e-09
-0.0029300423184004352 0.024717034815999184 -0.004264929625293679
0.027946267066121265 0.03020839281324385 -0.0021219550761212022
-0.022152580433677842 0.012998316391346711 5.533437309391582e-09
0.03841044637056666 -0.0034173550946808573 -0.009517298671628174
0.025862578169739924 -0.0144241893088775 -0.0021639794771885494
0.019613716842283267 0.023347877491716372 -0.012668723640828737
0.019136308937912697 -0.0020844852421702522 -0.00021218834892522902
0.0016132659713763162 -0.010634614406024997 -0.0021639794771885477
0.02172041140819621 0.03401414346676919 -0.0007073158923750089
0.03443915931823852 -0.020250405942734046 -6.30290128869977e-05
0.033186291071354804 -0.02946744830846676 -0.012668723640828744
0.045144129522539794 0.018244739449447097 5.533437305827269e-09
0.03932114742100216 0.014392890758608274 -0.0007957315567535437
0.018505798439712024 0.02822993166110601 -6.302901288699159e-05
0.020148964807597147 0.0001940645520533981 -0.003214454551241115
0.015599128629602051 -0.010975978326641638 -0.01266872364082874
0.03869568732169153 0.013481403517164951 -0.0002652377285805625
-0.02428256592121091 0.016243469954312393 -0.009517298671628167
0.017663195367639915 0.03325100753415849 -0.00037891445123358885
0.025725977683299525 -0.0023064770531612436 -0.006365876231998942
0.028938708382373713 -0.010518490651862802 -0.003214454551241117
0.03914561313488346 0.00023095818369051342 -0.00042438586754656583
0.03734514643846669 -0.0015691457648050744 -0.0013792674920642574
0.03973055718235651 0.014126030362003541 -0.0021639794771885473
0.040158965489364075 0.0015643910734416148 -0.0013262180807892818
0.01924480840779814 0.0020925517109922705 -0.0003536533613394525
0.03134211488471397 0.02901787796520927 -6.302901288699229e-05
0.0014234129544616718 0.0387774603735417 -0.0021219550761211996
0.010906498318128791 -0.03866365319414649 -0.012668723640828744
0.026533046030706404 0.032741424168671256 -6.30290128869916e-05
-0.00017091879416198367 0.00664157345473813 5.533437307371413e-09
0.03364496134807013 -0.029785276818026913 5.533437301437446e-09
0.028640055232543742 0.001369283755959063 -0.0007073158923750128
0.018895144082546174 -0.0009081064233268915 -0.004264929625293682
0.020148964807597147 0.0001940645520533981 -0.006365876231998941
0.03856889072767872 0.013243521363978732 -0.0018567118141033362
0.04357703720245881 0.026449253172487468 -0.012668723640828739
0.017533029919849133 0.029523732290376938 -0.0032144545512411116
0.024223367191488255 -0.003576321179422773 -0.00035365336133945336
0.02719434140947827 -0.011131703191739832 -0.011093009132571385
0.03250939858038773 0.002783746851114235 5.533437304961169e-09
-0.01601438626591663 0.04040738721133986 -0.009517298671628165
0.03255900075032725 -0.019688779899806174 -6.302901288699752e-05
0.00042122316879830425 -0.01187026237556089 -6.302901288699473e-05
0.02644381226362349 -0.011912851204013844 -0.0010609748187714139
-0.004451714338390479 0.02746988054492455 -0.012668723640828735
0.015474142407297253 -0.010634524896873087 -0.006365876231998942
0.010854222095147647 -0.03924706687122375 5.533437301829482e-09
-0.02251586957746995 0.03898105968224344 -0.0010609748187714056
0.00436463870707298 0.028655178139798006 -0.0015914685520854643
0.00326066316646192 -0.009016671685391737 -0.01266872364082874
0.0032640947023662107 -0.009019997173588874 -0.005105308875072908
0.008536970701444728 0.017073908999996817 -0.008466823344618466
0.04290819492595994 0.020006946960925982 -0.0010609748187714115
0.023485084004983683 -0.015929416905713863 -0.010567772986809339
-0.014831157109399853 0.004980259113104296 -0.012668723640828737
0.027547756677757707 0.034786078288831165 5.53343730865907e-09
0.02974473778338747 0.031438910878604585 -0.0032144545512411125
0.04293821854849161 0.0025379675769249075 -0.006365876231998943
0.011204230397996173 0.01654030471106961 -0.00106097481877141
0.014421531332632345 0.022072209717613128 -6.302901288699198e-05
0.02069136075951521 -0.014752143313993785 5.5334373038250025e-09
0.038931172038037844 -0.0036990194203042996 -0.002121955076121206
-0.005394693888604738 0.040511189735272964 -0.0005304809905984252
-0.03836007934430712 -0.012666281164726387 -0.003214454551241113
0.029209616155370672 -0.035035984116247205 -0.0010609748187714165
0.0008481620887289367 0.016079292930740563 -0.0005304809905984282
0.013741780981502612 0.03271708148708617 -0.0007073158923750086
-0.020810582767499957 0.0155237461029442 5.533437309577249e-09
0.016714462950892236 -0.008918761217922103 -6.302901288699541e-05
0.0455836585116221 0.019287907447050695 5.533437305910992e-09
-0.03306595782017594 -0.028636468216921233 -0.01266872364082874
0.004854574725299309 0.03176280530862369 -0.012668723640828735
-0.0013301328554555778 0.022412193306604666 5.533437309114987e-09
0.039363365097257866 -0.002606577736164736 -6.302901288699613e-05
0.008650353017009484 0.016349947551764332 -0.0025841673313782196
0.0014012099966131371 -0.012930809530621923 5.533437305199349e-09
0.01741750149520839 -0.009533217641434782 -0.0010609748187714132
0.028950084129501476 0.0325256412975046 -0.003214454551241112
0.013688115871691024 -0.03727588826931638 5.533437301865015e-09
0.025722099090280195 0.006044171564951151 -6.302901288699438e-05
-0.0020723089975507886 -0.01435573816309919 -0.01266872364082874
0.01539801529418808 -0.010410308148533056 -0.006365876231998942
0.0026807770163036833 -0.010661104862159735 -0.009517298671628172
0.01079496067144611 0.01752591172875633 -0.00070731589237501
0.017569635822957855 -0.03796873915963003 -0.012668723640828744
0.0325092228982816 0.005869083969425551 -6.302901288699481e-05
0.010378436723582822 0.0171213086277983 -0.010567772986809333
0.024115008109507105 -0.0008252227629094316 -0.0005304809905984314
0.008427623654029508 0.017381177618916138 -0.0038447344353471193
0.018539010520175224 -0.037377847192523135 -0.0015914685520854724
-0.001939882371984502 0.027737773572172882 5.5334373097171415e-09
0.011272301431668767 0.021865210046905323 -0.008466823344618466
0.01079496067144611 0.01752591172875633 -0.00035365336133945033
0.018764941236979395 -0.037336135884863335 5.533437301547759e-09
0.04296073556316107 0.009516742566960753 -0.0007073158923750128
-0.0216133458701238 0.016338130502914907 -0.001060974818771408
-0.0073912588979762345 0.04108578828955838 -0.0021219550761211988
-0.01689164521567419 0.03996492291786582 -0.009517298671628165
0.014717209769914093 0.021892756722257378 -0.002163979477188545
0.008120175017074486 0.018432339373518094 -0.002163979477188545
-0.002957489235480707 0.026140650961669086 -0.009517298671628167
0.03383604656842612 0.0015730822790007237 -0.009517298671628172
-0.020526909462906986 0.002978996019681393 -0.012668723640828737
-0.03471134876957473 -0.004993450604779364 -0.0010609748187714095
0.014772484593632871 0.034313049551132416 -0.009517298671628167
0.0006987070957899354 0.03183932320050203 5.533437309990574e-09
-0.004723024440056384 0.02586253967762667 -6.302901288699041e-05
0.008466803866621212 0.017275701786055926 -0.008466823344618466
0.010606477858022302 0.020352666607625903 -0.0010609748187714095
0.019607968080026933 0.0017818741068233676 -0.0010609748187714121
0.0271989454742438 0.03123879357296464 -0.0005304809905984282
-0.02020516575552694 0.014334393800043674 -0.009517298671628167
0.01858693650676796 -0.0006323623474978717 -0.006365876231998941
0.01495887016288204 0.02105651391839663 -0.0007073158923750099
0.02629666749105227 0.0012145118669991111 -0.01266872364082874
0.04353117534358798 0.008264284662299387 -0.000707315892375013
0.015731155688050745 -0.011308042516007645 -0.003214454551241116
0.01833033352689364 -0.04010664621767007 -0.0005304809905984353
-0.024942874223685973 0.021993045499524758 -0.0010609748187714071
0.028969444771844977 0.029507375392444943 -0.0047901617237415825
0.01643812244943831 1.5282465859640378e-05 -0.0010609748187714121
0.015278500393926512 0.03518253080384406 -0.0015914685520854643
0.008432901533996307 0.022002827203253247 -0.0018567118141033336
0.02836608645440327 0.005013263305785197 -0.0012731723373927482
0.046907031114123816 0.024605494632396134 5.5334373063939285e-09
0.04585867658193054 0.02753730434864854 -0.0021219550761212035
0.015288902195126144 0.030941712717396104 -0.0014146336819285251
0.006826228447553086 -0.006143509410150876 -0.0018567118141033364
0.016126382509516472 -0.0005611003303844417 -0.0017682962129640884
0.0053128527813417975 -0.0037464334420161875 -0.0021219550761212044
-0.014985353469286216 0.0026828718073458064 -0.0010609748187714097
0.027517196946287813 -0.00043272637402725326 -0.002163979477188548
0.01681561005782911 0.03353888369196513 -0.010567772986809333
0.029288831100796258 0.029019546166888822 -0.01109300913257138
-0.0022457845567366813 0.008550333135850009 -0.009517298671628168
-0.02489343636430522 0.03672165183883671 -0.0021219550761211983
0.03886986575652553 0.011688177126108293 5.533437305516085e-09
