ply
format ascii 1.0
element vertex 689
property float x
property float y
property float z
property uchar red
property uchar green
property uchar blue
end_header
-0.0043004230025091815 0.017299333987954666 0.19970923934476872 255 0 0
0.05908899886786782 0.03447868673827549 0.20276484501367942 255 0 0
0.059725763833996096 0.035217216626545894 0.20284024264084297 255 0 0
0.051816759222421106 0.06370893726342947 0.20517535303147305 244 208 63
0.06211575128620534 0.034380000361814926 0.20182100107582468 255 0 0
0.08259062382354226 0.041903490363029525 0.20408595314686853 255 0 0
0.05196074567092544 0.06787378122341084 0.2057356218183392 244 208 63
-0.0031974584402282976 0.020917839193902422 0.19952254589330265 244 208 63
0.06722737859589932 0.016756168340063222 0.20053280845380322 255 0 0
0.058939076374865895 0.058742979183232145 0.20427611876292767 244 208 63
0.04522885412568165 0.023526211529704143 0.20194708459695712 255 0 0
0.0923411039506958 0.05488171392342974 0.20379889198925233 255 0 0
0.024627366918308947 0.05405325764885361 0.19495563136064395 0 0 255
0.019218800660019325 0.05953669961878462 0.20486365285179164 244 208 63
0.0426097958652737 0.05548500490584807 0.20377843476331403 244 208 63
0.0183492044535715 0.06328415386915423 0.20519616976427368 244 208 63
0.07554464825162108 0.03551050769808925 0.19387943626193774 0 255 0
0.04213036791606715 0.00864530599402559 0.20054669043807366 255 0 0
0.06516708776169276 0.06513807416270176 0.20387475622981024 244 208 63
0.07082886926401138 0.006148572612810169 0.19113334674373128 0 255 0
0.07904346007297822 0.02963372909120086 0.20079323654464382 255 0 0
0.04182661197655359 0.012163377844233096 0.20086511255715042 255 0 0
0.018953650116603764 0.07067599530952062 0.2041719211516675 244 208 63
0.0575809982103294 0.020906862321551114 0.19232293618115018 0 255 0
0.03581647726189954 0.07891803006923928 0.20684094208084403 244 208 63
0.0768261879921554 0.03663575465859649 0.19294567500894197 0 255 0
0.04012331129149316 0.07805534728463942 0.20581472042021193 244 208 63
0.06823679622795513 0.038167045109720715 0.19929565829955745 255 0 0
0.07432809462825166 0.0630233129557939 0.20585574861285316 244 208 63
0.06511463483442761 0.06019281039280424 0.20548408501592774 244 208 63
0.037845253526696376 0.04220201443405138 0.20303549852176547 244 208 63
-0.004921167515811428 0.01894032935569259 0.18948537011707467 0 0 255
0.07045872875676316 0.0684176227018995 0.20630243408885718 244 208 63
0.046593655433616425 0.0004198429646472615 0.19984802296960538 255 0 0
0.0710070736312369 0.01963543134141877 0.19868508350263914 255 0 0
0.07848171870358416 0.0330658093431785 0.20216360137753364 255 0 0
0.06362567415827704 0.01653346455672982 0.19199628907655367 0 255 0
0.08240270601345802 0.043979860817353576 0.20241358783089833 255 0 0
0.06409124121639714 0.06639699187305692 0.20511578465224659 244 208 63
0.06529968113317809 0.018518127359904813 0.20013911889562755 255 0 0
0.05218562947967399 0.06656196446151774 0.19328012854980767 0 0 255
0.05887812959427564 -0.0019947515898735765 0.18708447246971668 0 255 0
0.043812150158106626 0.05995641804898512 0.2034938922789365 244 208 63
0.06797228640326002 0.02995354733041073 0.20281328210105984 255 0 0
0.07079576909996968 0.020077759120337338 0.1987230051802286 255 0 0
0.053258470643526803 0.05217239047385232 0.2033420126381277 244 208 63
0.03509081324567452 0.0811322415550931 0.20550352493521487 244 208 63
0.07095709503871854 0.014023600672330883 0.20068246019146574 255 0 0
0.06825641251956882 -0.0003904819223172831 0.19997516030677315 255 0 0
0.04030890830201876 0.042530010033712595 0.20203263714630632 244 208 63
0.04596544603322637 -0.0007274362341421758 0.18704285893650452 0 255 0
0.06400842446606471 0.053951227310710954 0.19384844379088323 0 0 255
0.0874957084813441 0.0595660710662604 0.20470014109431553 244 208 63
0.05545583707865799 0.05070396591814004 0.19397290797302724 0 0 255
0.08063397620414041 0.06025691321839324 0.2056794347402795 244 208 63
0.05292342962441677 -0.0029329040524788963 0.19961831216775422 255 0 0
0.07105955310190949 0.03455535163472113 0.2018550504179366 255 0 0
0.04930609118065886 0.05037936089234138 0.20439250952279156 244 208 63
0.04607860306808956 0.06609739657595866 0.19632035227210254 0 0 255
0.07892687646558456 0.02994935623270597 0.20206083839153566 255 0 0
0.06718610800349033 0.01729759990579284 0.20158169439329426 255 0 0
0.06823674126346334 0.022955387613574716 0.19106194756691589 0 255 0
0.05479651175478544 0.048975636065518524 0.2038626851953794 244 208 63
0.059808301870545005 0.031057753978875155 0.20122025865967175 255 0 0
0.07640068849698924 0.05999027488420023 0.1961313674582123 0 0 255
0.06328460336461653 0.05534851259525572 0.20295539535421364 244 208 63
0.06704846587206233 0.01653460650900108 0.20157330325328793 255 0 0
0.01934250183879678 0.04230321711518337 0.1906578952397855 0 0 255
0.05777848016392866 0.05612392969829829 0.203667815662751 244 208 63
0.053204155392396826 0.055903813853602435 0.20323748702405123 244 208 63
0.06881344111833841 0.022401939479984454 0.20206893967788697 255 0 0
0.07337885249252603 0.03688680940280757 0.20345098112124732 255 0 0
0.06339864307816775 0.0670254111814607 0.19724825499028645 0 0 255
0.059900694758962106 0.031202823970294974 0.2015004169805148 255 0 0
0.046410291720978755 0.0006070010791152519 0.19986292128218827 255 0 0
0.07404887449258309 0.06494253249803217 0.19339878069608918 0 0 255
0.0697594932785417 0.019420867941304584 0.1912831218304151 0 255 0
0.08984199153715512 0.048228437702593996 0.20475362834905494 255 0 0
0.05867726092264149 0.0576398547592908 0.1925424375667753 0 0 255
0.06828956492163346 0.02301478583121407 0.19106803127913152 0 255 0
0.06081692637306249 0.033660591784642466 0.195985930769942 0 255 0
0.07501046872757461 0.06610334108371294 0.19667413418510882 0 0 255
0.033884417069083524 0.04812820433755443 0.20193531540571838 244 208 63
0.05830131563860155 -0.00269571868209615 0.19332789200050313 255 0 0
0.08379250567563876 0.03366331245789421 0.2001256415944745 255 0 0
0.05342240038536707 0.05213875097031852 0.1974472660967631 0 0 255
0.04194243318025453 0.004778724896630355 0.18749791011641959 0 255 0
0.07900243606234666 0.05881722215205208 0.2039490295909331 244 208 63
0.07049221685726388 0.0060263286410775635 0.1995901965752019 255 0 0
0.06490049960861177 0.018198555940524625 0.2006364705198088 255 0 0
0.061493829844076926 0.01849192996126568 0.19955877384328066 255 0 0
0.01975999562182845 0.015471481776849842 0.1945208017985732 255 0 0
0.047389070572923915 -0.0024160759177277655 0.1932202665817723 255 0 0
-0.004863223960654201 0.014370656157942753 0.20049717120666563 255 0 0
0.05210703475530972 0.06735998175194939 0.20569036207278732 244 208 63
0.08871049191601323 0.04802775054187649 0.19834363957592457 255 0 0
0.07146525364490366 0.019379219336690495 0.19235257512993606 0 255 0
0.01120442699378774 0.03790802671123456 0.20278538271419938 244 208 63
0.06072698709812645 0.03195674684945552 0.20216416631803272 255 0 0
0.0727991977512975 0.03831532468491956 0.19305029742831067 0 255 0
0.06705671772571248 0.03186907751311211 0.2029143458267418 255 0 0
0.06555197010064451 0.03194182373088601 0.20296578744114352 255 0 0
0.08227984855002834 0.03209017377417389 0.20291786683522864 255 0 0
0.02115412062687405 0.0703548598679451 0.2027205172906187 244 208 63
0.08587125511723884 0.047069827349222805 0.20032614206224783 255 0 0
0.0718391841425375 0.018507458563307305 0.20181243789902165 255 0 0
0.008612459074134817 0.03737893888957278 0.19007599955310123 0 0 255
0.04445694036589437 0.027378142130350364 0.19591256234764023 255 0 0
0.0028448906251503673 0.028422281953386013 0.20187791301669897 244 208 63
0.03556086681123494 0.020015225557755735 0.19938163063395872 255 0 0
0.06923386460521698 0.0033860225897857504 0.19401824275993498 255 0 0
0.08896223157052775 0.0559114582471 0.20332044690538062 244 208 63
0.023758202022901718 0.07653790137971622 0.2060074565879332 244 208 63
0.04444227266791921 0.05822807123492153 0.20405197571906217 244 208 63
0.04219407883228835 0.04260051350328984 0.2036565625479667 244 208 63
0.05335549719935455 0.0513482576755934 0.2032677358918706 244 208 63
0.06765265181835779 0.03753796767456696 0.2027951983683178 255 0 0
0.0684319602597943 0.039057642897812495 0.20223521976799597 255 0 0
0.06856771972095191 0.031307758060800925 0.19867163091758386 255 0 0
0.06102160993917008 0.05365179985951577 0.20348105245705425 244 208 63
0.041387460523787174 0.024112780900410195 0.20035943969317419 255 0 0
0.04454752218498538 0.06539511679971077 0.19623735490664485 0 0 255
0.08278722214599138 0.032841227622606245 0.20192986502366086 255 0 0
0.07049911668079989 0.0346178898272895 0.19478854343633697 0 255 0
-0.004645027862297998 0.017107242819022556 0.1981613994233501 255 0 0
0.06086847686318101 0.05387514608991666 0.2038539542948834 244 208 63
0.08436408249909577 0.03178375550059484 0.19680319844246258 255 0 0
0.04043993357405404 0.04593667311217492 0.2023461665391477 244 208 63
0.001131817588591379 0.02968697294911283 0.20190964596302827 244 208 63
0.02052652097783291 0.06369406376317707 0.20532343902611655 244 208 63
0.08107010104939909 0.027698482379828176 0.20134942578525483 255 0 0
0.060127260855319845 0.05492999633798656 0.20500445790248473 244 208 63
0.013974405408165323 0.013020125117493675 0.19422570639820672 255 0 0
-0.0030669385745121527 0.025822840166483414 0.1994417842448979 244 208 63
0.0412566226757117 0.05900888774965943 0.20302161000379032 244 208 63
0.06838971315457079 0.0029166626159469605 0.18765031374319044 0 255 0
0.07120116996193378 0.013253882383424186 0.2002606402989413 255 0 0
0.0689589258381547 0.018429169022692087 0.2013145490162504 255 0 0
-0.005289061494811506 0.01590038412013253 0.19425424279867226 255 0 0
0.08481653997644288 0.06035885170849883 0.20474002096764032 244 208 63
0.05989215000019584 0.05541883210383701 0.2029204146753586 244 208 63
0.03633130765171688 0.020454308022959077 0.2004942078897974 255 0 0
0.04457608216493443 0.028075976918908337 0.18966326815562054 0 255 0
0.053447778326010886 0.05226808780382417 0.1919867257106991 0 0 255
0.04521499313115014 0.002137512197815307 0.1989255017240727 255 0 0
0.06187633682091424 -0.0020631997964204105 0.1997441023910552 255 0 0
0.08397847728547023 0.036942988583750655 0.20205423842067524 255 0 0
0.053391171561958974 0.05161580045008521 0.20034583333423994 244 208 63
0.052495497350672896 0.06542608488238445 0.20516370391978714 244 208 63
0.07061170728485873 0.021419171935892167 0.2010010946684624 255 0 0
0.042150285070101635 0.018063772982501603 0.18871688766190134 0 255 0
0.05786430324867543 0.027419863173684438 0.19292275530938766 0 255 0
0.04474173302282937 0.05737908178570934 0.2050408609702793 244 208 63
0.06045006367077836 0.03201228014560334 0.20184698167298204 255 0 0
0.06801049242815185 0.022195337798674747 0.19730423736518582 255 0 0
0.03152905311561043 0.08022430877027599 0.20643987751774967 244 208 63
0.09102212221505093 0.056735226580604516 0.20548380490146403 244 208 63
0.057805610982877564 0.026881343744206084 0.19603005103540933 255 0 0
0.08578959493702398 0.05738166426894974 0.20341633005102241 244 208 63
0.04793790542077751 0.07562763031287673 0.20458276882004908 244 208 63
0.061794228619898 0.018239374184420294 0.20024796177339743 255 0 0
0.0913170490044141 0.057384448519648606 0.19607488427347883 0 0 255
0.06881954094891571 0.018329870981829907 0.20130375504218315 255 0 0
0.07058437778396201 0.03577732218446304 0.19279086491599848 0 255 0
0.02073069552153954 0.0698097461194811 0.1931934678213914 0 0 255
0.023821723475242904 0.05499761757945694 0.20244145196183427 244 208 63
0.04880282736654546 0.031869434287465 0.20204601848328307 255 0 0
0.07896633000040508 0.02985617697299229 0.20116698406845143 255 0 0
0.03647424557126858 0.022115886119033007 0.18901861726529334 0 255 0
0.05535447688301551 0.05298545437836827 0.20405948895528378 244 208 63
0.0642136357713929 0.06654397167503096 0.2042955534076398 244 208 63
0.053468297574133565 0.05280493543356481 0.19203613246283774 0 0 255
0.03977003131046435 0.04289238412043718 0.20359053911155447 244 208 63
0.08359182860146815 0.04529970695273383 0.19382158982838119 0 255 0
0.06068180792225933 0.035999642690816895 0.20292355777498547 255 0 0
0.04255706873406385 0.024802000463701603 0.20203128106325038 255 0 0
0.06397936100276427 0.05552549353429304 0.20351156258582173 244 208 63
0.07333250474317267 0.06390645235476944 0.20439315680952072 244 208 63
0.06394605565124353 -0.0029211323824430424 0.1996908159582334 255 0 0
0.02684600578509841 0.043549029425195 0.2024930574840848 244 208 63
0.062258824529617514 0.015142029805671253 0.20103299351100698 255 0 0
0.07034647465526782 0.03571273093164029 0.20330645393396504 255 0 0
0.04286061793647543 0.0016028483419962547 0.19984761407008617 255 0 0
0.06787603131504205 0.036599353708394844 0.20342062735066346 255 0 0
0.0430570070675627 0.06146487930490174 0.2032263701864095 244 208 63
0.04240193699594576 0.042631238294539534 0.2036619136516017 244 208 63
0.04632565508804699 0.06759722133221266 0.20386988644230322 244 208 63
0.06845456921510004 0.01791374075791082 0.20171675062554004 255 0 0
0.06075083014423304 0.036112796633472014 0.20187179499936547 255 0 0
0.016916000843692797 0.03820313714770047 0.2029452911931641 244 208 63
0.05825033485040941 0.01890645536680791 0.19846258437172026 255 0 0
0.05890171773991103 0.03427089480896652 0.20238920750757755 255 0 0
0.058518668127810466 0.05612439600071746 0.20367689553079543 244 208 63
0.020651600603496745 0.07347622036154842 0.20515769878738832 244 208 63
0.08118039090978166 0.06138735576092892 0.19316032320761228 0 0 255
0.021244861426514446 0.05501518750249909 0.20131705454558363 244 208 63
0.039772274053429785 0.04243014985936632 0.2025484283374146 244 208 63
0.05019188230179576 -0.0020196287344172725 0.1932907874486479 255 0 0
0.01556830478231086 0.012570520911432289 0.2005186445491995 255 0 0
0.08371571078230139 0.03813389065437628 0.20375452785613823 255 0 0
0.06452541449640685 0.05621889314349078 0.2051761735381927 244 208 63
0.0344753160945329 0.07991383363644128 0.19428645642151998 0 0 255
0.06182677739215406 0.05648404160335171 0.20352569026035566 244 208 63
0.07755914282544656 0.02647996539006764 0.20048634103915908 255 0 0
0.054794056213330763 0.05334557383172271 0.2047311137282904 244 208 63
0.01713901138144416 0.04092537602515572 0.2031972746479064 244 208 63
0.0681297457033032 0.018906481305993966 0.19542588650134363 255 0 0
0.0007726563085772519 0.01598166159429515 0.19117837259988885 0 255 0
0.054406192053750996 0.05724797346969941 0.204349625659526 244 208 63
0.06399992120083262 0.06567293344777315 0.2034464026413524 244 208 63
0.06586877358734125 0.03235112130370606 0.19347201279744727 0 255 0
0.04311901334252264 0.07753890402094561 0.20364649705849458 244 208 63
0.021944204033070333 0.05279970096511424 0.20328024378863105 244 208 63
0.04827258189650562 0.03058710328267838 0.1962529758042301 255 0 0
0.058609122990028975 0.03043318771941387 0.1921553221122229 0 255 0
0.06795758768640722 0.03858167508499454 0.20218584622265787 255 0 0
0.0015545551670503328 0.028520848214328955 0.19233606436231865 0 0 255
0.06078113491507402 0.057507366231734344 0.20360662399333854 244 208 63
0.04978224124562785 0.06419592046590011 0.20492935632650797 244 208 63
0.04786599494500121 0.054202578492461684 0.19209570690889874 0 0 255
0.05928464711381739 -0.0037996155573743265 0.19008149830916815 0 255 0
0.06279433967425717 0.05498174454153265 0.20245274914406597 244 208 63
0.07067953808357158 0.00644965357694606 0.20069421161669757 255 0 0
0.02926839959463408 0.04732417248920301 0.20180533626193492 244 208 63
0.07769020820268495 0.058207848506799845 0.20551902421194776 244 208 63
0.08847423592500196 0.056060073791500374 0.2049225499265205 244 208 63
0.020091009401770513 0.0651156834135049 0.19591317199163777 0 0 255
0.0736499929124838 0.009631570500523962 0.2009586771069749 255 0 0
0.049442506020881315 -0.001515275169893776 0.19757968441353652 255 0 0
0.05962467484941348 0.035079491885647796 0.20318071862078316 255 0 0
0.04454095614917647 0.06399595040468718 0.20458131399636606 244 208 63
0.07102889563483283 0.034146299827278265 0.20252586328121397 255 0 0
0.0685988139620538 0.018118531903042728 0.20112985501516234 255 0 0
0.08366004361748187 0.045370807822561 0.19382893300659315 0 255 0
0.066601679380557 0.06996370869593942 0.19376761759298483 0 0 255
0.03981086644476661 0.007093231030561656 0.19931328946469565 255 0 0
0.06290515346837541 0.030010385306228786 0.20204797487041565 255 0 0
0.06995399125411439 0.0014130506909148244 0.19700370151855295 255 0 0
0.04889852382158543 0.031884827175899175 0.2008084712650171 255 0 0
0.09084590931389012 0.05020078871946248 0.20388351655034087 255 0 0
0.054268399599790185 0.05718735770023647 0.20381091350633168 244 208 63
0.062004502470585234 0.06870043019418759 0.20416232892786432 244 208 63
0.044388215264622936 0.027621295140186103 0.1938291075672967 0 255 0
0.05841788458503484 0.02401379910971641 0.20108979266410648 255 0 0
-0.0035637266266203586 0.013949578209794904 0.19941151491215744 255 0 0
-0.0035938603835625567 0.01689526504180175 0.1943660358563666 255 0 0
0.047210623158879576 0.0737401903180368 0.20440106657174975 244 208 63
0.05736250864018019 0.057352956207643135 0.19460499907320877 0 0 255
0.06097175573301084 0.036108059508086494 0.20222837947258715 255 0 0
0.04869080021176165 -0.003762029468043618 0.19942756369764514 255 0 0
0.04301727625201796 0.028791091246799516 0.20027622655479305 255 0 0
0.07795104611568407 0.034629099975784734 0.20230026428773806 255 0 0
0.06962411424546132 0.01736823889308042 0.20061811488194453 255 0 0
0.06977982842351949 0.01841738891839059 0.199611011636391 255 0 0
0.07079148966984129 0.036531995455861534 0.2032374643137642 255 0 0
0.06209047548642511 0.03534527175156985 0.20217219391014873 255 0 0
0.08472297958163781 0.03095036708298169 0.20204610317862856 255 0 0
0.053434538068133294 0.05199733986022882 0.19532958664931852 0 0 255
0.06565406339141706 0.053512967425457025 0.2038792201834186 244 208 63
0.048528249586069334 0.0530122312894362 0.20041432409849844 244 208 63
-0.0006266955853102833 0.027721086789496693 0.20170817022505344 244 208 63
0.049783037075308054 0.06885849770001941 0.19556595913966035 0 0 255
0.04226657931474072 0.06517843389373673 0.19618966572942761 0 0 255
0.06266718864243963 0.05633525474173871 0.20356968733303157 244 208 63
0.04193683147832407 0.013674709389500501 0.1999418762815637 255 0 0
0.0886880414588403 0.04664497276199411 0.2040630705886982 255 0 0
0.0247665518428839 0.05326789144503178 0.20120006146746522 244 208 63
0.0022057854393078328 0.030827021617322953 0.202027146425658 244 208 63
0.033950662013563795 0.08110645973469804 0.19754657722742514 0 0 255
0.09174443353896768 0.054670627845957685 0.19898893411293656 255 0 0
0.060870293232341076 0.034175720126347446 0.19042072935486473 0 255 0
0.0008934391105226611 0.015583839222527667 0.20014706103697208 255 0 0
0.06289489671601076 0.05507424301933993 0.19993658556268967 244 208 63
-0.004110091353554353 0.017204008585102917 0.1994370949554936 255 0 0
-0.004132906121932459 0.020971200920533853 0.18841802006085223 0 0 255
0.06142000711892045 0.01539600478398473 0.20069168269994547 255 0 0
0.06094405803951321 0.0658829144099376 0.20530868427023186 244 208 63
0.07892902691485683 0.030150097344053696 0.20083912043789715 255 0 0
0.07619960911353223 0.028549867183139756 0.20278520450919907 255 0 0
0.0904178763946056 0.05824354892931736 0.2035517561976769 244 208 63
0.04598483943094306 0.05487065070717573 0.2005534362499301 244 208 63
0.052507178661779744 0.06493861272749543 0.20511921135820638 244 208 63
0.044280281952716535 0.06625900735775167 0.20578516107508232 244 208 63
-0.004811731778639685 0.017851615629565266 0.19191287674519059 0 255 0
0.0665265638018423 0.029577886781370084 0.20134394635771613 255 0 0
0.07609163435346933 0.058773742083348735 0.20413403526915438 244 208 63
0.02970845631085287 0.01956293494560156 0.19926876304407568 255 0 0
0.07056067382521253 0.03985730139633197 0.20304307207257127 255 0 0
-0.002268800519955897 0.016497008980438405 0.19859761314920255 255 0 0
0.03534334351942005 0.02329333725726611 0.18911262256802538 0 255 0
0.06939798323114123 0.017949989623066015 0.19960565542458542 255 0 0
0.06303344091008249 0.06686591998753587 0.2035438379099221 244 208 63
0.04850407696967602 0.07095094910655678 0.20626634628933913 244 208 63
0.0022944732288994268 0.012642170848426754 0.1993633271837102 255 0 0
0.05744590999637741 0.056084796744480234 0.2033058474681943 244 208 63
0.06539024873423598 0.032124449752382905 0.20112034205548185 255 0 0
0.07695463985534229 0.02666087824784384 0.2015584920128784 255 0 0
0.03174750559170036 0.08029338571644451 0.20644886966932113 244 208 63
0.08259034445317683 0.0442422073373327 0.20243990041184654 255 0 0
0.07622501892713664 0.03427839024866273 0.19061760063655991 0 255 0
0.06350200264428449 0.03303969841915863 0.20197831880879988 255 0 0
0.07521928825053524 0.036065599624997134 0.19392629060456792 0 255 0
-0.004444715712695375 0.018567958148755705 0.19929215189847718 244 208 63
0.04477916783685495 -0.0015992739208052498 0.19857802336180236 255 0 0
0.0690252517151643 0.03184399840341631 0.19662143828877005 255 0 0
0.0687161159463866 0.018217306370685023 0.2014440319803189 255 0 0
0.06537609448741041 0.01845584018628854 0.201728801732899 255 0 0
0.0469156636952999 0.0676546156304037 0.20388234531458077 244 208 63
0.049671748093168856 0.049924148853539255 0.20229251244756485 244 208 63
0.08141997112672433 0.03132154915986645 0.20172087442412578 255 0 0
0.07332081261915191 0.037979510223108644 0.19302591726727292 0 255 0
0.07009367460672618 0.01618847290930669 0.20157878952008954 255 0 0
0.042145001159242836 0.02368006655062347 0.2008605541917283 255 0 0
0.04515360096406716 0.07515107959944495 0.20667317506548222 244 208 63
0.06620755664202846 0.016172005135262957 0.19940390217435006 255 0 0
0.08107138482858278 0.06110392365542562 0.19629036413501735 0 0 255
0.050813017898332875 0.07078942504327027 0.19365045557765573 0 0 255
0.060277257553280936 0.0548853462276148 0.20358491359372127 244 208 63
0.047530263417475356 0.028827485014133826 0.20239743950367617 255 0 0
0.08336423625921538 0.03379492695722135 0.20228997480847835 255 0 0
0.05531646550102856 0.05329130618174399 0.2040870300544981 244 208 63
0.06460905984137402 0.05403036524018123 0.19649412512839373 0 0 255
0.036434328136497544 0.04221518383080962 0.20142502478836716 244 208 63
0.06963522899947429 0.03972878196551339 0.20160271795656695 255 0 0
0.07595027533855261 0.05880324724172827 0.20555229829677835 244 208 63
0.08931004359821393 0.05355235738277733 0.20470313655219274 255 0 0
-0.003210326788723831 0.020821331971116182 0.20057652577231294 244 208 63
0.05521196371203057 0.057796016965488924 0.2033466786149217 244 208 63
0.01917993532468534 0.04174892850770912 0.20223463470772857 244 208 63
0.01791875468285097 0.014518895135708077 0.20072574394276627 255 0 0
0.05587907529455051 0.054912467879556594 0.20495098557703065 244 208 63
0.05453153097406119 0.05733409878639385 0.19667359059988826 0 0 255
0.07885150602295986 0.0304804137890913 0.20246287243159428 255 0 0
0.09225279627693928 0.05398156873045291 0.20424687917062198 255 0 0
0.05529860201220792 -0.004894515300418054 0.1962472199686246 255 0 0
-0.005133802555043042 0.014712009525730537 0.19839919078000787 255 0 0
0.025760688587647164 0.04327498303665154 0.20351767999999062 244 208 63
0.004653916363091337 0.030328331407212146 0.20207452655462516 244 208 63
0.06618004232489658 0.05404905421159461 0.20340324180405078 244 208 63
0.06357876262649056 0.053091989660019615 0.20165782472376567 244 208 63
0.07487940219853798 0.060814647525234786 0.20572339671156192 244 208 63
0.09032031026886532 0.04921307635435518 0.20272369357433362 255 0 0
0.0892718798595398 0.05350920902551782 0.2036357461032651 255 0 0
0.0637923000251882 0.06910188033562678 0.20581536846672785 244 208 63
0.07008405085403716 0.03309446162271853 0.19885374300528172 255 0 0
0.004751685246582071 0.01493211665728401 0.20066597233794936 255 0 0
0.06748428466891988 0.02127408701942298 0.19721345880202013 255 0 0
0.04532273787259608 0.07854425213232558 0.20645445497083412 244 208 63
0.04186623540302667 0.012796622995806 0.19986061274340053 255 0 0
0.06222425336247768 0.0305711782640884 0.2006737230703365 255 0 0
0.08600542817831054 0.05720581281248667 0.2044658297755289 244 208 63
0.033003286066250276 0.07873282558134245 0.20363231211041727 244 208 63
0.06019373524987497 0.03550123398096786 0.1968484849542812 255 0 0
0.07970749281916059 0.02993510013799584 0.20157301665625782 255 0 0
0.07549076887792804 0.06096885726480107 0.20252450394858598 244 208 63
0.06253180047599391 0.018354962181287914 0.1910972776047769 0 255 0
0.02042184257119038 0.04026203615948579 0.19890369852195136 244 208 63
0.07682620170525205 0.02681201358799551 0.2010392757473232 255 0 0
0.05681500658825845 0.022030335144819082 0.1987310967627508 255 0 0
0.07546674629851471 0.061568886672446234 0.1978431706710831 0 0 255
0.0846327248957277 0.03728102181130781 0.1909951874686603 0 255 0
0.05823144022060264 0.056907929406078694 0.20088950114374227 244 208 63
0.06074207467068141 0.03301889624317747 0.2029425311702012 255 0 0
0.057861604326744365 0.03282848422243419 0.19026063630542728 0 255 0
0.02234956360489416 0.01629609737262878 0.1988797895679142 255 0 0
0.07890329039389392 0.029957084218618674 0.20294706577836136 255 0 0
0.09017296155847243 0.05557121102458416 0.19589488744940053 0 255 0
0.04037847297030558 0.01763827684623348 0.19497094049278255 255 0 0
0.04399288792454818 0.02648720183844297 0.19582531802390404 255 0 0
0.05250242888008488 0.05160835721785845 0.20033430087857734 244 208 63
0.08347486922082627 0.04512173273464048 0.2033284597491499 255 0 0
0.042237604978009165 0.015789986065651802 0.19907626661149896 255 0 0
0.007845972128370855 0.013151225068838215 0.19416288667623388 255 0 0
0.07888397809988257 0.03043634417346522 0.2012191013748707 255 0 0
0.06958577871595696 0.06913326023098401 0.20642045557627015 244 208 63
0.06073165605734388 0.03335336896161996 0.1994648924531938 255 0 0
0.04606338042847856 0.026788471956843175 0.19587818294347498 255 0 0
0.04146751751276375 0.010487040130557748 0.1943294369843358 255 0 0
0.08951708525765853 0.04969591527415484 0.19219158653254528 0 255 0
0.08234728333631636 0.04388756863650183 0.2021387206908968 255 0 0
0.06769964763938872 0.06671706757807169 0.20617618959000444 244 208 63
0.08678233018830868 0.05991596237911595 0.20366050258280127 244 208 63
0.0684207046677842 0.037476202810359176 0.19502488771833887 0 255 0
0.04731254984255788 0.07450459774553372 0.19605277900645218 0 0 255
0.049107089846102236 0.030928103328764195 0.2013434800228062 255 0 0
0.02265435583263901 0.042838956802295276 0.20131389658651985 244 208 63
0.04741894873533019 0.0769893814106492 0.20474322395768282 244 208 63
0.04686458615185988 0.07534586538209408 0.19401945655662306 0 0 255
0.07017293955041051 0.06627751414381915 0.2054574937409426 244 208 63
0.04421729447915666 0.02672546020314081 0.19837573504495581 255 0 0
0.07365831272641231 0.013618357537996395 0.18869453579460188 0 255 0
0.08078686628258136 0.06140352475654272 0.19315699905764297 0 0 255
0.0625834135030568 0.0637115446390671 0.20583852455217763 244 208 63
0.04746541185144401 0.07448729033095497 0.19394817715105964 0 0 255
0.07040910306843373 0.034116829486067174 0.19684644495336734 255 0 0
0.06968650055655909 0.021696355653070612 0.20201499263050746 255 0 0
0.06961982483955438 0.017336070145736914 0.20096943793792058 255 0 0
0.06779846079831121 0.0667922588014626 0.20534909349927358 244 208 63
0.07043141294614705 0.032347204978666916 0.20129086869877125 255 0 0
0.07009305146986457 0.06689557260667098 0.20405372029719715 244 208 63
0.02022259591345941 0.07301143289705886 0.20404693655792552 244 208 63
0.092283843502415 0.0541623948918546 0.20426381550642567 255 0 0
0.045530859165756096 -0.002270634766114034 0.19852572810855845 255 0 0
0.020830490693627676 0.06192434150722109 0.2035706532267461 244 208 63
0.05546196128385022 0.05239173744917185 0.20471508329214574 244 208 63
0.041358658106116705 0.06171778950489381 0.20533367541927988 244 208 63
0.04950606608048365 -0.0016013181036919344 0.1981040614994584 255 0 0
0.047857678650226096 0.07127888069156292 0.20635163368181808 244 208 63
0.07608677278133617 0.0346384014233607 0.19064887702021419 0 255 0
0.05914192087991335 0.021753474971976463 0.18926218951677415 0 255 0
0.07430047489943133 0.011756169557583546 0.19909837685853207 255 0 0
0.05253439279748504 -0.002733150614034535 0.19325405451440772 255 0 0
0.041320403223895755 0.04268269627228613 0.20152748788704253 244 208 63
0.055000601380791304 0.0531742639416965 0.19629842409574236 0 0 255
0.053466651528380475 0.05226321602481709 0.19451237120596696 0 0 255
0.07902827313962485 0.02946723490089211 0.20258484678303754 255 0 0
0.031972225554817185 0.01762368525307694 0.20124476821554674 255 0 0
0.06434492289672152 0.06611198940806924 0.2042196340907401 244 208 63
-0.0041068742229986846 0.01722813571651967 0.19917359642846816 255 0 0
0.06449386575851357 -0.0006334637267393362 0.19674964902108216 255 0 0
0.07905086885140324 0.029485273430143722 0.20237418690368947 255 0 0
0.06046662687741203 0.019322600244633975 0.20103957965795966 255 0 0
0.043637724517597405 0.06438386465418514 0.1929763278893849 0 0 255
0.0645493842659803 0.05633139493496672 0.20438954073212787 244 208 63
0.05235228820240519 0.0639818786672212 0.20440965658676066 244 208 63
0.07264210168155477 0.06529205439671179 0.20604290018454083 244 208 63
0.08040455398232986 0.030428423822792178 0.20205188049891193 255 0 0
0.0773404433108495 0.0584027077391606 0.20367240307669546 244 208 63
0.061213415041871944 0.06753955565290805 0.19663718830367738 0 0 255
0.06222253724339522 0.03459038950811575 0.19805278112782632 255 0 0
0.06114937625600353 0.03149348607860564 0.2021269051137931 255 0 0
0.08671607972327121 0.037976644080413326 0.20200515017204038 255 0 0
0.043825143683870714 0.04345306376020996 0.20162860736952662 244 208 63
0.06540319852647986 0.018292250098569596 0.1974412348597797 255 0 0
0.04156543747548807 0.061719189934810216 0.19270703691496638 0 0 255
-0.004538004811301068 0.0179098708663908 0.18939569476589468 0 255 0
0.08191845682386241 0.031040790859127722 0.203019955426635 255 0 0
0.05938108884748956 0.03469815188499294 0.19466014934537473 0 255 0
0.042345455157256844 0.0560915873218928 0.20276778249548694 244 208 63
0.06550384247670435 0.029387911703969576 0.20166838554726405 255 0 0
0.06289066831076184 0.01522161888727435 0.19927638359926933 255 0 0
0.06770724802016197 0.06826964067549203 0.19467844090355574 0 0 255
0.03127416900789592 0.017430949581857973 0.19909266494814173 255 0 0
0.04060209334229988 0.04298347601670095 0.2036090387912074 244 208 63
0.07987292129730027 0.06080993201984987 0.20578393227293637 244 208 63
0.07589204145735155 0.05981291582860162 0.20558088463894794 244 208 63
0.05812334909783889 0.05876390808213706 0.20453381542964774 244 208 63
0.041919570700116794 0.0568198710802371 0.2044237209256444 244 208 63
0.020261659604859185 0.0676711032440713 0.19299191729248602 0 0 255
0.04249175226327135 0.016929732592525497 0.19918372997970968 255 0 0
0.04249299726942925 0.06574063298662478 0.19308658349945923 0 0 255
0.0020924129739677473 0.03169588748651344 0.18947602820082227 0 0 255
0.09017575487519669 0.05544939474439279 0.19272644334190067 0 255 0
0.042498930217053636 0.02467040297210841 0.20024690971478243 255 0 0
0.04399781105323647 0.053595164666231765 0.2030908522523678 244 208 63
0.06790176783600495 0.03679236683382986 0.20131268201019922 255 0 0
0.06120316715962382 0.036103946982033994 0.2018765073996375 255 0 0
0.019952233438928425 0.03922852631415755 0.20307625077088248 244 208 63
0.07885164135305163 0.03077433647626334 0.2010724960221425 255 0 0
0.07702679815631949 0.05826123571698454 0.20551581282209846 244 208 63
0.013878636595847451 0.039211300719382364 0.2029373666555965 244 208 63
0.06410673963671647 0.06648757370300519 0.2042131555160613 244 208 63
0.07100856156805951 0.033975801972407994 0.20251000345252557 255 0 0
0.0337834286353801 0.08082262748704377 0.20652218664836225 244 208 63
0.08342687295887288 0.03387444331477191 0.203095247079021 255 0 0
0.07522133379464506 0.06602048179363157 0.20407830874149552 244 208 63
0.06662675009129551 0.056526980164204786 0.19253759531162504 0 0 255
0.07112890731737324 0.03727240591389658 0.20245900399316497 255 0 0
0.07089293250436576 0.020856913774222496 0.2009530452981188 255 0 0
0.060894903490049786 0.03586185032568737 0.1989949447970813 255 0 0
0.06945722621034864 0.022310908732334593 0.19891113992045378 255 0 0
0.04578983658978952 0.055696073745540225 0.20277362092174145 244 208 63
0.05657926619939339 -0.0029466470307236287 0.19328389084708622 255 0 0
0.047052832506225474 0.03177682001562778 0.20219333801861292 255 0 0
0.07777766784244534 0.027588887315337034 0.193181360023988 0 255 0
0.04427677986037083 0.05871375376186501 0.20338578104783547 244 208 63
0.0615054545152783 0.018624279011092523 0.19216184723812174 0 255 0
0.06801015567296315 0.03619174155729893 0.20338494207958213 255 0 0
0.0711623992081093 0.008209740174555488 0.19873533586525982 255 0 0
0.05886557777288476 -0.0025505585766750632 0.19334807276566185 255 0 0
0.0386401381232558 0.046289728408121456 0.20395097285249927 244 208 63
0.05922620135742743 0.01676779878940598 0.19937321836102265 255 0 0
0.0012714347145108336 0.015611726627236791 0.1990912559586955 255 0 0
0.0699683948010667 0.016606911080398988 0.2005526076440579 255 0 0
0.07021268376209075 0.03314323990728471 0.20306954608064992 255 0 0
0.05245054266468775 0.06441649473607014 0.20365342509712261 244 208 63
0.025718461041324223 0.07744255824758436 0.2034252267679651 244 208 63
0.037200542435415616 0.046730560299862736 0.20397376099396392 244 208 63
0.05440940909686784 0.05727209994536161 0.20408613429416253 244 208 63
0.06355993405365426 0.06603181052610675 0.204736818164422 244 208 63
0.05456770412834181 0.049050279029768475 0.2028037526321271 244 208 63
0.03649507476580928 0.023055175785471508 0.20173416860076138 255 0 0
0.047115862292542374 0.06751931486161636 0.20546685402304907 244 208 63
0.06442295297378162 0.06650993384922685 0.20535795513313163 244 208 63
0.04903202928470453 0.07381119625379093 0.20442980628020457 244 208 63
0.046521455582847475 0.05139884565812544 0.2029205591432549 244 208 63
0.06627125227529004 0.019632664135067958 0.2013160068167473 255 0 0
0.06987655760801594 0.06632834535260168 0.20616717493376205 244 208 63
0.07021597916505276 0.037821437444586326 0.19928817730269802 255 0 0
0.06538381456056346 0.032076196145303965 0.2016473319478708 255 0 0
0.04804148160411376 0.0648595786791187 0.20434880981254466 244 208 63
0.04672696929090293 0.06721362465027426 0.20274511779976778 244 208 63
0.01868232790970248 0.06318853152465323 0.19256218998246394 0 0 255
0.05567526309443504 0.0494756394434017 0.20232474354262187 244 208 63
0.04174520987520208 0.08092290182439349 0.19446761158294074 0 0 255
0.06721569250303414 0.05578031947875686 0.2051688621164237 244 208 63
0.061277732273112596 0.06735530797126839 0.19662110301035102 0 0 255
0.027605457096696345 0.07836427352711241 0.20353266212506455 244 208 63
0.05861615613354779 0.05833072960056215 0.2031293592914927 244 208 63
0.07164142722531937 0.03736680347469705 0.20162352971233194 255 0 0
0.07041438478155987 0.039953136178240235 0.2016327737961116 255 0 0
0.03149791550157195 0.041485780301883796 0.20342389988750834 244 208 63
0.08404644812706871 0.030903087990905263 0.203033327989607 255 0 0
0.07244022121531062 0.03809341945666468 0.19723535825098787 255 0 0
0.03566116727821758 0.02351174362646231 0.18913650125823528 0 255 0
0.08442347669375212 0.037446466829308064 0.20363707296329558 255 0 0
0.06426444261563914 0.03175278283198031 0.20286960565014853 255 0 0
0.06047203153215533 0.03595504862346384 0.2022082678166425 255 0 0
-0.003963571145106869 0.01961545034187297 0.19939393951374096 244 208 63
0.05255465461625461 0.053524152408256045 0.20301166438328044 244 208 63
0.02048156607003808 0.06159021028852381 0.20190977443580582 244 208 63
0.06293070704024101 0.05219039310873882 0.20399060874412878 244 208 63
0.09183170226297267 0.056442519042344506 0.1928375962948992 0 255 0
0.058102616294897845 -0.005347198726443084 0.19786602931614228 255 0 0
0.06166164490318063 0.01698899332187079 0.18885669581263906 0 255 0
0.07372533230062693 0.006991146530737027 0.19971801376978013 255 0 0
0.09198624376216795 0.05303804305502466 0.20309426490503152 255 0 0
0.03252749922273436 0.07992094200001207 0.20689261719402272 244 208 63
0.06546087156127703 0.00016029571090724754 0.20005461299278068 255 0 0
0.05474474908732068 0.057530449174203156 0.20358239742598822 244 208 63
0.004482656391773185 0.030154083662672193 0.20205648067037693 244 208 63
0.03911412990657221 0.0259923578279926 0.18940579588092202 0 255 0
0.05877182549704074 0.02882284736330972 0.2018001922795951 255 0 0
0.018340475434243678 0.012372417459689658 0.20059750407361376 255 0 0
0.08456520659121483 0.037362150185657084 0.19731643738026572 255 0 0
0.04447346327555984 0.07962959943023007 0.19438250093848727 0 0 255
0.07049617783448422 0.017082410142133304 0.19739263804819387 255 0 0
0.04113476306165101 0.02397589845718341 0.1998123413053456 255 0 0
0.05832901868596822 0.058850313778796876 0.2037470116669199 244 208 63
0.026448716773456272 0.01508084769448762 0.20094449623408359 255 0 0
0.06541830865076963 0.030246701705682062 0.1985360236596984 255 0 0
0.08185939563847462 0.031673945733034184 0.2025025808742522 255 0 0
0.061858112302763044 0.0350045485266998 0.20061211494869874 255 0 0
0.07328413442534498 0.038214590224731865 0.19094211100737335 0 255 0
0.04846483540089927 0.07128834708891638 0.2041918776252406 244 208 63
0.020701120401448496 0.057241030628499875 0.19204225760083526 0 0 255
0.07742196280432105 0.06134623503018017 0.19732043613642078 0 0 255
0.03589244249585636 0.07838527097374928 0.20685624024224175 244 208 63
0.048034830847787105 0.05327967424515022 0.2004327881062265 244 208 63
0.08373083860474918 0.034657668327788986 0.20290493417847177 255 0 0
0.05648627003812349 0.02923135462154482 0.19622912057023284 255 0 0
0.08327646910082605 0.03967493993193183 0.2038902705527227 255 0 0
-4.043771475375807e-05 0.015560018277224603 0.19744448018723187 255 0 0
0.060593918467812466 0.035697876543517595 0.19897625579278688 255 0 0
0.08639393972925784 0.06046598894316053 0.19313961238563415 0 0 255
0.06903627662974554 0.039501363610789555 0.19521783641036386 0 255 0
0.07723635090486605 0.06193979354629682 0.1952676364489704 0 0 255
0.0762152448591528 0.036471775729470905 0.20344760908179624 255 0 0
0.04535232986365979 0.05615511036627984 0.19645356547271095 0 0 255
0.06292748990853482 0.05216626596869372 0.20425410736538666 244 208 63
0.057859116665913514 0.058098076463358655 0.20520369684514736 244 208 63
0.038828951742510526 0.023771327527425695 0.18919894635526033 0 255 0
0.06069136778357721 0.0361130651803366 0.1948057028627122 0 255 0
0.06645902488497554 0.03215796249416654 0.2029966525928393 255 0 0
-0.004961694586592193 0.01874474546434926 0.1894669667537545 0 0 255
0.013179830945176375 0.036611490989507944 0.20169097038102188 244 208 63
0.06377557911880283 0.054949987526787036 0.20077791303467127 244 208 63
0.043071958015670486 0.020560077779563167 0.19527135950850275 255 0 0
0.05789153248226609 0.027671676287837184 0.19294614492058051 0 255 0
0.058558176787783446 0.023490961906635077 0.19998066584703927 255 0 0
0.08253896724404781 0.04403663776025515 0.20428064319771239 255 0 0
0.0630528712553741 0.06913637906709502 0.19680585922436686 0 0 255
0.08773472067811224 0.05658624799451893 0.20336724670443243 244 208 63
0.047287068156298157 0.07431349577361485 0.19813985215420848 0 0 255
0.07456505553444696 0.06678539310766834 0.204140334829977 244 208 63
0.04120279839487908 0.04535129150478458 0.20067585627478904 244 208 63
0.06606327256170083 0.0667049079933878 0.20554768886957597 244 208 63
0.049800217567010266 0.07328606822794656 0.19386669408178683 0 0 255
0.07542011659598802 0.03574393594059068 0.1938992895770503 0 255 0
0.04398876505786482 0.06407962065236297 0.2055820472362198 244 208 63
0.04863117828194804 0.051867163891290896 0.19189120800368908 0 0 255
0.06277977762419426 0.030182332795737073 0.20099922203827333 255 0 0
0.06113377645799516 0.018223830030303964 0.1984352848525078 255 0 0
0.04621672746510577 0.031171903995555944 0.2021277408876421 255 0 0
0.05558231313258383 -0.002994313718379875 0.19326735417547644 255 0 0
0.05803513456680626 0.028154609581280896 0.2024640849918334 255 0 0
0.02816209209851558 0.015884910315963306 0.19997607257615696 255 0 0
0.02705688147545857 0.04092815847658331 0.20225565318477898 244 208 63
0.0894953763657163 0.05868428130081217 0.2046438149164486 244 208 63
0.06474919164065504 0.05728679563518364 0.20447946110066872 244 208 63
0.05819651579695722 0.029186876149655504 0.19308860718689053 0 255 0
0.0013828060524943321 0.028563405578164888 0.1891805400185852 0 0 255
0.060009883692337576 0.035300936759593934 0.1968279001263234 255 0 0
0.06353625171562696 0.06683865012265658 0.20607333758492508 244 208 63
0.051705070143396994 0.0516260652701616 0.20243107006235114 244 208 63
0.07253438659654401 0.006070532316206474 0.18798970002102822 0 255 0
0.07612790692888328 0.03376067167089335 0.19688365606168054 255 0 0
0.05255945962946363 0.05303946170090143 0.20332166710478494 244 208 63
0.06759708096460876 0.021199711467850105 0.20194400728061498 255 0 0
0.04364909058606853 0.060355905369867666 0.2053000921744186 244 208 63
0.06790489449193754 0.06676295392904137 0.2056514175257058 244 208 63
0.01814653745198811 0.06828714023251262 0.20571494421980555 244 208 63
0.07912713847389599 0.029634815840947914 0.20090065500985413 255 0 0
0.04259840621720884 0.045793424205239436 0.19126141271483224 0 0 255
0.04924821109656551 0.05160647530852956 0.19187487169766884 0 0 255
0.08417162721508611 0.03153669652630203 0.1967782268489227 255 0 0
0.033266618734920636 0.08122501432344961 0.19439175678828716 0 0 255
0.0760567975795066 0.034330916902123906 0.19377768050943653 0 255 0
0.06616749900584196 0.06879785078643741 0.20628485663428323 244 208 63
0.07683403028325858 0.059888530634236735 0.19297001792983318 0 0 255
0.04248748225769343 0.024890181096592807 0.20044405250099684 255 0 0
0.061567740095999544 0.01828708289545721 0.19528905410230488 255 0 0
0.06390484115538986 0.015161662558180668 0.20070056331818814 255 0 0
0.04643602824194166 0.0008000142045502742 0.19775497594172406 255 0 0
0.06448204512130064 0.015367560429943819 0.20001782169653037 255 0 0
0.0834932416776766 0.03357339047805885 0.19379911164232522 0 255 0
0.07114732189976906 0.01345736681430577 0.20027861481823922 255 0 0
0.06840651245463984 0.030227648661053166 0.20213503619810227 255 0 0
0.05693356447091552 -0.005471831199667224 0.19730886455332802 255 0 0
0.082404526270302 0.028552353659664485 0.20286118983007478 255 0 0
0.05855815964818982 0.0300509840056654 0.19632946589487166 255 0 0
0.04142937393757375 0.06243998001593338 0.20224334115302547 244 208 63
0.08484947587405843 0.05766993074408454 0.20343124686065153 244 208 63
0.058968851852846144 0.03045799817674974 0.20268639382376225 255 0 0
0.06476777009733244 0.05746842577633591 0.20476206590924992 244 208 63
0.07559154089732238 0.05942711620658088 0.20525072178888132 244 208 63
0.06598866783408573 0.05516855638728718 0.19661518715774134 0 0 255
0.070621053222209 0.038611831181949746 0.1930508533171888 0 255 0
0.05213032778575253 -0.002350211219421562 0.19012686322925865 0 255 0
0.07691300107642789 0.02898020560082219 0.19329819852623903 0 255 0
0.07801927263777451 0.061039213742259985 0.19729961659216405 0 0 255
0.08812711748810664 0.05931920136146641 0.20468524563115714 244 208 63
0.04293730824440736 0.04291749740941422 0.20156872862019604 244 208 63
0.06759496206063431 0.033072472595538575 0.20096832558285 255 0 0
0.05673739216451089 0.03107645487715715 0.20065299781759596 255 0 0
0.06408155465801109 0.06633396348524141 0.2057173071813184 244 208 63
0.03280065718373068 0.08054803873024192 0.2070165246482397 244 208 63
0.04959524706155892 0.06837420102893349 0.20393884659764638 244 208 63
0.07992900916116788 0.030113603416270188 0.20137946750990224 255 0 0
0.06037152532459299 -0.004835702905863076 0.19900353962434378 255 0 0
0.04822161855466647 0.030204899568929917 0.20042711958687887 255 0 0
0.06693606528984827 0.05691432983997479 0.20520613070476326 244 208 63
0.06131790091613889 0.03606149153242412 0.20187402080229047 255 0 0
0.08612936446534254 0.036197841377345746 0.20038624605747085 255 0 0
0.049566569290317504 0.07372773426784182 0.2062424053587567 244 208 63
0.061739817888737614 0.06472128738785139 0.20592068151530737 244 208 63
0.07830899010973398 0.030582227203165297 0.2029338982046003 255 0 0
0.021531310006089183 0.0534465372121592 0.20227146361494638 244 208 63
0.07560522706905863 0.035387464364332454 0.19386890947550667 0 255 0
0.09168219499591637 0.05427298064338386 0.19895176382609225 255 0 0
0.06251769074120136 0.06872029852692979 0.20629634655954543 244 208 63
-0.005663113772223186 0.021758785504327773 0.18847145215827482 0 0 255
0.04557933881678321 0.05192243358308894 0.20455145185463058 244 208 63
0.07166374761043783 0.039358380634854896 0.20365634928102413 255 0 0
0.05855151946707534 0.028077828738203914 0.20093205863888583 255 0 0
0.04734752098529309 0.07246439805773464 0.20485950323196192 244 208 63
0.0710211234856339 0.035050759500325546 0.2033172303254335 255 0 0
0.08682953809945343 0.04799469390487018 0.20252740997455546 255 0 0
-0.0012210932139239304 0.02368530936097349 0.20033156492227358 244 208 63
-0.0005111033884134262 0.0288574550535949 0.19975085241530607 244 208 63
0.019625864539347605 0.03962643400712349 0.20304554774616276 244 208 63
0.06850917654376024 0.0026659463235000277 0.20032125948037127 255 0 0
0.07084443807183347 0.036384772461142106 0.2013112887247499 255 0 0
0.08142007710574053 0.027907861393448388 0.2017271913272653 255 0 0
0.0512250093565678 -0.0043985857442885995 0.19624289386539173 255 0 0
0.061187489866889204 0.01687338568793909 0.19199764530660124 0 255 0
0.027452463859792976 0.07910534533702668 0.1941266834753997 0 0 255
0.04187608937242221 0.05979520220891488 0.19569198478634228 0 0 255
0.018203979769834927 0.04140938597958256 0.20219162891273576 244 208 63
0.06483709210903099 0.05587180430242352 0.20298016206050862 244 208 63
0.059717555381542275 0.03447684084670486 0.20306351859695293 255 0 0
0.08425502329852137 0.0353919760352805 0.19081760632022657 0 255 0
0.06802378063884425 0.033382074625807945 0.19359272271442104 0 255 0
0.04976650979339454 -0.0046374901304271285 0.19729775597520313 255 0 0
0.07596774096136141 0.05893151580080707 0.20414696910235755 244 208 63
0.02763982325516972 0.04376715753720828 0.2014597559244279 244 208 63
0.046059450950214076 0.027218830825402513 0.18960289481852258 0 255 0
0.06609548902934341 0.05531248420242453 0.1966296700585935 0 0 255
0.048747569001825156 0.03205195172974086 0.200821930902725 255 0 0
0.07317396830756517 0.01468727245124666 0.19510114281184596 255 0 0
0.06768960676954698 0.022189789184714936 0.20103597913208196 255 0 0
0.06449039249948661 0.06649765451460926 0.20566136197287144 244 208 63
0.07647909376475552 0.027255277347075467 0.201607111834276 255 0 0
0.04745545079431208 0.07220787401407354 0.20536881923302772 244 208 63
0.042593145018007164 0.00575245757051962 0.20022430563267823 255 0 0
0.0242663333429159 0.07411329855777708 0.20625997978381916 244 208 63
0.020029850028784123 0.039765191530852714 0.20306318539721405 244 208 63
0.04341002129813229 0.06047739286795638 0.19682561923259445 0 0 255
0.04910051971712191 0.053154004288757446 0.19622453320712965 0 0 255
