ply
format ascii 1.0
element vertex 719
property float x
property float y
property float z
property uchar red
property uchar green
property uchar blue
end_header
-6.766496658325195 -25.293216705322266 0.24999335408210754 244 208 63
12.986488342285156 24.050996780395508 -5.21540641784668e-06 255 0 0
8.920090675354004 -37.21714401245117 0.6666633486747742 255 0 0
37.02838134765625 6.908109188079834 6.000001430511475 255 0 0
-21.56549072265625 -16.759254455566406 1.4999998807907104 244 208 63
-8.787336349487305 -1.2386006116867065 3.029705762863159 244 208 63
33.02907943725586 -16.75653839111328 11.940596580505371 0 255 0
-39.74159240722656 -13.196540832519531 11.940596580505371 0 0 255
3.7623281478881836 -45.348567962646484 0.05940645933151245 255 0 0
-13.64097785949707 -22.773860931396484 1.9999970197677612 244 208 63
6.769618034362793 0.010281801223754883 0.05940645933151245 255 0 0
-37.24977493286133 -15.99184799194336 0.05940645933151245 244 208 63
-0.8385859727859497 -47.609291076660156 -5.21540641784668e-06 244 208 63
-39.34632873535156 3.4956204891204834 8.970297813415527 0 0 255
13.715221405029297 -17.89797019958496 11.940596580505371 0 255 0
23.42716407775879 -11.296820640563965 0.33332735300064087 255 0 0
36.653099060058594 10.012993812561035 1.4999998807907104 255 0 0
18.864072799682617 -29.64529800415039 0.9999959468841553 255 0 0
41.500404357910156 1.8868887424468994 0.05940645933151245 255 0 0
10.921669960021973 -9.463506698608398 0.49999192357063293 255 0 0
-39.06441879272461 4.108305931091309 11.940596580505371 0 0 255
-14.709695816040039 -38.52626419067383 8.970297813415527 0 0 255
13.952264785766602 -22.27846908569336 -5.21540641784668e-06 255 0 0
-23.394445419311523 -11.191370010375977 0.6666633486747742 244 208 63
-9.205188751220703 -25.0585994720459 1.4999998807907104 244 208 63
19.144779205322266 -8.9221773147583 3.029705762863159 255 0 0
42.070674896240234 -3.6839282512664795 6.000001430511475 255 0 0
24.303558349609375 -18.9648380279541 3.029705762863159 255 0 0
-9.913440704345703 -15.014610290527344 2.831681728363037 244 208 63
7.929542064666748 -22.47108268737793 1.9999970197677612 255 0 0
24.23691749572754 -18.959915161132812 0.05940645933151245 255 0 0
12.442484855651855 -20.43556022644043 8.970297813415527 0 255 0
-41.42171859741211 3.725658655166626 1.9999970197677612 244 208 63
39.672794342041016 7.005800247192383 1.4999998807907104 255 0 0
11.71724796295166 -9.446178436279297 0.05940645933151245 255 0 0
-19.417444229125977 -28.787261962890625 7.1881184577941895 0 0 255
-16.02299690246582 -35.44046401977539 1.9999970197677612 244 208 63
-23.725711822509766 -13.619603157043457 1.9999970197677612 244 208 63
8.639616966247559 -25.297452926635742 2.0396060943603516 255 0 0
12.501255989074707 -20.13947105407715 8.970297813415527 0 255 0
-8.429091453552246 -37.728824615478516 7.485149383544922 0 0 255
-21.92279052734375 -18.57477378845215 0.05940645933151245 244 208 63
-7.66745662689209 -38.11795425415039 1.544554352760315 244 208 63
-6.883544921875 -26.12423324584961 -5.21540641784668e-06 244 208 63
21.10268211364746 -31.29604721069336 -5.21540641784668e-06 255 0 0
42.12078094482422 -8.78246784210205 0.9999959468841553 255 0 0
6.667978763580322 -15.942399024963379 1.9999970197677612 255 0 0
24.57115936279297 12.688949584960938 -5.21540641784668e-06 255 0 0
-20.527029037475586 -27.199642181396484 11.940596580505371 0 0 255
8.465018272399902 -1.6224408149719238 6.000001430511475 255 0 0
14.662736892700195 -36.39643859863281 -5.21540641784668e-06 255 0 0
13.124580383300781 -16.03710174560547 1.666664481163025 255 0 0
9.992263793945312 35.83868408203125 11.940596580505371 0 255 0
21.572067260742188 12.175132751464844 -5.21540641784668e-06 255 0 0
-10.814318656921387 8.704079627990723 0.05940645933151245 244 208 63
16.876710891723633 -35.38679122924805 11.940596580505371 0 255 0
10.127887725830078 4.071784973144531 -5.21540641784668e-06 255 0 0
-13.970707893371582 -22.28217124938965 1.7499984502792358 244 208 63
19.760385513305664 11.465497016906738 -5.21540641784668e-06 255 0 0
39.89507293701172 1.947866678237915 11.940596580505371 0 255 0
7.42539119720459 -37.64463424682617 0.49999192357063293 255 0 0
-25.059919357299805 -17.493881225585938 2.0396060943603516 244 208 63
-29.55565643310547 -17.536516189575195 0.05940645933151245 244 208 63
30.880552291870117 -18.949811935424805 0.05940645933151245 255 0 0
18.708736419677734 -30.609580993652344 0.7999943494796753 255 0 0
3.5776944160461426 48.22480010986328 1.9999970197677612 255 0 0
-7.475283145904541 -16.734275817871094 0.9999959468841553 244 208 63
17.89053726196289 -33.01848220825195 1.699994683265686 255 0 0
40.10824966430664 -5.54198694229126 1.9999970197677612 255 0 0
-6.831875324249268 -23.25333595275879 0.49999192357063293 244 208 63
39.61439514160156 -9.917784690856934 6.000001430511475 255 0 0
15.176937103271484 -38.97747039794922 1.9999970197677612 255 0 0
-25.13939094543457 10.156116485595703 1.9999970197677612 244 208 63
-12.620556831359863 -11.435885429382324 1.9999970197677612 244 208 63
-23.767852783203125 -13.230470657348633 0.6666633486747742 244 208 63
35.330474853515625 -15.462512969970703 0.05940645933151245 255 0 0
-6.680842399597168 -3.56996488571167 3.029705762863159 244 208 63
10.628844261169434 -17.388458251953125 0.33332735300064087 255 0 0
7.350361347198486 -38.73828887939453 9.960396766662598 0 255 0
-13.646145820617676 -8.34978199005127 11.940596580505371 0 0 255
-9.387725830078125 -22.285995483398438 0.33332735300064087 244 208 63
18.20581817626953 -29.763648986816406 0.6666633486747742 255 0 0
36.03342056274414 7.20277214050293 -5.21540641784668e-06 255 0 0
18.07030487060547 -29.800046920776367 0.8333313465118408 255 0 0
5.8013739585876465 -1.582108736038208 -5.21540641784668e-06 255 0 0
-11.663252830505371 -21.164457321166992 1.9999970197677612 244 208 63
-26.653858184814453 -19.63926887512207 -5.21540641784668e-06 244 208 63
4.669676780700684 42.05426788330078 1.9999970197677612 255 0 0
7.086434364318848 -38.21114730834961 1.2499945163726807 255 0 0
36.77170944213867 9.261298179626465 6.000001430511475 255 0 0
-14.183225631713867 -21.853544235229492 0.49999192357063293 244 208 63
-9.260848045349121 -24.981006622314453 0.24999335408210754 244 208 63
-16.741064071655273 -30.205615997314453 0.49999192357063293 244 208 63
20.13916778564453 -26.60479164123535 -5.21540641784668e-06 255 0 0
-8.589323043823242 40.12773132324219 1.9999970197677612 244 208 63
11.83402156829834 5.539971351623535 0.6666633486747742 255 0 0
-19.555028915405273 -28.890708923339844 5.009902000427246 244 208 63
-11.65552043914795 -23.767467498779297 11.940596580505371 0 0 255
-27.543508529663086 -19.64436912536621 1.9999970197677612 244 208 63
27.951183319091797 -19.472841262817383 1.9999970197677612 255 0 0
25.61281394958496 -14.065600395202637 11.940596580505371 0 255 0
-40.42534255981445 -7.018809795379639 11.940596580505371 0 0 255
10.770362854003906 -17.4677791595459 1.3333284854888916 255 0 0
-15.787323951721191 -38.08405303955078 0.05940645933151245 244 208 63
31.888578414916992 -17.166919708251953 8.970297813415527 0 255 0
-28.993955612182617 -19.603790283203125 0.9999959468841553 244 208 63
-23.592884063720703 -11.579063415527344 1.9999970197677612 244 208 63
-20.76459312438965 -26.816911697387695 -5.21540641784668e-06 244 208 63
-21.404409408569336 -9.773894309997559 -5.21540641784668e-06 244 208 63
-39.91525650024414 -0.37762999534606934 -5.21540641784668e-06 244 208 63
22.223466873168945 -18.66427993774414 3.029705762863159 255 0 0
6.6744771003723145 -25.162857055664062 1.3333284854888916 255 0 0
25.936485290527344 -19.471263885498047 0.9999959468841553 255 0 0
11.957910537719727 -28.1170654296875 6.000001430511475 255 0 0
-13.785388946533203 -39.3588981628418 -5.21540641784668e-06 244 208 63
8.765219688415527 -25.79062271118164 11.940596580505371 0 255 0
-33.19879913330078 -18.98139762878418 1.3333284854888916 244 208 63
12.390390396118164 -15.410405158996582 0.6666633486747742 255 0 0
17.6772518157959 -27.705875396728516 0.05940645933151245 255 0 0
-11.312053680419922 32.21304702758789 11.940596580505371 0 0 255
7.165152072906494 -3.8516039848327637 1.7499984502792358 255 0 0
-9.581722259521484 -24.83984375 0.24999335408210754 244 208 63
-16.8894100189209 -9.530421257019043 1.4999998807907104 244 208 63
-6.862405300140381 -23.18189811706543 1.7499984502792358 244 208 63
11.945202827453613 -8.728906631469727 1.4999998807907104 255 0 0
7.522218227386475 -37.55348205566406 1.666664481163025 255 0 0
18.07419776916504 -37.088897705078125 1.9999970197677612 255 0 0
-7.091004371643066 -3.262484073638916 3.029705762863159 244 208 63
-9.024202346801758 -28.409439086914062 8.970297813415527 0 0 255
5.51686954498291 -3.3185815811157227 1.4999998807907104 255 0 0
21.42934226989746 -18.08987045288086 7.485149383544922 255 0 0
-39.96378707885742 -6.402614593505859 0.9999959468841553 244 208 63
23.886499404907227 -12.93188762664795 1.9999970197677612 255 0 0
17.016653060913086 -35.24116134643555 11.940596580505371 0 255 0
-39.820308685302734 -7.388968467712402 0.9999959468841553 244 208 63
-12.041129112243652 -20.13372802734375 -5.21540641784668e-06 244 208 63
12.318445205688477 3.0884337425231934 6.000001430511475 255 0 0
6.6144585609436035 -4.04743766784668 0.1666627824306488 255 0 0
18.857616424560547 -29.951765060424805 1.5999972820281982 255 0 0
11.20740795135498 -21.587491989135742 -5.21540641784668e-06 255 0 0
-23.88166618347168 -11.086030006408691 3.029705762863159 244 208 63
17.52412223815918 -27.224441528320312 -5.21540641784668e-06 255 0 0
11.712764739990234 -12.253988265991211 0.24999335408210754 255 0 0
13.695480346679688 -16.70928382873535 0.33332735300064087 255 0 0
-19.658079147338867 -9.480670928955078 0.33332735300064087 244 208 63
21.894573211669922 11.70238971710205 11.940596580505371 0 255 0
10.221986770629883 -17.24059295654297 0.9999959468841553 255 0 0
6.208327293395996 -3.473041534423828 11.940596580505371 0 255 0
25.04428482055664 -16.866966247558594 0.7142817974090576 255 0 0
-6.44969367980957 -3.632875680923462 0.05940645933151245 244 208 63
24.549840927124023 -9.332050323486328 3.029705762863159 255 0 0
-42.01011276245117 2.1014082431793213 -5.21540641784668e-06 244 208 63
-42.484500885009766 -0.5415219068527222 1.9999970197677612 244 208 63
38.499916076660156 4.997997283935547 0.05940645933151245 255 0 0
-8.872086524963379 -24.390241622924805 9.564355850219727 0 0 255
9.192832946777344 -28.568492889404297 6.000001430511475 255 0 0
11.7283935546875 -18.3893985748291 0.49999192357063293 255 0 0
-14.357619285583496 -20.339035034179688 0.9999959468841553 244 208 63
25.051620483398438 -16.833816528320312 0.42856425046920776 255 0 0
-1.5808771848678589 -50.167198181152344 1.9999970197677612 244 208 63
7.292248725891113 -16.152956008911133 4.019805431365967 255 0 0
-18.783687591552734 -30.24639892578125 0.49999192357063293 244 208 63
6.832885265350342 -16.32042694091797 0.6666633486747742 255 0 0
18.048219680786133 -32.63420486450195 0.49999192357063293 255 0 0
30.188133239746094 9.920868873596191 0.49999192357063293 255 0 0
-20.294193267822266 -26.642902374267578 0.33332735300064087 244 208 63
2.7374792098999023 -49.350494384765625 0.9999959468841553 255 0 0
19.81682586669922 -8.962947845458984 3.029705762863159 255 0 0
-38.83092498779297 -11.584573745727539 0.05940645933151245 244 208 63
14.156913757324219 -21.897632598876953 0.9999959468841553 255 0 0
-6.893237113952637 -38.73656463623047 1.7499984502792358 244 208 63
39.89154815673828 -9.147636413574219 8.970297813415527 0 255 0
39.947166442871094 1.7850303649902344 3.029705762863159 255 0 0
10.264114379882812 -14.462011337280273 1.899996280670166 255 0 0
-29.982187271118164 10.406005859375 8.970297813415527 0 0 255
-29.993209838867188 -17.502504348754883 7.980197906494141 0 0 255
6.134668827056885 -2.394453287124634 0.05940645933151245 255 0 0
6.9106292724609375 -16.40598487854004 0.6666633486747742 255 0 0
-38.74022674560547 4.723349571228027 8.970297813415527 0 0 255
14.336557388305664 -9.76348876953125 11.940596580505371 0 255 0
13.301344871520996 -17.007936477661133 11.940596580505371 0 255 0
-18.81716537475586 -30.087566375732422 1.6428552865982056 244 208 63
-8.220507621765137 -12.560111045837402 -5.21540641784668e-06 244 208 63
21.13448715209961 -31.1580810546875 0.6666633486747742 255 0 0
-16.134313583374023 -9.634513854980469 1.9999970197677612 244 208 63
18.76964569091797 -29.63888168334961 -5.21540641784668e-06 255 0 0
11.664728164672852 -24.41412353515625 1.666664481163025 255 0 0
-11.980411529541016 -11.366518020629883 9.960396766662598 0 0 255
-40.641510009765625 5.420017242431641 0.6666633486747742 244 208 63
33.75539779663086 8.718748092651367 0.49999192357063293 255 0 0
-9.290199279785156 -14.802531242370605 9.960396766662598 0 0 255
10.624238014221191 -14.606697082519531 1.7999988794326782 255 0 0
6.665607452392578 -3.542971611022949 9.960396766662598 0 255 0
25.672462463378906 -13.429224967956543 6.000001430511475 255 0 0
10.551566123962402 -22.52978515625 11.940596580505371 0 255 0
-1.1293964385986328 49.620025634765625 4.81188440322876 244 208 63
-14.239871978759766 -21.67669677734375 1.2499945163726807 244 208 63
-42.07054138183594 -3.166506767272949 8.970297813415527 0 0 255
10.264114379882812 -14.462011337280273 0.19999295473098755 255 0 0
-36.79973602294922 7.203155517578125 11.940596580505371 0 0 255
-12.92916202545166 27.00861930847168 0.9999959468841553 244 208 63
29.74486541748047 -17.520641326904297 11.940596580505371 0 255 0
-18.858840942382812 -29.827245712280273 1.4285688400268555 244 208 63
42.565025329589844 -2.4250383377075195 1.9999970197677612 255 0 0
30.555879592895508 10.333566665649414 6.000001430511475 255 0 0
20.92779541015625 -31.970012664794922 1.9999970197677612 255 0 0
11.505538940429688 -23.878921508789062 0.05940645933151245 255 0 0
18.400171279907227 -6.788936138153076 -5.21540641784668e-06 255 0 0
26.45366096496582 -17.593463897705078 7.980197906494141 0 255 0
-14.781338691711426 -10.081964492797852 0.9999959468841553 244 208 63
-31.25300407409668 -18.929508209228516 11.940596580505371 0 0 255
36.888084411621094 7.0523834228515625 0.05940645933151245 255 0 0
-32.42771911621094 -18.70366668701172 9.960396766662598 0 0 255
41.50983810424805 -8.981605529785156 3.029705762863159 255 0 0
-8.627433776855469 -24.75351905822754 9.564355850219727 0 0 255
-8.877446174621582 -37.22883987426758 -5.21540641784668e-06 244 208 63
10.22442626953125 -14.440913200378418 1.7999988794326782 255 0 0
10.925891876220703 -14.697931289672852 0.19999295473098755 255 0 0
25.77729606628418 -19.044376373291016 6.000001430511475 255 0 0
-13.852604866027832 -22.468149185180664 0.24999335408210754 244 208 63
-20.841815948486328 -30.081987380981445 3.029705762863159 244 208 63
-9.196661949157715 -39.17471694946289 2.0396060943603516 244 208 63
-2.6469902992248535 48.48809814453125 11.940596580505371 0 0 255
-9.38967227935791 -14.47160816192627 2.0396060943603516 244 208 63
7.001040458679199 -26.67998504638672 1.3333284854888916 255 0 0
-7.772495746612549 -37.927852630615234 3.029705762863159 244 208 63
-18.496797561645508 -29.673744201660156 0.49999192357063293 244 208 63
22.936613082885742 -18.818328857421875 0.05940645933151245 255 0 0
8.924737930297852 1.7804515361785889 9.960396766662598 0 255 0
-12.153351783752441 -8.61236572265625 0.9999959468841553 244 208 63
-2.4239163398742676 -49.67820739746094 1.9999970197677612 244 208 63
25.19917106628418 -9.347212791442871 0.6666633486747742 255 0 0
-19.974018096923828 -9.491294860839844 0.6666633486747742 244 208 63
11.26199722290039 -22.14192771911621 8.970297813415527 0 255 0
-6.595901012420654 43.864742279052734 0.9999959468841553 244 208 63
8.227577209472656 -12.634236335754395 0.6666633486747742 255 0 0
24.418439865112305 -8.52556037902832 0.33332735300064087 255 0 0
11.70988655090332 5.420675277709961 0.6666633486747742 255 0 0
-11.64411449432373 -15.505257606506348 9.960396766662598 0 0 255
-4.0532941818237305 43.92437744140625 8.970297813415527 0 0 255
-9.734304428100586 -14.974223136901855 11.148517608642578 0 0 255
-24.646562576293945 10.113069534301758 0.9999959468841553 244 208 63
-7.140576362609863 -14.456185340881348 0.49999192357063293 244 208 63
7.010815143585205 -38.36560821533203 0.24999335408210754 255 0 0
7.900684356689453 -14.030546188354492 6.000001430511475 255 0 0
7.535447597503662 -37.544586181640625 -5.21540641784668e-06 255 0 0
21.691869735717773 -18.428058624267578 8.970297813415527 0 255 0
16.59967803955078 -34.99128723144531 1.9999970197677612 255 0 0
-19.8312931060791 -27.12273406982422 8.970297813415527 0 0 255
9.278349876403809 -14.681822776794434 7.980197906494141 0 255 0
-18.863502502441406 -29.775712966918945 1.357141137123108 244 208 63
-6.750210285186768 -15.850259780883789 -5.21540641784668e-06 244 208 63
5.643500328063965 -45.543609619140625 3.029705762863159 255 0 0
-1.6455565690994263 46.59150314331055 -5.21540641784668e-06 244 208 63
-12.921416282653809 27.10060691833496 1.9999970197677612 244 208 63
-29.579469680786133 -19.569311141967773 1.666664481163025 244 208 63
10.661705017089844 4.4356513023376465 1.3333284854888916 255 0 0
-12.53931713104248 -19.875202178955078 4.019805431365967 244 208 63
10.522735595703125 -24.756040573120117 0.9999959468841553 255 0 0
24.177900314331055 10.07356071472168 1.9999970197677612 255 0 0
11.407258987426758 -36.996978759765625 1.4999998807907104 255 0 0
-18.264965057373047 -29.1449031829834 11.940596580505371 0 0 255
-7.337356090545654 -37.87166976928711 1.4999998807907104 244 208 63
-9.114723205566406 -1.591307520866394 0.9999959468841553 244 208 63
26.12179183959961 -14.039264678955078 0.6666633486747742 255 0 0
9.487372398376465 -25.980287551879883 0.9999959468841553 255 0 0
-32.86725997924805 11.946602821350098 1.9999970197677612 244 208 63
-6.090050220489502 -3.348782539367676 11.940596580505371 0 0 255
-18.858840942382812 -29.827245712280273 0.07142588496208191 244 208 63
-21.208986282348633 9.208627700805664 -5.21540641784668e-06 244 208 63
-25.674551010131836 -13.913182258605957 3.029705762863159 244 208 63
9.36776065826416 -14.9318208694458 10.620465278625488 0 255 0
38.0399055480957 4.910423755645752 0.9999959468841553 255 0 0
21.40833854675293 -9.79570484161377 1.3333284854888916 255 0 0
-19.48973274230957 8.363518714904785 1.9999970197677612 244 208 63
-29.08592987060547 12.718204498291016 1.9999970197677612 244 208 63
-19.55298614501953 -28.936786651611328 3.029705762863159 244 208 63
-3.6185519695281982 47.40793228149414 11.940596580505371 0 0 255
29.7654972076416 -19.456924438476562 0.9999959468841553 255 0 0
-15.219590187072754 -28.330474853515625 8.970297813415527 0 0 255
-37.62055206298828 -16.359895706176758 1.9999970197677612 244 208 63
5.558106422424316 -2.5899171829223633 0.9999959468841553 255 0 0
11.381114959716797 -23.93427848815918 0.05940645933151245 255 0 0
8.89459228515625 1.5928566455841064 11.940596580505371 0 255 0
-16.235116958618164 -35.26419448852539 1.9999970197677612 244 208 63
19.459087371826172 11.323307037353516 -5.21540641784668e-06 255 0 0
18.708736419677734 -30.609580993652344 1.899996280670166 255 0 0
-10.656102180480957 -17.37273406982422 1.666664481163025 244 208 63
6.916181564331055 -3.9849929809570312 1.8333290815353394 255 0 0
-8.168578147888184 -42.17804718017578 0.9999959468841553 244 208 63
-27.801225662231445 -19.021495819091797 4.019805431365967 244 208 63
7.570611476898193 -37.523338317871094 1.9999970197677612 255 0 0
6.625357627868652 -0.4863840341567993 6.000001430511475 255 0 0
-6.233858108520508 -3.5652213096618652 0.05940645933151245 244 208 63
11.030999183654785 9.650827407836914 0.05940645933151245 255 0 0
-11.320032119750977 -21.541292190551758 1.3333284854888916 244 208 63
4.833979606628418 -43.97844314575195 4.019805431365967 255 0 0
-8.64019775390625 35.29514694213867 11.940596580505371 0 0 255
41.60149383544922 1.5093135833740234 0.05940645933151245 255 0 0
-17.492019653320312 -36.949710845947266 8.970297813415527 0 0 255
6.736017227172852 -4.032741546630859 1.8333290815353394 255 0 0
25.489967346191406 -11.034621238708496 3.029705762863159 255 0 0
11.350420951843262 -9.729023933410645 8.970297813415527 0 255 0
5.893800258636475 -3.8451333045959473 0.6666633486747742 255 0 0
-6.725438117980957 -24.007389068603516 -5.21540641784668e-06 244 208 63
17.2065372467041 -37.15208053588867 11.940596580505371 0 255 0
24.067995071411133 -8.880172729492188 8.970297813415527 0 255 0
26.25971794128418 -12.233369827270508 0.9999959468841553 255 0 0
-12.292251586914062 -11.076310157775879 2.0396060943603516 244 208 63
7.354364395141602 -23.455913543701172 9.960396766662598 0 255 0
-11.078629493713379 22.32115936279297 4.019805431365967 244 208 63
-21.208986282348633 9.208627700805664 1.9999970197677612 244 208 63
25.1815128326416 -16.95941925048828 1.3333284854888916 255 0 0
6.805055618286133 -23.61260986328125 1.9999970197677612 255 0 0
9.315131187438965 -14.904376029968262 2.0396060943603516 255 0 0
-18.830888748168945 -30.014894485473633 0.07142588496208191 244 208 63
-1.3543211221694946 46.92945861816406 -5.21540641784668e-06 244 208 63
-41.442665100097656 -9.405353546142578 0.05940645933151245 244 208 63
-14.535329818725586 -27.92184829711914 1.4999998807907104 244 208 63
-6.833630084991455 -25.839401245117188 0.49999192357063293 244 208 63
-7.669924259185791 -37.50075912475586 0.33332735300064087 244 208 63
-8.531360626220703 -27.985307693481445 3.029705762863159 244 208 63
13.998518943786621 -30.498167037963867 1.4999998807907104 255 0 0
34.85697555541992 -18.299015045166016 -5.21540641784668e-06 255 0 0
-21.396732330322266 -9.770699501037598 1.666664481163025 244 208 63
-12.12800407409668 -27.63445281982422 1.4999998807907104 244 208 63
37.00962829589844 -16.129953384399414 11.940596580505371 0 255 0
-9.575621604919434 -26.822052001953125 2.0396060943603516 244 208 63
17.575092315673828 7.197233200073242 1.4999998807907104 255 0 0
-20.690359115600586 9.501124382019043 8.970297813415527 0 0 255
-15.442541122436523 -7.169719219207764 1.9999970197677612 244 208 63
13.359265327453613 -10.279552459716797 0.05940645933151245 255 0 0
6.141509532928467 -3.976986885070801 0.9999959468841553 255 0 0
-41.54238510131836 -9.019977569580078 3.029705762863159 244 208 63
-10.797332763671875 -27.60153579711914 7.980197906494141 0 0 255
25.686254501342773 -12.636909484863281 11.940596580505371 0 255 0
7.492305278778076 -43.57232666015625 0.9999959468841553 255 0 0
-10.149606704711914 -27.24167251586914 0.05940645933151245 244 208 63
-6.833630084991455 -25.839401245117188 0.7499973773956299 244 208 63
-14.358948707580566 -19.629316329956055 1.4999998807907104 244 208 63
36.158199310302734 -14.181441307067871 1.9999970197677612 255 0 0
10.161392211914062 -14.401143074035645 0.5999961495399475 255 0 0
9.85207462310791 -24.320709228515625 6.000001430511475 255 0 0
7.681545257568359 41.89677810668945 1.9999970197677612 255 0 0
13.026381492614746 -36.81562042236328 1.4999998807907104 255 0 0
-14.308266639709473 -18.446306228637695 1.7499984502792358 244 208 63
-8.6902494430542 33.81818771362305 0.9999959468841553 244 208 63
9.347498893737793 -25.746095657348633 0.19999295473098755 255 0 0
11.7283935546875 -18.3893985748291 1.2499945163726807 255 0 0
7.984762191772461 -2.2443528175354004 11.940596580505371 0 255 0
9.293594360351562 -14.889364242553711 2.0396060943603516 255 0 0
-6.772693157196045 -15.505229949951172 0.49999192357063293 244 208 63
-36.04071807861328 10.460677146911621 1.9999970197677612 244 208 63
9.850292205810547 0.1833176612854004 6.000001430511475 255 0 0
-7.571547985076904 -26.680286407470703 7.980197906494141 0 0 255
-21.488733291625977 -29.454906463623047 0.49999192357063293 244 208 63
26.358217239379883 12.74756908416748 1.4999998807907104 255 0 0
-8.881806373596191 -39.27797317504883 9.960396766662598 0 0 255
39.53721237182617 6.240285873413086 8.970297813415527 0 255 0
7.879627227783203 41.52315139770508 1.9999970197677612 255 0 0
7.266900539398193 -37.87808609008789 1.2499945163726807 255 0 0
9.392560005187988 11.565436363220215 1.9999970197677612 255 0 0
11.439324378967285 9.393672943115234 0.9999959468841553 255 0 0
2.771066665649414 -48.67057800292969 8.970297813415527 0 255 0
12.812095642089844 -8.229032516479492 -5.21540641784668e-06 255 0 0
34.712154388427734 11.18643569946289 -5.21540641784668e-06 255 0 0
6.704458713531494 -24.054698944091797 1.9999970197677612 255 0 0
-18.847929000854492 -29.613191604614258 1.0714235305786133 244 208 63
-9.396869659423828 -37.1827507019043 -5.21540641784668e-06 244 208 63
6.675285816192627 -4.041776180267334 1.666664481163025 255 0 0
21.649879455566406 -17.34464454650879 7.485149383544922 0 255 0
32.716854095458984 -19.195589065551758 1.9999970197677612 255 0 0
-18.856510162353516 -29.632068634033203 0.49999192357063293 244 208 63
-9.189807891845703 -25.386329650878906 1.9999970197677612 244 208 63
10.269118309020996 13.349067687988281 11.940596580505371 0 255 0
42.51654815673828 -5.61829137802124 1.4999998807907104 255 0 0
-16.094379425048828 -27.65445327758789 0.49999192357063293 244 208 63
-7.152859687805176 -24.690017700195312 4.51485013961792 244 208 63
-14.59525203704834 -7.97668981552124 0.05940645933151245 244 208 63
-30.685901641845703 -16.94845199584961 0.9999959468841553 244 208 63
12.160667419433594 -8.595325469970703 1.4999998807907104 255 0 0
4.120957374572754 42.965232849121094 -5.21540641784668e-06 255 0 0
-12.53931713104248 -19.875202178955078 2.0396060943603516 244 208 63
42.000770568847656 -5.661530017852783 11.940596580505371 0 255 0
23.42716407775879 -11.296820640563965 0.6666633486747742 255 0 0
15.358842849731445 -30.433774948120117 1.9999970197677612 255 0 0
-21.081340789794922 9.67668342590332 11.940596580505371 0 0 255
1.4211894273757935 -50.211585998535156 0.9999959468841553 255 0 0
16.194053649902344 -7.579442024230957 3.029705762863159 255 0 0
13.576252937316895 -28.364898681640625 3.029705762863159 255 0 0
-15.759617805480957 5.717038154602051 -5.21540641784668e-06 244 208 63
10.573089599609375 -10.419317245483398 0.05940645933151245 255 0 0
6.666498184204102 -4.04280424118042 1.9999970197677612 255 0 0
-8.674003601074219 -22.37984848022461 1.666664481163025 244 208 63
40.44301223754883 -0.7528609037399292 8.970297813415527 0 255 0
6.679028511047363 -0.3003793954849243 0.05940645933151245 255 0 0
-18.814945220947266 -30.098848342895508 1.9999970197677612 244 208 63
40.4914436340332 -1.3775557279586792 3.029705762863159 255 0 0
-32.557037353515625 9.793676376342773 0.05940645933151245 244 208 63
-35.14425277709961 7.923786640167236 1.9999970197677612 244 208 63
-20.356584548950195 -26.65323829650879 0.33332735300064087 244 208 63
-12.45444393157959 -18.941476821899414 9.960396766662598 0 0 255
-32.13274383544922 9.419281005859375 -5.21540641784668e-06 244 208 63
-12.329828262329102 -23.41236114501953 11.940596580505371 0 0 255
-19.471704483032227 -29.437976837158203 9.960396766662598 0 0 255
21.68187713623047 -7.687058448791504 6.000001430511475 255 0 0
5.750924587249756 -3.7229442596435547 1.1666605472564697 255 0 0
-11.03972339630127 7.830400466918945 1.9999970197677612 244 208 63
8.838727951049805 -22.397422790527344 0.49999192357063293 255 0 0
-18.22439956665039 -32.13700485229492 0.7857095003128052 244 208 63
21.24748992919922 -27.41011619567871 0.33332735300064087 255 0 0
10.477646827697754 -17.321640014648438 0.33332735300064087 255 0 0
8.905449867248535 -11.6481294631958 1.9999970197677612 255 0 0
-17.773426055908203 10.37984848022461 1.9999970197677612 244 208 63
-11.119743347167969 -17.086639404296875 7.980197906494141 0 0 255
10.350412368774414 13.786935806274414 6.000001430511475 255 0 0
22.4305419921875 9.670103073120117 0.49999192357063293 255 0 0
-21.349998474121094 -9.192437171936035 4.019805431365967 244 208 63
40.18170166015625 -2.68086314201355 -5.21540641784668e-06 255 0 0
-17.739248275756836 -33.36338806152344 0.7142817974090576 244 208 63
-21.332929611206055 -17.066761016845703 0.49999192357063293 244 208 63
5.687849044799805 -3.6520819664001465 0.33332735300064087 255 0 0
39.19095993041992 3.7257957458496094 3.029705762863159 255 0 0
13.960023880004883 -20.438575744628906 9.960396766662598 0 255 0
-15.658774375915527 -27.754501342773438 1.9999970197677612 244 208 63
6.119300842285156 44.64484405517578 0.9999959468841553 255 0 0
7.570734977722168 -3.444129228591919 1.9999970197677612 255 0 0
-35.21236038208008 -15.00002384185791 0.9999959468841553 244 208 63
-7.999997615814209 41.285709381103516 0.9999959468841553 244 208 63
-11.004079818725586 18.85685157775879 2.0396060943603516 244 208 63
17.942604064941406 -32.896114349365234 1.4999998807907104 255 0 0
-9.290199279785156 -14.802531242370605 0.4554477334022522 244 208 63
-19.520015716552734 -29.187976837158203 1.0495061874389648 244 208 63
1.4676357507705688 47.35230255126953 8.970297813415527 0 255 0
15.164681434631348 8.54796028137207 1.9999970197677612 255 0 0
21.397563934326172 -29.851099014282227 1.9999970197677612 255 0 0
-8.687712669372559 -24.510236740112305 2.4356439113616943 244 208 63
37.253936767578125 -13.074296951293945 -5.21540641784668e-06 255 0 0
-16.38603973388672 -6.964110851287842 0.9999959468841553 244 208 63
10.667092323303223 24.37921905517578 -5.21540641784668e-06 255 0 0
-21.12588119506836 -31.34773063659668 -5.21540641784668e-06 244 208 63
-38.17524719238281 -15.120540618896484 11.940596580505371 0 0 255
6.939253807067871 -44.582767486572266 1.4999998807907104 255 0 0
15.123156547546387 -29.860721588134766 2.0396060943603516 255 0 0
-1.2692837715148926 49.54684829711914 10.752476692199707 0 0 255
-11.991036415100098 -20.412212371826172 0.9999959468841553 244 208 63
38.3703498840332 -11.569535255432129 -5.21540641784668e-06 255 0 0
-8.054970741271973 -37.80027389526367 0.05940645933151245 244 208 63
18.048219680786133 -32.63420486450195 1.7999988794326782 255 0 0
-12.717548370361328 -16.283357620239258 11.940596580505371 0 0 255
20.93300437927246 11.38587474822998 11.940596580505371 0 255 0
-19.099655151367188 -9.475735664367676 1.666664481163025 244 208 63
-7.360538005828857 -23.455873489379883 11.940596580505371 0 0 255
14.191008567810059 -39.33969497680664 0.33332735300064087 255 0 0
5.819757461547852 -3.7873494625091553 0.49999192357063293 255 0 0
-20.8612003326416 9.579129219055176 0.05940645933151245 244 208 63
8.926342010498047 1.6037416458129883 9.564355850219727 0 255 0
-21.822097778320312 -16.44375228881836 1.2499945163726807 244 208 63
6.796501159667969 -4.020307540893555 0.8333313465118408 255 0 0
-8.657292366027832 -11.930590629577637 0.49999192357063293 244 208 63
9.794825553894043 -0.6918281316757202 0.9999959468841553 255 0 0
-0.6995348930358887 49.81793212890625 11.940596580505371 0 0 255
6.347405910491943 43.153568267822266 0.05940645933151245 255 0 0
-11.757104873657227 -11.588906288146973 0.05940645933151245 244 208 63
-20.161956787109375 -26.629783630371094 0.33332735300064087 244 208 63
20.036828994750977 -34.357818603515625 -5.21540641784668e-06 255 0 0
-18.852575302124023 -29.621719360351562 0.9999959468841553 244 208 63
24.13671875 -11.859907150268555 7.980197906494141 0 255 0
12.762619018554688 -30.40913963317871 1.9999970197677612 255 0 0
-2.4585866928100586 48.66776657104492 0.05940645933151245 244 208 63
-9.349162101745605 -25.81214714050293 1.4999998807907104 244 208 63
4.780432224273682 -44.05522918701172 11.940596580505371 0 255 0
14.118021011352539 -21.97711753845215 1.9999970197677612 255 0 0
19.337160110473633 -35.5803108215332 0.9999959468841553 255 0 0
7.947213172912598 -13.075051307678223 -5.21540641784668e-06 255 0 0
18.632116317749023 10.3179931640625 6.000001430511475 255 0 0
11.910093307495117 -20.559202194213867 -5.21540641784668e-06 255 0 0
-11.441755294799805 -30.146474838256836 1.9999970197677612 244 208 63
18.878660202026367 -29.696735382080078 0.49999192357063293 255 0 0
13.56450366973877 -16.534576416015625 0.9999959468841553 255 0 0
-9.823235511779785 30.26874542236328 0.9999959468841553 244 208 63
13.581859588623047 -22.847272872924805 0.6666633486747742 255 0 0
15.739694595336914 -38.09175491333008 11.940596580505371 0 255 0
-11.942438125610352 -18.873987197875977 0.33332735300064087 244 208 63
-20.734254837036133 -18.22027015686035 -5.21540641784668e-06 244 208 63
1.5515352487564087 -47.586082458496094 2.0396060943603516 255 0 0
-28.406150817871094 -17.59238052368164 11.940596580505371 0 0 255
-18.801427841186523 -30.164817810058594 0.285712331533432 244 208 63
-7.212754249572754 -3.749265670776367 0.9999959468841553 244 208 63
-23.33611297607422 -8.332879066467285 11.940596580505371 0 0 255
18.821958541870117 -30.140031814575195 1.3999956846237183 255 0 0
-3.9107608795166016 -44.47967529296875 -5.21540641784668e-06 244 208 63
15.921216011047363 -28.219074249267578 8.970297813415527 0 255 0
2.1235735416412354 -47.074527740478516 0.05940645933151245 255 0 0
7.402250289916992 -23.384695053100586 2.0396060943603516 255 0 0
23.447837829589844 -11.333478927612305 -5.21540641784668e-06 255 0 0
23.628467559814453 9.990263938903809 0.33332735300064087 255 0 0
-15.803363800048828 -35.609676361083984 -5.21540641784668e-06 244 208 63
-11.169068336486816 -27.246238708496094 1.9999970197677612 244 208 63
27.281139373779297 10.689838409423828 6.000001430511475 255 0 0
5.63841438293457 -3.585784912109375 -5.21540641784668e-06 255 0 0
26.358217239379883 12.74756908416748 0.9999959468841553 255 0 0
-17.647974014282227 -29.93050193786621 0.24999335408210754 244 208 63
-20.831480026245117 -17.91061019897461 1.4999998807907104 244 208 63
-7.455171585083008 -26.407751083374023 0.05940645933151245 244 208 63
38.96565246582031 -10.419193267822266 1.9999970197677612 255 0 0
-18.783687591552734 -30.24639892578125 0.7857095003128052 244 208 63
11.262614250183105 -23.982973098754883 4.019805431365967 255 0 0
-7.823136806488037 -41.664215087890625 8.970297813415527 0 0 255
10.160981178283691 -0.24058043956756592 -5.21540641784668e-06 255 0 0
6.323675632476807 -1.5819168090820312 11.940596580505371 0 255 0
17.146862030029297 -34.306190490722656 -5.21540641784668e-06 255 0 0
-12.84749698638916 -23.036636352539062 11.940596580505371 0 0 255
-16.618011474609375 -34.90874481201172 1.666664481163025 244 208 63
10.090543746948242 -15.02430248260498 8.970297813415527 0 255 0
-8.79461669921875 -37.67937469482422 3.029705762863159 244 208 63
11.588506698608398 5.304532051086426 1.3333284854888916 255 0 0
-10.570488929748535 18.995229721069336 -5.21540641784668e-06 244 208 63
-4.155097484588623 -44.90093994140625 0.05940645933151245 244 208 63
21.80328369140625 11.675930976867676 6.000001430511475 255 0 0
26.116992950439453 -11.094803810119629 -5.21540641784668e-06 255 0 0
-18.060863494873047 -32.588348388671875 1.357141137123108 244 208 63
-5.791562557220459 -3.7486624717712402 -5.21540641784668e-06 244 208 63
-20.37096405029297 -33.51417541503906 1.4999998807907104 244 208 63
12.26441764831543 27.650449752807617 6.000001430511475 255 0 0
13.416994094848633 -30.473928451538086 1.4999998807907104 255 0 0
-14.425904273986816 4.512476921081543 1.9999970197677612 244 208 63
-9.96490478515625 -22.17829704284668 -5.21540641784668e-06 244 208 63
14.171445846557617 -38.69610595703125 8.970297813415527 0 255 0
8.69485092163086 -25.590333938598633 7.980197906494141 0 255 0
34.479427337646484 8.32011604309082 0.9999959468841553 255 0 0
5.651876449584961 -42.5838623046875 11.940596580505371 0 255 0
-7.689212799072266 -38.074951171875 1.544554352760315 244 208 63
37.710052490234375 -13.198501586914062 6.000001430511475 255 0 0
28.788602828979492 10.598810195922852 6.000001430511475 255 0 0
18.708736419677734 -30.609580993652344 1.699994683265686 255 0 0
11.928874969482422 -37.48038864135742 11.940596580505371 0 255 0
-13.166999816894531 -22.661884307861328 0.05940645933151245 244 208 63
-8.69379997253418 -39.51531982421875 7.980197906494141 0 0 255
12.962895393371582 -39.51893997192383 1.9999970197677612 255 0 0
-25.427486419677734 -9.665359497070312 0.9999959468841553 244 208 63
25.31354522705078 -9.494105339050293 1.3333284854888916 255 0 0
25.153148651123047 -10.174199104309082 11.940596580505371 0 255 0
-8.976933479309082 34.48285675048828 11.940596580505371 0 0 255
-9.452692985534668 -26.006677627563477 1.9999970197677612 244 208 63
6.739649772644043 -15.421385765075684 0.6666633486747742 255 0 0
-21.01419448852539 -27.915103912353516 0.05940645933151245 244 208 63
-4.188547611236572 -44.09269714355469 0.49999192357063293 244 208 63
-13.022123336791992 25.0023250579834 0.9999959468841553 244 208 63
-27.777658462524414 -17.15898323059082 -5.21540641784668e-06 244 208 63
13.273597717285156 -29.878530502319336 11.940596580505371 0 255 0
-20.616371154785156 -31.14788055419922 3.029705762863159 244 208 63
18.07419776916504 -37.088897705078125 -5.21540641784668e-06 255 0 0
26.394437789916992 10.244375228881836 0.6666633486747742 255 0 0
-6.0356526374816895 -45.90995788574219 0.9999959468841553 244 208 63
-10.296526908874512 6.600861549377441 0.05940645933151245 244 208 63
-0.9268860816955566 -49.83781051635742 3.029705762863159 244 208 63
8.096244812011719 -13.694892883300781 4.019805431365967 255 0 0
9.43282413482666 -25.899433135986328 0.5999961495399475 255 0 0
-21.48892593383789 -9.810359954833984 0.33332735300064087 244 208 63
2.2486963272094727 49.554168701171875 -5.21540641784668e-06 255 0 0
-18.86568260192871 -29.73015785217285 0.14285355806350708 244 208 63
-13.245950698852539 -29.920700073242188 3.029705762863159 244 208 63
9.136886596679688 -26.380428314208984 11.940596580505371 0 255 0
-11.625635147094727 -12.375107765197754 -5.21540641784668e-06 244 208 63
3.0980825424194336 45.31113052368164 8.970297813415527 0 255 0
40.61607360839844 4.298862457275391 11.940596580505371 0 255 0
-38.806549072265625 7.317242622375488 0.05940645933151245 244 208 63
-29.982187271118164 10.406005859375 3.029705762863159 244 208 63
1.2353081703186035 50.207515716552734 -5.21540641784668e-06 255 0 0
-9.986263275146484 -16.65362548828125 0.05940645933151245 244 208 63
17.264198303222656 9.49040412902832 6.000001430511475 255 0 0
6.921815872192383 2.2484517097473145 1.4999998807907104 255 0 0
-9.037348747253418 -39.20923614501953 2.0396060943603516 244 208 63
37.38682174682617 9.443902969360352 0.49999192357063293 255 0 0
-11.66765308380127 -15.517486572265625 0.05940645933151245 244 208 63
-11.574212074279785 31.31378746032715 11.940596580505371 0 0 255
26.185386657714844 -13.641002655029297 0.6666633486747742 255 0 0
-1.2378625869750977 47.64153289794922 8.970297813415527 0 0 255
-9.351794242858887 -14.845454216003418 6.792080879211426 0 0 255
39.44788360595703 -9.08173656463623 -5.21540641784668e-06 255 0 0
35.51092529296875 -17.894433975219727 1.9999970197677612 255 0 0
-1.5525131225585938 50.048709869384766 -5.21540641784668e-06 244 208 63
-9.269073486328125 -14.765982627868652 0.05940645933151245 244 208 63
9.125685691833496 -26.367172241210938 4.019805431365967 255 0 0
-21.611209869384766 -16.701374053955078 -5.21540641784668e-06 244 208 63
-18.81716537475586 -30.087566375732422 1.1428546905517578 244 208 63
-17.71782112121582 -9.036606788635254 4.019805431365967 244 208 63
-10.934313774108887 -22.330181121826172 9.960396766662598 0 0 255
-27.503217697143555 -19.021717071533203 7.980197906494141 0 0 255
-30.713153839111328 12.481640815734863 1.9999970197677612 244 208 63
31.54886817932129 11.746971130371094 8.970297813415527 0 255 0
-6.225701332092285 -2.1233975887298584 0.05940645933151245 244 208 63
-39.593807220458984 1.2780141830444336 -5.21540641784668e-06 244 208 63
25.66510009765625 -13.5570068359375 0.05940645933151245 255 0 0
-12.42577838897705 -23.35242462158203 10.455445289611816 0 0 255
-41.2031135559082 -10.186304092407227 8.970297813415527 0 0 255
11.844536781311035 -39.58489227294922 0.6666633486747742 255 0 0
-7.956211090087891 35.563873291015625 0.9999959468841553 244 208 63
-8.141091346740723 -23.00404930114746 0.05940645933151245 244 208 63
-7.176425457000732 42.83154296875 -5.21540641784668e-06 244 208 63
-32.646820068359375 11.452363967895508 11.940596580505371 0 0 255
14.228845596313477 -21.727447509765625 0.33332735300064087 255 0 0
11.054771423339844 33.02766799926758 6.000001430511475 255 0 0
-17.77785301208496 -33.279762268066406 1.1428546905517578 244 208 63
-28.778736114501953 -19.018123626708984 11.940596580505371 0 0 255
21.36421012878418 -30.04535675048828 0.6666633486747742 255 0 0
-10.802679061889648 -27.604167938232422 0.05940645933151245 244 208 63
6.799668312072754 -15.251228332519531 0.6666633486747742 255 0 0
-11.02542495727539 -14.715533256530762 1.9999970197677612 244 208 63
-31.1904354095459 9.710598945617676 -5.21540641784668e-06 244 208 63
25.49271011352539 -14.637089729309082 11.940596580505371 0 255 0
25.8079776763916 -15.205947875976562 1.3333284854888916 255 0 0
18.661001205444336 -32.23192596435547 11.940596580505371 0 255 0
-9.833544731140137 -16.62809944152832 0.05940645933151245 244 208 63
-13.471095085144043 -36.77238082885742 0.49999192357063293 244 208 63
9.82935905456543 -24.899396896362305 0.39999455213546753 255 0 0
-10.544195175170898 14.743691444396973 0.05940645933151245 244 208 63
18.876068115234375 -29.677967071533203 0.9999959468841553 255 0 0
27.916719436645508 -17.123640060424805 1.3333284854888916 255 0 0
18.7474365234375 10.381301879882812 0.05940645933151245 255 0 0
6.701977252960205 -16.084300994873047 0.6666633486747742 255 0 0
7.1568169593811035 -25.48554229736328 8.970297813415527 0 255 0
-9.270101547241211 -14.771123886108398 2.831681728363037 244 208 63
-9.596240043640137 -11.494504928588867 11.940596580505371 0 0 255
12.1563081741333 -36.928035736083984 1.9999970197677612 255 0 0
-39.66054153442383 -8.179844856262207 -5.21540641784668e-06 244 208 63
-18.287076950073242 -31.954727172851562 1.9999970197677612 244 208 63
7.095180988311768 -24.913448333740234 6.000001430511475 255 0 0
24.76144027709961 -9.577909469604492 0.05940645933151245 255 0 0
-3.6567044258117676 48.19099426269531 1.9999970197677612 244 208 63
-40.894935607910156 3.758615255355835 0.05940645933151245 244 208 63
-11.320032119750977 -21.541292190551758 0.9999959468841553 244 208 63
12.915777206420898 -37.3665885925293 11.940596580505371 0 255 0
4.042445659637451 -45.01561737060547 11.940596580505371 0 255 0
-17.151390075683594 -27.885478973388672 3.029705762863159 244 208 63
-12.17466926574707 15.824871063232422 11.940596580505371 0 0 255
35.29518508911133 7.7842559814453125 -5.21540641784668e-06 255 0 0
-6.740682601928711 -23.761817932128906 0.7499973773956299 244 208 63
-13.908880233764648 -30.516742706298828 1.9999970197677612 244 208 63
-10.984872817993164 26.04062271118164 8.970297813415527 0 0 255
9.027501106262207 -28.448331832885742 6.000001430511475 255 0 0
9.445436477661133 2.183525562286377 9.564355850219727 0 255 0
20.057693481445312 -26.597373962402344 -5.21540641784668e-06 255 0 0
16.309785842895508 -35.285701751708984 1.4999998807907104 255 0 0
-9.574346542358398 -28.78509521484375 3.029705762863159 244 208 63
14.378658294677734 -18.27766990661621 1.3333284854888916 255 0 0
15.294602394104004 5.295867919921875 1.9999970197677612 255 0 0
-9.212715148925781 -25.04442596435547 -5.21540641784668e-06 244 208 63
1.1837620735168457 -50.30624771118164 1.9999970197677612 255 0 0
9.528060913085938 2.2841501235961914 10.752476692199707 0 255 0
-10.495870590209961 26.074565887451172 0.9999959468841553 244 208 63
28.41257667541504 -19.471538543701172 1.9999970197677612 255 0 0
-5.844328880310059 -3.7965071201324463 -5.21540641784668e-06 244 208 63
28.185239791870117 -19.472305297851562 1.9999970197677612 255 0 0
29.806364059448242 12.595617294311523 0.9999959468841553 255 0 0
-42.060726165771484 -2.291443347930908 3.029705762863159 244 208 63
8.895085334777832 1.590663194656372 11.940596580505371 0 255 0
26.12179183959961 -14.039264678955078 0.33332735300064087 255 0 0
34.85697555541992 -18.299015045166016 1.9999970197677612 255 0 0
-7.192190647125244 -39.184532165527344 11.940596580505371 0 0 255
-8.182945251464844 -22.472015380859375 0.33332735300064087 244 208 63
11.850829124450684 -21.598485946655273 8.970297813415527 0 255 0
9.541166305541992 -14.981598854064941 7.980197906494141 0 255 0
-12.021744728088379 -19.15628433227539 0.33332735300064087 244 208 63
-11.625676155090332 -21.8795223236084 9.960396766662598 0 0 255
9.050532341003418 2.2877418994903564 4.019805431365967 255 0 0
7.385223388671875 -38.66400146484375 6.000001430511475 255 0 0
-9.578130722045898 -14.93206787109375 0.8514856100082397 244 208 63
-7.5597310066223145 -23.257078170776367 1.544554352760315 244 208 63
-18.252119064331055 -6.790992736816406 1.4999998807907104 244 208 63
1.8077577352523804 -47.36418533325195 9.960396766662598 0 255 0
-21.361814498901367 -7.103998184204102 -5.21540641784668e-06 244 208 63
-8.97678279876709 -16.52670669555664 11.940596580505371 0 0 255
8.8033447265625 -16.51966094970703 7.1881184577941895 0 255 0
-36.55746841430664 -14.462011337280273 11.940596580505371 0 0 255
-11.991036415100098 -20.412212371826172 0.6666633486747742 244 208 63
-5.809178829193115 -46.21974182128906 1.9999970197677612 244 208 63
9.954207420349121 -37.10926818847656 0.9999959468841553 255 0 0
-41.50723648071289 -9.160920143127441 11.940596580505371 0 0 255
-40.42972946166992 5.838418006896973 0.9999959468841553 244 208 63
-21.4622745513916 -29.691497802734375 1.9999970197677612 244 208 63
11.467331886291504 -14.881590843200684 1.9999970197677612 255 0 0
14.261898040771484 -21.63714599609375 0.33332735300064087 255 0 0
-9.270101547241211 -14.771123886108398 11.148517608642578 0 0 255
-13.012937545776367 19.996349334716797 0.9999959468841553 244 208 63
37.92717742919922 5.079593658447266 0.49999192357063293 255 0 0
11.458023071289062 -17.3594913482666 3.029705762863159 255 0 0
20.12248420715332 -27.144380569458008 6.000001430511475 255 0 0
9.487372398376465 -25.980287551879883 0.39999455213546753 255 0 0
-6.871398448944092 2.129155397415161 0.9999959468841553 244 208 63
6.679426193237305 -25.229907989501953 1.9999970197677612 255 0 0
7.266900539398193 -37.87808609008789 1.4999998807907104 255 0 0
21.476200103759766 -17.734243392944336 3.029705762863159 255 0 0
-9.187408447265625 -11.250826835632324 -5.21540641784668e-06 244 208 63
8.692904472351074 -24.749502182006836 6.000001430511475 255 0 0
13.672517776489258 -36.694732666015625 1.9999970197677612 255 0 0
-9.247166633605957 -24.350759506225586 2.4356439113616943 244 208 63
31.12716293334961 -19.403390884399414 -5.21540641784668e-06 255 0 0
16.235742568969727 -9.661396980285645 0.49999192357063293 255 0 0
-14.349380493164062 -20.75077247619629 1.2499945163726807 244 208 63
24.282047271728516 -12.827314376831055 0.05940645933151245 255 0 0
-12.86352252960205 2.9323971271514893 -5.21540641784668e-06 244 208 63
7.210515022277832 -16.045833587646484 2.0396060943603516 255 0 0
-6.123417854309082 -3.4452672004699707 11.940596580505371 0 0 255
-23.296384811401367 -10.370567321777344 0.05940645933151245 244 208 63
-25.71623992919922 -11.866610527038574 3.029705762863159 244 208 63
-30.782974243164062 -19.460050582885742 1.9999970197677612 244 208 63
40.384212493896484 -12.020179748535156 6.000001430511475 255 0 0
18.864072799682617 -29.64529800415039 1.299994945526123 255 0 0
12.133373260498047 31.269973754882812 0.9999959468841553 255 0 0
9.039620399475098 1.716320514678955 9.564355850219727 0 255 0
39.758750915527344 -9.53575325012207 8.970297813415527 0 255 0
-7.5597310066223145 -23.257078170776367 7.485149383544922 0 0 255
3.232184886932373 -45.23378372192383 -5.21540641784668e-06 255 0 0
12.16482162475586 -15.846613883972168 4.51485013961792 255 0 0
10.460907936096191 4.254499435424805 1.3333284854888916 255 0 0
-12.499313354492188 -28.233016967773438 0.05940645933151245 244 208 63
-10.05682373046875 -22.652029037475586 9.960396766662598 0 0 255
