ply
format ascii 1.0
element vertex 751
property float x
property float y
property float z
end_header
0.006483029353302003 -0.022217698907941303 0.0010809234147000277
0.029777910305303135 -0.025574695320226253 0.001158131475304027
0.01085450560996272 0.04425486948776093 6.421409314301513e-05
0.02254973994605757 0.009209684798347528 0.0010809234147000277
0.0321858520747973 -0.025145883571710614 0.0009265033633646738
-0.003051476541087457 -0.045625356971739674 0.012906922742608415
-0.05091878528754596 0.009842072485472643 0.0032748931722518045
0.019052440393857693 -0.019117249715272816 0.002161852370235343
0.027584345262184375 -0.026256001239879607 0.005415342326624107
0.01726348861550161 0.008140647958840168 0.0009728334441921015
0.014125519596710328 -0.013588815546096191 0.003488935381699708
-0.01685288244129369 0.014404126041332887 -5.63747776357772e-09
0.01688963755746777 0.005394066931227302 0.0064855683212332385
-0.000800342364831829 0.04245374864321336 6.421409314301513e-05
0.018418788300623445 0.023398446833401778 0.012906922742608415
0.02584205341229243 -0.012003891129651365 0.0013511538173768135
0.03534050543862105 0.014479704259659618 0.0016213915648817714
0.015749698953499834 -0.025666000155854338 -5.63747776357772e-09
0.036924389897252684 -0.020429302263069927 0.0005404551678758081
0.024805517425057017 -0.02559405999325683 0.0010809234147000277
0.030334400409376266 -0.026003916725292942 0.0022046669199294036
0.02132198327886893 0.008759012292040748 0.0016213915648817714
-0.0023325844355604553 0.011507381610285397 -5.63747776357772e-09
0.03244222988177942 -0.025069314531375977 0.0010809234147000277
0.017543099369595024 0.008567872173092097 0.0006485525154260649
-0.0013356803435656804 0.007912174316879178 0.002161852370235343
0.02029839865046814 -0.01923426427754793 0.00027022476519902226
0.02817684746770032 -0.025133533294166666 0.0008106930120232418
0.014124723122870421 -0.013477868693734248 0.01162265093056561
0.035254844690050004 0.012412108158953517 -5.63747776357772e-09
0.013081652177586738 0.013439083569289167 0.00969624424335448
0.03040428063397564 0.0026373758159142406 0.0014412318209309984
-0.008574658920571552 0.0307250222293946 -5.63747776357772e-09
0.03893739237644773 -0.014919215786506228 0.0013511538173768135
0.01671050208565313 0.023385886217588886 0.0022046669199294036
0.007318530261939263 -0.027503039195908102 0.00969624424335448
-0.026288402657408175 -0.009682351208219257 0.002161852370235343
0.01457523844825206 0.02118077316833533 0.0018015439640043723
0.023919644166167802 -0.01214379299542962 0.00969624424335448
0.029078883699670426 -0.01629630906257582 0.00969624424335448
0.03695574141087579 0.013744641009987487 0.0014052006710519782
0.04043088847909895 0.011013875537109034 0.00027022476519902226
0.02048635928913431 -0.01687040127645847 6.421409314301513e-05
-0.04545049708427563 -0.0007666712558082209 0.0010809234147000277
0.006502581393004099 -0.025051688872934814 0.0018015439640043723
0.018565290844429285 0.0229207510044484 0.0010809234147000277
0.023025597013633842 0.019477575169066737 0.011301581431275295
0.039137603458835886 -0.015316837691453169 0.004880227009900118
0.019895037616221144 0.006522100026658744 0.002161852370235343
0.02367992451378262 -0.015923445498870967 0.004880227009900118
0.030686391220662263 0.0054855253960272524 0.0022046669199294036
0.004084488397896087 -0.023304720631126152 0.012906922742608415
-0.04592179397276459 0.003151850038210705 0.0010809234147000277
0.015652581202904733 -0.025551579738721224 0.002161852370235343
0.018804473831003074 -0.018670203195057113 0.012906922742608415
0.04118302677297363 0.00975258479917209 0.0016213915648817714
-0.03979345838459565 -0.004056301885123077 0.012906922742608415
0.041859375952595854 0.012696317442818605 0.012906922742608415
0.03437018709373352 0.006807851080179915 0.0005404551678758081
0.014319687726437786 0.021803358055191156 6.421409314301513e-05
0.027133267318532158 -0.026245740410247274 0.0011344404098937333
0.00504255188892484 0.005423093264057811 0.0016213915648817714
0.00640539461606984 -0.028876367359029154 6.421409314301513e-05
0.014494959577713334 -0.010205972419993058 0.0016213915648817714
0.015612978419592489 0.04146720715395901 0.00969624424335448
0.02790284400365551 0.004660846461065178 0.0064855683212332385
-0.017843031947741634 0.014687506475413063 0.002161852370235343
0.005873620759429294 -0.024980811985865704 0.004345119424574205
0.014795206736421946 -0.02628831615238073 0.010766469722537074
0.02697832512905163 -0.026204786976244045 0.004345119424574205
0.03469804954122797 0.01196848544348204 6.421409314301513e-05
0.013731237714052361 -0.039320065350607045 -5.63747776357772e-09
-0.017458104240048938 -0.023478737325514313 0.00969624424335448
0.004979562761677208 0.00538314496337361 0.002161852370235343
0.04119978911560773 0.009714268693391303 -5.63747776357772e-09
0.01508936538646329 -0.010123370547131796 0.002161852370235343
-0.04475962780263369 0.013035626182035503 0.0032748931722518045
0.02515253694963662 -0.02481995254647006 0.0018015439640043723
0.018096138898168856 -0.01691606401325306 0.012906922742608415
0.02940022873324018 -0.019119413099415825 6.421409314301513e-05
-0.03409129227098352 0.01569004177221221 0.0016213915648817714
0.03609573607359239 0.014170110244761308 0.0005404551678758081
0.011108728881057016 0.01557305594579731 0.0032748931722518045
-0.00891646006062263 0.028342994436086507 0.0005404551678758081
0.013555478185893609 0.007848307812919248 -5.63747776357772e-09
-0.0083700396158569 0.02759203618983977 6.421409314301513e-05
0.011722582183486428 0.02009404679165567 0.012906922742608415
0.015737887233496457 0.022470653212604292 0.0018015439640043723
0.024586612501310296 -0.026308327587095687 0.0014412318209309984
-0.006808785275145614 0.036757995168001094 0.002161852370235343
0.03366751798352485 0.006612857541688258 0.0064855683212332385
0.013645482176639075 -0.014825534567497536 0.0014412318209309984
0.02238159329880662 0.00920561235580237 0.002161852370235343
0.014125519596710328 -0.013588815546096191 0.0056293881440577795
0.035409244635694496 -0.023711800629162477 0.012906922742608415
0.01685215189291151 -0.01616859172692402 0.00862601773331881
-0.030715632991085158 -0.008809743099427295 -5.63747776357772e-09
0.016384452868851197 0.025047595419573184 0.0064855683212332385
0.02252718656379216 0.019790818589126548 0.0064855683212332385
0.0060031565672263015 -0.022124373287953292 0.010766469722537074
0.032276915706275236 -0.025120380160689203 0.0006176670619646867
-0.006072814717095183 0.029084128048806904 0.0010809234147000277
0.02966834811812095 -0.021584384439383594 -5.63747776357772e-09
0.016554455371866842 0.005045422203143887 0.002161852370235343
0.029655142777680717 -0.026089087472606323 6.421409314301513e-05
0.026417400084120593 -0.022323337111392758 0.0005404551678758081
0.017476399304719777 0.0070637562089579395 6.421409314301513e-05
-0.028533042054985573 -0.007089321175426223 0.0032748931722518045
0.014251436297486276 -0.015062643087821468 0.010766469722537074
0.01899355813298569 0.005424801859803648 0.009054109368186155
0.05288315597151902 -0.006069106239064346 0.0005404551678758081
-0.02202150146353899 0.018147178497990513 0.0010809234147000277
0.006734690207807939 -0.025744411819289423 0.002161852370235343
0.024253358151511552 -0.014140493457596857 0.007769837040716813
0.03243837203710491 0.0047442100857027535 6.421409314301513e-05
0.007195468611154296 -0.017820807117408615 0.012906922742608415
0.03904163948058824 -0.02268568632706911 0.0010809234147000277
0.017488056880690824 0.023492787350116236 0.0022046669199294036
0.021328279102830815 0.009392755281351023 0.0064855683212332385
0.018337144016623307 -0.016464667954400925 0.0010809234147000277
0.03521530520362262 0.012764831801494686 0.0010809234147000277
0.025771409362440195 -0.027609434550107018 6.421409314301513e-05
0.012377974827971202 -0.030039728232028422 0.0005404551678758081
0.03891552316322879 -0.015392970180558444 0.004880227009900118
0.04769004679469813 -0.012486330538160567 0.012906922742608415
0.003106947701485742 -0.007777361783026452 -5.63747776357772e-09
0.0517361029816533 -0.005229890663346203 0.012906922742608415
0.027893651947278292 -0.02624440842550299 0.005415342326624107
0.006152417927637431 -0.015429764034288076 0.002161852370235343
0.019653702109053883 0.02466524684555081 6.421409314301513e-05
-0.016161615168619366 -0.02039997440972496 0.012906922742608415
-0.0023648054216975013 0.011517336942793482 0.002161852370235343
0.020270758604982043 0.02241316279851041 0.00862601773331881
0.03300876423927129 0.010906528507280445 6.421409314301513e-05
0.0520231162424625 -0.0056691806753051315 6.421409314301513e-05
0.01850082736363698 0.004692292688919898 0.00862601773331881
0.03507532942089867 0.014186578294097854 -5.63747776357772e-09
0.020558736074404897 0.022146173034884947 0.012906922742608415
0.013361662927675249 -0.033701010670954615 0.00862601773331881
-0.04306993761411312 -0.00252980448452474 0.0010809234147000277
0.016204926951002247 -0.01527736025494154 6.421409314301513e-05
-0.04902779862825237 0.006028318779322974 -5.63747776357772e-09
-0.047954907478478255 0.013570360665199366 0.0064855683212332385
-0.015893988909536222 -0.02427391436971035 0.012906922742608415
0.020154448498268238 0.007355907882603825 -5.63747776357772e-09
0.016747092749438267 0.025721095764745825 0.0007206149440407397
-0.018408251237901394 -0.03175883077939351 0.012906922742608415
0.039260856078455114 0.012267900386424703 0.0008106930120232418
0.02047247236628064 0.037717177455336585 -5.63747776357772e-09
-0.02027649528647243 0.017837365053774083 0.0010809234147000277
0.02779680171722776 -0.013037182049414422 -5.63747776357772e-09
0.019251072692419956 -0.016598914524745396 0.0007206149440407397
0.026578474602040672 -0.01599114495332407 0.00027022476519902226
0.015195121010102976 0.022010938528100706 0.0007206149440407397
0.020270758604982043 0.02241316279851041 0.010766469722537074
0.01769819734775823 0.004831034692980161 0.010766469722537074
-0.00035801071267448585 -0.045916594613907735 0.012906922742608415
0.02940313786650995 -0.018553175914316863 0.012906922742608415
-0.009876128469081936 -0.04196205650092323 6.421409314301513e-05
0.019282201391892476 0.010110767613389318 0.004880227009900118
0.03596649181547862 0.014229146549116022 0.00032427529128827297
0.03507563525245664 0.014443211881034567 -5.63747776357772e-09
-0.014238164112488351 -0.040822632583575276 6.421409314301513e-05
0.04894023857289396 -0.0011377852505785047 0.0005404551678758081
0.023279088985870933 0.01941617566186329 0.011301581431275295
0.021808178033390725 0.02407088693978141 0.0020074323833283066
0.012258235867789237 -0.027034999251031637 0.0007206149440407397
0.026578474602040672 -0.01599114495332407 0.0013511538173768135
0.05132098935789023 -0.012861237813184496 0.0010809234147000277
0.02377518252424585 0.028642531756860004 0.002161852370235343
0.019903635134696597 0.024582476259975502 0.012906922742608415
0.04425486674921308 0.009154389744130504 0.0014412318209309984
0.022205459315153348 0.036258754486572696 0.0064855683212332385
0.03383550980005463 -0.024884940376105953 0.00862601773331881
0.020893606400019776 -0.019126283382432933 0.0013511538173768135
0.0370784716467909 -0.019926180434907348 0.0005404551678758081
0.03292007393611116 0.010135925805497475 0.0064855683212332385
0.025692801127155544 0.03265103365439644 0.012906922742608415
0.02540789736901505 0.008310607189771104 0.0064855683212332385
0.05311128228575005 -0.008064793736679362 0.012906922742608415
0.026491431478185425 0.029436945276560066 0.0010809234147000277
0.028391889372641393 0.004468832582293958 0.010766469722537074
0.013004170131901955 -0.0352042292398653 0.012906922742608415
-0.05296520279688468 0.011059603405081586 -5.63747776357772e-09
0.02239881109293373 0.009206744575136212 0.0016213915648817714
0.03465543131346188 0.010831094449806632 0.00862601773331881
0.026581920166454717 0.030742742689535228 -5.63747776357772e-09
0.0032210060974671834 0.008808459730363328 0.00862601773331881
-0.007943503594939411 0.033615480189461526 0.0010809234147000277
-0.020767889425196157 -0.0083355772685809 0.0022046669199294036
0.03374099095994382 0.017592571042197698 0.00036030280096736574
0.024039609466214577 0.020153708809133374 0.0032748931722518045
0.0034080395319938976 0.008607224140091997 0.010766469722537074
0.02379652128292093 -0.01686574522854031 0.0005404551678758081
0.026308911449544194 -0.015436600850773282 0.0008106930120232418
0.0107276690414609 -0.029884580649816053 0.0032748931722518045
0.03154305458391693 -0.025295324849117316 0.0008492952383323572
-0.020279054181696274 -0.00838276999572036 0.010766469722537074
0.021350985291882122 0.011787802461124134 0.0007206149440407397
0.00504255188892484 0.005423093264057811 0.001981696363126973
0.01716610066359426 0.023468843683360982 6.421409314301513e-05
0.01869536512775316 0.004852685412565724 0.012906922742608415
0.007360110570331441 0.04515983805860304 0.0005404551678758081
0.029232049449250622 0.004524412416978235 0.00862601773331881
0.014403464328091002 -0.010787420100114598 6.421409314301513e-05
0.027721501371062402 0.005563657859476991 0.012906922742608415
0.0498081403551492 -0.0028274460503962782 0.0032748931722518045
0.011472333388303722 0.012791719920839578 0.0064855683212332385
0.047794351638580895 -0.0031804176885835054 0.012906922742608415
0.011998736215971332 0.022344506106492898 0.002161852370235343
0.022471322476832936 0.023594211888524615 0.0012353434016070643
0.004005873516755592 0.00794457003324084 6.421409314301513e-05
0.030720209657346464 0.005519872853164077 0.012906922742608415
-0.012849913836525109 -0.015386390883780663 0.0010809234147000277
0.019964339806634323 0.00676340858541571 -5.63747776357772e-09
0.014843106480316226 -0.03420486291165586 6.421409314301513e-05
0.025173299452259875 -0.014505192528983477 0.0005404551678758081
0.017353043425199874 0.008255225211705604 0.0008647361288560033
0.009066706648066641 0.04284481890114824 0.00969624424335448
0.01642720236491971 -0.013240037238059504 0.002161852370235343
0.03437018709373352 0.006807851080179915 0.0016213915648817714
0.017024074576325342 0.02572771979021669 0.002161852370235343
0.02800412854908335 -0.025634842718527746 0.00030883440076462685
0.05309459779263441 -0.0079988946919891 0.0032748931722518045
-0.015952341323833035 -0.03301594281016521 0.002161852370235343
0.05227971953171748 -0.0051364823481754775 0.0005404551678758081
-0.015461162589842837 -0.02458993409048392 0.002161852370235343
0.03824183617495896 -0.0172178769503073 0.0016695517320620497
-0.0018875841457268224 0.0106103081262435 0.010766469722537074
0.051507268772184436 -0.008640265216764758 0.012906922742608415
6.094161431579956e-05 -0.006513809316437925 0.0005404551678758081
0.0028166506510489894 -0.008210661768227536 -5.63747776357772e-09
0.03918212009598247 0.01296489221275885 0.00969624424335448
-0.0046556717937272125 0.012517460265694304 0.0010809234147000277
0.004420635568943748 -0.026207895648816343 0.0032748931722518045
0.033616302083210405 0.017581948523441727 0.0014412318209309984
-0.043562545131155414 0.013487178029707178 0.0064855683212332385
0.015766299311292906 -0.0274735716656178 0.012906922742608415
0.0317733279408926 -0.025246457862710642 0.0015441797674353686
0.031988549802165055 -0.02519651749253858 0.0013897597805283322
0.014889686267736667 -0.0339491493095865 0.004345119424574205
0.00024993335476131736 -0.045941964573313614 0.012906922742608415
-0.0530827932373923 0.009823362188715348 0.0064855683212332385
-0.015645792059081263 0.016832186177832727 -5.63747776357772e-09
-0.000433042151459484 -0.007139849235175674 0.012906922742608415
-0.01363389890328529 -0.01973189120165529 6.421409314301513e-05
0.0017140396033170464 -0.04429570065345902 0.012906922742608415
0.019025380400615688 0.009834209264818343 0.00969624424335448
0.005872831600031675 -0.043176618852263815 0.012906922742608415
-0.030080269617450167 0.016156524692538605 0.002161852370235343
-0.04474582018845834 0.014856826186861903 6.421409314301513e-05
0.025540867215995248 0.006043967853425757 -5.63747776357772e-09
0.008068666845381598 -0.04402250054981182 0.012906922742608415
0.035100837985726996 0.013793533123722966 0.0009007710155774267
0.03231824643832497 0.0038144443203693467 0.0016213915648817714
0.005497619061037837 -0.016372779403733505 -5.63747776357772e-09
0.05128378438266557 -0.007927214712881459 0.010766469722537074
0.029866965463129773 0.005473626972091705 0.0010809234147000277
0.03695574141087579 0.013744641009987487 0.00043236522958204054
-0.0167169100702323 -0.03056676453690922 0.0032748931722518045
0.047574431350578095 -0.0036889637373117203 -5.63747776357772e-09
0.03507257195800453 0.014276834273499264 0.002161852370235343
0.032600448237490774 -0.025525618380017802 0.00862601773331881
0.04834632480825949 -0.01411303607822281 0.012906922742608415
-0.04908221668009813 0.002963834091759523 0.012906922742608415
0.01965224079009334 0.005754685103880608 0.002161852370235343
-0.008701732925730048 0.02996765655979246 0.0010809234147000277
0.023025597013633842 0.019477575169066737 0.0064855683212332385
0.015616445817067547 -0.029562440637127242 6.421409314301513e-05
0.02530876781845557 -0.014551785480473058 0.0018916219675585572
0.025639659624925645 -0.012434814338882912 0.00862601773331881
0.02390419896714573 -0.015440796146416224 0.00969624424335448
0.01061772864398704 0.014690688515814423 -5.63747776357772e-09
-0.0067767108364349396 0.0353178237700604 6.421409314301513e-05
0.052962290376854224 -0.007563169114552695 0.00969624424335448
0.02219536425630653 -0.013434252633356203 0.0010809234147000277
-0.05052338667986563 0.01017262128047443 0.00969624424335448
0.030513174728876977 0.005987253677260376 0.0010809234147000277
0.02797766349185418 0.004608139787690762 0.004345119424574205
-0.0004317998793263057 0.013999393868189849 0.0010809234147000277
0.025214404575995265 -0.02469471625174571 0.0007206149440407397
0.05332524378522869 -0.006870734335216399 0.0005404551678758081
0.002503485242856331 0.04451441599916433 0.0016213915648817714
0.04386965719663761 0.0064442398421763365 0.0064855683212332385
0.026050360710544694 0.005864163849484723 0.012906922742608415
0.03451806543774855 -0.023879830053154666 0.0018015439640043723
-0.010208913754281079 0.012608174068311474 0.0064855683212332385
0.00909712387191723 -0.01262278566834909 0.0016213915648817714
0.005446324241825119 0.005905660874026565 0.0007206149440407397
0.005523502330466676 0.006695628286730581 0.002161852370235343
-0.008401236195789273 0.02283971435882404 -5.63747776357772e-09
0.03317954867079269 0.014320412350987041 -5.63747776357772e-09
0.027519313989351847 0.007971170365629993 0.0022046669199294036
0.028766557010728243 -0.025667832056881928 0.0016985997543424052
-0.0010647331685338425 -0.046421641581998144 -5.63747776357772e-09
0.025133617704803345 -0.013905369692555548 0.004345119424574205
0.01882174345060148 0.03975662889728152 0.012906922742608415
-0.013827648717177508 -0.04192330421422246 -5.63747776357772e-09
-0.004880957722974524 -0.04315593705182149 -5.63747776357772e-09
-0.008401487284731664 -0.04267652658628567 6.421409314301513e-05
0.03308158453735708 0.016912037132604394 6.421409314301513e-05
0.006277347726331616 -0.026056575524509865 0.0032748931722518045
0.027642513270906263 0.002907264832945877 0.0064855683212332385
0.04135495565669259 0.0034347889451650394 0.00036030280096736574
0.045281144587445546 0.0008267718707608144 0.00969624424335448
-0.040504602292193076 -0.0010001664999963586 0.0010809234147000277
0.033382277512428005 0.01754074158549606 0.0014412318209309984
0.05100418677210103 -0.007380757515809527 0.0064855683212332385
0.01564001423587765 0.009653685930983598 0.0013511538173768135
0.02445640619693767 0.021249467479976494 0.00969624424335448
0.016599190306186205 0.0233568226018993 0.00862601773331881
-0.005801027083164588 0.024272725258641485 0.002161852370235343
0.03060320439944975 0.0027139345852084246 0.00036030280096736574
0.02454641754749362 -0.015220848006639615 0.0018916219675585572
0.011154822961497269 -0.027606545681831508 0.0007206149440407397
0.028365957748025465 -0.024755671050512514 0.0010809234147000277
0.050615129921031655 -0.010444573878312961 0.012906922742608415
0.0162593505001422 -0.010664844788167418 0.002161852370235343
0.003458213964660283 0.00932033696474038 0.0005404551678758081
0.044474466329499814 0.00824332737902023 0.002161852370235343
0.025979709741268127 0.006924441719169515 0.00969624424335448
0.002090493648032898 -0.00879443913514773 0.0010809234147000277
-0.005480001438454824 0.033893444819246096 0.012906922742608415
0.02219536425630653 -0.013434252633356203 0.0007206149440407397
0.05245994335409575 -0.011872486434516166 0.0010809234147000277
0.009066706648066641 0.04284481890114824 0.0032748931722518045
-0.040881711457402596 0.0161227721759221 6.421409314301513e-05
0.027395808996529287 0.00831542268707303 6.421409314301513e-05
0.01746013771757418 0.004977046502430392 0.012906922742608415
0.011587998850168937 0.021505497015519105 0.002161852370235343
0.005253224404726793 -0.0434315065537793 6.421409314301513e-05
0.017986422817366492 -0.0189297028503981 0.0013511538173768135
0.008335702905096665 -0.028127171118942442 6.421409314301513e-05
0.03216517170117401 -0.025675085932512123 0.012906922742608415
0.007377046182014308 -0.0424022775644865 0.0032748931722518045
0.028865695845232815 -0.0256618090569412 0.001158131475304027
0.004639417754016381 -0.01799436633302415 0.002161852370235343
-0.010963741680876648 -0.0413208836256754 6.421409314301513e-05
-0.014661376127647919 -0.02126675161118266 0.00969624424335448
0.022050789467553365 0.009144468447281567 0.0016213915648817714
-0.0010376871336871556 0.010203970190034883 0.010766469722537074
0.017634000730759304 0.007142169606547655 0.012193437371731558
0.014825495104932718 -0.02562859014101252 0.00027022476519902226
-0.0043906706914630415 -0.045402975279824336 6.421409314301513e-05
0.03947210202837998 -0.014741658653570008 0.002161852370235343
-0.008181572828101417 0.029384365100326406 6.421409314301513e-05
0.011596304470779428 0.012353507135005545 6.421409314301513e-05
0.02552048481259755 0.0064092493933284944 0.0010809234147000277
0.014307640585220443 0.02422054226562677 0.00969624424335448
-0.014065033273511808 -0.04173539937723194 0.002161852370235343
0.0041187846226580565 -0.0247462007478399 0.00969624424335448
0.03525156850219153 0.010283323164163766 -5.63747776357772e-09
0.0004283404303292896 -0.009765675774738514 -5.63747776357772e-09
-0.0006460028654380383 0.01002224860910491 0.0022046669199294036
-0.004737301311748203 0.03987469813582684 -5.63747776357772e-09
0.04978049754358641 -0.013235580340941838 0.012906922742608415
0.044775693151561706 -0.016217919026107457 -5.63747776357772e-09
-0.007505346625585539 0.01325122385906761 0.0064855683212332385
0.0007676343901712608 0.04140261842603864 0.0064855683212332385
0.03660057259494802 -0.02243167324288862 0.00862601773331881
-0.0005000463340277651 -0.009674337310777765 0.0032748931722518045
0.00937813150504307 -0.04094345265493776 0.012906922742608415
0.013786426127075323 0.013038668299433724 0.0016213915648817714
0.014031433740415157 -0.01269967423908976 0.008197929191010696
0.021409723104627416 0.023694593054734023 0.00969624424335448
0.014778830191636155 -0.01633248644000394 0.00862601773331881
-0.002433423743495758 0.011545476687833536 0.002161852370235343
0.014106000153300892 -0.013082529076800596 0.0022046669199294036
-0.03570230285956272 0.017491306489510344 6.421409314301513e-05
-0.0160564686321852 -0.027746427977057234 -5.63747776357772e-09
0.013354498777203216 0.019741501691362365 0.0064855683212332385
0.04721860727033428 -0.003332126408348965 -5.63747776357772e-09
0.012790241727797887 0.016466772324282754 0.0064855683212332385
-0.03398999226994662 -0.007118478098663436 6.421409314301513e-05
0.008069870632359718 -0.027383692301330594 0.0007206149440407397
-0.007679861621176071 0.03455051692491918 0.0005404551678758081
0.05322727297464935 -0.008763479570177467 0.012906922742608415
-0.015278492711197437 0.016731985573883078 0.0010809234147000277
0.024492507080950653 -0.012162797159137118 0.0032748931722518045
0.038901337199900264 -0.02146265592767085 0.00969624424335448
0.011300567496628427 -0.027546732813343456 0.00036030280096736574
0.025089023595062307 -0.02649758270891255 0.012906922742608415
0.027420019231463727 -0.013430178745893594 6.421409314301513e-05
0.014430964892337129 -0.010219621626475264 0.002161852370235343
-0.04722622273154451 0.0036625294183629557 0.00969624424335448
0.019765936545691903 -0.016565229199472693 0.0007206149440407397
-0.01775413257887469 -0.024789626839483467 0.00969624424335448
0.004678126585971229 -0.027919630670530226 -5.63747776357772e-09
0.02530876781845557 -0.014551785480473058 0.0016213915648817714
-0.04807505468750508 0.01417380892228246 0.002161852370235343
0.03051284002475283 0.005317505270364024 6.421409314301513e-05
0.04654060384040908 0.0006819625382063815 0.0005404551678758081
0.022945896313577966 -0.013014332826333271 0.008090906024580591
-0.05148538164547761 0.009244319342869702 0.01162265093056561
0.0259822202932305 0.02968125292245902 6.421409314301513e-05
0.028968849442947024 -0.02565461399493331 0.0008492952383323572
0.03215936600077205 0.016601266462382847 -5.63747776357772e-09
-0.051249319830510426 0.00812846687250066 0.0032748931722518045
0.005550063405818863 0.00628142264069637 0.0007206149440407397
0.024557337052395628 0.010962903540962776 0.010766469722537074
0.0358431511789406 0.014283848792437276 0.002161852370235343
0.0049576087351976125 0.007578251928602183 -5.63747776357772e-09
0.041968438340221945 0.004043037989357456 6.421409314301513e-05
0.004936195717069381 0.04442710780142995 0.012906922742608415
0.05296907464218436 -0.010180351000344362 0.012906922742608415
0.02871137353116708 0.0044430903390232914 0.004345119424574205
0.02376792496464915 0.03032550605442965 0.0010809234147000277
0.01742000622845247 -0.018812614426835225 0.0010809234147000277
0.03551590131675218 0.01441830617715311 0.00032427529128827297
0.04536579527653196 -0.013608162775766652 6.421409314301513e-05
0.01592831024716798 -0.010294170772289763 0.0010809234147000277
0.05131868999035583 -0.008007627013122479 0.004345119424574205
0.011558391161693497 0.01941597955802528 0.00969624424335448
-0.00403078282066116 0.01937738267351383 0.002161852370235343
-0.005602161448338485 0.023501811596891062 0.0005404551678758081
-0.0010981603167690287 0.03954715913554816 0.002161852370235343
0.013983942446984723 -0.012640636222634182 0.008197929191010696
0.020747997753605592 -0.019167913990798237 -5.63747776357772e-09
0.014113011422206945 -0.013172904970073054 0.007769837040716813
0.026891546404908293 -0.015475625377603053 0.010766469722537074
0.017353043425199874 0.008255225211705604 0.00032427529128827297
-0.03805807786065097 0.016922612029955496 0.012906922742608415
0.013666931262284392 -0.026727022882159522 0.012906922742608415
0.0159973858428293 -0.026282230534570208 -5.63747776357772e-09
-0.013928353500718943 -0.021077892143116565 0.0010809234147000277
-0.01525092667639508 -0.02387380714144883 0.0005404551678758081
0.028210635770338874 -0.025064616652117476 0.0016213915648817714
0.02228160220775101 -0.01483272536348003 0.010766469722537074
-0.052925602137619085 0.007787623050428562 0.005201299601749665
0.004926169507564086 -0.01888827430666901 6.421409314301513e-05
0.038841297928886895 -0.015455764726219418 0.012906922742608415
0.011602966194627832 0.019612369019448052 0.0064855683212332385
0.009928434356044692 -0.03972630092829267 0.0005404551678758081
0.013597520716789678 0.018571005630029218 0.0010809234147000277
0.038562448327438464 -0.022270200534951025 6.421409314301513e-05
-0.005606954062471357 0.03171744634317073 0.0010809234147000277
-0.004812641430810365 0.039785693669713164 0.0010809234147000277
0.02109718880665878 -0.019054292395730515 0.0005404551678758081
0.017613606525548126 0.008701832823433373 0.002161852370235343
-0.005520650289756775 0.02321380658669719 0.0010809234147000277
0.004955279196019571 0.005369249899375051 0.0005404551678758081
0.033638776018815326 0.017059387424969 0.012906922742608415
0.035098407790340125 0.014516463783032469 0.0005404551678758081
0.013786426127075323 0.013038668299433724 0.0010809234147000277
0.025937797636398127 0.007115903934618038 0.00969624424335448
-0.007731378437478915 0.031961266402456404 0.012906922742608415
0.038939143107930445 -0.015382825341018574 0.012906922742608415
0.02603662254648294 0.006528508472448635 0.00969624424335448
0.01252871783155556 -0.026867684722102738 0.002161852370235343
0.03890611590817276 0.012563138149401942 0.00027022476519902226
0.01994969289895784 -0.016526983817051984 0.0010809234147000277
0.014834223262341968 0.02157678570330926 -5.63747776357772e-09
0.050645864500443186 -0.0029210201707791437 0.0016213915648817714
0.011189698501004167 0.017234049471775335 0.012906922742608415
0.006362896053009525 -0.024507091085035054 0.0014412318209309984
0.01621604784697407 -0.01841705077454756 -5.63747776357772e-09
0.004425277340568926 -0.04320934683284209 0.002161852370235343
0.016416459387122773 -0.01410270450740501 0.0010809234147000277
0.021424126344723193 0.02109764647494625 0.010766469722537074
-0.0030997462957229904 0.012769335712842814 0.0007206149440407397
0.01723740919344233 0.008113752727436354 0.0011890132563513193
-0.0016263659028572768 0.01048418300948169 0.012906922742608415
0.018365343851705844 0.02341057953532973 0.00862601773331881
0.00519944079609945 0.005552250260774249 0.0010809234147000277
0.014421619894868561 -0.015598294737088424 6.421409314301513e-05
0.018206768184908812 0.0046412963734606206 0.010766469722537074
0.014106000153300892 -0.013082529076800596 0.0056293881440577795
0.007568707201630199 0.04458321146103256 6.421409314301513e-05
0.023041749366403862 0.011850505416150445 0.00036030280096736574
0.03310616991176111 0.017448449754521554 -5.63747776357772e-09
0.0055095090179127885 0.006748112286990635 0.0007206149440407397
0.027979511236226547 -0.02561521520260837 0.0007720870488717233
0.052280308618105176 -0.006097600280218692 0.012906922742608415
0.014071108972052871 0.012245504809724228 0.0016213915648817714
0.03828637800260291 -0.01704761807564825 0.004880227009900118
-0.006105474291470615 0.028761513285920155 0.0018015439640043723
0.050305003964297434 -0.01287090334302226 6.421409314301513e-05
-0.03096016500870003 0.016564436169832317 0.012906922742608415
0.0012991683694740309 0.006591985931507529 -5.63747776357772e-09
0.006136948591651369 -0.021356726025046492 0.00862601773331881
0.039941439854547504 -0.014608790192622708 0.0016213915648817714
0.014251100466394788 0.02055521037834954 0.0018015439640043723
-0.01576244693506724 -0.023793813999202544 6.421409314301513e-05
0.03273967613253358 0.009111817953010342 6.421409314301513e-05
0.026603775478579544 0.010432029385020808 -5.63747776357772e-09
0.02557049625757802 -0.024007406006640187 0.00036030280096736574
0.034947130597758766 0.017436969386451198 -5.63747776357772e-09
0.006668883041322578 -0.021192432348144084 0.002161852370235343
0.027210198318227102 -0.018880126120543354 0.0005404551678758081
0.013339369699370827 0.008095688286110056 0.00036030280096736574
-0.002530616140034427 0.011877504597200382 0.002161852370235343
-0.012743194936199114 -0.04271363955028899 0.002161852370235343
0.021745552141976595 -0.01876279650795996 0.0005404551678758081
0.014065704434914278 0.041471590724797266 0.0010809234147000277
0.016360391552747253 -0.010909676706242431 0.0016213915648817714
0.025279376868949373 -0.02456552634422574 0.0018015439640043723
-0.0005514570103696331 0.010464574741415135 0.01033837808766973
-0.016291114354423937 -0.026228299112442226 0.012906922742608415
0.0132759217968647 0.043796895206173775 0.0032748931722518045
-4.1722821028952146e-05 0.00981959195714514 0.0064855683212332385
0.013793762276312047 0.02090426052359761 0.0064855683212332385
-0.02387419196200218 0.018450459690792273 -5.63747776357772e-09
0.0016005145953166848 0.04179512304996345 0.0064855683212332385
0.019025380400615688 0.009834209264818343 0.0064855683212332385
0.02372772598211802 0.028208513473539087 0.00036030280096736574
0.03278259393802886 0.013789635431422087 6.421409314301513e-05
0.02949226740790947 -0.015734572750002906 0.002161852370235343
0.04215636097765399 0.00026178682942823363 0.0016213915648817714
0.022770181325923452 -0.012192172361683736 -5.63747776357772e-09
0.027737482104942146 0.006804273730817127 0.004345119424574205
0.03835791742474432 -0.022687550988024368 0.00969624424335448
0.021745552141976595 -0.01876279650795996 0.0016213915648817714
0.017653353380978756 0.007169318290038336 0.0007776995284481894
0.02257923774969623 -0.012512411941684743 0.00036030280096736574
-0.0014183358250975406 0.00795389422257281 0.0005404551678758081
-0.018425228481545135 -0.029699002163453912 0.012906922742608415
0.005550063405818863 0.00628142264069637 0.00036030280096736574
0.01476713623828314 0.022323694921856166 6.421409314301513e-05
-0.0335589061827676 -0.005596832296458228 0.0032748931722518045
0.014056905866833376 -0.010884924235939439 0.00862601773331881
-0.04419886812978191 -0.001707371278264004 0.0010809234147000277
0.002804927736392641 0.005863780959846393 0.0010809234147000277
0.017645412022017373 0.008765215274215404 0.001513294249545673
0.022692980240766287 0.02348907108239408 -5.63747776357772e-09
0.028267527931289903 0.0028403789141925777 0.0032748931722518045
0.03182798205551957 -0.025755989765086695 0.012906922742608415
0.04412122758361522 -0.014066719620190678 6.421409314301513e-05
0.026513744374863677 0.029646182698388833 -5.63747776357772e-09
0.019696781983279663 -0.01709131482121989 0.00862601773331881
0.03969630311253696 0.014654166765930616 0.012906922742608415
0.04044797020022619 0.010990430898566068 0.002161852370235343
0.02527414125039283 -0.025821926269989484 6.421409314301513e-05
0.024673845555733664 0.03664565840091281 -5.63747776357772e-09
0.003022186135128533 0.009020336064690014 0.012906922742608415
0.0109745838371939 -0.029847164402004866 0.00969624424335448
-0.01419298440202002 -0.04163038310523087 0.0018015439640043723
0.026129611204248414 -0.012093190777728021 0.002161852370235343
-0.031902634495497954 0.018115629516280454 0.012906922742608415
0.024316766741559925 0.029630007145994883 6.421409314301513e-05
0.03345514711703144 0.006183979848364882 0.010766469722537074
-0.0012058646408034995 0.011207293496391347 6.421409314301513e-05
0.014251100466394788 0.02055521037834954 0.0014412318209309984
0.032672371249305006 0.016325475427969378 0.0032748931722518045
0.029026385467767653 0.0050904552602031115 0.0008647361288560033
-0.024399649566112288 0.01598484647589329 -5.63747776357772e-09
0.00518142450103496 0.007288989926132194 0.0016213915648817714
0.033000292792016175 -0.02534856614604331 0.010766469722537074
0.03813742120228294 -0.015886468874256578 0.0010809234147000277
0.012643256853256018 -0.011350533168732217 6.421409314301513e-05
0.01407568299659319 -0.012853388033501391 0.0009203944636034264
0.02827304492839417 -0.013531446060624609 -5.63747776357772e-09
0.0327731571615326 -0.02494482913057083 0.002161852370235343
0.018623506744920696 0.004778820171525995 0.010766469722537074
0.02517343637519461 0.007711724972739576 0.0010809234147000277
-0.04689437253941379 0.012149601721387557 0.012906922742608415
0.04162951889978509 0.006726021667151239 0.0016213915648817714
0.025796306734802456 -0.023587472751518308 -5.63747776357772e-09
0.0047612485841417515 -0.017724822063162473 0.0016213915648817714
0.013131332940536564 -0.026482172034770827 0.002161852370235343
0.028600336862988955 -0.01395555338517026 0.0010809234147000277
0.027073006179083942 -0.022155466257861904 0.00969624424335448
0.013864535274976596 -0.012644605257018509 0.012906922742608415
0.021912676053760773 0.020406261584141425 0.0064855683212332385
0.016230438559352314 -0.027489294664163298 0.0007206149440407397
0.028024098663967243 -0.025459800036262973 0.0005404551678758081
-0.002512980847174468 0.038922149565222774 0.0032748931722518045
0.03561715004215627 0.014378770798628102 0.0017294815353896976
-0.007205873980077924 0.013119150040037263 0.0064855683212332385
0.024144675094351958 -0.014630312542162403 0.003917023666294554
-0.002385740005112652 0.011631067415324683 0.0014412318209309984
0.021290291442620513 0.037476747733713636 6.421409314301513e-05
0.0057066157830367005 -0.04272650218790713 -5.63747776357772e-09
0.03953915620557923 0.012010289718241265 0.0018916219675585572
0.026854620963889093 -0.012375518655450918 -5.63747776357772e-09
0.04128360627347051 0.0015300065125870897 0.00036030280096736574
0.028273703971549664 -0.02567721563350426 0.0003860388533828575
0.05290879586373854 -0.00741409938524806 0.0064855683212332385
-0.0006998515674376908 0.0398730398283625 0.0016213915648817714
0.032672371249305006 0.016325475427969378 0.00969624424335448
0.03359550536403209 0.005345889203593119 0.0005404551678758081
0.01803571343879595 0.009476287225986285 0.0010809234147000277
0.01619854264242972 -0.029571652884297518 -5.63747776357772e-09
0.025417883112406475 0.011268071752130538 0.0010809234147000277
0.023132368945413567 -0.012667303487932933 0.0032748931722518045
-0.03406509587072267 -0.0047754157857095554 0.0010809234147000277
-0.04592179397276459 0.003151850038210705 0.0005404551678758081
-0.011637501280167141 0.014931458613506154 6.421409314301513e-05
0.0383734364149922 -0.015355316782114822 -5.63747776357772e-09
0.012936498914405575 0.008593205975290202 0.0018015439640043723
0.004013916297935273 0.008699840540269631 0.0010809234147000277
0.04852132255655875 -0.001535480903130539 0.0032748931722518045
0.014509943026160916 0.021067500678765252 0.0010809234147000277
-0.014722063143477336 -0.037589659466364826 6.421409314301513e-05
-0.0004295148108009573 -0.04433300726297142 0.012906922742608415
0.006332558796332805 -0.023228078845935158 0.002161852370235343
-0.01669125381729935 -0.03147140616852996 0.0032748931722518045
-0.007678733502822428 -0.011908077584845947 6.421409314301513e-05
0.012477608940276472 0.02209813063924435 0.0032748931722518045
0.014013603401138275 -0.012667925577631892 0.0017765747696355204
0.004267346081555409 0.005280959708537874 0.0005404551678758081
0.031605846864422395 0.007450656114453134 0.002161852370235343
-0.0020129040343797107 0.012208275095421016 0.0064855683212332385
0.01407568299659319 -0.012853388033501391 0.00948219791049427
0.005540224409633602 0.006614329549437022 0.0016213915648817714
0.014113011422206945 -0.013172904970073054 0.003917023666294554
0.0269866270581023 -0.026210871209753885 0.0022046669199294036
0.02420913534642755 0.02813210045405319 0.00862601773331881
0.019746267096963956 0.025208813801231498 -5.63747776357772e-09
-0.05055649384957411 0.007837624828819209 0.0005404551678758081
0.012542627450699343 0.009154726550171296 0.0005404551678758081
-0.003968057716972579 0.03988274578949617 0.0032748931722518045
-0.02005803823502692 -0.008401352363790873 0.00862601773331881
0.04198272346152917 -0.01689346016848652 -5.63747776357772e-09
0.01712210262705667 0.008081148906313756 0.002161852370235343
0.017766990278523274 0.02504166687107602 0.00969624424335448
0.013517589843364326 -0.01324667577645972 0.002161852370235343
0.014559932226497537 -0.0159214730518487 0.0022046669199294036
0.027133267318532158 -0.026245740410247274 0.0022046669199294036
0.025838152202337025 -0.028117216650971093 -5.63747776357772e-09
-0.01780417858547213 -0.0225887997517071 0.0010809234147000277
0.0326715082730346 0.014510689380140902 0.012906922742608415
0.035267795622022965 0.014500861324061694 0.0006485525154260649
0.04778932063481401 -0.0002029709950216928 0.0016213915648817714
-0.029726620653630673 -0.006278692200314837 0.0010809234147000277
0.03879757669138284 -0.02317447661396481 0.0010809234147000277
0.01551430852695285 0.04379284806585012 0.0016213915648817714
0.02624655103146401 -0.015337895277356097 0.0016213915648817714
0.04578826857348981 0.0005135422642844571 0.0032748931722518045
0.04150377618516588 0.010158200997862434 6.421409314301513e-05
0.01776002994493581 0.004239418597071154 0.0014412318209309984
0.0272798516721221 0.008577209073971012 0.0064855683212332385
0.014421428326607274 0.024301278892050353 0.0064855683212332385
-0.02887345161639227 0.01620077980889327 0.0010809234147000277
-0.0009456920353791445 0.010913952450372784 0.012906922742608415
0.030027685454911697 -0.025543502902833425 0.00030883440076462685
0.014825495104932718 -0.02562859014101252 0.0010809234147000277
0.023632913043756754 0.011778437251120467 0.002161852370235343
0.01769819734775823 0.004831034692980161 0.004345119424574205
0.016422353395467704 -0.014182937125337363 0.0014412318209309984
0.027467316165766236 0.0081268523260345 0.00862601773331881
0.031569368573194256 0.006547610390405692 0.0064855683212332385
0.013918567338387212 -0.029960057847080238 0.0022046669199294036
0.016022131704201865 -0.02635617174545347 0.0008106930120232418
0.023120167374411586 0.009677191996450101 0.0032748931722518045
0.021845221615549297 0.009065741012434896 0.0013511538173768135
0.019733698794212537 0.022820991604697853 0.0064855683212332385
0.027971225033116612 0.0023894946805368858 0.002161852370235343
0.00552687617247237 0.006681310420822914 0.0010809234147000277
0.01486388957765924 -0.025615829755600783 -5.63747776357772e-09
0.025933975570918023 -0.023324965743582296 -5.63747776357772e-09
-0.007667125489301878 -0.045253245346877864 0.0016213915648817714
0.01592831024716798 -0.010294170772289763 0.0005404551678758081
-0.02678824405931096 -0.009593464112434039 0.0010809234147000277
0.049783563378402215 -0.010480874006367864 -5.63747776357772e-09
0.025557385763350697 -0.025178589000111485 0.0032748931722518045
0.04488537180622168 -0.0009167547886102886 0.012906922742608415
-0.01573459897865772 -0.04002456527783569 0.00036030280096736574
0.02330796457096103 -0.016573424225829848 0.0016695517320620497
-0.0034232767190188846 0.011973904009800071 -5.63747776357772e-09
0.0322455895345013 0.016760684797574043 0.0010809234147000277
-0.03019698356878395 0.0188491859139258 -5.63747776357772e-09
-0.024318030244835788 -0.010009453031932816 -5.63747776357772e-09
0.020108786065160263 0.007225811731528896 0.0014412318209309984
0.025524790610115013 0.033265824157477704 6.421409314301513e-05
-0.003183559345135258 -0.007428942494722234 6.421409314301513e-05
0.0006865845623394005 0.007493645882499692 0.0064855683212332385
0.031048263137507352 -0.025388494383602255 0.0012353434016070643
-0.04776302326316971 0.004787728471246891 0.0016213915648817714
-0.050352183575959476 0.003387167853988941 0.0010809234147000277
0.04146669620782862 0.0008384331937416305 0.00027022476519902226
0.017559956012498986 -0.016064890979258697 0.0007206149440407397
0.034378281211461394 0.017556051677523762 0.002161852370235343
-0.0008580958702555693 0.007671293277455156 0.002161852370235343
-0.005976648557043353 0.029848823578559086 -5.63747776357772e-09
0.0519816979546755 -0.012321112673094733 0.0005404551678758081
0.024241644902784805 0.02845480238099167 0.00862601773331881
-0.05376067246048059 0.00848267365415501 0.002161852370235343
-0.005830469080077344 -0.013336283439345826 -5.63747776357772e-09
-0.013177605760370992 0.01376677344363087 0.0064855683212332385
0.021170003549773223 0.01174712715492575 0.0014412318209309984
0.028903456573410105 0.005084685007920175 0.001513294249545673
0.016624235359524314 0.00851353039092629 0.0010809234147000277
0.0026997397451913405 0.04221004702526923 0.0064855683212332385
0.03718005537242901 -0.0195630701907287 0.0005404551678758081
-0.02417199298352642 -0.007465803433750259 -5.63747776357772e-09
0.028110425624768603 -0.02783266304874766 0.0032748931722518045
0.01886455502008356 0.004360379800085599 0.0007206149440407397
0.02573225145210932 0.010366600926951491 0.004345119424574205
-0.023336271983296634 -0.008009714410269623 0.0022046669199294036
0.016465743091961846 0.0228330588496951 -5.63747776357772e-09
0.03843414598865996 -0.015262768494154652 0.0014412318209309984
0.011229021570883489 0.0175686846823062 0.0032748931722518045
0.02020047959745355 0.008506599056715402 0.012906922742608415
0.01783452824479896 0.004204344108558729 0.0018015439640043723
0.029141768870266985 0.004499764303783864 0.010766469722537074
0.0025054694698490583 0.006004895165512681 0.0010809234147000277
0.01641856911170619 0.005776776943157659 0.010766469722537074
0.024492077152786763 0.021366864468804682 0.0064855683212332385
0.022621917711265867 0.023507875577011082 0.0007720870488717233
-0.008664272251253598 0.014294223872403396 0.002161852370235343
-0.006010161477525088 0.0296068778215006 0.002161852370235343
0.051051629818641975 -0.004292096361858002 0.0032748931722518045
0.022799215133099085 0.009192931127036584 0.0005404551678758081
0.01172990226198591 -0.03712381409628948 0.0005404551678758081
-0.010076279199682816 -0.041262434774947045 -5.63747776357772e-09
0.029804238512630806 -0.02095493977232514 0.002161852370235343
0.024049578473576125 -0.012133614926785054 0.008090906024580591
-0.0006460028654380383 0.01002224860910491 0.004345119424574205
-0.005355814874912615 -0.007121015766485805 0.002161852370235343
0.026667889692844615 -0.027788198392152234 0.012906922742608415
0.01574160224553481 -0.0330075026403293 -5.63747776357772e-09
-0.026468778071830942 -0.009650380768607811 0.002161852370235343
0.02555360214129858 0.02372228984209705 0.0010809234147000277
0.028671755755651313 -0.025672633146888526 0.0009265033633646738
0.014890404100514789 -0.025607458218975435 0.0016213915648817714
0.027255563097903897 -0.026254483792611662 0.00969624424335448
0.017676377873981124 0.007206878501989033 0.007199050084124327
-0.001663768456592887 -0.0072626933246779475 0.012906922742608415
0.027327758047092955 -0.026256785930268204 0.010766469722537074
0.04127546443884404 0.002000896344091618 0.002161852370235343
0.01301564075604399 0.018326982008151926 0.0064855683212332385
-0.034079253449332075 0.01838172791284783 0.0010809234147000277
-0.0011472699202746352 0.010255628967381534 0.004345119424574205
0.009974474089122604 -0.01479870434535192 6.421409314301513e-05
-0.0442933958676987 0.0018159959692414802 0.0016213915648817714
0.032276915706275236 -0.025120380160689203 0.0020074323833283066
0.026971489692085165 -0.02616607016891263 0.009054109368186155
0.039779751749238965 -0.015147451156752211 0.008090906024580591
0.011947219072112394 -0.011628838045350486 6.421409314301513e-05
0.014404714888490313 0.02191623504876606 0.012906922742608415
0.027084992799099518 0.008937248175462955 0.0064855683212332385
-0.0021893317687420445 0.03848616851723307 0.0016213915648817714
0.029570670419617365 0.0024179815167705114 0.0010809234147000277
-0.008520825199088347 -0.04202600292920346 -5.63747776357772e-09
0.005494018058339115 0.006026295203536064 0.001981696363126973
0.02711241594080642 -0.020178122452184706 0.0016213915648817714
-0.002332054812846754 0.011507995830328811 0.0010809234147000277
-0.03725646585241766 -0.006201542583328913 -5.63747776357772e-09
-0.009541680638212412 -0.009765931709570881 6.421409314301513e-05
-0.014886670922460094 -0.021662941168942944 6.421409314301513e-05
0.02435400977162796 -0.011673841891901933 0.00027022476519902226
0.018787027234450887 0.004978703206213431 0.007769837040716813
0.02593889243328691 0.004975303898452584 0.00862601773331881
0.022712410914697306 0.009201224836700236 0.00027022476519902226
0.03666866282420206 -0.0211212334250244 0.0010809234147000277
0.01983014243810393 -0.01922123091079335 0.0016213915648817714
0.052162519176188187 -0.004965781874493056 0.0016213915648817714
-0.004134684879109826 0.04053969434753662 0.0010809234147000277
0.03309108046183824 0.016917675379862197 0.00969624424335448
0.0385064491314257 0.01284697876302779 0.0010809234147000277
0.016400429903829002 -0.017944911987664267 0.010766469722537074
