ply
format ascii 1.0
element vertex 743
property float x
property float y
property float z
end_header
-0.03229661202330769 -0.031454452043195656 0.007541886260503838
-0.031725501737489115 -0.0314460487196049 0.007941893031591485
-0.031163028537227522 -0.03144184752347081 0.008141896417135308
-0.030599511324359785 -0.03143764632733672 0.008341884901517937
-0.03004672294755162 -0.03143764632733672 0.008341884901517937
-0.029469339272870432 -0.031429243003745964 0.008741891672605584
-0.02890268536557139 -0.03142504134195059 0.008941895058149407
-0.02833498465169848 -0.031420840145816496 0.009141883542532037
-0.027780105455710302 -0.031420840145816496 0.009141883542532037
-0.02722522532839955 -0.031420840145816496 0.009141883542532037
-0.005245539455606352 -0.031635115584155014 -0.0010581103062686226
-0.0047173193683165415 -0.031635115584155014 -0.0010581103062686226
-0.004208057283355604 -0.03163721664788335 -0.0011581119990405342
-0.003660879193736921 -0.031635115584155014 -0.0010581103062686226
-0.00305474465985478 -0.031626712726225546 -0.0006581035351809761
-0.002486000864698301 -0.031622511530091456 -0.0004581150507983467
-0.0017362005104559763 -0.03159940308870881 0.0006418886685314873
-0.0010414375950831278 -0.03158259737284987 0.0014418873095455864
0.022399612606571306 -0.03169183592291682 -0.003758111307626655
0.022920765818164934 -0.03169183592291682 -0.003758111307626655
0.023607284666107287 -0.03168133200125902 -0.0032581028437670967
0.02439639800886928 -0.0316645258197388 -0.0024581042027529976
0.025223293245838274 -0.031645619505812815 -0.0015581038689669868
0.02619029665093242 -0.03161830986829608 -0.00025811166525452345
0.02730055981974422 -0.03158259737284987 0.0014418873095455864
0.028041572214172472 -0.03156999238746374 0.002041897466177056
0.028751076103256334 -0.031559488931467226 0.0025418910288754204
0.029428304077194323 -0.03155108607353776 0.002941897799963067
-0.050003472811474214 -0.030847063483466795 0.00994189708470733
-0.04944650186498345 -0.030847063483466795 0.00994189708470733
-0.048889530918492685 -0.030847063483466795 0.00994189708470733
-0.048327084726585756 -0.030851787617226532 0.009741893699163506
-0.04777063671772064 -0.030851787617226532 0.009741893699163506
-0.047209758407368074 -0.030856512216647557 0.009541890313619683
-0.046649925506605516 -0.030861236350407294 0.00934188692807586
-0.04609452314016105 -0.030861236350407294 0.00934188692807586
-0.04553625858661414 -0.03086596048416703 0.009141883542532037
-0.04498137869213403 -0.03086596048416703 0.009141883542532037
-0.0444246826022181 -0.030870684617926768 0.008941895058149407
-0.04386903157264621 -0.030875408751686505 0.008741891672605584
-0.04331442618549497 -0.03088013335110753 0.00854188828706176
-0.04276111460912668 -0.03088013335110753 0.00854188828706176
-0.04220807736546428 -0.030884857484867266 0.008341884901517937
-0.04165528852299483 -0.030884857484867266 0.008341884901517937
-0.0411038193646136 -0.030889581618627003 0.008141896417135308
-0.04055523858678223 -0.030899029886146477 0.007741889646047662
-0.04000874851171554 -0.03090847815366595 0.007341897776121209
-0.039471569334088574 -0.03092973698841541 0.006441897442335198
-0.038932273260249506 -0.030941548021306685 0.00594188897847564
-0.038401491570218216 -0.030960444556345633 0.005141890337461541
-0.03787489105288566 -0.03097934155704587 0.004341891696447442
-0.03734251493860663 -0.03098879029022663 0.003941884925359795
-0.03680122606728853 -0.03098879029022663 0.003941884925359795
-0.03626596145604433 -0.03099351395832508 0.003741896440977166
-0.03572519552235187 -0.03099351395832508 0.003741896440977166
-0.03350166520376385 -0.030960444556345633 0.005141890337461541
-0.03292975677449883 -0.030946272155066422 0.005741885592931817
-0.03237408036638678 -0.030941548021306685 0.00594188897847564
-0.031802048071219335 -0.03092973698841541 0.006441897442335198
-0.031222038066877733 -0.0309155645871362 0.007041892697805474
-0.030655768795802008 -0.03090847815366595 0.007341897776121209
-0.030093820861472498 -0.0309037544855675 0.007541886260503838
-0.029506229891373525 -0.030889581618627003 0.008141896417135308
-0.02894114526261271 -0.030884857484867266 0.008341884901517937
-0.02838835595448197 -0.030884857484867266 0.008341884901517937
-0.027821702047182928 -0.03088013335110753 0.00854188828706176
-0.027254000401987444 -0.030875408751686505 0.008741891672605584
-0.026700168012573133 -0.030875408751686505 0.008741891672605584
-0.0261463328291911 -0.030875408751686505 0.008741891672605584
-0.025592497645809065 -0.030875408751686505 0.008741891672605584
-0.02503866432507218 -0.030875408751686505 0.008741891672605584
-0.005245539455606352 -0.031106895496865204 -0.0010581103062686226
-0.0047173193683165415 -0.031106895496865204 -0.0010581103062686226
-0.004189099281026731 -0.031106895496865204 -0.0010581103062686226
-0.003660879193736921 -0.031106895496865204 -0.0010581103062686226
-0.003015789299203764 -0.031092723095585993 -0.0004581150507983467
-0.002486000864698301 -0.031092723095585993 -0.0004581150507983467
0.02350807273487865 -0.031165948333015135 -0.0035581079220828316
0.02412975663046657 -0.031158861899544886 -0.0032581028437670967
0.02495455080370723 -0.03113760259913414 -0.002358102509981086
0.02591946804623424 -0.031106895496865204 -0.0010581103062686226
0.027027637601898302 -0.03106673966141551 0.0006418886685314873
0.02797281825642406 -0.0310383943931958 0.001841894080633233
0.02861252510647594 -0.03103130795972555 0.002141884257787774
0.02935850703816234 -0.03101713509278505 0.0027418944144192436
-0.05111741377313317 -0.03029009253697603 0.00994189708470733
-0.05053774277020873 -0.03030583375113218 0.00934188692807586
-0.049975297043963085 -0.030311080822517565 0.009141883542532037
-0.04942693803731979 -0.03030583375113218 0.00934188692807586
-0.04887153543804468 -0.03030583375113218 0.00934188692807586
-0.04831613330443085 -0.03030583375113218 0.00934188692807586
-0.04776073070515574 -0.03030583375113218 0.00934188692807586
-0.04720532810588063 -0.03030583375113218 0.00934188692807586
-0.046649925506605516 -0.03030583375113218 0.00934188692807586
-0.04609113824826361 -0.030311080822517565 0.009141883542532037
-0.04553625858661414 -0.030311080822517565 0.009141883542532037
-0.04498137869213403 -0.030311080822517565 0.009141883542532037
-0.0444246826022181 -0.03031632742824166 0.008941895058149407
-0.04386903157264621 -0.030321574499627045 0.008741891672605584
-0.04331442618549497 -0.03032682157101243 0.00854188828706176
-0.04276111460912668 -0.03032682157101243 0.00854188828706176
-0.04220807736546428 -0.030332068176736525 0.008341884901517937
-0.04165528852299483 -0.030332068176736525 0.008341884901517937
-0.0411038193646136 -0.03033731524812191 0.008141896417135308
-0.04055523858678223 -0.03034780892523139 0.007741889646047662
-0.04000874851171554 -0.03035830260234087 0.007341897776121209
-0.039471569334088574 -0.030381913957913807 0.006441897442335198
-0.038932273260249506 -0.030395031636377266 0.00594188897847564
-0.038401491570218216 -0.030416019456257513 0.005141890337461541
-0.03787489105288566 -0.03043700727613776 0.004341891696447442
-0.03734251493860663 -0.030447501418908528 0.003941884925359795
-0.03680122606728853 -0.030447501418908528 0.003941884925359795
-0.03626596145604433 -0.030452748024632624 0.003741896440977166
-0.03572519552235187 -0.030452748024632624 0.003741896440977166
-0.03518442912299813 -0.030452748024632624 0.003741896440977166
-0.03463607197899998 -0.030447501418908528 0.003941884925359795
-0.034094782642020593 -0.030447501418908528 0.003941884925359795
-0.03352757925440253 -0.030431760204752377 0.004541895081991265
-0.03296640059251965 -0.030421266527642897 0.004941886951917718
-0.032412815003587614 -0.030416019456257513 0.005141890337461541
-0.03183777081121386 -0.03040027870776265 0.005741885592931817
-0.03128104852785052 -0.030395031636377266 0.00594188897847564
-0.03071765424956263 -0.03038716102929919 0.006241894056791375
-0.03015857944537581 -0.030381913957913807 0.006441897442335198
-0.029573865330709825 -0.030366173209418944 0.007041892697805474
-0.028992424814893614 -0.030353055996616772 0.007541886260503838
-0.028415040208889852 -0.030342562319507292 0.007941893031591485
-0.027849432176842104 -0.03033731524812191 0.008141896417135308
-0.027297165340675722 -0.03033731524812191 0.008141896417135308
-0.02672998896141232 -0.030332068176736525 0.008341884901517937
-0.026177200584604154 -0.030332068176736525 0.008341884901517937
-0.02562441034515084 -0.030332068176736525 0.008341884901517937
-0.02507162383098782 -0.030332068176736525 0.008341884901517937
-0.024518835454179655 -0.030332068176736525 0.008341884901517937
-0.023948519586517225 -0.03032682157101243 0.00854188828706176
-0.00619451990623654 -0.030562934195419243 -0.0004581150507983467
-0.005773759542896162 -0.030578674943914107 -0.0010581103062686226
-0.005245539455606352 -0.030578674943914107 -0.0010581103062686226
-0.0047173193683165415 -0.030578674943914107 -0.0010581103062686226
-0.004189099281026731 -0.030578674943914107 -0.0010581103062686226
-0.003584011553718458 -0.03056818080114334 -0.0006581035351809761
-0.002976830213262449 -0.03055768712403386 -0.00025811166525452345
-0.0023675627102393015 -0.030547192981263092 0.00014189510583312304
0.023441933930919756 -0.030649508544971636 -0.003758111307626655
0.024096422732875933 -0.03063901440220087 -0.0033581045365390083
0.02471940302948772 -0.03063114426078408 -0.0030581143593844673
0.02554708057741939 -0.030607532905211142 -0.0021581140255984566
0.02665237420897304 -0.030562934195419243 -0.0004581150507983467
0.02776655638317882 -0.030518335019966057 0.0012418839240017632
0.028577894807861437 -0.030497346734424523 0.002041897466177056
0.029288709999130358 -0.03048422952162235 0.0025418910288754204
-0.05108505590160073 -0.0297562011608681 0.009141883542532037
-0.050515043645097624 -0.029767740247567585 0.008741891672605584
-0.049961209393038164 -0.029767740247567585 0.008741891672605584
-0.04941389626164616 -0.029761970238556555 0.008941895058149407
-0.04886553725500287 -0.0297562011608681 0.009141883542532037
-0.0483106575933534 -0.0297562011608681 0.009141883542532037
-0.04776073070515574 -0.02975043115185707 0.00934188692807586
-0.04720532810588063 -0.02975043115185707 0.00934188692807586
-0.046649925506605516 -0.02975043115185707 0.00934188692807586
-0.04609452314016105 -0.02975043115185707 0.00934188692807586
-0.045539120540885936 -0.02975043115185707 0.00934188692807586
-0.04498371817444147 -0.02975043115185707 0.00934188692807586
-0.04442649903048457 -0.0297562011608681 0.009141883542532037
-0.04387161913600446 -0.0297562011608681 0.009141883542532037
-0.04331596839747087 -0.029761970238556555 0.008941895058149407
-0.04276161129509726 -0.029761970238556555 0.008941895058149407
-0.04220752858363719 -0.029767740247567585 0.008741891672605584
-0.04165449136907862 -0.029773509790917328 0.00854188828706176
-0.04110249968052537 -0.02977927979992836 0.008341884901517937
-0.040551553343354474 -0.029785048877616814 0.008141896417135308
-0.04000401785869778 -0.029796588429977587 0.007741889646047662
-0.039462905240176926 -0.029816782297362975 0.007041892697805474
-0.038927157039685856 -0.029839860936423233 0.006241894056791375
-0.03838969124753655 -0.029854285726120165 0.005741885592931817
-0.03785706600446881 -0.029871594356169394 0.005141890337461541
-0.03732757792149366 -0.02988890345187991 0.004541895081991265
-0.036790222491069446 -0.029894672995229653 0.004341891696447442
-0.036247888675822626 -0.029894672995229653 0.004341891696447442
-0.03570555392925323 -0.029894672995229653 0.004341891696447442
-0.03515614951301993 -0.02988890345187991 0.004541895081991265
-0.03461329369147004 -0.02988890345187991 0.004541895081991265
-0.034070436007274996 -0.02988890345187991 0.004541895081991265
-0.03351030322064341 -0.029877364365180424 0.004941886951917718
-0.03296640059251965 -0.029877364365180424 0.004941886951917718
-0.032422498895718466 -0.029877364365180424 0.004941886951917718
-0.031878596267594705 -0.029877364365180424 0.004941886951917718
-0.0313239638720888 -0.029871594356169394 0.005141890337461541
-0.030757035224630247 -0.02986005480380862 0.0055418971085491875
-0.03019979140062512 -0.029854285726120165 0.005741885592931817
-0.02964149983872355 -0.029848515717109135 0.00594188897847564
-0.029062934315695177 -0.02983409139307349 0.006441897442335198
-0.028488425633801828 -0.029822552306374005 0.006841889312261651
-0.02790489336748303 -0.02980812798233836 0.007341897776121209
-0.027340330279364 -0.029802358438988617 0.007541886260503838
-0.026789632721735845 -0.029802358438988617 0.007541886260503838
-0.026223502217723738 -0.029796588429977587 0.007741889646047662
-0.025672280325486074 -0.029796588429977587 0.007741889646047662
-0.025104579611613165 -0.029790818886627844 0.007941893031591485
-0.024552838041378866 -0.029790818886627844 0.007941893031591485
-0.023983568980290304 -0.029785048877616814 0.008141896417135308
-0.023413256837918173 -0.02977927979992836 0.008341884901517937
-0.022860466598464857 -0.02977927979992836 0.008341884901517937
-0.006230338572456251 -0.030038914838602236 -0.0006581035351809761
-0.005773759542896162 -0.03005045439096301 -0.0010581103062686226
-0.005245539455606352 -0.03005045439096301 -0.0010581103062686226
-0.0047173193683165415 -0.03005045439096301 -0.0010581103062686226
-0.004113278447582136 -0.030038914838602236 -0.0006581035351809761
-0.003584011553718458 -0.030038914838602236 -0.0006581035351809761
-0.002976830213262449 -0.03002737575190275 -0.00025811166525452345
-0.0023675627102393015 -0.030015836199541977 0.00014189510583312304
0.023375795126960863 -0.030134115097840718 -0.003958114693170478
0.02396309459309398 -0.030128345088829687 -0.003758111307626655
0.024652228594825853 -0.030113920764794043 -0.0032581028437670967
0.02544552171330272 -0.030090842125733784 -0.0024581042027529976
0.026413575650261034 -0.030053339628299168 -0.0011581119990405342
0.027560301960514177 -0.03000141234116762 0.0006418886685314873
0.02850861930947124 -0.029966794149746588 0.001841894080633233
0.029288709999130358 -0.0299466002823612 0.0025418910288754204
-0.05106078842927397 -0.029220198476483515 0.00854188828706176
-0.05049990965326012 -0.029226490957458905 0.008341884901517937
-0.04994712174211324 -0.029226490957458905 0.008341884901517937
-0.04940085355464996 -0.029220198476483515 0.00854188828706176
-0.048859539071961056 -0.029207613514532736 0.008941895058149407
-0.0483106575933534 -0.029201321499218634 0.009141883542532037
-0.04776073070515574 -0.029195029018243245 0.00934188692807586
-0.04721418870885552 -0.029182444056292466 0.009741893699163506
-0.0466577406999904 -0.029182444056292466 0.009741893699163506
-0.046104677583022724 -0.029176151575317076 0.00994189708470733
-0.0455477068693626 -0.029176151575317076 0.00994189708470733
-0.04498839667339505 -0.029182444056292466 0.009741893699163506
-0.04443013211984814 -0.029188736537267855 0.009541890313619683
-0.04387291297589124 -0.029195029018243245 0.00934188692807586
-0.04331673941614733 -0.029201321499218634 0.009141883542532037
-0.042761859638082544 -0.029201321499218634 0.009141883542532037
-0.04220725422182747 -0.029207613514532736 0.008941895058149407
-0.04165369421516241 -0.029213905995508126 0.008741891672605584
-0.0411011797636065 -0.029220198476483515 0.00854188828706176
-0.04054971083805592 -0.029226490957458905 0.008341884901517937
-0.03999928720568002 -0.029232782972773007 0.008141896417135308
-0.03945279713061334 -0.029245368400385073 0.007741889646047662
-0.03890839787472666 -0.029257952896674565 0.007341897776121209
-0.03837592350591601 -0.029286268828233174 0.006441897442335198
-0.037839240956051956 -0.029301999797841004 0.00594188897847564
-0.037297704352929006 -0.029308292278816393 0.005741885592931817
-0.03675721222807349 -0.029314584294130495 0.0055418971085491875
-0.03621174171839536 -0.029314584294130495 0.0055418971085491875
-0.03348438823868216 -0.029314584294130495 0.0055418971085491875
-0.032412815003587614 -0.02932716972174256 0.005141890337461541
-0.031868389903499494 -0.02932716972174256 0.005141890337461541
-0.03130250619996966 -0.029314584294130495 0.0055418971085491875
-0.03077953877200068 -0.02932716972174256 0.005141890337461541
-0.030235114603235136 -0.02932716972174256 0.005141890337461541
-0.029666094205273996 -0.029314584294130495 0.0055418971085491875
-0.029107804506017576 -0.029308292278816393 0.005741885592931817
-0.028548468000187288 -0.029301999797841004 0.00594188897847564
-0.027981153785182844 -0.029292561309208563 0.006241894056791375
-0.027419463827206503 -0.029286268828233174 0.006441897442335198
-0.026871641262366186 -0.029286268828233174 0.006441897442335198
-0.026292952804757963 -0.029273683866282395 0.006841889312261651
-0.02574408343334378 -0.029273683866282395 0.006841889312261651
-0.025178737102939497 -0.029267391385307005 0.007041892697805474
-0.024603842853500257 -0.029257952896674565 0.007341897776121209
-0.024036142139627348 -0.029251660881360463 0.007541886260503838
-0.02346739834447087 -0.029245368400385073 0.007741889646047662
-0.02287903530795754 -0.029232782972773007 0.008141896417135308
-0.02230767822165669 -0.029226490957458905 0.008341884901517937
-0.021735274328781973 -0.029220198476483515 0.00854188828706176
-0.006301979630185972 -0.0295222343036732 -0.0010581103062686226
-0.005791931508972059 -0.02952538031133025 -0.0011581119990405342
-0.005245539455606352 -0.0295222343036732 -0.0010581103062686226
-0.0047173193683165415 -0.0295222343036732 -0.0010581103062686226
-0.004113278447582136 -0.02950964934172242 -0.0006581035351809761
-0.003584011553718458 -0.02950964934172242 -0.0006581035351809761
-0.002976830213262449 -0.02949706484543293 -0.00025811166525452345
-0.002347822396947752 -0.02948133341016381 0.00024189679860503466
0.02330965632300197 -0.029619766594638518 -0.004158103177553107
0.02396309459309398 -0.02960718163268774 -0.003758111307626655
0.024618633926914324 -0.02959459667073696 -0.0033581045365390083
0.02531010741095363 -0.029578866166790417 -0.002858110973840644
0.026277118266628374 -0.02953796527328103 -0.0015581038689669868
0.02738842451672374 -0.029484479417820862 0.00014189510583312304
0.028439336360500445 -0.029437286508997372 0.0016418906950894097
0.029218912960098375 -0.02941526352407544 0.002341887643331597
0.029966981054351916 -0.029396385615487984 0.002941897799963067
0.03057649815182506 -0.029390093600173882 0.0031418862843456963
-0.05104461042483033 -0.028680516602267912 0.008141896417135308
-0.050484776592745195 -0.02868733202086895 0.007941893031591485
-0.049940078149481426 -0.028680516602267912 0.008141896417135308
-0.0493943324339825 -0.02867370211498945 0.008341884901517937
-0.04885354042325796 -0.028660071743448666 0.008741891672605584
-0.0483106575933534 -0.02864644137190788 0.009141883542532037
-0.04777063671772064 -0.02862599558176606 0.009741893699163506
-0.047223048846169124 -0.028612365675886563 0.010141885569089959
-0.0466694627915758 -0.028605550257285527 0.010341888954633782
-0.04611821645212055 -0.028591919885744742 0.010741895725721429
-0.03235955545951308 -0.02874526075067132 0.006241894056791375
-0.03182756444711865 -0.028755483412911585 0.00594188897847564
-0.03128104852785052 -0.028755483412911585 0.00594188897847564
-0.030745783916606317 -0.02876229883151262 0.005741885592931817
-0.03019979140062512 -0.02876229883151262 0.005741885592931817
-0.029666094205273996 -0.02876911378445237 0.0055418971085491875
-0.029107804506017576 -0.02876229883151262 0.005741885592931817
-0.02856181012739123 -0.02876229883151262 0.005741885592931817
-0.028001952080919157 -0.028755483412911585 0.00594188897847564
-0.027469823232783686 -0.02876229883151262 0.005741885592931817
-0.026923830716802488 -0.02876229883151262 0.005741885592931817
-0.02636240339179219 -0.028755483412911585 0.00594188897847564
-0.025815886541201483 -0.028755483412911585 0.00594188897847564
-0.025244652389480482 -0.02874526075067132 0.006241894056791375
-0.0246973532279271 -0.02874526075067132 0.006241894056791375
-0.024097479044391523 -0.028724815426190785 0.006841889312261651
-0.02353056250412644 -0.02871800000758975 0.007041892697805474
-0.02293474702437104 -0.028700962392409733 0.007541886260503838
-0.022345862447215925 -0.02868733202086895 0.007941893031591485
-0.021774505360915075 -0.028680516602267912 0.008141896417135308
-0.021202099605395208 -0.02867370211498945 0.008341884901517937
-0.020628650768591772 -0.028666886696388415 0.00854188828706176
-0.006319890825940977 -0.028997420994361332 -0.0011581119990405342
-0.005773759542896162 -0.0289940137507221 -0.0010581103062686226
-0.005245539455606352 -0.0289940137507221 -0.0010581103062686226
-0.0047173193683165415 -0.0289940137507221 -0.0010581103062686226
-0.004113278447582136 -0.02898038291352003 -0.0006581035351809761
-0.0035455777337092265 -0.028973568426241568 -0.0004581150507983467
-0.002976830213262449 -0.028966753007640532 -0.00025811166525452345
-0.002347822396947752 -0.02894971492679923 0.00024189679860503466
0.02330965632300197 -0.029099648082425288 -0.004158103177553107
0.023896434248493303 -0.02909283312948554 -0.003958114693170478
0.024551444591091265 -0.029079202757944754 -0.0035581079220828316
0.025242396534488787 -0.02906216514276474 -0.0030581143593844673
0.026072428465889086 -0.029031497156043938 -0.0021581140255984566
0.027250916601226916 -0.028966753007640532 -0.00025811166525452345
0.028370060862110247 -0.028908824277838162 0.0014418873095455864
0.029149108470485796 -0.028884971709718398 0.002141884257787774
0.02989666247467815 -0.028864525919576577 0.0027418944144192436
0.03057649815182506 -0.028850895548035792 0.0031418862843456963
-0.05103652095694722 -0.0281355885879895 0.007941893031591485
-0.05046964353223027 -0.02815026436912029 0.007541886260503838
-0.04992599003289522 -0.028142926478554896 0.007741889646047662
-0.0493943324339825 -0.02812091280685871 0.008341884901517937
-0.04884754177455486 -0.028113574916293314 0.00854188828706176
-0.0483106575933534 -0.028091561710258416 0.009141883542532037
-0.04777063671772064 -0.028069547572900942 0.009741893699163506
-0.047223048846169124 -0.02805487225743144 0.010141885569089959
-0.031232767834259878 -0.028175946986099175 0.006841889312261651
-0.030706402010216127 -0.028190622301568678 0.006441897442335198
-0.030170354156686674 -0.028197960192134074 0.006241894056791375
-0.029623054063810716 -0.028197960192134074 0.006241894056791375
-0.029094984850777994 -0.028208967493643454 0.00594188897847564
-0.028548468000187288 -0.028208967493643454 0.00594188897847564
-0.028001952080919157 -0.028208967493643454 0.00594188897847564
-0.027469823232783686 -0.02821630538420885 0.005741885592931817
-0.026923830716802488 -0.02821630538420885 0.005741885592931817
-0.026393271147205244 -0.028223642809112957 0.0055418971085491875
-0.025847799240543257 -0.028223642809112957 0.0055418971085491875
-0.025285850374891172 -0.02821630538420885 0.005741885592931817
-0.02473985879023255 -0.02821630538420885 0.005741885592931817
-0.024176339714719663 -0.028208967493643454 0.00594188897847564
-0.023584704010679136 -0.028190622301568678 0.006441897442335198
-0.022999742164208303 -0.028175946986099175 0.006841889312261651
-0.02238404853542031 -0.02815026436912029 0.007541886260503838
-0.021813736393048178 -0.028142926478554896 0.007741889646047662
-0.021222236662103544 -0.028128250231762818 0.008141896417135308
-0.02064931309123219 -0.02812091280685871 0.008341884901517937
-0.02007533898849667 -0.028113574916293314 0.00854188828706176
-0.019500319941832434 -0.02810623702572792 0.008741891672605584
-0.006319890825940977 -0.028469462143053702 -0.0011581119990405342
-0.005773759542896162 -0.028465792732109717 -0.0010581103062686226
-0.005263972192003141 -0.028469462143053702 -0.0011581119990405342
-0.0047173193683165415 -0.028465792732109717 -0.0010581103062686226
-0.004113278447582136 -0.028451116950978926 -0.0006581035351809761
-0.0035455777337092265 -0.028443779526074818 -0.0004581150507983467
-0.002898915766670118 -0.028421765388717345 0.00014189510583312304
-0.002347822396947752 -0.028418096443434647 0.00024189679860503466
0.024484262705848803 -0.028564854254742554 -0.003758111307626655
0.025174700559185137 -0.02854650906266778 -0.0032581028437670967
0.026004203499363054 -0.028513489020784787 -0.002358102509981086
0.027113416136310686 -0.028451116950978926 -0.0006581035351809761
0.028231517315910448 -0.028388744881173066 0.0010418954396191338
0.029114217401550402 -0.02835205542834609 0.002041897466177056
0.02989666247467815 -0.028326373277028492 0.0027418944144192436
0.03050565803150951 -0.02831903492080181 0.002941897799963067
-0.051020342021181 -0.02759956634583085 0.007541886260503838
-0.05046207746763409 -0.027607426708360604 0.007341897776121209
-0.049918945974602114 -0.02759956634583085 0.007541886260503838
-0.04938781177897633 -0.02757598432691901 0.008141896417135308
-0.04884754177455486 -0.0275602636018595 0.00854188828706176
-0.0483106575933534 -0.027536681582947663 0.009141883542532037
-0.04777558949117244 -0.027505238270183495 0.00994189708470733
-0.04723633975063146 -0.027473795888741902 0.010741895725721429
-0.027981153785182844 -0.02765065963359683 0.006241894056791375
-0.027433852760984312 -0.02765065963359683 0.006241894056791375
-0.02690891931106032 -0.027662451108714035 0.00594188897847564
-0.026393271147205244 -0.027678171833773545 0.0055418971085491875
-0.02587971193988503 -0.02769389349015563 0.005141890337461541
-0.02533528683979691 -0.02769389349015563 0.005141890337461541
-0.02475685915250958 -0.027678171833773545 0.0055418971085491875
-0.024211387245847593 -0.027678171833773545 0.0055418971085491875
-0.023647871895625006 -0.02767031147124379 0.005741885592931817
-0.023055450155331503 -0.02765065963359683 0.006241894056791375
-0.022489058880998503 -0.027642799271067074 0.006441897442335198
-0.021902005284025083 -0.027627078546007565 0.006841889312261651
-0.021302790476872335 -0.027607426708360604 0.007341897776121209
-0.02069063401122273 -0.027583844689448765 0.007941893031591485
-0.02011770671506108 -0.02757598432691901 0.008141896417135308
-0.01954373447497071 -0.027568123964389256 0.008341884901517937
-0.01896871542830647 -0.0275602636018595 0.00854188828706176
-0.018392651437713514 -0.027552402308007172 0.008741891672605584
-0.006319890825940977 -0.027941502360423497 -0.0011581119990405342
-0.005791931508972059 -0.027941502360423497 -0.0011581119990405342
-0.005263972192003141 -0.027941502360423497 -0.0011581119990405342
-0.0047173193683165415 -0.02793757217915862 -0.0010581103062686226
-0.004113278447582136 -0.027921850522776535 -0.0006581035351809761
-0.0035455777337092265 -0.027913991091569355 -0.0004581150507983467
-0.002898915766670118 -0.027890408141334942 0.00014189510583312304
-0.002347822396947752 -0.027886477960070065 0.00024189679860503466
0.024484262705848803 -0.028043690798600605 -0.003758111307626655
0.025174700559185137 -0.028024038960953644 -0.0032581028437670967
0.02597008729080974 -0.02799259657951205 -0.0024581042027529976
0.02697590822081386 -0.02793757217915862 -0.0010581103062686226
0.028231517315910448 -0.027855035578628472 0.0010418954396191338
0.029114217401550402 -0.027815732834657124 0.002041897466177056
0.02989666247467815 -0.027788220634480408 0.0027418944144192436
0.03043481046061336 -0.027788220634480408 0.0027418944144192436
-0.05101225255329789 -0.027057251622696808 0.007341897776121209
-0.05045072743941725 -0.02706982727142184 0.007041892697805474
-0.049911902847631584 -0.027057251622696808 0.007341897776121209
-0.04938781177897633 -0.027023718422075203 0.008141896417135308
-0.04884754177455486 -0.0270069518217644 0.00854188828706176
-0.04830518188227595 -0.0269901852214536 0.008941895058149407
-0.04777063671772064 -0.026956652020831993 0.009741893699163506
-0.04723633975063146 -0.0269147350543937 0.010741895725721429
-0.026886552668108354 -0.027103360472043446 0.006241894056791375
-0.02636240339179219 -0.027115935189445904 0.00594188897847564
-0.025831843822194944 -0.027124318955262593 0.005741885592931817
-0.02530232919652642 -0.027132701789756707 0.0055418971085491875
-0.02479086360235394 -0.027149469321390084 0.005141890337461541
-0.024246436639620672 -0.027149469321390084 0.005141890337461541
-0.023702011539532553 -0.027149469321390084 0.005141890337461541
-0.023120445295168768 -0.027132701789756707 0.0055418971085491875
-0.022555883138372312 -0.027124318955262593 0.005741885592931817
-0.021960851832224737 -0.027103360472043446 0.006241894056791375
-0.02139341188867272 -0.027094976706226757 0.006441897442335198
-0.020783607943846594 -0.02706982727142184 0.007041892697805474
-0.02018125830490769 -0.027048868788202694 0.007541886260503838
-0.019587145282818685 -0.027032102187891892 0.007941893031591485
-0.019013173042728315 -0.027023718422075203 0.008141896417135308
-0.018438155858709226 -0.02701533558758109 0.008341884901517937
-0.01786209186811627 -0.0270069518217644 0.00854188828706176
-0.01730878195066632 -0.0270069518217644 0.00854188828706176
-0.006319890825940977 -0.027413543974777153 -0.0011581119990405342
-0.005791931508972059 -0.027413543974777153 -0.0011581119990405342
-0.005263972192003141 -0.027413543974777153 -0.0011581119990405342
-0.0047173193683165415 -0.02740935209186881 -0.0010581103062686226
-0.004113278447582136 -0.027392585491558007 -0.0006581035351809761
-0.003507143913699995 -0.027375818891247204 -0.00025811166525452345
0.024484262705848803 -0.027522527342458657 -0.003758111307626655
0.025174700559185137 -0.02750156885923951 -0.0032581028437670967
0.02597008729080974 -0.027468035658617905 -0.0024581042027529976
0.02697590822081386 -0.02740935209186881 -0.0010581103062686226
0.02816224181752025 -0.02732971097322314 0.0008418920540753105
0.02904442036251842 -0.027287794006784848 0.001841894080633233
0.029826336444423784 -0.027258452689071587 0.0025418910288754204
0.03043481046061336 -0.0272500689232549 0.0027418944144192436
-0.05100011835147322 -0.026520435428043297 0.007041892697805474
-0.0504431604434985 -0.026529341665824345 0.006841889312261651
-0.049901336527361284 -0.026520435428043297 0.007041892697805474
-0.049381290658308874 -0.026480358755012444 0.007941893031591485
-0.04884154359151305 -0.026462546279450348 0.008341884901517937
-0.04830518188227595 -0.026435827566107205 0.008941895058149407
-0.04777063671772064 -0.026400203546305588 0.009741893699163506
-0.04723633975063146 -0.026355673288722924 0.010741895725721429
-0.02473985879023255 -0.02657832550795882 0.005741885592931817
-0.024211387245847593 -0.026587230814417294 0.0055418971085491875
-0.023702011539532553 -0.02660504328997939 0.005141890337461541
-0.023157586439444433 -0.02660504328997939 0.005141890337461541
-0.02257497525115193 -0.026587230814417294 0.0055418971085491875
-0.02200989155371369 -0.02657832550795882 0.005741885592931817
-0.021443759187056433 -0.026569419270177773 0.00594188897847564
-0.020845589323832403 -0.02654715414138644 0.006441897442335198
-0.020255400895072828 -0.026529341665824345 0.006841889312261651
-0.01965226521988095 -0.026507076537033013 0.007341897776121209
-0.01905763251979531 -0.02648926499279349 0.007741889646047662
-0.01848365841705979 -0.026480358755012444 0.007941893031591485
-0.0179086412330407 -0.026471452517231396 0.008141896417135308
-0.017356376259519468 -0.026471452517231396 0.008141896417135308
-0.006319890825940977 -0.026885584657808236 -0.0011581119990405342
-0.005791931508972059 -0.026885584657808236 -0.0011581119990405342
-0.005263972192003141 -0.026885584657808236 -0.0011581119990405342
-0.0047173193683165415 -0.026881132004579 -0.0010581103062686226
-0.004113278447582136 -0.026863319529016903 -0.0006581035351809761
-0.003507143913699995 -0.026845507053454808 -0.00025811166525452345
-0.0028794399489897593 -0.026823241924663475 0.00024189679860503466
-0.0022293842424887522 -0.026796524142642907 0.0008418920540753105
0.024484262705848803 -0.027001363886316708 -0.003758111307626655
0.025140845120952715 -0.026983551410754612 -0.0033581045365390083
0.02597008729080974 -0.026943473806401184 -0.0024581042027529976
0.026941531241939654 -0.026885584657808236 -0.0011581119990405342
0.028092966319130053 -0.026805430380423954 0.0006418886685314873
0.02904442036251842 -0.026751993885060242 0.001841894080633233
0.029826336444423784 -0.026720822518487862 0.0025418910288754204
0.03043481046061336 -0.026711916280706814 0.0027418944144192436
-0.05100011835147322 -0.025971044515987328 0.007041892697805474
-0.0504431604434985 -0.025980473225732735 0.006841889312261651
-0.04989429293472947 -0.025980473225732735 0.006841889312261651
-0.04936824795131267 -0.02594747274162381 0.007541886260503838
-0.04884154359151305 -0.025909757902642182 0.008341884901517937
-0.0482997061711985 -0.025890899551828793 0.008741891672605584
-0.04776073070515574 -0.02586261342259257 0.00934188692807586
-0.04722747914765657 -0.02581546894254296 0.010341888954633782
-0.023665917201830755 -0.02604175983907788 0.0055418971085491875
-0.023120445295168768 -0.02604175983907788 0.0055418971085491875
-0.022613161339356314 -0.02606061818989127 0.005141890337461541
-0.022068736239268194 -0.02606061818989127 0.005141890337461541
-0.021484033300473104 -0.02604175983907788 0.0055418971085491875
-0.020938563256456266 -0.02604175983907788 0.0055418971085491875
-0.02035072734852017 -0.02602290335090964 0.00594188897847564
-0.019771649598075758 -0.026008759354968956 0.006241894056791375
-0.019202121629311453 -0.02599933064522355 0.006441897442335198
-0.018608794643475424 -0.025980473225732735 0.006841889312261651
-0.018001739962889562 -0.025956900520046643 0.007341897776121209
-0.017427767722799192 -0.02594747274162381 0.007541886260503838
-0.016852748676134954 -0.025938044031878403 0.007741889646047662
-0.01630152864654244 -0.025938044031878403 0.007741889646047662
-0.006319890825940977 -0.026357625340839318 -0.0011581119990405342
-0.005773759542896162 -0.026352910985966614 -0.0010581103062686226
-0.005245539455606352 -0.026352910985966614 -0.0010581103062686226
-0.0046425416161555155 -0.0263340535664758 -0.0006581035351809761
-0.004075366168214689 -0.026324624856730393 -0.0004581150507983467
-0.0034302762736815318 -0.026296337796171597 0.00014189510583312304
-0.0028794399489897593 -0.026291623441298893 0.00024189679860503466
-0.002189903615905653 -0.026253908602317265 0.0010418954396191338
0.024484262705848803 -0.026480199498852185 -0.003758111307626655
0.025140845120952715 -0.02646134207936137 -0.0033581045365390083
0.025901854873703112 -0.026428341595252446 -0.002658107588296821
0.026941531241939654 -0.026357625340839318 -0.0011581119990405342
0.027954415322349657 -0.026291623441298893 0.00024189679860503466
0.02897461587290584 -0.026225622473081044 0.0016418906950894097
0.029756017864750017 -0.026192621057649544 0.002341887643331597
0.030363970340297808 -0.026183192347904137 0.0025418910288754204
-0.05100011835147322 -0.025421652672608784 0.007041892697805474
-0.0504431604434985 -0.025431604785641125 0.006841889312261651
-0.04989429293472947 -0.025431604785641125 0.006841889312261651
-0.04936824795131267 -0.02539677425267308 0.007541886260503838
-0.04883554540847124 -0.025366919776221207 0.008141896417135308
-0.048294230460121046 -0.0253470164814791 0.00854188828706176
-0.04775577746604265 -0.025317162005027226 0.009141883542532037
-0.047218619010342966 -0.02527735541554301 0.00994189708470733
-0.022613161339356314 -0.02551619308980315 0.005141890337461541
-0.022068736239268194 -0.02551619308980315 0.005141890337461541
-0.02154445005853356 -0.025526144271512917 0.004941886951917718
-0.021000548361732374 -0.025526144271512917 0.004941886951917718
-0.020435460939003836 -0.02551619308980315 0.005141890337461541
-0.019891035838915716 -0.02551619308980315 0.005141890337461541
-0.01927992431719483 -0.025486338613351277 0.005741885592931817
-0.018733930869891058 -0.025486338613351277 0.005741885592931817
-0.01812975025077046 -0.025461459262093 0.006241894056791375
-0.017582449226571928 -0.025461459262093 0.006241894056791375
-0.01696219025452317 -0.025431604785641125 0.006841889312261651
-0.01638847878475369 -0.025421652672608784 0.007041892697805474
-0.01580103775758923 -0.025406725434382847 0.007341897776121209
-0.015224977492286573 -0.02539677425267308 0.007541886260503838
-0.006319890825940977 -0.0258296660238704 -0.0011581119990405342
-0.005773759542896162 -0.02582468996735423 -0.0010581103062686226
-0.0051718085100191935 -0.025804786672612122 -0.0006581035351809761
-0.004605154602720152 -0.02579483642222493 -0.0004581150507983467
-0.004037457614137541 -0.02578488430919259 -0.00025811166525452345
-0.0034110575010317667 -0.02576000495793431 0.00024189679860503466
-0.002762570141746412 -0.025730150481482437 0.0008418920540753105
-0.002150426714612852 -0.025710248118062905 0.0012418839240017632
0.024484262705848803 -0.025959036042710236 -0.003758111307626655
0.025140845120952715 -0.02593913274796813 -0.0033581045365390083
0.025901854873703112 -0.025904302215000084 -0.002658107588296821
0.026804030777023424 -0.025849569318612507 -0.0015581038689669868
0.027954415322349657 -0.02576000495793431 0.00024189679860503466
0.02897461587290584 -0.025690344823320797 0.0016418906950894097
0.029756017864750017 -0.025655514290352753 0.002341887643331597
0.03029312276940166 -0.025655514290352753 0.002341887643331597
-0.05101225255329789 -0.024856551280041626 0.007341897776121209
-0.0504431604434985 -0.02488273727687209 0.006841889312261651
-0.049880205283804546 -0.024903685515542916 0.006441897442335198
-0.0493617272963065 -0.024856551280041626 0.007341897776121209
-0.04882954675976814 -0.0248251284563741 0.007941893031591485
-0.048288754749043594 -0.024804180217703274 0.008341884901517937
-0.04775082469259084 -0.024772757394035748 0.008941895058149407
-0.047209758407368074 -0.02474133457036822 0.009541890313619683
-0.02154445005853356 -0.02498224257471173 0.004941886951917718
-0.021041869281722914 -0.025003190813382557 0.004541895081991265
-0.020499012528850447 -0.025003190813382557 0.004541895081991265
-0.01995615391333283 -0.025003190813382557 0.004541895081991265
-0.019413297160460363 -0.025003190813382557 0.004541895081991265
-0.018824937849237333 -0.02498224257471173 0.004941886951917718
-0.018257760538651358 -0.02497176798971503 0.005141890337461541
-0.01766574112971009 -0.024950819751044205 0.0055418971085491875
-0.017095950527979742 -0.02494034609737008 0.005741885592931817
-0.016525114982320677 -0.02492987151237338 0.00594188897847564
-0.01594054801662148 -0.02491415916921704 0.006241894056791375
-0.015367361812784086 -0.024903685515542916 0.006441897442335198
-0.006301979630185972 -0.025296470811386994 -0.0010581103062686226
-0.0057010754038828715 -0.025275521641393593 -0.0006581035351809761
-0.005134943037225614 -0.025265047987719468 -0.0004581150507983467
-0.004605154602720152 -0.025265047987719468 -0.0004581150507983467
-0.003961633055402647 -0.025233624232729367 0.00014189510583312304
-0.0033341898610133036 -0.025207439167221478 0.0006418886685314873
0.024484262705848803 -0.025437873517890862 -0.003758111307626655
0.025140845120952715 -0.02541692434789746 -0.0033581045365390083
0.025901854873703112 -0.025380264697392872 -0.002658107588296821
0.026941531241939654 -0.025301707638224057 -0.0011581119990405342
0.027954415322349657 -0.025228387405892304 0.00024189679860503466
0.02897461587290584 -0.025155068104883126 0.0016418906950894097
0.029685691834495653 -0.025128882108052662 0.002141884257787774
0.03029312276940166 -0.025118408454378537 0.002341887643331597
-0.051020342021181 -0.02429537913741677 0.007541886260503838
-0.0504431604434985 -0.02433386883678048 0.006841889312261651
-0.04989429293472947 -0.02433386883678048 0.006841889312261651
-0.049351945615305315 -0.024322870848496846 0.007041892697805474
-0.04882354857672633 -0.02428438208045571 0.007741889646047662
-0.048288754749043594 -0.024251390909572533 0.008341884901517937
-0.04774587191913904 -0.024229396795650414 0.008741891672605584
-0.04720089780439318 -0.02420740361305087 0.009141883542532037
-0.02052019639213265 -0.02447133111747115 0.004341891696447442
-0.019977861179901968 -0.02447133111747115 0.004341891696447442
-0.019435527830316435 -0.02447133111747115 0.004341891696447442
-0.018893192618085752 -0.02447133111747115 0.004341891696447442
-0.01835085926850022 -0.02447133111747115 0.004341891696447442
-0.017784726901842962 -0.02446033406051009 0.004541895081991265
-0.017241870148970495 -0.02446033406051009 0.004541895081991265
-0.016624485238387 -0.02442734288962691 0.005141890337461541
-0.016029327272369276 -0.024405348775704792 0.0055418971085491875
-0.015457972048713575 -0.024394351718743733 0.005741885592931817
-0.014885566293193708 -0.024383354661782673 0.00594188897847564
-0.014271712957813154 -0.024355862019380024 0.006441897442335198
-0.006230338572456251 -0.02474625567885249 -0.0006581035351809761
-0.0056647351970213755 -0.024735259553214005 -0.0004581150507983467
-0.005098077564432035 -0.02472426156493037 -0.00025811166525452345
-0.0044929861118334635 -0.02470226745100825 0.00014189510583312304
-0.0038668579449194773 -0.024674775739928177 0.0006418886685314873
-0.0032573222209948405 -0.024652780694683483 0.0010418954396191338
0.024484262705848803 -0.02491670913042634 -0.003758111307626655
0.025140845120952715 -0.02489471501650422 -0.0033581045365390083
0.025901854873703112 -0.02485622531714051 -0.002658107588296821
0.026941531241939654 -0.02477374832125514 -0.0011581119990405342
0.027954415322349657 -0.024696768922527722 0.00024189679860503466
0.02904442036251842 -0.02460879339816182 0.001841894080633233
0.029756017864750017 -0.02458130075575917 0.002341887643331597
0.030363970340297808 -0.02457030369879811 0.0025418910288754204
-0.05103652095694722 -0.023721641590615204 0.007941893031591485
-0.05046207746763409 -0.02375620017739146 0.007341897776121209
-0.049901336527361284 -0.023773479936440876 0.007041892697805474
-0.0493617272963065 -0.02375620017739146 0.007341897776121209
-0.04881754992802323 -0.023744680648466042 0.007541886260503838
-0.04828327950362743 -0.02371012113036721 0.008141896417135308
-0.047740918680025946 -0.023687082072516373 0.00854188828706176
-0.04720089780439318 -0.023652523485740116 0.009141883542532037
-0.0466577406999904 -0.023617963967641285 0.009741893699163506
-0.04612160111118735 -0.023548845862766198 0.010941884210104058
-0.01947998730738343 -0.02395203589441388 0.003941884925359795
-0.018938697039081465 -0.02395203589441388 0.003941884925359795
-0.01839740863342465 -0.02395203589441388 0.003941884925359795
-0.017856120227767835 -0.02395203589441388 0.003941884925359795
-0.01731482995946587 -0.02395203589441388 0.003941884925359795
-0.01672385549445332 -0.023928995905240467 0.004341891696447442
-0.016156154780580412 -0.02391747637631505 0.004541895081991265
-0.015561523943139921 -0.02389443731846421 0.004941886951917718
-0.01499120993812264 -0.023882917789538792 0.005141890337461541
-0.014392915277673612 -0.02385987780036538 0.0055418971085491875
-0.013792532592012297 -0.023836838742514542 0.00594188897847564
-0.01324601760406674 -0.023836838742514542 0.00594188897847564
-0.006230338572456251 -0.024216989716311386 -0.0006581035351809761
-0.005628391264869581 -0.02419395065846055 -0.00025811166525452345
-0.0050059138824480875 -0.02416515043916314 0.00024189679860503466
-0.004399518578245054 -0.024142111381312302 0.0006418886685314873
-0.0038289456655520304 -0.024130591852386883 0.0008418920540753105
-0.0032188921262759074 -0.024107552794536045 0.0012418839240017632
0.024484262705848803 -0.02439554567428439 -0.003758111307626655
0.025174700559185137 -0.02436674545498698 -0.0032581028437670967
0.02597008729080974 -0.024320667339285305 -0.0024581042027529976
0.02697590822081386 -0.024240028774162224 -0.0010581103062686226
0.028092966319130053 -0.024142111381312302 0.0006418886685314873
0.02904442036251842 -0.024072993276437214 0.001841894080633233
0.029756017864750017 -0.02404419398846238 0.002341887643331597
0.030363970340297808 -0.024032673528214386 0.0025418910288754204
-0.049911902847631584 -0.023206025091727665 0.007341897776121209
-0.0493617272963065 -0.023206025091727665 0.007341897776121209
-0.04881754992802323 -0.023193983090837887 0.007541886260503838
-0.04828327950362743 -0.023157855225523404 0.008141896417135308
-0.047740918680025946 -0.023133770292421273 0.00854188828706176
-0.047196467968567024 -0.023109685359319142 0.008941895058149407
-0.046653832870467316 -0.023073558425327233 0.009541890313619683
-0.04611144690115632 -0.02302538855912297 0.010341888954633782
-0.01839740863342465 -0.023410747488757065 0.003941884925359795
-0.01787991551954926 -0.023422789489646843 0.003741896440977166
-0.01736346921224774 -0.02343483149053662 0.0035418930554333428
-0.01679838365216435 -0.023422789489646843 0.003741896440977166
-0.01625761678714932 -0.023422789489646843 0.003741896440977166
-0.015690966605140577 -0.023410747488757065 0.003941884925359795
-0.015096853583051573 -0.02338666162433236 0.004341891696447442
-0.01452758452196301 -0.02337461962344258 0.004541895081991265
-0.013929815127446066 -0.02335053469034045 0.004941886951917718
-0.013301975189639936 -0.023314406825025967 0.0055418971085491875
-0.012756503282977949 -0.023314406825025967 0.0055418971085491875
-0.012182009502245794 -0.02330236482413619 0.005741885592931817
-0.00619451990623654 -0.023675681752880505 -0.0004581150507983467
-0.005555703400565992 -0.023639552956243447 0.00014189510583312304
-0.004932182936860929 -0.023609447954019 0.0006418886685314873
-0.004362127839519392 -0.02359740502180665 0.0008418920540753105
-0.003753124832107435 -0.023573320088704518 0.0012418839240017632
-0.0031420207609671458 -0.023549235155602387 0.0016418906950894097
0.024484262705848803 -0.02387438221814244 -0.003758111307626655
0.025174700559185137 -0.023844275353272847 -0.0032581028437670967
0.02597008729080974 -0.023796105487068585 -0.0024581042027529976
0.02697590822081386 -0.023711808686872414 -0.0010581103062686226
0.02816224181752025 -0.02359740502180665 0.0008418920540753105
0.02904442036251842 -0.023537192223390034 0.001841894080633233
0.029756017864750017 -0.02350708722116559 0.002341887643331597
0.030363970340297808 -0.023495044288953236 0.0025418910288754204
-0.04992599003289522 -0.02263072012903302 0.007741889646047662
-0.04936824795131267 -0.022643285533209732 0.007541886260503838
-0.04881754992802323 -0.022643285533209732 0.007541886260503838
-0.04827780379254998 -0.02261815472485631 0.007941893031591485
-0.04773596590657414 -0.02259302484782546 0.008341884901517937
-0.04719203766707958 -0.022567894039472035 0.008741891672605584
-0.04664601814274372 -0.022542764162441185 0.009141883542532037
-0.046104677583022724 -0.022492502545734337 0.00994189708470733
-0.01736346921224774 -0.0228945889601311 0.0035418930554333428
-0.016848069711520086 -0.022907154364307812 0.0033418896698895195
-0.016308347790433775 -0.022907154364307812 0.0033418896698895195
-0.015768629594637762 -0.022907154364307812 0.0033418896698895195
-0.015202497227980505 -0.0228945889601311 0.0035418930554333428
-0.01463531805474938 -0.022882023555954388 0.003741896440977166
-0.014012183158590208 -0.022844328274746827 0.004341891696447442
-0.013469851671649824 -0.022844328274746827 0.004341891696447442
-0.01289901426334561 -0.022831762870570114 0.004541895081991265
-0.01229810817439736 -0.022806632993539265 0.004941886951917718
-0.011724659337593923 -0.022794067589362553 0.005141890337461541
-0.011180232374860655 -0.022794067589362553 0.005141890337461541
-0.00615869751472653 -0.02313332791419833 -0.00025811166525452345
-0.005537531434490095 -0.02310191440375655 0.00024189679860503466
-0.004858448265983473 -0.023051653718372277 0.0010418954396191338
-0.004287353812648664 -0.02303908924551814 0.0012418839240017632
-0.0036773002733725413 -0.023013958437164715 0.0016418906950894097
-0.003103586940957914 -0.023001393032988003 0.001841894080633233
-0.002509354709579359 -0.02298254585804551 0.002141884257787774
