ply
format ascii 1.0
element vertex 784
property float x
property float y
property float z
end_header
0.0003293969784863293 0.04332379251718521 0.24009999632835388
0.0009597263997420669 0.04345009848475456 0.24079999327659607
0.0022239922545850277 0.04355836287140846 0.24139998853206635
0.002860842738300562 0.04364858567714691 0.2418999969959259
0.003497418714687228 0.04370271414518356 0.24219998717308044
0.004133858252316713 0.04373880475759506 0.24239999055862427
0.00477920938283205 0.04384706914424896 0.24300000071525574
0.02922053635120392 0.04335987940430641 0.2402999997138977
0.02988586015999317 0.04341401159763336 0.24059998989105225
0.031247105449438095 0.04355836287140846 0.24139998853206635
0.03190445527434349 0.04359445348381996 0.24159999191761017
0.032616715878248215 0.04370271414518356 0.24219998717308044
0.03331838920712471 0.04379293695092201 0.24269999563694
0.034106604754924774 0.04399142414331436 0.24379999935626984
0.03485782444477081 0.04413577541708946 0.24459999799728394
0.035700298845767975 0.04438839107751846 0.2459999918937683
-0.03594771772623062 0.04380489140748978 0.23929999768733978
-0.03546987846493721 0.0439879447221756 0.2402999997138977
-0.03495781123638153 0.044134385883808136 0.2410999983549118
-0.03444156050682068 0.04428083077073097 0.2418999969959259
-0.03396305814385414 0.044482190161943436 0.24300000071525574
-0.033547382801771164 0.04477507621049881 0.24459999799728394
-0.033163703978061676 0.04512288048863411 0.24650000035762787
-0.03274370729923248 0.045434072613716125 0.24819999933242798
-0.032159656286239624 0.045525599271059036 0.24869999289512634
-0.03154764696955681 0.04558051750063896 0.24899999797344208
-0.008318801410496235 0.04323742166161537 0.2361999899148941
-0.007701454684138298 0.04323742166161537 0.2361999899148941
-0.007084107957780361 0.04323742166161537 0.2361999899148941
-0.006480451673269272 0.04332894831895828 0.23669999837875366
-0.005849415902048349 0.04323742166161537 0.2361999899148941
-0.0052320696413517 0.04323742166161537 0.2361999899148941
-0.003997377119958401 0.04323742166161537 0.2361999899148941
-0.003380031092092395 0.04323742166161537 0.2361999899148941
-0.0027626848313957453 0.04323742166161537 0.2361999899148941
-0.0021526047494262457 0.04338386282324791 0.2369999885559082
-0.0015364020364359021 0.04347539320588112 0.23749999701976776
-0.0009164291550405324 0.043512001633644104 0.23770000040531158
-0.0002961557765956968 0.04365844652056694 0.23849999904632568
0.0003285738348495215 0.04384149983525276 0.2395000010728836
0.0009569365065544844 0.043951332569122314 0.24009999632835388
0.0022212283220142126 0.044134385883808136 0.2410999983549118
0.002854929305613041 0.04418930038809776 0.24139998853206635
0.003488754853606224 0.04422591254115105 0.24159999191761017
0.004130447283387184 0.0443357452750206 0.24219998717308044
0.004763475153595209 0.0443357452750206 0.24219998717308044
0.029257014393806458 0.044042859226465225 0.24059998989105225
0.031247105449438095 0.04418930038809776 0.24139998853206635
0.031944070011377335 0.04428083077073097 0.2418999969959259
0.03335957229137421 0.044482190161943436 0.24300000071525574
0.034106604754924774 0.04462863504886627 0.24379999935626984
0.03485782444477081 0.04477507621049881 0.24459999799728394
0.035613223910331726 0.044921521097421646 0.24539999663829803
-0.03602282702922821 0.04452316835522652 0.23979999125003815
-0.03554368019104004 0.04470883682370186 0.24079999327659607
-0.03500130772590637 0.044820237904787064 0.24139998853206635
-0.034484270960092545 0.04496876895427704 0.24219998717308044
-0.03407486900687218 0.045265842229127884 0.24379999935626984
-0.03365710377693176 0.04556290805339813 0.24539999663829803
-0.03324442729353905 0.04587854444980621 0.24709999561309814
-0.03278328478336334 0.04613848030567169 0.24849998950958252
-0.032159656286239624 0.04617561399936676 0.24869999289512634
-0.03154764696955681 0.04623131453990936 0.24899999797344208
-0.007701454684138298 0.043854761868715286 0.2361999899148941
-0.007099104579538107 0.043947599828243256 0.23669999837875366
-0.006480451673269272 0.043947599828243256 0.23669999837875366
-0.0058617983013391495 0.043947599828243256 0.23669999837875366
-0.0052320696413517 0.043854761868715286 0.2361999899148941
-0.00461472338065505 0.043854761868715286 0.2361999899148941
-0.003997377119958401 0.043854761868715286 0.2361999899148941
-0.003380031092092395 0.043854761868715286 0.2361999899148941
-0.0027626848313957453 0.043854761868715286 0.2361999899148941
-0.0021453385706990957 0.043854761868715286 0.2361999899148941
-0.0015331674367189407 0.04400329664349556 0.2369999885559082
-0.0009156580199487507 0.04409613460302353 0.23749999701976776
-0.0002955349045805633 0.0441889651119709 0.23799999058246613
0.0009537480655126274 0.044430334120988846 0.23929999768733978
0.002851381665095687 0.04476453736424446 0.2410999983549118
0.0034815347753465176 0.04476453736424446 0.2410999983549118
0.004116804338991642 0.044820237904787064 0.24139998853206635
0.00475757522508502 0.044913072139024734 0.2418999969959259
0.029281334951519966 0.04470883682370186 0.24079999327659607
0.030578123405575752 0.04476453736424446 0.2410999983549118
0.03127299249172211 0.04485737159848213 0.24159999191761017
0.031944070011377335 0.044913072139024734 0.2418999969959259
0.03338702768087387 0.04515443742275238 0.24319998919963837
0.034106604754924774 0.045265842229127884 0.24379999935626984
0.03485782444477081 0.04541437700390816 0.24459999799728394
0.035613223910331726 0.04556290805339813 0.24539999663829803
-0.0360979400575161 0.045244067907333374 0.2402999997138977
-0.035587962716817856 0.045394692569971085 0.2410999983549118
-0.03507380560040474 0.045545317232608795 0.2418999969959259
-0.034598175436258316 0.045752428472042084 0.24300000071525574
-0.03418667986989021 0.046053677797317505 0.24459999799728394
-0.03376682475209236 0.046354927122592926 0.24619999527931213
-0.03335205838084221 0.04667500779032707 0.24789999425411224
-0.03278328478336334 0.04678797349333763 0.24849998950958252
-0.03219844773411751 0.04688211530447006 0.24899999797344208
-0.03154764696955681 0.04688211530447006 0.24899999797344208
-0.007717757951468229 0.04456625506281853 0.23669999837875366
-0.007099104579538107 0.04456625506281853 0.23669999837875366
-0.006480451673269272 0.04456625506281853 0.23669999837875366
-0.0058617983013391495 0.04456625506281853 0.23669999837875366
-0.004624492023140192 0.04456625506281853 0.23669999837875366
-0.003997377119958401 0.0444721095263958 0.2361999899148941
-0.002759175840765238 0.04441562667489052 0.23589999973773956
-0.0009137302986346185 0.04462273418903351 0.2369999885559082
-0.0002949140325654298 0.04471687972545624 0.23749999701976776
0.0009505596244707704 0.0449051596224308 0.23849999904632568
0.0015791966579854488 0.04505578428506851 0.23929999768733978
0.0022092515137046576 0.04514992609620094 0.23979999125003815
0.0028419203590601683 0.045244067907333374 0.2402999997138977
0.0034743144642561674 0.045300550758838654 0.24059998989105225
0.004111688118427992 0.045394692569971085 0.2410999983549118
0.004747741390019655 0.045451175421476364 0.24139998853206635
0.0053831348195672035 0.04548883065581322 0.24159999191761017
0.006022063549607992 0.045545317232608795 0.2418999969959259
0.007295588031411171 0.045601800084114075 0.24219998717308044
0.00793516356498003 0.04563945531845093 0.24239999055862427
0.0085969939827919 0.04579008370637894 0.24319998919963837
0.028651965782046318 0.04533820599317551 0.24079999327659607
0.02994796819984913 0.045394692569971085 0.2410999983549118
0.030616169795393944 0.045451175421476364 0.24139998853206635
0.031311824917793274 0.045545317232608795 0.2418999969959259
0.032684050500392914 0.045695941895246506 0.24269999563694
0.033428214490413666 0.045846566557884216 0.2434999942779541
0.034176554530858994 0.04599719122052193 0.2442999929189682
0.03485782444477081 0.046053677797317505 0.24459999799728394
-0.03617304936051369 0.04596757888793945 0.24079999327659607
-0.03563224524259567 0.046082112938165665 0.24139998853206635
-0.03466936573386192 0.04648299515247345 0.2434999942779541
-0.03429849445819855 0.0468456968665123 0.24539999663829803
-0.0338902622461319 0.04717021808028221 0.24709999561309814
-0.033392418175935745 0.047380201518535614 0.24819999933242798
-0.03280967101454735 0.047475650906562805 0.24869999289512634
-0.03219844773411751 0.04753291979432106 0.24899999797344208
-0.03154764696955681 0.04753291979432106 0.24899999797344208
-0.009573716670274734 0.0451849065721035 0.23669999837875366
-0.008966413326561451 0.045242175459861755 0.2369999885559082
-0.008346976712346077 0.045242175459861755 0.2369999885559082
-0.007727539166808128 0.045242175459861755 0.2369999885559082
-0.005869227461516857 0.045242175459861755 0.2369999885559082
-0.005249790381640196 0.045242175459861755 0.2369999885559082
-0.004624492023140192 0.0451849065721035 0.23669999837875366
-0.004005839116871357 0.0451849065721035 0.23669999837875366
-0.0027626848313957453 0.04508945718407631 0.2361999899148941
-0.0002942931605502963 0.045242175459861755 0.2369999885559082
0.0009473711834289134 0.045375801622867584 0.23770000040531158
0.0015739173395559192 0.04552851989865303 0.23849999904632568
0.0022046451922506094 0.04568123444914818 0.23929999768733978
0.003467094385996461 0.045833952724933624 0.24009999632835388
0.0041031609289348125 0.04592939838767052 0.24059998989105225
0.0047359406016767025 0.04596757888793945 0.24079999327659607
0.005371994338929653 0.04602484777569771 0.2410999983549118
0.006014594808220863 0.0461202934384346 0.24159999191761017
0.02799932099878788 0.04592939838767052 0.24059998989105225
0.028651965782046318 0.04596757888793945 0.24079999327659607
0.029985232278704643 0.046082112938165665 0.24139998853206635
0.03064153529703617 0.0461202934384346 0.24159999191761017
0.031311824917793274 0.046177562326192856 0.2418999969959259
0.032010097056627274 0.04627300798892975 0.24239999055862427
0.03275138512253761 0.046425726264715195 0.24319998919963837
0.03346939757466316 0.046540264040231705 0.24379999935626984
0.034176554530858994 0.0466357097029686 0.2442999929189682
-0.037120893597602844 0.04620992764830589 0.23879998922348022
-0.036695435643196106 0.04646149277687073 0.24009999632835388
-0.03617304936051369 0.0465969480574131 0.24079999327659607
-0.0357060506939888 0.046809807419776917 0.2418999969959259
-0.03518979996442795 0.0469646155834198 0.24269999563694
-0.034783270210027695 0.04727422818541527 0.2442999929189682
-0.034382350742816925 0.047603193670511246 0.2459999918937683
-0.03391769528388977 0.04785475507378578 0.24729999899864197
-0.03343277797102928 0.04808696359395981 0.24849998950958252
-0.03280967101454735 0.04812566936016083 0.24869999289512634
-0.009573716670274734 0.04580356180667877 0.23669999837875366
-0.008966413326561451 0.045861613005399704 0.2369999885559082
-0.008346976712346077 0.045861613005399704 0.2369999885559082
-0.007727539166808128 0.045861613005399704 0.2369999885559082
-0.006502354051917791 0.045958369970321655 0.23749999701976776
-0.005881609860807657 0.045958369970321655 0.23749999701976776
-0.00526086613535881 0.045958369970321655 0.23749999701976776
-0.0046303533017635345 0.045861613005399704 0.2369999885559082
-0.004010916221886873 0.045861613005399704 0.2369999885559082
0.0003251440357416868 0.045861613005399704 0.2369999885559082
0.0009465740295127034 0.045958369970321655 0.23749999701976776
0.0015686379047110677 0.045997072011232376 0.23770000040531158
0.002197274938225746 0.04615187644958496 0.23849999904632568
0.0034584305249154568 0.046345386654138565 0.2395000010728836
0.00408951798453927 0.0464034378528595 0.23979999125003815
0.004732007160782814 0.04655824601650238 0.24059998989105225
0.005371994338929653 0.04665499925613403 0.2410999983549118
0.006009615492075682 0.046713050454854965 0.24139998853206635
0.02802259661257267 0.0465969480574131 0.24079999327659607
0.028651965782046318 0.0465969480574131 0.24079999327659607
0.029317816719412804 0.04665499925613403 0.2410999983549118
0.029985232278704643 0.046713050454854965 0.24139998853206635
0.03067958541214466 0.046809807419776917 0.2418999969959259
0.03135065734386444 0.04686785861849785 0.24219998717308044
0.03208933398127556 0.04702266678214073 0.24300000071525574
0.03279178589582443 0.047119420021772385 0.2434999942779541
0.03353803977370262 0.04727422818541527 0.2442999929189682
0.034218523651361465 0.0473322831094265 0.24459999799728394
-0.037198618054389954 0.04693213105201721 0.23929999768733978
-0.036726001650094986 0.04712825268507004 0.2402999997138977
-0.03621811419725418 0.04728515073657036 0.2410999983549118
-0.0357060506939888 0.04744204878807068 0.2418999969959259
-0.03523329645395279 0.04765778407454491 0.24300000071525574
-0.03482598438858986 0.04797158017754555 0.24459999799728394
-0.03441030532121658 0.04828537628054619 0.24619999527931213
-0.03391769528388977 0.048501111567020416 0.24729999899864197
-0.033392418175935745 0.04867762327194214 0.24819999933242798
-0.03280967101454735 0.04877568036317825 0.24869999289512634
-0.008985329419374466 0.046579111367464066 0.23749999701976776
-0.008371630683541298 0.04661833494901657 0.23770000040531158
-0.007750363554805517 0.04661833494901657 0.23770000040531158
-0.0071290964260697365 0.04661833494901657 0.23770000040531158
-0.006507829762995243 0.04661833494901657 0.23770000040531158
-0.00588656309992075 0.04661833494901657 0.23770000040531158
-0.005265296436846256 0.04661833494901657 0.23770000040531158
-0.0046440293081104755 0.04661833494901657 0.23770000040531158
-0.0040193782187998295 0.046579111367464066 0.23749999701976776
0.0003251440357416868 0.046481046825647354 0.2369999885559082
0.00094458123203367 0.046481046825647354 0.2369999885559082
0.001564018428325653 0.046481046825647354 0.2369999885559082
0.0021899044513702393 0.04661833494901657 0.23770000040531158
0.004084402229636908 0.04697135463356972 0.2395000010728836
0.004722173325717449 0.04708902910351753 0.24009999632835388
0.005365310236811638 0.04722631350159645 0.24079999327659607
0.0060021476820111275 0.04728515073657036 0.2410999983549118
0.029354294762015343 0.047343987971544266 0.24139998853206635
0.030010074377059937 0.04738321155309677 0.24159999191761017
0.032115742564201355 0.04769700765609741 0.24319998919963837
0.03283218666911125 0.04781468212604523 0.24379999935626984
0.03357922285795212 0.04797158017754555 0.24459999799728394
0.034288469702005386 0.04806964099407196 0.2450999915599823
-0.03722970932722092 0.04759733006358147 0.2395000010728836
-0.036771852523088455 0.04781593754887581 0.24059998989105225
-0.036263179033994675 0.047974925488233566 0.24139998853206635
-0.03575032949447632 0.048133913427591324 0.24219998717308044
-0.03526229411363602 0.04833265021443367 0.24319998919963837
-0.03489717096090317 0.04871024936437607 0.2450999915599823
-0.03445223718881607 0.04898848384618759 0.24650000035762787
-0.03391769528388977 0.04914747178554535 0.24729999899864197
-0.0096060736104846 0.047199856489896774 0.23749999701976776
-0.008992896415293217 0.047239601612091064 0.23770000040531158
-0.008371630683541298 0.047239601612091064 0.23770000040531158
-0.007760144770145416 0.04729922115802765 0.23799999058246613
-0.007138093933463097 0.04729922115802765 0.23799999058246613
-0.00652973260730505 0.04739859327673912 0.23849999904632568
-0.005906374659389257 0.04739859327673912 0.23849999904632568
-0.005271941423416138 0.04729922115802765 0.23799999058246613
0.00032473247847519815 0.04704086482524872 0.23669999837875366
0.00094458123203367 0.0471004843711853 0.2369999885559082
0.001564018428325653 0.0471004843711853 0.2369999885559082
0.0021880618296563625 0.047199856489896774 0.23749999701976776
0.0028111713472753763 0.047239601612091064 0.23770000040531158
0.0034439901355654 0.04739859327673912 0.23849999904632568
0.004080991260707378 0.04755758121609688 0.23929999768733978
0.004710373003035784 0.04759733006358147 0.2395000010728836
0.0053541697561740875 0.047756318002939224 0.2402999997138977
0.005994678940623999 0.0478556826710701 0.24079999327659607
0.006632301025092602 0.04791530594229698 0.2410999983549118
0.0072714900597929955 0.047974925488233566 0.24139998853206635
0.026686057448387146 0.047716569155454636 0.24009999632835388
0.027336349710822105 0.047756318002939224 0.2402999997138977
0.02868766151368618 0.04791530594229698 0.2410999983549118
0.029354294762015343 0.047974925488233566 0.24139998853206635
0.0300473403185606 0.04807429388165474 0.2418999969959259
0.030717631801962852 0.048133913427591324 0.24219998717308044
0.03141538053750992 0.0482332818210125 0.24269999563694
0.0321553573012352 0.04839227348566055 0.2434999942779541
0.03289952129125595 0.04855126142501831 0.2442999929189682
-0.03722970932722092 0.04822330176830292 0.2395000010728836
-0.036771852523088455 0.04844478517770767 0.24059998989105225
-0.036263179033994675 0.04860586300492287 0.24139998853206635
-0.03575032949447632 0.04876694455742836 0.24219998717308044
-0.03526229411363602 0.04896829277276993 0.24319998919963837
-0.03482598438858986 0.04925018548965454 0.24459999799728394
-0.03445223718881607 0.04963275045156479 0.24650000035762787
-0.03391769528388977 0.049793828278779984 0.24729999899864197
-0.01081102341413498 0.04765952005982399 0.23669999837875366
-0.010226817801594734 0.04782060161232948 0.23749999701976776
-0.0096060736104846 0.04782060161232948 0.23749999701976776
-0.008992896415293217 0.047860872000455856 0.23770000040531158
-0.008382195606827736 0.04792127385735512 0.23799999058246613
-0.0077764480374753475 0.04802194982767105 0.23849999904632568
-0.007153090089559555 0.04802194982767105 0.23849999904632568
-0.006537945941090584 0.04808235540986061 0.23879998922348022
-0.005913803819566965 0.04808235540986061 0.23879998922348022
-0.005289662163704634 0.04808235540986061 0.23879998922348022
0.0015673179877921939 0.04782060161232948 0.23749999701976776
0.0021880618296563625 0.04782060161232948 0.23749999701976776
0.0028111713472753763 0.047860872000455856 0.23770000040531158
0.0034367700573056936 0.04792127385735512 0.23799999058246613
0.00534302880987525 0.04828370362520218 0.23979999125003815
0.005989699624478817 0.04844478517770767 0.24059998989105225
0.006624048110097647 0.048485055565834045 0.24079999327659607
0.007262453902512789 0.048545461148023605 0.2410999983549118
0.008533365093171597 0.04860586300492287 0.24139998853206635
0.01362587045878172 0.04876694455742836 0.24219998717308044
0.026686057448387146 0.04834410920739174 0.24009999632835388
0.027336349710822105 0.04838437959551811 0.2402999997138977
0.02868766151368618 0.048545461148023605 0.2410999983549118
0.029354294762015343 0.04860586300492287 0.24139998853206635
0.0300473403185606 0.0487065389752388 0.2418999969959259
0.030717631801962852 0.04876694455742836 0.24219998717308044
0.031454212963581085 0.04892802610993385 0.24300000071525574
0.0321553573012352 0.04902869835495949 0.2434999942779541
0.03293992206454277 0.04925018548965454 0.24459999799728394
-0.03722970932722092 0.04884926974773407 0.2395000010728836
-0.036771852523088455 0.04907362908124924 0.24059998989105225
-0.036263179033994675 0.04923679679632187 0.24139998853206635
-0.03575032949447632 0.0493999682366848 0.24219998717308044
-0.03526229411363602 0.04960393160581589 0.24319998919963837
-0.03482598438858986 0.04988948255777359 0.24459999799728394
-0.03445223718881607 0.05027701333165169 0.24650000035762787
-0.03391769528388977 0.05044018477201462 0.24729999899864197
-0.010824725031852722 0.0483393594622612 0.2369999885559082
-0.010226817801594734 0.04844134300947189 0.23749999701976776
-0.00961416307836771 0.04848213493824005 0.23770000040531158
-0.00902316253632307 0.04864530637860298 0.23849999904632568
-0.008410370908677578 0.04870649427175522 0.23879998922348022
-0.007786229252815247 0.04870649427175522 0.23879998922348022
-0.007177083753049374 0.04880847781896591 0.23929999768733978
-0.006551634985953569 0.04880847781896591 0.23929999768733978
-0.005926186218857765 0.04880847781896591 0.23929999768733978
-0.005300737917423248 0.04880847781896591 0.23929999768733978
0.0015673179877921939 0.04844134300947189 0.23749999701976776
0.0021880618296563625 0.04844134300947189 0.23749999701976776
0.0028111713472753763 0.04848213493824005 0.23770000040531158
0.0034367700573056936 0.04854332283139229 0.23799999058246613
0.005336344707757235 0.04884926974773407 0.2395000010728836
0.005977252498269081 0.048971645534038544 0.24009999632835388
0.006618546321988106 0.04907362908124924 0.24059998989105225
0.0072534168139100075 0.049114421010017395 0.24079999327659607
0.00789260771125555 0.04917561262845993 0.2410999983549118
0.008522761054337025 0.04917561262845993 0.2410999983549118
0.027336349710822105 0.049012441188097 0.2402999997138977
0.028057510033249855 0.04917561262845993 0.2410999983549118
0.028723357245326042 0.04923679679632187 0.24139998853206635
0.02937861531972885 0.049277592450380325 0.24159999191761017
0.03074299730360508 0.049440763890743256 0.24239999055862427
0.0314801000058651 0.04960393160581589 0.24319998919963837
-0.03819243609905243 0.049103401601314545 0.23770000040531158
-0.03769761696457863 0.04926866292953491 0.23849999904632568
-0.03722970932722092 0.04947524145245552 0.2395000010728836
-0.036771852523088455 0.0497024767100811 0.24059998989105225
-0.03575032949447632 0.050032999366521835 0.24219998717308044
-0.03523329645395279 0.0501982644200325 0.24300000071525574
-0.03482598438858986 0.050528787076473236 0.24459999799728394
-0.03441030532121658 0.05085930973291397 0.24619999527931213
-0.0338902622461319 0.05104522779583931 0.24709999561309814
-0.010847562924027443 0.0490620881319046 0.23749999701976776
-0.010235430672764778 0.049103401601314545 0.23770000040531158
-0.009626297280192375 0.04916537553071976 0.23799999058246613
-0.00903451256453991 0.049330636858940125 0.23879998922348022
-0.008410370908677578 0.049330636858940125 0.23879998922348022
-0.007802532520145178 0.04943392798304558 0.23929999768733978
-0.007183081936091185 0.04947524145245552 0.2395000010728836
-0.006565324030816555 0.04953721538186073 0.23979999125003815
-0.0053118132054805756 0.04953721538186073 0.23979999125003815
0.0015686379047110677 0.049103401601314545 0.23770000040531158
0.0021899044513702393 0.049103401601314545 0.23770000040531158
0.0028111713472753763 0.049103401601314545 0.23770000040531158
0.0034367700573056936 0.04916537553071976 0.23799999058246613
0.004067348316311836 0.04926866292953491 0.23849999904632568
0.0046966057270765305 0.049330636858940125 0.23879998922348022
0.0053318883292376995 0.04943392798304558 0.23929999768733978
0.00596978422254324 0.04953721538186073 0.23979999125003815
0.006604792550206184 0.049599189311265945 0.24009999632835388
0.007247392553836107 0.0497024767100811 0.24059998989105225
0.007882785983383656 0.04974379017949104 0.24079999327659607
0.008512156084179878 0.04974379017949104 0.24079999327659607
0.009795239195227623 0.04986773803830147 0.24139998853206635
0.013580863364040852 0.04986773803830147 0.24139998853206635
0.02536742575466633 0.04947524145245552 0.2395000010728836
0.026025958359241486 0.04953721538186073 0.23979999125003815
0.027370475232601166 0.0497024767100811 0.24059998989105225
0.028057510033249855 0.049805764108896255 0.2410999983549118
0.028723357245326042 0.04986773803830147 0.24139998853206635
0.030084602534770966 0.050032999366521835 0.24219998717308044
0.03078104741871357 0.05013628676533699 0.24269999563694
0.0314801000058651 0.050239574164152145 0.24319998919963837
-0.0381602980196476 0.04968283325433731 0.23749999701976776
-0.037198618054389954 0.050059374421834946 0.23929999768733978
-0.036726001650094986 0.050268568098545074 0.2402999997138977
-0.0357060506939888 0.050603270530700684 0.2418999969959259
-0.03518979996442795 0.05077062547206879 0.24269999563694
-0.03471207991242409 0.05100073665380478 0.24379999935626984
-0.034382350742816925 0.051460955291986465 0.2459999918937683
-0.0338902622461319 0.05169106274843216 0.24709999561309814
-0.012063599191606045 0.0495782345533371 0.2369999885559082
-0.011444161646068096 0.0495782345533371 0.2369999885559082
-0.010856697335839272 0.04972467198967934 0.23770000040531158
-0.010235430672764778 0.04972467198967934 0.23770000040531158
-0.00964652094990015 0.04989202320575714 0.23849999904632568
-0.00903451256453991 0.04995477944612503 0.23879998922348022
-0.008435024879872799 0.05010121315717697 0.2395000010728836
-0.007809053640812635 0.05010121315717697 0.2395000010728836
-0.007192079443484545 0.05016396939754486 0.23979999125003815
-0.006573537830263376 0.05022672936320305 0.24009999632835388
0.002197274938225746 0.04989202320575714 0.23849999904632568
0.002814719220623374 0.04978742450475693 0.23799999058246613
0.0034439901355654 0.04989202320575714 0.23849999904632568
0.004067348316311836 0.04989202320575714 0.23849999904632568
0.0046966057270765305 0.04995477944612503 0.23879998922348022
0.006596539635211229 0.05016396939754486 0.23979999125003815
0.007232331670820713 0.05022672936320305 0.24009999632835388
0.007876238785684109 0.050331324338912964 0.24059998989105225
0.008512156084179878 0.05037316307425499 0.24079999327659607
0.009141524322330952 0.05037316307425499 0.24079999327659607
0.0097708934918046 0.05037316307425499 0.24079999327659607
0.02674162946641445 0.050331324338912964 0.24059998989105225
0.027393227443099022 0.05037316307425499 0.24079999327659607
0.02809241972863674 0.05049867555499077 0.24139998853206635
0.029451575130224228 0.05066602677106857 0.24219998717308044
0.030109446495771408 0.0507078655064106 0.24239999055862427
0.03081909567117691 0.050833381712436676 0.24300000071525574
0.031518932431936264 0.05093797668814659 0.2434999942779541
-0.0381602980196476 0.05030357465147972 0.23749999701976776
-0.03761858493089676 0.0504094734787941 0.23799999058246613
-0.037120893597602844 0.05057891830801964 0.23879998922348022
-0.036695435643196106 0.050854265689849854 0.24009999632835388
-0.03566176816821098 0.05117196962237358 0.24159999191761017
-0.03514629974961281 0.05134141445159912 0.24239999055862427
-0.03471207991242409 0.05163794383406639 0.24379999935626984
-0.03429849445819855 0.05197682976722717 0.24539999663829803
-0.03376682475209236 0.05214627459645271 0.24619999527931213
-0.0325985886156559 0.05233689770102501 0.24709999561309814
-0.012063599191606045 0.05019766837358475 0.2369999885559082
-0.011468306183815002 0.05030357465147972 0.23749999701976776
-0.010856697335839272 0.05034593492746353 0.23770000040531158
-0.010248348116874695 0.0504094734787941 0.23799999058246613
-0.00965865422040224 0.05057891830801964 0.23879998922348022
-0.009053429588675499 0.05068482086062431 0.23929999768733978
-0.008435024879872799 0.05072718486189842 0.2395000010728836
-0.007818834856152534 0.05079072341322899 0.23979999125003815
-0.007207075599581003 0.050896625965833664 0.2402999997138977
-0.006579013541340828 0.050896625965833664 0.2402999997138977
0.002824180293828249 0.05057891830801964 0.23879998922348022
0.0034439901355654 0.05051537975668907 0.23849999904632568
0.004067348316311836 0.05051537975668907 0.23849999904632568
0.004690705332905054 0.05051537975668907 0.23849999904632568
0.007850049994885921 0.05079072341322899 0.23979999125003815
0.008487410843372345 0.050854265689849854 0.24009999632835388
0.009122543036937714 0.050896625965833664 0.2402999997138977
0.0097627779468894 0.05096016451716423 0.24059998989105225
0.010400262661278248 0.05100252851843834 0.24079999327659607
0.011029631830751896 0.05100252851843834 0.24079999327659607
0.01356398593634367 0.051066070795059204 0.2410999983549118
0.024115486070513725 0.05072718486189842 0.2395000010728836
0.02477244660258293 0.05079072341322899 0.23979999125003815
0.026112783700227737 0.05096016451716423 0.24059998989105225
0.026763858273625374 0.05100252851843834 0.24079999327659607
0.02742735669016838 0.051066070795059204 0.2410999983549118
0.029451575130224228 0.05129905417561531 0.24219998717308044
0.030146710574626923 0.051404956728219986 0.24269999563694
0.03084445931017399 0.05151085928082466 0.24319998919963837
0.03155776485800743 0.05163794383406639 0.24379999935626984
-0.03807995840907097 0.050817109644412994 0.2369999885559082
-0.03757116571068764 0.050967201590538025 0.23770000040531158
-0.0370742604136467 0.051138736307621 0.23849999904632568
-0.03664958477020264 0.051417481154203415 0.23979999125003815
-0.03617304936051369 0.05163189768791199 0.24079999327659607
-0.03566176816821098 0.051803432404994965 0.24159999191761017
-0.03511730208992958 0.05193208158016205 0.24219998717308044
-0.03462665155529976 0.05214650183916092 0.24319998919963837
-0.03425656259059906 0.052553895860910416 0.2450999915599823
-0.033739395439624786 0.05274687334895134 0.2459999918937683
-0.03251943737268448 0.052854083478450775 0.24650000035762787
-0.011468306183815002 0.05092431977391243 0.23749999701976776
-0.010870398953557014 0.05103152617812157 0.23799999058246613
-0.010269878432154655 0.051138736307621 0.23849999904632568
-0.009678877890110016 0.05131027102470398 0.23929999768733978
-0.009060995653271675 0.05135315656661987 0.2395000010728836
-0.008445590734481812 0.051417481154203415 0.23979999125003815
-0.007835137657821178 0.05152469128370285 0.2402999997138977
-0.007207075599581003 0.05152469128370285 0.2402999997138977
-0.006587226875126362 0.051589012145996094 0.24059998989105225
0.0028324590530246496 0.05135315656661987 0.2395000010728836
0.0034555422607809305 0.05131027102470398 0.23929999768733978
0.004072464071214199 0.051203060895204544 0.23879998922348022
0.0046966057270765305 0.051203060895204544 0.23879998922348022
0.005320747382938862 0.051203060895204544 0.23879998922348022
0.005944889038801193 0.051203060895204544 0.23879998922348022
0.007833682931959629 0.05131027102470398 0.23929999768733978
0.009103560820221901 0.051417481154203415 0.23979999125003815
0.009742490015923977 0.05148180574178696 0.24009999632835388
0.010378668084740639 0.05152469128370285 0.2402999997138977
0.011020471341907978 0.051589012145996094 0.24059998989105225
0.01165900006890297 0.05163189768791199 0.24079999327659607
0.012288369238376617 0.05163189768791199 0.24079999327659607
0.01291773933917284 0.05163189768791199 0.24079999327659607
0.013547108508646488 0.05163189768791199 0.24079999327659607
0.022863542661070824 0.05135315656661987 0.2395000010728836
0.023518934845924377 0.051417481154203415 0.23979999125003815
0.024175899103283882 0.05148180574178696 0.24009999632835388
0.025483936071395874 0.051589012145996094 0.24059998989105225
0.026134489104151726 0.05163189768791199 0.24079999327659607
0.026797201484441757 0.05169622600078583 0.2410999983549118
0.02746148407459259 0.05176054686307907 0.24139998853206635
0.028150606900453568 0.051867760717868805 0.2418999969959259
0.02881854586303234 0.05193208158016205 0.24219998717308044
0.029475895687937737 0.05197496712207794 0.24239999055862427
0.030183974653482437 0.052103620022535324 0.24300000071525574
-0.03803176060318947 0.051371440291404724 0.23669999837875366
-0.03757116571068764 0.05158847197890282 0.23770000040531158
-0.0370742604136467 0.05176209658384323 0.23849999904632568
-0.03664958477020264 0.05204423516988754 0.23979999125003815
-0.03617304936051369 0.052261266857385635 0.24079999327659607
-0.03563224524259567 0.05239148810505867 0.24139998853206635
-0.03511730208992958 0.052565112709999084 0.24219998717308044
-0.034598175436258316 0.0527387410402298 0.24300000071525574
-0.03418667986989021 0.053085990250110626 0.24459999799728394
-0.03365710377693176 0.05325961485505104 0.24539999663829803
-0.013285635970532894 0.051371440291404724 0.23669999837875366
-0.012683036737143993 0.05143654718995094 0.2369999885559082
-0.012089050374925137 0.05154506489634514 0.23749999701976776
-0.01147796306759119 0.05158847197890282 0.23770000040531158
-0.010893236845731735 0.05176209658384323 0.23849999904632568
-0.009678877890110016 0.051935721188783646 0.23929999768733978
-0.009072345681488514 0.05204423516988754 0.23979999125003815
-0.008463200181722641 0.05215275287628174 0.2402999997138977
-0.007844919338822365 0.05221785977482796 0.24059998989105225
0.004084402229636908 0.051979128271341324 0.2395000010728836
0.004706439562141895 0.051935721188783646 0.23929999768733978
0.0053318883292376995 0.051935721188783646 0.23929999768733978
0.005944889038801193 0.05182720348238945 0.23879998922348022
0.009092172607779503 0.051979128271341324 0.2395000010728836
0.010370029136538506 0.05210934579372406 0.24009999632835388
0.011006730608642101 0.05215275287628174 0.2402999997138977
0.01163479220122099 0.05215275287628174 0.2402999997138977
0.012278162874281406 0.05221785977482796 0.24059998989105225
0.01291773933917284 0.052261266857385635 0.24079999327659607
0.013547108508646488 0.052261266857385635 0.24079999327659607
0.01480584591627121 0.052261266857385635 0.24079999327659607
0.02229328081011772 0.05210934579372406 0.24009999632835388
0.022920818999409676 0.05210934579372406 0.24009999632835388
0.02354835905134678 0.05210934579372406 0.24009999632835388
0.02487575076520443 0.052261266857385635 0.24079999327659607
0.02553689479827881 0.05232637748122215 0.2410999983549118
0.02619960904121399 0.05239148810505867 0.24139998853206635
0.02683054469525814 0.05239148810505867 0.24139998853206635
0.028185518458485603 0.052565112709999084 0.24219998717308044
0.028842343017458916 0.05260851979255676 0.24239999055862427
0.029548857361078262 0.0527387410402298 0.24300000071525574
0.03020881675183773 0.05278214439749718 0.24319998919963837
-0.03803176060318947 0.0519900880753994 0.23669999837875366
-0.03753955289721489 0.05216580629348755 0.23749999701976776
-0.03660373389720917 0.052605096250772476 0.2395000010728836
-0.03617304936051369 0.05289063602685928 0.24079999327659607
-0.03563224524259567 0.05302242189645767 0.24139998853206635
-0.03507380560040474 0.05313224717974663 0.2418999969959259
-0.034598175436258316 0.05337385833263397 0.24300000071525574
-0.03418667986989021 0.053725287318229675 0.24459999799728394
-0.03365710377693176 0.053901005536317825 0.24539999663829803
-0.03309643268585205 0.054032791405916214 0.2459999918937683
-0.013302473351359367 0.05205598101019859 0.2369999885559082
-0.01270979456603527 0.05216580629348755 0.23749999701976776
-0.012099230661988258 0.05220973491668701 0.23770000040531158
-0.011516593396663666 0.05238545313477516 0.23849999904632568
-0.010906938463449478 0.05245134234428406 0.23879998922348022
-0.010312939062714577 0.052605096250772476 0.2395000010728836
-0.009699100628495216 0.05267098918557167 0.23979999125003815
-0.009091261774301529 0.052780814468860626 0.2402999997138977
-0.008473766036331654 0.05284670367836952 0.24059998989105225
-0.007851440459489822 0.05289063602685928 0.24079999327659607
0.005336344707757235 0.052605096250772476 0.2395000010728836
0.005962315946817398 0.052605096250772476 0.2395000010728836
0.006582785397768021 0.05256116762757301 0.23929999768733978
0.0072082336992025375 0.05256116762757301 0.23929999768733978
0.009730316698551178 0.05267098918557167 0.23979999125003815
0.01035707164555788 0.05267098918557167 0.23979999125003815
0.01163479220122099 0.052780814468860626 0.2402999997138977
0.012262853793799877 0.052780814468860626 0.2402999997138977
0.012907009571790695 0.05284670367836952 0.24059998989105225
0.013535856269299984 0.05284670367836952 0.24059998989105225
0.014176476746797562 0.05289063602685928 0.24079999327659607
0.01480584591627121 0.05289063602685928 0.24079999327659607
0.015435214154422283 0.05289063602685928 0.24079999327659607
0.016064584255218506 0.05289063602685928 0.24079999327659607
0.01795269176363945 0.05289063602685928 0.24079999327659607
0.01858205907046795 0.05289063602685928 0.24079999327659607
0.01982431858778 0.05284670367836952 0.24059998989105225
0.020453164353966713 0.05284670367836952 0.24059998989105225
0.02105572633445263 0.052780814468860626 0.2402999997138977
0.021683787927031517 0.052780814468860626 0.2402999997138977
0.022311851382255554 0.052780814468860626 0.2402999997138977
0.023617012426257133 0.05289063602685928 0.24079999327659607
0.02424638345837593 0.05289063602685928 0.24079999327659607
0.024906743317842484 0.05295652896165848 0.2410999983549118
0.027552491053938866 0.053198136389255524 0.24219998717308044
0.02824370563030243 0.05330796167254448 0.24269999563694
0.02891373634338379 0.05337385833263397 0.24300000071525574
-0.038438137620687485 0.052319806069135666 0.23539999127388
-0.03803176060318947 0.05260874330997467 0.23669999837875366
-0.03753955289721489 0.05278655141592026 0.23749999701976776
-0.03664958477020264 0.0532977469265461 0.23979999125003815
-0.03617304936051369 0.05352000519633293 0.24079999327659607
-0.03563224524259567 0.05365335941314697 0.24139998853206635
-0.03511730208992958 0.05383116751909256 0.24219998717308044
-0.034598175436258316 0.05400897562503815 0.24300000071525574
-0.032374318689107895 0.05454239621758461 0.24539999663829803
-0.013330538757145405 0.05278655141592026 0.23749999701976776
-0.012720497325062752 0.052831001579761505 0.23770000040531158
-0.012139951810240746 0.05300880968570709 0.23849999904632568
-0.011531079187989235 0.053075484931468964 0.23879998922348022
-0.010938910767436028 0.053231071680784225 0.2395000010728836
-0.010325856506824493 0.0532977469265461 0.23979999125003815
-0.009719324298202991 0.053408876061439514 0.2402999997138977
-0.009102611802518368 0.053475551307201385 0.24059998989105225
0.0053497133776545525 0.05336442589759827 0.24009999632835388
0.00596978422254324 0.0532977469265461 0.23979999125003815
0.006588287185877562 0.053231071680784225 0.2395000010728836
0.007214258424937725 0.053231071680784225 0.2395000010728836
0.007840230129659176 0.053231071680784225 0.2395000010728836
0.008466201834380627 0.053231071680784225 0.2395000010728836
0.010997569188475609 0.05336442589759827 0.24009999632835388
0.01163479220122099 0.053408876061439514 0.2402999997138977
0.014176476746797562 0.05352000519633293 0.24079999327659607
0.01480584591627121 0.05352000519633293 0.24079999327659607
0.015435214154422283 0.05352000519633293 0.24079999327659607
0.016064584255218506 0.05352000519633293 0.24079999327659607
0.016693953424692154 0.05352000519633293 0.24079999327659607
0.01734490506350994 0.0535866841673851 0.2410999983549118
0.01795269176363945 0.05352000519633293 0.24079999327659607
0.01858205907046795 0.05352000519633293 0.24079999327659607
0.019211430102586746 0.05352000519633293 0.24079999327659607
0.019840799272060394 0.05352000519633293 0.24079999327659607
0.020470166578888893 0.05352000519633293 0.24079999327659607
0.02109953761100769 0.05352000519633293 0.24079999327659607
0.022358275949954987 0.05352000519633293 0.24079999327659607
0.02301628328859806 0.0535866841673851 0.2410999983549118
0.023646436631679535 0.0535866841673851 0.2410999983549118
0.024306796491146088 0.05365335941314697 0.24139998853206635
0.024937734007835388 0.05365335941314697 0.24139998853206635
0.02691946178674698 0.05383116751909256 0.24219998717308044
0.02760937064886093 0.05394229665398598 0.24269999563694
0.028301890939474106 0.054053425788879395 0.24319998919963837
0.028973229229450226 0.054120104759931564 0.2434999942779541
-0.038438137620687485 0.05293506011366844 0.23539999127388
-0.03803176060318947 0.05322739854454994 0.23669999837875366
-0.03757116571068764 0.0534522719681263 0.23770000040531158
-0.03664958477020264 0.053924500942230225 0.23979999125003815
-0.03617304936051369 0.05414937436580658 0.24079999327659607
-0.03563224524259567 0.05428429692983627 0.24139998853206635
-0.03511730208992958 0.0544641949236393 0.24219998717308044
-0.034598175436258316 0.05464409664273262 0.24300000071525574
-0.014572026208043098 0.053407296538352966 0.23749999701976776
-0.013963031582534313 0.0534522719681263 0.23770000040531158
-0.013358602300286293 0.053519729524850845 0.23799999058246613
-0.01276330929249525 0.05363216996192932 0.23849999904632568
-0.012180672027170658 0.053812067955732346 0.23929999768733978
-0.010966314934194088 0.05399196594953537 0.24009999632835388
-0.010347386822104454 0.0540369413793087 0.2402999997138977
-0.009739547967910767 0.05414937436580658 0.24079999327659607
-0.009110178798437119 0.05414937436580658 0.24079999327659607
0.006604792550206184 0.05399196594953537 0.24009999632835388
0.007232331670820713 0.05399196594953537 0.24009999632835388
0.007859871722757816 0.05399196594953537 0.24009999632835388
0.008487410843372345 0.05399196594953537 0.24009999632835388
0.01163479220122099 0.0540369413793087 0.2402999997138977
0.012278162874281406 0.05410439893603325 0.24059998989105225
0.012907009571790695 0.05410439893603325 0.24059998989105225
0.016714751720428467 0.054216839373111725 0.2410999983549118
0.01734490506350994 0.054216839373111725 0.2410999983549118
0.017975058406591415 0.054216839373111725 0.2410999983549118
0.01860520988702774 0.054216839373111725 0.2410999983549118
0.019259298220276833 0.05428429692983627 0.24139998853206635
0.021125825121998787 0.054216839373111725 0.2410999983549118
0.021783046424388885 0.05428429692983627 0.24139998853206635
0.022413985803723335 0.05428429692983627 0.24139998853206635
0.023044921457767487 0.05428429692983627 0.24139998853206635
0.02372489869594574 0.05439673736691475 0.2418999969959259
0.025674588978290558 0.05450917035341263 0.24239999055862427
0.026373261585831642 0.05464409664273262 0.24300000071525574
0.02703060768544674 0.05468906834721565 0.24319998919963837
0.027700377628207207 0.0547565333545208 0.2434999942779541
-0.03902021050453186 0.0535048171877861 0.23519998788833618
-0.038438137620687485 0.05355031415820122 0.23539999127388
-0.03803176060318947 0.053846050053834915 0.23669999837875366
-0.03757116571068764 0.05407353490591049 0.23770000040531158
-0.03664958477020264 0.05455125495791435 0.23979999125003815
-0.03617304936051369 0.05477874353528023 0.24079999327659607
-0.03563224524259567 0.054915234446525574 0.24139998853206635
-0.03511730208992958 0.055097222328186035 0.24219998717308044
-0.03462665155529976 0.05532470718026161 0.24319998919963837
-0.034144751727581024 0.055574946105480194 0.2442999929189682
-0.014010025188326836 0.05425552278757095 0.23849999904632568
-0.013431569561362267 0.05443751439452171 0.23929999768733978
-0.01281682401895523 0.05448301136493683 0.2395000010728836
-0.012221393175423145 0.054619502276182175 0.24009999632835388
-0.011603510938584805 0.05466499924659729 0.2402999997138977
-0.010998286306858063 0.05477874353528023 0.24079999327659607
-0.010368917137384415 0.05477874353528023 0.24079999327659607
0.007866418920457363 0.05466499924659729 0.2402999997138977
0.008494481444358826 0.05466499924659729 0.2402999997138977
0.009133931249380112 0.054733242839574814 0.24059998989105225
0.0097627779468894 0.054733242839574814 0.24059998989105225
0.011020471341907978 0.054733242839574814 0.24059998989105225
0.013547108508646488 0.05477874353528023 0.24079999327659607
0.01419413834810257 0.05484699085354805 0.2410999983549118
0.014824291691184044 0.05484699085354805 0.2410999983549118
0.015454445034265518 0.05484699085354805 0.2410999983549118
0.01673554815351963 0.054915234446525574 0.24139998853206635
0.018012335523962975 0.05496073141694069 0.24159999191761017
0.01864379458129406 0.05496073141694069 0.24159999191761017
0.019275255501270294 0.05496073141694069 0.24159999191761017
0.01990671455860138 0.05496073141694069 0.24159999191761017
0.020538173615932465 0.05496073141694069 0.24159999191761017
0.0211696345359087 0.05496073141694069 0.24159999191761017
0.022460410371422768 0.05502897873520851 0.2418999969959259
0.025103021413087845 0.055279213935136795 0.24300000071525574
0.025791099295020103 0.055392954498529434 0.2434999942779541
0.026460086926817894 0.055461201816797256 0.24379999935626984
-0.03897044062614441 0.05405052378773689 0.23489999771118164
-0.038438137620687485 0.05416557192802429 0.23539999127388
-0.03803176060318947 0.05446470156311989 0.23669999837875366
-0.03753955289721489 0.054648783057928085 0.23749999701976776
-0.03664958477020264 0.05517801269888878 0.23979999125003815
-0.03566176816821098 0.055592190474271774 0.24159999191761017
-0.03514629974961281 0.05577627196907997 0.24239999055862427
-0.03466936573386192 0.05602938309311867 0.2434999942779541
-0.03418667986989021 0.056282494217157364 0.24459999799728394
-0.033547382801771164 0.056282494217157364 0.24459999799728394
-0.01582683064043522 0.054694801568984985 0.23770000040531158
-0.015256740152835846 0.05487888306379318 0.23849999904632568
-0.014651788398623466 0.05494791269302368 0.23879998922348022
-0.014068767428398132 0.05510898306965828 0.2395000010728836
-0.013476472347974777 0.05524704232811928 0.24009999632835388
-0.01285963598638773 0.055293064564466476 0.2402999997138977
-0.012257023714482784 0.055408112704753876 0.24079999327659607
-0.011627654545009136 0.055408112704753876 0.24079999327659607
-0.01101198885589838 0.055477142333984375 0.2410999983549118
-0.010381835512816906 0.055477142333984375 0.2410999983549118
0.009141524322330952 0.055408112704753876 0.24079999327659607
0.0097708934918046 0.055408112704753876 0.24079999327659607
0.010400262661278248 0.055408112704753876 0.24079999327659607
0.011029631830751896 0.055408112704753876 0.24079999327659607
0.016749413684010506 0.055592190474271774 0.24159999191761017
0.01866694539785385 0.05566122382879257 0.2418999969959259
0.01932312361896038 0.05573024973273277 0.24219998717308044
0.019956151023507118 0.05573024973273277 0.24219998717308044
0.024548456072807312 0.05609841272234917 0.24379999935626984
0.025237318128347397 0.056213460862636566 0.2442999929189682
0.02590760961174965 0.056282494217157364 0.24459999799728394
0.02660117670893669 0.05639754235744476 0.2450999915599823
-0.03897044062614441 0.05466447025537491 0.23489999771118164
-0.03803176060318947 0.05508335679769516 0.23669999837875366
-0.03757116571068764 0.05531607195734978 0.23770000040531158
-0.036695435643196106 0.05587458238005638 0.24009999632835388
-0.03566176816821098 0.05622365325689316 0.24159999191761017
-0.03514629974961281 0.05640982463955879 0.24239999055862427
-0.03466936573386192 0.0566658116877079 0.2434999942779541
-0.034144751727581024 0.05685197934508324 0.2442999929189682
-0.033547382801771164 0.05692179501056671 0.24459999799728394
-0.015275930054485798 0.05557205528020859 0.23879998922348022
-0.014694738201797009 0.05573495477437973 0.2395000010728836
-0.01410401239991188 0.05587458238005638 0.24009999632835388
-0.01350453682243824 0.05599093809723854 0.24059998989105225
-0.012886392883956432 0.056037481874227524 0.24079999327659607
-0.012272294610738754 0.056107297539711 0.2410999983549118
-0.011656627058982849 0.056177109479904175 0.24139998853206635
-0.011025690473616123 0.056177109479904175 0.24139998853206635
-0.010403364896774292 0.05622365325689316 0.24159999191761017
0.010413220152258873 0.056107297539711 0.2410999983549118
0.011043373495340347 0.056107297539711 0.2410999983549118
0.011673525907099247 0.056107297539711 0.2410999983549118
0.012303679250180721 0.056107297539711 0.2410999983549118
0.013580863364040852 0.056177109479904175 0.24139998853206635
0.018057066947221756 0.05636328086256981 0.24219998717308044
0.01870552822947502 0.05640982463955879 0.24239999055862427
0.023321766406297684 0.05685197934508324 0.2442999929189682
0.02403874509036541 0.05703815072774887 0.2450999915599823
0.024709561839699745 0.057107966393232346 0.24539999663829803
0.02535095252096653 0.057107966393232346 0.24539999663829803
-0.03897044062614441 0.05527842044830322 0.23489999771118164
-0.038438137620687485 0.05539608374238014 0.23539999127388
-0.03807995840907097 0.055772606283426285 0.2369999885559082
-0.03757116571068764 0.05593733862042427 0.23770000040531158
-0.037198618054389954 0.05631386116147041 0.23929999768733978
-0.036726001650094986 0.05654919147491455 0.2402999997138977
-0.03621811419725418 0.05673745274543762 0.2410999983549118
-0.0357060506939888 0.05692571401596069 0.2418999969959259
