ply
format ascii 1.0
element vertex 672
property float x
property float y
property float z
property uchar red
property uchar green
property uchar blue
end_header
0.023491356413045165 -0.016889458451055224 0.2470177765790774 244 208 63
-0.0019353227447372352 -0.01310077701712452 0.2459344135844073 244 208 63
0.013426121402298569 0.015336845461130021 0.24559140802274293 255 0 0
-0.002282816110294718 -0.009830337347577975 0.25743805957350147 0 0 255
0.0005523743567225113 0.03297831994944565 0.2547527410809765 0 255 0
0.003368945369830108 0.024941028517095197 0.24298268566986442 255 0 0
-0.037310829069330045 0.06224164606928738 0.2507746277996722 0 0 255
-0.004897958877964377 -0.011234276524170497 0.24672419207422897 244 208 63
-0.004659484431628067 -0.011265431936966377 0.2449507737144055 244 208 63
-0.018202776131393497 -0.0005104605431380284 0.24321485031394474 244 208 63
0.014506995934330117 0.05211951040872252 0.24356880270099945 255 0 0
0.03154733786711887 -0.0010531151127764222 0.2469380769482585 255 0 0
0.016604551190684512 0.0170443028948684 0.2534860359308721 0 255 0
-0.0039035827495767263 -0.0027660938929202177 0.24407035000211597 244 208 63
-0.014639287135672212 -0.0036454822127004113 0.24355075337194834 244 208 63
0.016542269392642698 0.010554482461708453 0.24643384984322445 255 0 0
0.01712886739542016 0.010867168328505148 0.2448352057561571 255 0 0
0.024228440987746257 0.02745985627235237 0.2435808910448821 255 0 0
0.03668364401593867 0.04140434604893852 0.2497648658443937 255 0 0
-0.007883618930363635 0.016585298445859185 0.24471922018524372 244 208 63
0.0017348771733493367 -0.0006593812600828013 0.24494953147904966 244 208 63
0.0051207348425170145 -0.0032260705054642513 0.2573987669906761 0 0 255
0.03403392314185121 0.031059853863914265 0.24393380408624307 255 0 0
0.02419468713496333 0.02470389460938454 0.24510301415283114 255 0 0
-0.005762216016198012 0.0026559061417405095 0.2443261870688568 244 208 63
0.02133267992020829 0.013050265463144967 0.24438027635707132 255 0 0
0.024729189173423576 0.022776372470247608 0.2487627270307614 255 0 0
0.001502219404925404 0.031374071527945406 0.24428655336371155 255 0 0
0.03181729552097461 0.013549707705313841 0.24491154502440018 255 0 0
0.0035444110472157824 -0.004768325512771795 0.25316668620255295 0 0 255
0.009781050046099502 0.051401483110021115 0.24127977420328547 255 0 0
-0.03381940548703399 0.0194508667187802 0.2431331491793064 244 208 63
0.024195795012849436 0.023333422037142816 0.24519392717383987 255 0 0
-0.0024208864828340858 0.0030223068140851203 0.24376642917088903 244 208 63
-0.035137224247948504 0.015025555458539591 0.24281908914346192 244 208 63
0.019364583306834944 0.016707481526355285 0.25046983562398345 255 0 0
-0.0015015174521495114 0.040215850972958225 0.24135022889540986 255 0 0
0.01927014881071212 0.008996554147863739 0.24518178230163373 255 0 0
0.0008062352119748567 -0.015590195426032816 0.25586144620763807 0 0 255
-0.0036046626249746656 -0.011359197125923424 0.24471985543905175 244 208 63
-0.019522460140842326 0.003500666080246186 0.2524392026645386 0 0 255
-0.0020539875292215053 -0.013183365099153266 0.24570357369284856 244 208 63
0.017989882966784883 0.029942814750609885 0.24951842042003508 255 0 0
-0.035397692146730206 0.05377311462132969 0.2386268669906748 244 208 63
0.019204967460716187 0.009816920724244088 0.24454384111453142 255 0 0
0.02411376072661432 0.027601091015424864 0.24571133827020467 255 0 0
-0.02310737630099314 0.06348748966472469 0.25145659694449246 0 255 0
0.018877370932317353 0.007974177646508998 0.24677310400513114 255 0 0
0.0242571906699499 0.024805524745212793 0.25178990292591635 0 255 0
-0.0034077261832803647 -0.012652175701080437 0.2499155358906667 244 208 63
0.01999670897148624 0.030177589491610868 0.24323668050250674 255 0 0
0.02226582432786764 0.02955366497091695 0.24333643912021044 255 0 0
-0.000703231145581339 -0.01441760981691381 0.24524496911043536 244 208 63
-0.041619479130099224 -0.0012445951571383 0.2451901191604671 244 208 63
0.010065886957479755 0.019502855460660343 0.24549201267099655 255 0 0
0.001077490580560852 0.026347594699037014 0.24348142138494927 255 0 0
-0.0003706915851321279 0.030775677289722653 0.25484907401259443 0 255 0
0.030153318933370893 0.011022434259182309 0.24570484524105785 255 0 0
-0.0004900663621668208 0.030498916417857742 0.2431218355257952 255 0 0
-0.0037987110105116417 -0.010828418035396501 0.24532580362923775 244 208 63
0.03750750154567801 0.03411698485738076 0.24600035134440282 255 0 0
0.026957798542239716 -0.01061625180571036 0.25481468936248614 0 255 0
-0.0055415676164747955 -0.0004183536151223591 0.24463128436491482 244 208 63
0.025581313454871236 -0.0030739381382372854 0.24567790632097725 255 0 0
0.0022471276654407405 -0.002831786298775134 0.24606309045332955 244 208 63
-0.020138260543714315 -0.011311058087846958 0.25657507747514935 0 0 255
0.020918959251322696 -0.01820732738065 0.25605523000562525 0 0 255
-0.01550564052476178 0.0034272864667999788 0.24303523987454762 244 208 63
0.019170282966698884 0.008903538087709172 0.2460409648281425 255 0 0
0.025820695563913545 -0.01801070588447677 0.2594931540410055 0 0 255
0.003062147027563895 -0.003043350578681196 0.24607318109763818 244 208 63
0.03399903944106321 0.044078245140084196 0.2462559947777865 255 0 0
0.0015295159045643544 -0.001448557454318205 0.24433921342943105 244 208 63
-0.013818833392107868 -0.004283522643355417 0.2437009638126223 244 208 63
-0.006702447132393662 0.008894362074714685 0.24475616842807438 244 208 63
-0.037907475222573025 0.05219817965433098 0.23966916699703422 244 208 63
0.016392989453109765 0.010350938537675545 0.24572397888199998 255 0 0
-0.03800326652285957 0.05319903104536631 0.2513368207924779 0 0 255
0.0025548519178238164 0.025833955185028516 0.25108468759755176 0 255 0
0.001145984598819141 -0.01562943045278082 0.24542484670423764 244 208 63
0.014756080394647942 0.016762840192478215 0.2470309947926553 255 0 0
-0.0020191200814909434 -0.013248744552612234 0.24494336530736377 244 208 63
0.01590802777272021 0.008844171803919079 0.24472477091016717 255 0 0
-0.0031384103650874216 -0.013000939471208254 0.24485379022319154 244 208 63
0.030419946687485364 0.011040246565664567 0.2578148395336358 0 255 0
-0.018047900624647534 -0.004830197740928436 0.24505530050823984 244 208 63
0.0036606611417192994 -0.00041492863712770927 0.2475725112292989 244 208 63
-0.041838611958684206 -0.001888816381793345 0.2425066722686994 244 208 63
0.012061865278435922 0.016222065586561828 0.2564831179992026 0 255 0
-0.02012760496481386 0.024255005245668287 0.24140570145736312 244 208 63
-0.0011737664691882938 0.03234981817689853 0.24296232979518584 255 0 0
0.02206666697573583 0.030308841923029392 0.2475888738024493 255 0 0
-0.029941588169816846 -0.010545589377994283 0.24318447487108846 244 208 63
0.013444459923839141 0.01857488384354913 0.24519890483861267 255 0 0
0.012867785342708465 -0.012695539908765022 0.24777738002389743 244 208 63
-0.005931017007402615 0.0024232161913759175 0.2543046137425807 0 0 255
0.00040444321433862757 -0.004080158076964716 0.24599885260698415 244 208 63
0.03704274820611541 0.03233746654353743 0.24502031288444856 255 0 0
0.003012418702728994 0.041653209760744075 0.24474877391309724 255 0 0
0.02812391299454673 0.012136658056659455 0.24487015733980033 255 0 0
0.020518494782919894 0.056415554695610326 0.2542737656286361 0 255 0
-0.019354199079737802 0.00356538449215304 0.24496490337748208 244 208 63
0.024558872017301062 0.022986126961110916 0.25192675638598405 255 0 0
-0.017701796108505835 2.47116978048436e-05 0.24350025374486767 244 208 63
0.0242287142755788 0.022875983209246952 0.24549427776963276 255 0 0
-0.00015390594631194306 -0.011909704480094858 0.24494210194021354 244 208 63
0.02313963288692939 0.05547187292268212 0.2449161185123829 255 0 0
-0.0357859958162996 0.054368447054379404 0.2407124815755218 244 208 63
-0.013719334492763142 0.008071237451956603 0.24443302281243753 244 208 63
-0.001395557955243364 0.004079471526600079 0.24428803082086362 244 208 63
-0.001562433588659498 -0.01710946883664971 0.2451472443015021 244 208 63
0.01381046113728738 0.02426012498842656 0.24376871302070552 255 0 0
-0.00935834803130798 0.016334733968701026 0.2430469563384119 244 208 63
-0.001000748773174449 0.006761092982766609 0.24520450808065222 244 208 63
0.012712973988068407 0.05404568243844285 0.2476365058730822 255 0 0
-0.009794413962492955 0.017063934023940883 0.2456895008660505 244 208 63
0.019114417649363665 0.03169346599411846 0.24308869475386702 255 0 0
0.019677983286254606 0.016239257828108866 0.25051774586742326 255 0 0
0.01828866659600005 0.009063822990091001 0.24666917815119416 255 0 0
0.029675418151310334 0.04990895396520835 0.2424496169809111 255 0 0
0.02028949589279943 0.010219920047191914 0.24486941868872653 255 0 0
0.01427155973122318 0.01854233200572811 0.24848049048862103 255 0 0
-0.018419959401100115 -0.0036632135229899814 0.2529734678434025 0 0 255
-0.008346786989556713 0.01860814537721303 0.24295069552081322 244 208 63
-0.02817184420464893 0.03524586154148085 0.24880674630267277 0 0 255
-0.011049381992743173 0.02066677683196741 0.24266874317852907 244 208 63
0.0015557434723577814 0.03225272838159767 0.24593096808293397 255 0 0
0.01942911336448217 0.008282501232547113 0.24523767628255785 255 0 0
0.02677738588940556 0.054222276574062304 0.24838187481875024 255 0 0
-0.018415073363724475 -0.0037886569716551986 0.24342074554714632 244 208 63
0.028511393954400624 0.0234000327390828 0.24515357046075903 255 0 0
-0.04266513647078561 0.0004654259269444849 0.24284260976831615 244 208 63
-0.029276085571723537 0.0634818905161546 0.23992225084358693 255 0 0
0.001617190452760763 0.032037767039757324 0.24467368828146446 255 0 0
0.010611768210633706 0.015607545714961509 0.24434897632119537 255 0 0
0.018429776429328863 0.011993338112446572 0.2475449337480161 255 0 0
0.03156093816708154 0.007004197931377357 0.24694116123604215 255 0 0
0.000595193711996447 -0.0018357278536201803 0.24431458648700752 244 208 63
-0.03559732212072098 0.06571493484465107 0.24298756799000104 255 0 0
0.003126205641781377 0.03288318116816227 0.24852339352270691 255 0 0
0.02718033575740477 0.0258148388890999 0.2524115248778976 0 255 0
-0.013261890566708685 -0.0039556888542576114 0.2522081439945364 0 0 255
-0.005301975488558467 -0.01179140434545244 0.2449510574744465 244 208 63
0.028964023955926448 0.00041915725851350387 0.24670141719061686 255 0 0
0.03162187256469019 0.006106394262502883 0.2472722058872963 255 0 0
-0.0026219764453845606 -0.010277229701722911 0.2467832604220047 244 208 63
-0.03751670103311492 -0.0039125673503355475 0.24340997828218286 244 208 63
-0.01734920211917154 0.057247007396040536 0.23936810628406346 255 0 0
-0.02139908446091377 0.018809297306379417 0.24277126532866738 244 208 63
0.03295705634400074 0.029506692518626625 0.24397880167023886 255 0 0
0.0012896569126481655 -0.0156850307971533 0.2460494034890899 244 208 63
0.025743087921089758 -0.0036069307195630744 0.254284630236625 0 255 0
-0.008366518171311938 0.01631309963417236 0.24363827950308486 244 208 63
-0.0025566383504576923 -0.013512628332455465 0.24916849847836373 244 208 63
0.013307332280143126 0.017756444385645775 0.2437000375667891 255 0 0
0.002489684960109455 0.024711441585983422 0.24456006344446427 255 0 0
0.030280404645739476 0.0016017443723609203 0.252058837269855 255 0 0
0.03742474380469256 0.03866212563605369 0.2436123482466902 255 0 0
0.012448672226396704 0.018118979102803745 0.25283696273020456 0 255 0
-0.03635892568917637 0.06610223710586106 0.24929509470784533 0 255 0
0.004669266373171844 -0.01630300139139289 0.2468598825104691 244 208 63
0.002101401510398943 0.02468158309190936 0.242573991676047 255 0 0
0.019944386279345937 0.0080431573718582 0.24485208033379494 255 0 0
-0.01059826419180519 0.01667844922071009 0.24456691772529113 244 208 63
-0.020032168596258903 -0.002202495145205364 0.24423778998112528 244 208 63
-0.03352014973905963 0.017001284682453273 0.24441651682846435 244 208 63
-0.012334854932520147 0.00565529960907602 0.2441312096915192 244 208 63
0.03671964149311147 0.031689595653731376 0.24611886152900145 255 0 0
-0.011174629906798302 -0.004573196361156466 0.24460350010160126 244 208 63
0.02682345255623497 -0.012610075313763203 0.24637695331106194 255 0 0
-0.0003329740875045364 -0.014662910642305866 0.2459709398530246 244 208 63
0.02487620981490464 0.02261004417844497 0.24400101896137869 255 0 0
0.0031796818347141825 0.024864830134939453 0.24369287826070204 255 0 0
-0.017671802873685458 -0.0009343581882346706 0.2442807773684891 244 208 63
-0.005838340209527863 0.0008098297291295794 0.2565412949539513 0 0 255
0.030487216591116112 0.010477297800562193 0.24590202056348523 255 0 0
-0.03604777498840547 0.06379948262638553 0.23792719080932315 244 208 63
-0.0019981553083302152 -0.013320445076803794 0.2462521624722696 244 208 63
0.017105096501152817 -0.017332717540798036 0.24941775333632202 244 208 63
0.019554795525532423 0.01104400452902296 0.2508555261474375 255 0 0
0.01248608501696339 -0.014943092435759888 0.24794833162142255 244 208 63
0.0026927497938004 -0.00018376965145310356 0.24496956304725284 244 208 63
0.033721420079944414 0.007396652732955478 0.24548569805477782 255 0 0
-0.00864316116093428 0.01781338063333064 0.2552630892748605 0 0 255
0.00371988979877721 0.025583637847402287 0.24260131325774545 255 0 0
0.02027777908003396 0.0562280747678934 0.2510861345586258 0 255 0
-0.0021297381523185475 -0.013112872030473009 0.24699774178831277 244 208 63
0.025337679325046977 0.007455333683134609 0.24927998817136113 255 0 0
-0.030632005479066672 -0.010215460768057079 0.24419841659525254 244 208 63
0.003628411352862005 0.00013775810386099183 0.24642926807101756 244 208 63
0.004080074775014826 -0.004140154247138141 0.2467796785707724 244 208 63
0.026453378756417026 0.05488580581287626 0.24402847955631438 255 0 0
-0.008231129665584449 0.051566478214840436 0.2423814901069256 255 0 0
0.003516294252391276 -0.017807997033965177 0.2582790877790141 0 0 255
0.020261579684349135 -0.018069314913042152 0.25601069446647695 0 0 255
-0.029435152189327872 0.018905409151257786 0.2445101779401902 244 208 63
-0.009138787082318259 0.007310379220358729 0.25168322057357606 0 0 255
-0.004180098623009101 0.005603058067060807 0.2529132202112825 0 0 255
0.01937035300653451 0.05453901717616016 0.25114926203455556 0 255 0
-0.019019718853569397 -0.009354048282655372 0.24422989107735832 244 208 63
-0.0014910948222090457 0.007053743710456078 0.24408571331895945 244 208 63
0.0005869186745308813 -0.017609633692359555 0.24854695083860634 244 208 63
0.02486662973270781 -0.0197680133866065 0.24674614367771686 244 208 63
0.003648020947349138 0.025336529066080478 0.24288207239370146 255 0 0
-0.025891910834527538 0.06250913072102338 0.2386231628785143 255 0 0
0.001224125446178977 -0.015604325366780313 0.24726679983552816 244 208 63
0.0015615545490345589 -0.011701457275168756 0.2449568902090868 244 208 63
-0.005014070847396376 -0.014045067505667991 0.24690427895296832 244 208 63
0.02058305971017144 0.007834166363748013 0.25112366809763176 255 0 0
0.018267713626360857 0.03008676622051172 0.24952383277833576 255 0 0
0.026615847323075044 -0.013533392062594681 0.24803647911534876 255 0 0
-0.003059818427351509 -0.012258107532817211 0.25245781580341353 0 0 255
0.0011085279210419309 0.03218216877669729 0.2535606167031453 0 255 0
-0.030162083431855325 0.06663663527542488 0.25086807993627985 0 255 0
0.029548496271122486 0.010426524819563241 0.24642711835915068 255 0 0
-0.036368137976023285 0.017977713545377864 0.2537597818661742 0 0 255
0.01621227952532746 0.007922369476088535 0.24551758705346127 255 0 0
-0.015619067217141586 0.003338460982281466 0.2430350227566525 244 208 63
-0.0009765080255624194 0.004661241994637926 0.24534501935288977 244 208 63
-0.016913473132794496 -0.005595308405523193 0.24516708767025272 244 208 63
0.02869024123438542 0.012118688704712055 0.24483808542426655 255 0 0
0.012718539937665306 -0.012680240499764761 0.24723183985398045 244 208 63
0.027202487387236445 0.025971767736218516 0.24491262383115503 255 0 0
-0.03655016061369674 0.013634618603314837 0.24176224295280427 244 208 63
0.029079573798287565 0.014424869824384748 0.2468521414431191 255 0 0
0.015747218826101063 0.02714163673087471 0.2447549407077347 255 0 0
-0.001975967474901868 -0.013348659550643634 0.24525887673609967 244 208 63
-0.021642681445122013 -0.013530944260870016 0.24490209959150883 244 208 63
0.025856632518672897 -0.003746766833543272 0.25217528055008154 255 0 0
-0.036607906284314484 0.0626168128898582 0.2380391908349305 244 208 63
0.007881870814674915 0.04735298580035532 0.2414459318545789 255 0 0
-0.0017611912460859143 0.0068594925402726235 0.2521102414688268 0 0 255
0.027748283098737593 -0.0004306919584705169 0.25524437213792694 0 255 0
-0.01310560385605679 -0.0039047663637051637 0.25433791543443834 0 0 255
0.019661863996148134 0.007759923649678952 0.24895427126954156 255 0 0
0.02834952880338554 -0.01223937489329499 0.2592466775325885 0 255 0
0.033960664701075706 0.043213773458221943 0.24306038695723697 255 0 0
0.005278403036709393 -0.004267248378853764 0.2542891752062158 0 0 255
0.0034048173910188415 0.03111414047601674 0.2422814651033224 255 0 0
-0.00031522758534754253 -0.01691868493668172 0.2548267822202343 0 0 255
0.014731479503344887 0.018922103450542904 0.24470866622478785 255 0 0
0.03009454094345232 0.011108946973279996 0.24701930050771945 255 0 0
0.001294655472396264 0.02580418724449866 0.24406563501295245 255 0 0
-0.008375457253495502 0.018643454307636177 0.24348331101762824 244 208 63
0.017321183519088276 0.015788667744921773 0.24451929469564027 255 0 0
0.024491914820441135 0.009395775138852924 0.2544176538323229 0 255 0
0.012878179869887374 0.01843579046030351 0.24485574377766203 255 0 0
-0.02036286675181415 0.05923692128836126 0.2401469565440126 255 0 0
0.019591996121489447 0.005297265792799913 0.24515821267790752 255 0 0
0.018206243401194488 0.02945499605405815 0.24318820440818126 255 0 0
0.010702881660097894 0.01748317070368554 0.24570269365721864 255 0 0
0.032210188804826706 0.00635234211439536 0.24547358066691002 255 0 0
-0.03672377161844444 0.06356107740452588 0.2411574581323472 244 208 63
0.0122588136544329 -0.012936463537905236 0.25045898463062904 244 208 63
-0.004059077342900799 0.005986787222935206 0.25459408230806363 0 0 255
0.029542875438835485 0.05220077905901027 0.24229054927102375 255 0 0
-0.042995261747462946 0.001808647712372772 0.2432722920042686 244 208 63
-0.01032927910498234 0.05426851600355556 0.2420894209436676 255 0 0
-0.012462076381597357 0.007816547663816866 0.2429718412817887 244 208 63
-0.01831066311551073 -0.011160547598376105 0.24603980940233824 244 208 63
-0.017923781314350344 -0.004967034809088333 0.24346156200103292 244 208 63
-0.028634588364608173 0.03653524819342714 0.24120666914589178 244 208 63
-0.0002523157339271269 -0.015022534487205582 0.25576683304691333 0 0 255
-0.019005910154908927 -0.003053841667633792 0.24652733062827667 244 208 63
0.010455389870358196 0.052843059630388996 0.24330274141438082 255 0 0
0.001635406288371227 0.03685858008562973 0.2431723064585405 255 0 0
-0.005893233761018751 0.0034118938853859235 0.2563658402114242 0 0 255
0.003907566504694956 -0.0030997371729778785 0.24670141972931262 244 208 63
0.026349465682222396 0.022102130716995252 0.2451232380312996 255 0 0
0.001146504774915057 0.034353915283958134 0.244027361184097 255 0 0
0.012103909368311256 -0.013149223679932731 0.24887120512188676 244 208 63
0.003332870953022751 -0.0023659422933647615 0.24449710320764942 244 208 63
-0.03541416417084039 0.043795492846226455 0.25209958328480325 0 0 255
-0.0029752540770840545 0.04341471169823677 0.24105883525454996 255 0 0
-0.001503485518065414 -0.014330029647273429 0.24927937721955395 244 208 63
-0.017698645465046264 -0.0001376136590346133 0.24315352178791336 244 208 63
0.03411011177667071 0.027820908083536825 0.24623486137295617 255 0 0
-0.017640863156246248 -0.001061880566003268 0.2446485593628054 244 208 63
0.030406956703139795 -0.0020249622717015787 0.24694111826936915 255 0 0
-0.028480369634817898 -0.010931488364347219 0.24436170537797347 244 208 63
0.03250168653515976 0.010347905902208165 0.2579727955820477 0 255 0
0.0021151733374031693 -0.0029070726117110092 0.24606097844901467 244 208 63
0.02375526871765387 0.029132892876489798 0.24563299262918034 255 0 0
-0.010903995421348829 -0.004833176201489639 0.24436704963832212 244 208 63
0.003826856205107556 0.03627661877811651 0.24196194450355546 255 0 0
-0.004200596840360124 0.005470861042423441 0.25207098743017103 0 0 255
-0.02111636766110612 0.028099241192891783 0.25390978119112484 0 0 255
0.012875116629741858 0.018419382277976862 0.24442746703033955 255 0 0
-0.03974535664734884 0.014965024755120796 0.25377771049996906 0 0 255
0.026791601574408803 -0.01017798479296746 0.24835999038697085 255 0 0
0.023799406036255428 0.00861062573748433 0.2512453272466261 255 0 0
0.013253599842793727 0.018395628607805588 0.2436983231943642 255 0 0
0.031671515607084436 0.00526182201874433 0.24625787615003716 255 0 0
0.0044622633854157 -0.01658704884722923 0.24975013432491355 244 208 63
-0.005554444046728568 0.002307858538763823 0.24795833400774694 244 208 63
-0.03601557124782158 0.051300356479373 0.2515696865597223 0 0 255
0.02590124944346763 -0.01947255366695857 0.2489282326872835 244 208 63
-0.005099576905658879 -0.0011777614476810548 0.24604665783919105 244 208 63
-0.0020212954024191165 -0.01328973909343835 0.24563574414153283 244 208 63
-0.03485182772394216 0.05088561581650109 0.23884767275426225 244 208 63
0.017438172812568098 0.03152880479037175 0.2493835815200513 255 0 0
0.031399748450653804 0.007836563882537556 0.24644810077415155 255 0 0
-0.019978364497656838 -0.012856641962174738 0.2453046492271994 244 208 63
-0.024683255161798097 0.06148486261996076 0.23976536967445958 255 0 0
-0.006255925690456101 0.006042214432968448 0.2455057752463736 244 208 63
0.00421782980819077 -0.00012433389869372785 0.24567362545218863 244 208 63
0.01040781788054233 0.016597843173083958 0.24427234758229227 255 0 0
-0.016687291022997194 -0.009959809068941953 0.24604759309093882 244 208 63
0.014252875713713574 0.01565143397737344 0.2438267356976539 255 0 0
-0.01724896400357548 -0.002692840693562959 0.24659797361901542 244 208 63
0.005468005167994134 -0.007326579671571669 0.24702312879283103 244 208 63
-0.04029956484668593 0.0020551106383309634 0.24179156916370032 244 208 63
-0.018918771622760594 0.004734776056010413 0.2555769875297544 0 0 255
0.03081105596771745 0.0486363851661622 0.25534351407727596 0 255 0
0.02683872359923576 -0.011536362994636748 0.24737958692614917 255 0 0
-0.012430966007469556 0.008448849590493529 0.24340434243703976 244 208 63
-0.0019236389998679559 -0.013191704767631707 0.24486807872278374 244 208 63
0.0264884606672436 -0.014751806170904892 0.2550635855387745 0 255 0
-0.03591129651202437 -0.005985307180842642 0.24470679664478037 244 208 63
-0.002796129290713323 0.037049690987442915 0.2543025885009011 0 255 0
-0.019024693304360595 -0.009525625344031327 0.2480177240512822 244 208 63
0.015050827519543824 0.01893885980369977 0.24436708293789572 255 0 0
-0.016386244680555554 0.0038097892745128353 0.2472756986861551 244 208 63
0.012498681641130677 0.02497341072832374 0.25592647442033367 0 255 0
-0.012711388236048601 -0.007711010292888707 0.24428171125576753 244 208 63
0.020148339683692312 0.015010756680485663 0.2527492383027146 0 255 0
-0.008232648988348745 0.047232548360178365 0.24266871957964506 255 0 0
0.01015669112986429 -0.013853494671885172 0.25359372498721083 0 0 255
0.01174807239278838 0.01559874671586234 0.2514081850780081 255 0 0
0.03436831605535255 0.005660465927281321 0.24664486134047917 255 0 0
-0.004500159929937431 -0.013859345889197235 0.2448373950807155 244 208 63
0.01026362414190545 0.022323356139407786 0.24424268431386034 255 0 0
0.03105648471480847 0.008942144739869656 0.24657093030323843 255 0 0
-0.011270519306971446 -0.005969036838169399 0.24424379060356236 244 208 63
0.0012525060299065013 -0.018567336684842117 0.24539541735888484 244 208 63
-0.005273517867222707 -0.012431192874065324 0.24788819143130356 244 208 63
0.013969584249362567 0.054831260901036086 0.24175061175309223 255 0 0
0.03314821919740855 0.045473235125061406 0.2461177170789381 255 0 0
-0.00759100717453685 0.01697944790627682 0.24417234954581327 244 208 63
-0.03546930284009056 0.06491230671119301 0.2384210486866726 255 0 0
-0.019896359333349014 0.0620004597995642 0.23998886370086314 255 0 0
-0.017244452674487494 -0.0017854637642035712 0.2432872123251234 244 208 63
0.030837723411538842 0.0025199055260696265 0.24666301102969285 255 0 0
0.031224200059831085 0.0085439268789173 0.24542606589075347 255 0 0
0.01187328785296565 0.015537588880857562 0.2501441414582658 255 0 0
0.03558698907491584 0.03773107956866115 0.2467622484716464 255 0 0
0.001923652753078519 0.02573394232691737 0.24893260893121047 255 0 0
0.012886584539822972 0.018405258946569192 0.2442144244633676 255 0 0
0.021840599600991918 0.05570528852475913 0.24483071866446537 255 0 0
0.015700328031336353 0.01620613478128737 0.2449408695544468 255 0 0
-0.003793860153935227 -0.01537854051966723 0.24652187031030998 244 208 63
-0.04026604055424074 -0.004611152553847586 0.24438128679343704 244 208 63
-0.004177000303501318 -0.00178913269829894 0.2461793494777085 244 208 63
-0.013914586090480595 0.02209441460300613 0.24194712448263847 244 208 63
0.0037900522595999825 0.026953233956205067 0.24331904039063515 255 0 0
0.018299257029602944 0.029806661295650363 0.24635700095540386 255 0 0
-0.002058083195037032 -0.013178321072365594 0.2457796600200544 244 208 63
-0.003884862837472948 0.004916716008405682 0.24490062757631528 244 208 63
-0.04321784727903495 0.006093471526713235 0.24136676340313232 244 208 63
-0.03427529405117068 0.017123150320914333 0.25074198770233047 0 0 255
-0.0035342598105888422 0.00561259716850871 0.24657315090816426 244 208 63
0.012198733136711128 -0.012799396397218955 0.24667525888024863 244 208 63
0.03149890946220492 0.0013407241427883815 0.25851593424855 0 255 0
0.006333545857336566 0.049114329289729655 0.24118207303206338 255 0 0
-0.0015484353449600231 0.007124361564988688 0.24515094421735115 244 208 63
0.01837286388637071 0.018332506056383778 0.24530142810951167 255 0 0
-0.038115905037105643 -0.007471408661629701 0.24254065985410658 244 208 63
-0.04070775355138912 -0.00395037344138283 0.2437772122376736 244 208 63
0.03684901614533854 0.04070548923499752 0.2498200973376437 255 0 0
0.022606642257592416 0.029471492636209136 0.24550621587771176 255 0 0
0.003027579919745201 0.04270469466286051 0.24142903247627984 255 0 0
-0.01689578572792522 -0.011029607759237343 0.24499179889032122 244 208 63
-0.01729487800667128 0.0012844275575414083 0.2434386468812681 244 208 63
-0.011814679310793524 0.016884160116150057 0.24234181847503114 244 208 63
-0.01653480044058122 -0.007432828956679113 0.2442362879382807 244 208 63
-0.020217715428094314 -0.009642704586252824 0.2543354640328775 0 0 255
-0.014328170938762135 -0.003694358271292948 0.24392840333531035 244 208 63
0.001331573358852929 -0.015677333662528496 0.2468175763099408 244 208 63
-0.022741413353721436 0.06330039845794154 0.25148869936133056 0 255 0
0.027783900014862733 0.02616979819424078 0.2456461216543225 255 0 0
-0.010890584781485453 -0.005164622135593223 0.24385325206514522 244 208 63
0.025552019067969327 -0.003339324821568612 0.2459621689117079 255 0 0
-0.01574639826317793 -0.006574657496246273 0.2522480254667648 0 0 255
-0.01714543374659952 -0.005500201343406468 0.2440752974442057 244 208 63
-0.03274445319682478 0.04356636142014509 0.24051932152006972 244 208 63
0.01952182491087485 0.009299025635828982 0.24453148219969578 255 0 0
-0.0008418146729696884 0.004614384433325346 0.2437458849839769 244 208 63
-0.03467862722299966 0.04131237533055151 0.24163762265926836 244 208 63
0.0006104656006107514 -0.012064425230667733 0.2465392474158524 244 208 63
-0.002998268013046732 0.0024021491677513104 0.2452071159283401 244 208 63
0.004035547830573948 -0.0005527953254356299 0.2539760293210169 0 0 255
0.01241089353590204 0.0176106081955647 0.2472026750903867 255 0 0
0.020036269904206386 0.009956031712916553 0.24523094815366925 255 0 0
0.0030481630359267334 1.7146834297354294e-06 0.24569172358582933 244 208 63
-0.016389497819548505 0.0028759619161207173 0.24481253244558102 244 208 63
0.012521765707650514 0.01769494910400282 0.24791129818986052 255 0 0
-0.019513519032287707 -0.011123835694959835 0.2544715596820482 0 0 255
0.01129355161601843 0.01470851232356575 0.24587593052405146 255 0 0
0.03157489226678735 0.006795400000071332 0.24722400039319542 255 0 0
0.011689744198070338 0.021359790582272296 0.2561224893934886 0 255 0
-0.01241377954308153 -0.004295235794643672 0.2544010413551498 0 0 255
-0.0007154360552284605 -0.0017555901268234758 0.24848819403663655 244 208 63
0.0031414550166362076 0.024911908461902017 0.2444030285315794 255 0 0
0.034309273366303523 0.006028570686165391 0.2476902717860932 255 0 0
0.028134708648789447 0.02624513321077877 0.24422935316626698 255 0 0
0.009088019875510833 0.048206390972251704 0.24317885521693314 255 0 0
-0.0030946976875524633 0.000567036000830484 0.24460825588944235 244 208 63
-0.018618979110984955 -0.00432909248871549 0.24391834081021582 244 208 63
0.03091507677277335 0.026937910289839148 0.25678758066608504 0 255 0
-0.04326386831111344 0.006073967127439187 0.24208090814979938 244 208 63
-0.04081167113285787 0.0005883149181203501 0.25467339365688024 0 0 255
0.0124288133426541 0.01753185038599401 0.2436676367147503 255 0 0
0.018553569197356828 0.005697822848426632 0.24579108971311822 255 0 0
0.004180847507182313 -0.0044708075152156915 0.2446822879269824 244 208 63
0.0030585598275242242 0.03136783785276384 0.24862020957227704 255 0 0
0.012062657503280134 0.01808061623843131 0.25423521536487687 0 255 0
0.009445185834859132 0.050473745543590784 0.25407160146907953 0 255 0
-0.0016334274412125212 -0.016321697814268236 0.2483420496516611 244 208 63
-0.0037059683936183415 -0.01230397426722636 0.25540070290588146 0 0 255
0.030352008892006094 0.014475347604115474 0.2575834577228776 0 255 0
-0.00179654517570727 -0.01352819389127071 0.2458935775742532 244 208 63
0.031318242153910214 0.003513643007236179 0.2466229986595356 255 0 0
0.018583097425815202 0.005640622081120742 0.24472347952688817 255 0 0
0.0014268948802024142 -0.01573656478195416 0.24652006188992695 244 208 63
0.006021364954291536 0.045309896910326525 0.24785542749088615 255 0 0
-0.015844147432618257 0.004234998166331588 0.24727669077145015 244 208 63
0.03478371745071295 0.04596171698909223 0.24298626866801895 255 0 0
-0.008480629520727992 0.017588067439924134 0.2520996727836262 0 0 255
0.030510259075726225 0.052144907940941024 0.24389206963890603 255 0 0
0.018104159139837088 0.011084443179170848 0.2444005570236014 255 0 0
0.03517547723338149 0.04633273316725478 0.24506499598455264 255 0 0
-0.012007455201805272 0.02101213891316625 0.25486993523988627 0 0 255
0.003835175024380206 0.026941163002609375 0.2425175239131367 255 0 0
0.026939994634950438 -0.012722402155190184 0.2528286230888762 255 0 0
0.0011330863606710167 0.03250250199428579 0.2535407026630744 0 255 0
0.01267315880063167 0.017508500587238945 0.24509882643847825 255 0 0
0.019250411728650937 0.016856577302192685 0.25045380578311827 255 0 0
-0.002084312072322612 0.03478334139270675 0.24167899745031826 255 0 0
0.0014170509174038799 -0.0013081821351208344 0.246448588874376 244 208 63
-0.005914258693398598 0.0007985579424756549 0.2451564581243339 244 208 63
0.013089035010165919 0.023914801442160984 0.24328002793035444 255 0 0
-0.005555171891076391 0.0009401163708877159 0.248048967205319 244 208 63
-0.007780545761911835 0.016621732491453205 0.24418586103282353 244 208 63
-0.003913575734859084 -0.01087542840642687 0.24532273703419089 244 208 63
0.01284632230233686 -0.013173892524845316 0.24731925070579 244 208 63
0.028280432126047257 0.02644737096409402 0.24529678197358198 255 0 0
-0.019777698568074487 0.05959465876069803 0.24551969818844366 255 0 0
0.010518847353879101 0.05130803348124556 0.25407408796148473 0 255 0
-0.04109285759344107 0.004097450065129252 0.24167722124183172 244 208 63
0.02933322329267477 -0.014042718365921266 0.24821651828779043 255 0 0
-0.013179929309666352 -0.008198929930179018 0.24393117328820357 244 208 63
-0.03697703580345152 0.04809994753246872 0.2389179461339936 244 208 63
0.03189996036572579 0.050699383983846304 0.24459919710246902 255 0 0
-0.016165754039902423 -0.005952847499192417 0.2446945398459179 244 208 63
0.017069540900379362 0.015980893127434493 0.24583425076262239 255 0 0
-0.003228669205238543 0.00282863553932791 0.24379953417769024 244 208 63
-0.03568947837489064 0.016375211755725684 0.2539025489740364 0 0 255
0.023725879065907195 0.007135806685030551 0.2555886066272476 0 255 0
0.011587465138114364 0.01468112171322487 0.24589356747127625 255 0 0
0.026280450566493415 -0.014384479468271165 0.259277507144428 0 255 0
-0.00038212268906529477 -0.014602381567421566 0.24688398714459941 244 208 63
0.0035507987711050487 -0.004802200171154668 0.2459478317036549 244 208 63
0.01508791970302746 0.016135182269476477 0.24491260779488844 255 0 0
-0.0041870797150697185 0.005760323279994852 0.25417726007009395 0 0 255
-0.005601525927904614 0.0013935258141317165 0.24801641391864432 244 208 63
0.024161875063975376 0.02326323795101608 0.24600149956613498 255 0 0
0.002986854797024637 0.02555803757860269 0.2447520351757934 255 0 0
-0.003455549999287908 0.04288990354305331 0.24750572254101355 255 0 0
-0.0018347703487345598 -0.012988031116268629 0.24673709745096825 244 208 63
-0.0011526570941780521 0.03940936589841183 0.24142247246352866 255 0 0
-0.026929418427096324 -0.014032736510815066 0.24357779263651771 244 208 63
-0.011075390600718495 -0.0052687163077004585 0.2457279421141695 244 208 63
0.035405304012304864 0.032091199633749234 0.25668765654613324 0 255 0
0.009513904036502954 -0.01712353688645346 0.24580815542973794 244 208 63
0.01883184265275703 0.008319353789037597 0.25524670313565206 0 255 0
0.029963707466393784 0.0109540839581853 0.2465933319337263 255 0 0
0.01230058992509684 0.015624525783605847 0.24888654120362694 255 0 0
-0.008716725768303084 0.018130246654285233 0.24248971958054494 244 208 63
0.010751224242131395 -0.015202769386794945 0.2563710931535542 0 0 255
-0.0012270538812710983 0.004446543365207228 0.24588225794729496 244 208 63
0.010677167038988963 0.018773132891400604 0.24349105807587337 255 0 0
-0.013008955749178288 -0.003953428195842849 0.2439271736873646 244 208 63
0.02087215448967633 0.029811561767009165 0.24395965112691004 255 0 0
0.014878767266608861 0.02943171350195997 0.24619773533273143 255 0 0
0.02892413991907007 0.009531459511269331 0.24609518411247386 255 0 0
0.030441344369776822 0.010533791841743047 0.24675420162504763 255 0 0
0.02713423810699118 -0.01329552162060966 0.24862760673487874 255 0 0
-0.016994441209406713 -0.0029754387502581928 0.24344330597450514 244 208 63
-0.012551506717414899 -0.007508765626489 0.2446345763907216 244 208 63
-0.036878861695011714 0.013914401621044414 0.24125325745151663 244 208 63
-0.002060420474641037 -0.013162485261877176 0.24593177052797652 244 208 63
-0.016536237416782666 -0.0026829917561026605 0.24374249789465288 244 208 63
0.010773944403132417 0.015944693704714307 0.2521827082145503 0 255 0
-0.00868092441224158 0.016231185346280017 0.2425537939459919 244 208 63
0.029090136999876788 0.009909926505588522 0.24715202131939104 255 0 0
0.02379788725789441 0.02897253657709529 0.25414485013282295 0 255 0
-0.035327736640812894 0.0649849244846046 0.2392286006221046 255 0 0
-0.0033935873217308867 -0.01271598467994724 0.25013299808513917 244 208 63
-0.037983198076933886 0.06666073243239068 0.24789579451141236 0 0 255
-0.002090849126500217 -0.01313796811305022 0.24638836187582136 244 208 63
-0.03029138769910255 0.017826799376265093 0.24128474128965222 244 208 63
0.01945089395437896 0.016518930224434007 0.2547364477801983 0 255 0
-0.03725806191172201 0.01290269579505366 0.24177265889918242 244 208 63
0.017200655583615873 0.01131594826161287 0.25389787626743165 0 255 0
0.026335793419399643 -0.015284930602389215 0.24813751960970426 255 0 0
0.0027818266160743533 1.1914149635104676e-05 0.2538711059644415 0 0 255
0.010572300124342085 0.0493965351591807 0.24174919602421913 255 0 0
0.0003258830724000624 -0.0012140282979145808 0.25275780872734394 0 0 255
0.027113109846811978 0.02648808521620955 0.2441071647285992 255 0 0
0.011837163565240453 -0.012998299761911629 0.24631131917853638 244 208 63
-0.030774279849130476 0.03873978838035082 0.2494974024960025 0 0 255
-0.03797896159704836 0.014341561940895448 0.25391412563973814 0 0 255
-0.011949139106563395 0.017938681612764934 0.25188972227072715 0 0 255
0.030149410818782918 0.011063905383653372 0.247132539911122 255 0 0
-0.022403929631461948 -0.01077688759765583 0.2457515378445116 244 208 63
0.017977547660388185 0.011345037822958915 0.24756356871396795 255 0 0
0.025690174231803177 0.02290346377369335 0.25039958392287753 255 0 0
-0.0005067212490545763 0.006231605871470991 0.24365671156973243 244 208 63
-0.04037352323025252 0.013564657341764524 0.24209757193794174 244 208 63
-0.011296909821192054 0.007484637892725401 0.2558049683339485 0 0 255
0.024185613664257134 0.030986189433561406 0.252969862365979 0 255 0
0.0038358632333233347 0.02728401469862704 0.24276307820903933 255 0 0
0.03193359033641907 0.029385110971581193 0.24601400453381891 255 0 0
0.018117181068361896 0.005935467446540397 0.24575184500555097 255 0 0
-0.03386844588293333 0.0649182644462998 0.2401163177247485 255 0 0
-0.0016193163193559488 -0.01294988672248411 0.24620966699411673 244 208 63
-0.012955073523938612 0.05712395417225359 0.24068578802310472 255 0 0
0.02559223835000607 0.02314106757850109 0.253565660206339 0 255 0
-0.018042894150111812 -0.010743771041500257 0.24815132861778452 244 208 63
0.0120812208007654 -0.01281591097569448 0.24702769072748257 244 208 63
0.0010796610682671046 -0.002662156161819298 0.2539567531664538 0 0 255
0.012872377499817582 0.02103195276631188 0.24446872302263117 255 0 0
-0.003095213356062939 0.0022994134910186946 0.2459240371186638 244 208 63
0.01600613314256541 0.008455730461271856 0.24439814030351564 255 0 0
0.025910023058034838 -0.018250279019760608 0.25632674237050285 0 0 255
0.013148426696711051 0.05488439247819028 0.25397854684882726 0 255 0
0.001960980015044938 0.024781849257291055 0.24309627806647777 255 0 0
-0.0016034455849176562 -0.0012524897724250023 0.24588214314412898 244 208 63
-0.03593304198909716 0.06578489944158677 0.24423969649588437 255 0 0
0.03462883588825723 0.028296562759272635 0.2462312510749609 255 0 0
0.019194462227667138 0.0059690543705517435 0.24479836404592656 255 0 0
0.002702903132798828 -5.534006028059743e-05 0.24639224985539648 244 208 63
0.02993715309596343 0.049657049998405756 0.24566750835922666 255 0 0
0.002587734692188516 -0.01894817944184144 0.24656553073722678 244 208 63
0.02570997083537307 -0.01963966647640389 0.24731952364772977 244 208 63
-0.004489240897273627 -0.011172479340515396 0.2449537756366414 244 208 63
-0.0029875701934806813 0.00024293876374894326 0.24427784166491034 244 208 63
0.03194765003358666 0.02914189873968873 0.24388490142622332 255 0 0
0.02363568252896186 0.055862114766165816 0.24327559016508873 255 0 0
0.023118437810538708 0.03181843587903786 0.24967014496720727 255 0 0
0.024206753986142842 -0.019698557181144383 0.24777901030834046 244 208 63
-0.0007769543384298933 -0.014326815846812276 0.2466145454446349 244 208 63
0.010805340932234736 0.024426084892926574 0.24466894675348866 255 0 0
-0.03821520369898966 -0.003787320903978826 0.24235483187912493 244 208 63
-0.020701585787494932 -0.010515598730683655 0.2479930870500368 244 208 63
-0.04160836258996285 0.004829375175928408 0.25116225155511396 0 0 255
0.029775975356669513 0.05207385611677834 0.24549861382284086 255 0 0
-0.039839463501733605 0.009896323284189282 0.24136026299971264 244 208 63
0.0010950915940236231 -0.01127699721414035 0.24496739011224203 244 208 63
-0.030492127402656468 -0.01025352666827902 0.25594762971791135 0 0 255
0.027340318482923665 0.05441207537435323 0.24357113588528437 255 0 0
0.03526723884196599 0.04621782899573382 0.24346806168041502 255 0 0
-0.04270024453248504 0.00045098229223998476 0.24391466905682146 244 208 63
0.025465360885561544 0.02907814633698113 0.25635234316371863 0 255 0
-0.01676408372759461 -0.009116628163309739 0.2544864948178749 0 0 255
0.023317501586613783 -0.016816355217607944 0.2560921292370845 0 0 255
0.030196442532635683 0.01097613829182395 0.2449949066626625 255 0 0
-0.005160692585313568 -0.011547184811435728 0.2456578014981891 244 208 63
-0.03595561169890773 0.06747410002961961 0.24412649861499014 255 0 0
-0.00388822690681892 0.0033576332108833573 0.2543526297428289 0 0 255
-0.01722694621039328 -0.001827859775518064 0.2443639569672706 244 208 63
0.002612132423984932 0.0426817394910306 0.2542203428317374 0 255 0
-0.0016391092874088829 -0.010019766987008643 0.24574610766506716 244 208 63
0.028416722546879394 0.01426293624354711 0.25749336430154934 0 255 0
0.002395165336735089 -0.018926178023167404 0.24601720678757755 244 208 63
0.0012076610003970683 0.03464894686310392 0.2440110945068666 255 0 0
0.0008453095779780775 -0.004083131555681013 0.24494978221570848 244 208 63
-0.030841146021048697 -0.01305183388751912 0.24544818335802154 244 208 63
-0.015691698644060746 -0.00943473855730071 0.24394164096897875 244 208 63
-0.03592458089027851 0.014223532481638393 0.2417568762607217 244 208 63
-0.0015280908966227736 -0.013765113440670898 0.2457704484030073 244 208 63
-0.004812315510906039 -0.01135833645568453 0.24494870590338585 244 208 63
-0.009489749525397969 0.01635637616343584 0.24303844836541316 244 208 63
0.02684795068027619 -0.017631912352879333 0.25633623658705956 0 255 0
0.024296644750095856 0.02360114934952791 0.2518718689336684 0 255 0
-0.02492527249044879 0.02163750919547958 0.24239396147716397 244 208 63
0.004275948174679311 -0.00018050732001706395 0.24541223176883573 244 208 63
0.005396194841824551 0.04275545133726935 0.24161691643691224 255 0 0
0.032520329560368745 0.04996819437395776 0.24360807256664532 255 0 0
0.03266265614037974 0.029963126477079903 0.24386894759218675 255 0 0
-0.037915071367599376 0.06657683082461388 0.24663018561377403 0 0 255
-0.027951168982474496 0.0212996331309968 0.24118048717487564 244 208 63
-0.038847925849605544 0.014363333414020116 0.24111750306415858 244 208 63
0.024502689913749338 0.023095943091064455 0.2503229024746452 255 0 0
-0.001965097883530149 0.03931759526110512 0.2541969750053192 0 255 0
0.0013789048916073906 0.03531962368414461 0.24326052195741232 255 0 0
0.02462452427257837 0.022936695954005895 0.2519335673471733 0 255 0
-0.00028660505056257203 -0.012450164288472646 0.24651653080535246 244 208 63
-0.01718871938889757 -0.0018749381066897487 0.243653806632901 244 208 63
-0.01436912037745751 0.05779874144427292 0.25230409710455626 0 255 0
0.026594257454515893 -0.013443926498506934 0.24856587812605954 255 0 0
0.00030301851231128926 -0.015646336441647 0.24733914743407148 244 208 63
0.006799783656899348 -0.015851925763606042 0.2476599921488734 244 208 63
-0.02100191536211779 0.06260550955305713 0.23988924165999156 255 0 0
0.012868837260549253 0.01846314890491136 0.24383408175569943 255 0 0
0.027590736036621585 0.025991605644702313 0.24493220781994943 255 0 0
0.0048661630845016 -0.001827977277378769 0.25304290915910055 0 0 255
-0.0041677431580593016 -0.01092090448747115 0.24602739550351443 244 208 63
-0.009999416818329474 0.01763287324415614 0.25520204958484927 0 0 255
0.031751798490919365 0.04683017434264704 0.24270174169512332 255 0 0
0.02836399385101878 0.009596036706618592 0.24505150730911113 255 0 0
0.009982457421672496 0.019840156095894106 0.2561313293650586 0 255 0
-0.04333729419231793 0.004031128783615827 0.2425700452368131 244 208 63
6.080625190440017e-05 -0.01491838660345837 0.2464689278090783 244 208 63
0.015927400371874866 0.009261023330567622 0.24434051652164657 255 0 0
0.02589382638760561 0.026755288564305757 0.25652939742345093 0 255 0
-0.0032622033580202003 -0.0026408257606802456 0.24840978894401813 244 208 63
-0.004614793669075816 -0.011171921627595975 0.2456623092986159 244 208 63
0.0014308197047930042 0.032705149746143455 0.24844393458196737 255 0 0
0.01031371434023435 0.0175394472636849 0.2434895308526701 255 0 0
0.002176662011506852 -0.0017279896255659542 0.2571409769348146 0 0 255
0.017981279678963527 0.008962767588003228 0.2572829993840398 0 255 0
0.01511210253797552 0.02996563329330798 0.24936199909304305 255 0 0
0.015905329375008808 0.008635419894767054 0.24581145621889522 255 0 0
-0.03628906790088898 0.053470670665204216 0.24822398455992356 0 0 255
0.02747684022121611 0.022678892867060988 0.2451456881309211 255 0 0
-0.0293101378765197 0.06406508186822568 0.24152311586996353 255 0 0
0.019456461684217604 0.007806951480318402 0.2489400969900814 255 0 0
0.012355320665437021 -0.012718090971770391 0.24703596047513265 244 208 63
0.021187646591313395 0.0063321526881368224 0.2544428858989485 0 255 0
0.028803645980535933 0.024100552709558413 0.24411361870699225 255 0 0
-0.0020767534273294936 -0.0009986008734862552 0.24440917617202185 244 208 63
-0.015496297926257898 -0.003387396598194861 0.2434875117787696 244 208 63
0.0330310691518505 0.004884700646640469 0.2583634666662456 0 255 0
0.029274013221771637 0.009988382493814691 0.24590489697439877 255 0 0
0.0063043959806931985 -0.0039006820992363595 0.2452315452394368 244 208 63
-0.029722136974213133 0.01883037229977007 0.2444997042333715 244 208 63
0.02524556944009731 0.029679457182274684 0.24355224536133996 255 0 0
0.003666357861349459 0.04557619847692793 0.2540852072041864 0 255 0
0.031184061692709195 0.00859335937856332 0.24617172754184996 255 0 0
0.0020108699770272614 -0.0018471933521444009 0.2571399549117927 0 0 255
-0.0389928197570482 0.06023821458775615 0.2508169020218158 0 0 255
0.003578027456781877 -0.003738569765348332 0.24561053957017562 244 208 63
-0.017332649755805542 0.06042311156203485 0.23915844231248354 255 0 0
0.03069528794191656 0.0099039875298197 0.24702422292321827 255 0 0
0.01276294551770499 0.019581964017448814 0.24482720325468327 255 0 0
-0.04170351481308135 0.00410936509232002 0.25439196378820816 0 0 255
-0.031131255513651646 0.01890838378410202 0.2507928794445455 0 0 255
-0.02161401118118322 -0.013566253191293159 0.2443694840946938 244 208 63
0.02300675622472704 0.02976932179747986 0.2455505097208029 255 0 0
-0.003975639770321069 0.005988414977373571 0.25374857259773453 0 0 255
0.035372440947140066 0.028964912593713654 0.24515397989792198 255 0 0
0.030654446089987873 0.010096714112022316 0.2457216564469509 255 0 0
-0.0007359968805247998 -0.014377257099622757 0.2458536673154006 244 208 63
0.01992918862061775 0.009791385032473971 0.24487843271189097 255 0 0
0.0008587965446074791 -0.01539987868786067 0.24723358099435747 244 208 63
0.02437325182093402 0.008331139129137863 0.2449205433263213 255 0 0
0.013239086757128744 0.02833209980339159 0.24346801104963794 255 0 0
0.011024964204746388 0.05264703379731556 0.2444512640310627 255 0 0
0.02056675719213698 0.012589494103610356 0.246558076957691 255 0 0
-0.013147595054825524 0.022198830396819025 0.2419177407478483 244 208 63
-0.0026781539776568296 0.002954926553938847 0.2455453682198572 244 208 63
-0.01665955344993221 -0.002783924582329407 0.2561970401962591 0 0 255
-0.032883880914158774 0.038162002432419816 0.23979709825387202 244 208 63
0.021135482256723598 0.03089373863422809 0.2538741718579291 0 255 0
0.026146965875323325 -0.002202286242577888 0.24636589911305637 255 0 0
0.01299003331444606 0.022317847415864657 0.24546280152837835 255 0 0
0.03195372820858619 0.002032941421694856 0.25849452728930133 0 255 0
-0.003932689048201514 -0.01085188936080091 0.24567781039184786 244 208 63
0.0306515529716075 0.010031412833728801 0.2467988214336691 255 0 0
0.02993323824645283 0.010875422675200709 0.2462392366057191 255 0 0
0.02084216082327151 0.011380392827780266 0.24625289444294662 255 0 0
