ply
format ascii 1.0
element vertex 644
property float x
property float y
property float z
property uchar red
property uchar green
property uchar blue
end_header
-0.015994671535418618 -0.008273282772598015 -0.0032068186730575027 255 0 0
0.00992948314164507 -0.03981971490372689 -0.00477878278189648 244 208 63
-0.00019960381694465198 0.05120189783861048 -0.008865903546355965 0 255 0
-0.02718041229849735 -0.014042187276897678 -0.009494690502144004 0 255 0
-0.043523060880090565 -0.012374424449694027 5.5202927218848935e-09 255 0 0
-0.012543614166541294 -0.022861107138684368 -0.0032068186730575023 255 0 0
0.03524241283830231 -0.017621836300323598 -0.003206818673057496 244 208 63
0.010135400785510344 -0.028390036505821413 -0.008446710560122347 0 0 255
-0.03427496380983211 0.01282059330844734 -0.0010584544924321015 255 0 0
-0.013289830555716317 0.02390146491286452 -6.287928861596668e-05 255 0 0
-0.006872641547894217 -0.0042855550364146846 -0.00035281326422706026 255 0 0
-0.021721205931909644 -0.035166419289927336 5.5202927245548505e-09 255 0 0
-0.014201422044830514 -0.011487079348018953 -0.0010584544924320991 255 0 0
0.025464696738766824 0.010625707759882435 -0.0015876880475541172 244 208 63
0.009605217487683 -0.03984967867411585 -0.011066657891614087 0 0 255
-0.011518129259660394 0.007576591295318576 -0.0021169144105233338 255 0 0
-0.006483209437633442 -0.00045676100717111394 -0.0005292208426764859 255 0 0
-0.02633656937471888 -0.010306695153390522 -0.009494690502144004 0 255 0
0.011763085404267576 -0.01560473370325497 -0.0007056356763677796 244 208 63
0.04405837104726859 -0.00916731682874292 -0.012638629318783994 0 0 255
0.016514717178414524 0.00938967598628881 -0.0010584544924320954 244 208 63
0.01066501880536242 -0.025710023342332796 -0.007922722103248956 0 0 255
0.009629914078652423 -0.023626186652009055 -0.0007056356763677798 244 208 63
-0.016591574794551693 -0.02991613360644851 -0.009494690502144002 0 255 0
-0.03927997941754249 0.009508923394021254 -0.006350754209066397 255 0 0
0.015688012271536197 -0.03003601897075304 -0.003206818673057499 244 208 63
-0.04500201379758041 -0.005946729851644087 -0.0010584544924321028 255 0 0
0.011327640676245039 -0.016041528032443457 -6.287928861596367e-05 244 208 63
0.031114266520075363 0.013423590466038783 -0.0021169144105233286 244 208 63
-0.014470881980240553 -0.022819157456369837 -0.012638629318784001 0 255 0
-0.027116130098459954 -0.014845560335346867 -0.006350754209066395 255 0 0
0.04163155194545171 -0.015455058189653877 -0.0010584544924320922 244 208 63
0.016080389883818096 -0.041240637999355775 -0.0021169144105233303 244 208 63
-0.021836330848122466 -0.034846738444114664 5.520292724540752e-09 255 0 0
0.012726451308791435 -0.01900043420755438 -0.008446710560122347 0 0 255
-0.012825495076032868 -0.03149242133472956 -6.287928861596662e-05 255 0 0
-0.00971520140259576 -0.02585049895688642 -6.287928861596624e-05 255 0 0
0.010812982334238419 -0.01595114311247316 -0.009285093504314713 0 0 255
0.013567595030238003 0.02965881907210706 -0.0010584544924320957 244 208 63
-0.0076981573521745705 -0.046563836466244374 -0.0005292208426764862 255 0 0
0.007417848622051708 -0.02816381831666937 -0.0013230676739167029 244 208 63
-0.010176097771454685 0.002530251091697561 -0.005093181306915279 255 0 0
-0.01135205664707674 -0.016056459446390146 -0.012638629318784001 0 255 0
0.04229401331776635 -0.0007374082731885392 -0.0010584544924320922 244 208 63
-0.014624867738403057 -0.01123616355847253 5.520292725423901e-09 255 0 0
-0.02692882927905512 -0.018001705118552803 -0.0007056356763677843 255 0 0
-0.040191264041470116 0.008659711338902707 -0.006350754209066397 255 0 0
0.020035803403602802 -0.030607325231856088 -0.007608327111217504 0 0 255
-0.005327594512571254 -0.04623099675670745 -0.004254798362722914 255 0 0
0.00983512108734879 -0.015522821896363942 -0.002158838983392087 244 208 63
0.00856316085130218 0.006727030988590265 -0.0010584544924320963 244 208 63
0.022198286411085448 -0.03101392362291577 -0.003206818673057498 244 208 63
0.034283358187764824 0.00987165621420023 -0.002116914410523328 244 208 63
0.0106925892291811 -0.041418987238252276 -0.002158838983392087 244 208 63
-0.04167860326149303 -0.011091465519328655 -0.0032068186730575057 255 0 0
-0.00949387387735473 0.0017400391681787692 -6.287928861596621e-05 255 0 0
-0.027439016877932355 -0.011126160464485611 -0.001764095657548079 255 0 0
0.010264834300472104 -0.018129774900399236 -0.0014112732454073529 244 208 63
0.008896234747428853 -0.0026325790230328013 -0.002116914410523331 244 208 63
0.009151662666527853 -0.0260526887943898 -0.011381053388358014 0 0 255
-0.012911615175564765 -0.022309809699055855 -0.012638629318784001 0 255 0
-0.014445213313038663 -0.022883264016464917 -0.004254798362722915 255 0 0
0.006757012423915957 -0.0043259380911977625 -0.0010584544924320965 244 208 63
-0.014965080287817385 -0.040967200929619745 -0.012638629318784001 0 255 0
0.021945251838556733 -0.028363062652151626 -0.001764095657548073 244 208 63
0.011057556916212293 -0.017753606634058113 -0.010542669434740694 0 0 255
0.014653138703141088 -0.022307199326120068 -0.004254798362722911 244 208 63
0.04329848805361654 0.0051496833641055855 -0.0005292208426764799 244 208 63
0.04167908778547183 0.002173757527170592 5.520292732319147e-09 244 208 63
-0.011932403318084234 -0.023427713517193055 -6.287928861596651e-05 255 0 0
-0.006475228419220143 -0.003557085347388171 -6.287928861596585e-05 255 0 0
-0.038157333320962786 0.00827286234710391 -0.009494690502144005 0 255 0
0.02981390914117124 -0.01816626965025244 5.520292730866082e-09 244 208 63
-0.006284110964057302 -0.04447244120185135 -0.010542669434740696 0 255 0
-0.02348523055117645 0.010145584873889746 5.52029272433882e-09 255 0 0
0.0021412129095258 -0.05212399542266499 -6.287928861596479e-05 244 208 63
-0.0004911049247996789 0.051017932159259725 -0.0013204557868434841 255 0 0
0.022041906296927708 -0.02843078295358859 -0.0014112732454073516 244 208 63
0.013833340281810576 -0.0085566581357367 5.520292728909027e-09 244 208 63
0.011525055933707326 -0.016092953186818398 -0.008446710560122347 0 0 255
-0.007270446333451153 -0.02480452474225201 -0.0017640956575480766 255 0 0
-0.0039052622597040257 0.04704420565192628 -0.009494690502144 0 255 0
-0.009802468208877483 -0.015725678963763128 -0.010542669434740698 0 255 0
-0.028545631287363513 0.013490773753399243 -0.002116914410523336 255 0 0
0.019861009359400744 -0.032105170546819314 -0.0015120812351153458 244 208 63
-0.007165390431172773 -0.017178468595822723 -0.0021169144105233333 255 0 0
0.01026834608989345 -0.030547528916322418 -0.012638629318783998 0 0 255
0.019949755982667725 -0.0313443427314086 -0.0012852678637737204 244 208 63
0.012764613628671677 -0.021147666822804292 -0.0007056356763677795 244 208 63
-0.01621287993754612 -0.0381799686661724 -0.0015876880475541222 255 0 0
0.020693940399406655 -0.030505635761805414 -0.011590649376762345 0 0 255
-0.008371153588040772 -0.01786430623126456 -0.000705635676367782 255 0 0
-0.035017436241845945 0.012574872019723637 -0.0015876880475541246 255 0 0
-0.022763550254402878 -0.029942223203856984 -0.0007056356763677839 255 0 0
-0.04449745475225691 -0.002183885844821187 -6.28792886159705e-05 255 0 0
0.028234312517884965 -0.018627253839082526 -0.008446710560122346 0 0 255
-0.02147654352996461 -0.028760852801046705 -0.009494690502144004 0 255 0
0.013758842701220145 -0.0322318473222267 -0.0015876880475541185 244 208 63
-0.009448165096504675 0.001697494429852773 -0.0038356013387894745 255 0 0
0.0007882844265656275 0.050314229720949545 -0.0021169144105233325 244 208 63
0.04506165869937071 -0.0026784901935865022 -0.001058454492432092 244 208 63
0.0076316170685109775 -0.026839664753856428 -0.004254798362722912 244 208 63
0.008102380566313174 -0.029390897500329707 -0.0010584544924320963 244 208 63
-0.003521343628552015 0.051346972393262885 -0.002116914410523333 255 0 0
-0.0007603469505973796 0.05082903644842467 -6.287928861596514e-05 255 0 0
-0.007843160742367588 0.039042808967619656 -0.0010584544924320983 255 0 0
-0.011916369612085772 -0.01626456956125949 -0.012638629318784001 0 255 0
-0.013207178840332665 -0.04186377621309097 -0.0014112732454073557 255 0 0
0.0339182289927407 -0.01758968005893056 -0.002116914410523328 244 208 63
-0.02657375799429092 -0.017657995921091466 -0.0006048277497488501 255 0 0
0.02400431925931423 -0.01639767334536066 5.520292730154613e-09 244 208 63
0.013537137651045637 -0.024437178850024877 -0.009494690502143998 0 0 255
-0.014496101453337101 -0.017686088217612316 -0.0007056356763677828 255 0 0
0.006340372778108122 -0.004146965532391034 -0.0010584544924320965 244 208 63
-0.0075218839956997414 -0.04158250600569767 -0.0021588389833920893 255 0 0
-0.00020622059753014194 0.05062658617928269 -0.0021169144105233325 255 0 0
-0.003065235719327326 -0.048267208777614964 5.520292726839548e-09 255 0 0
0.012045967663315336 -0.025894392791665888 -0.0013230676739167022 244 208 63
-0.011071497074852355 0.005774330668149747 -0.0021169144105233338 255 0 0
-0.012687064556439762 -0.02003449518886004 -0.001058454492432099 255 0 0
0.008921845877408265 -0.0399344057672087 -0.009494690502143998 0 0 255
-0.010679525251402703 -0.031406476875139984 5.520292725907067e-09 255 0 0
-0.004978878567328984 0.04445115444838273 -0.0015876880475541209 255 0 0
0.034610654135444306 -0.019707936121398317 -0.010542669434740692 0 0 255
0.008333590866584292 -0.040069030754718314 -0.0016348471197094694 244 208 63
0.007765911974060033 0.003913390401804638 -0.0010584544924320965 244 208 63
-0.012076376590109824 -0.012542934823546018 -0.0021588389833920897 255 0 0
0.0034163795839446155 -0.05190938360165513 -0.0015876880475541198 244 208 63
-0.02278354696277794 -0.017793741370302058 -0.0018523012290387292 255 0 0
0.020759643869781862 -0.028736547866960144 -0.009494690502143998 0 0 255
0.021613078349490663 -0.033765634222167336 -0.003206818673057498 244 208 63
-0.013917220467365479 -0.024734672535308328 -0.001411273245407356 255 0 0
0.012129068572804338 -0.012595317922204047 -0.010542669434740694 0 0 255
0.016395514185380135 -0.03222080421320988 -0.0005292208426764831 244 208 63
-0.022455247646692357 -0.008029564687699163 -6.28792886159678e-05 255 0 0
-0.019165212737344655 -0.009443828606894413 -0.012638629318784001 0 255 0
0.04502619154412254 -0.0014691864786859166 -0.001058454492432092 244 208 63
0.027818267928088593 -0.013412780534186762 -0.001058454492432094 244 208 63
0.023558700537161845 -0.010799688207570088 -0.0010584544924320946 244 208 63
0.005780354916286161 0.0430225395345904 -0.0005292208426764844 244 208 63
0.019937624713548516 -0.03133212465174319 -0.0018144942267429329 244 208 63
0.027159638332906293 -0.016485505429617655 5.5202927305410275e-09 244 208 63
0.01221071994805676 -0.029013205002305278 -0.002116914410523331 244 208 63
0.008413485337701088 -0.0451562902701302 -0.0010584544924320963 244 208 63
0.019450419702065697 -0.03353876394449382 -0.0016632913270055443 244 208 63
-0.04449745475225691 -0.005243305509909239 -0.012638629318784005 0 255 0
0.011512373518562234 0.01791414961673371 -0.008446710560122347 0 0 255
0.018168405593458985 -0.009594505470051693 -0.0042547983627229105 244 208 63
0.02024553768322608 -0.03258982171316387 -0.011590649376762345 0 0 255
0.006442831429975143 -0.0042148021700541575 -0.0015876880475541194 244 208 63
-0.04173294666341528 0.0020610691104449145 -0.0010584544924321026 255 0 0
-0.04272108082808043 -0.007467936793072649 -0.009494690502144005 0 255 0
-0.02671072282884816 -0.017964328131288197 -0.0010584544924321006 255 0 0
0.037255250614932546 -0.01849966252466516 -0.012638629318783994 0 0 255
-0.00944646724372896 0.0018845345652627628 -0.008446710560122351 0 255 0
0.02066097258034913 -0.03045950706017373 -6.287928861596252e-05 244 208 63
0.01828311058889018 -0.007843989984968805 -0.012638629318783998 0 0 255
-0.018506248013077018 -0.035774670504413894 -0.001323067673916706 255 0 0
0.013795917870422959 -0.03952513643771589 -0.009494690502143998 0 0 255
-0.011555929195981494 -0.013922533070908032 -0.0005292208426764866 255 0 0
-0.017034027960042584 -0.010263903610662825 -0.0021169144105233346 255 0 0
0.013209200718519198 0.015160466601118448 -0.0021169144105233307 244 208 63
0.014549969416105164 -0.010597528652815384 -0.012638629318783998 0 0 255
-0.020885880535908497 -0.007854307317442381 -0.003206818673057503 255 0 0
0.01173423906730472 0.036532784985543326 5.5202927286519604e-09 244 208 63
0.0099925166830121 0.0037426600501185296 -0.012638629318783998 0 0 255
0.010492968378190318 -0.015892346127645767 -0.0050931813069152775 244 208 63
-0.025604849337334583 -0.012763305413928916 -0.012638629318784003 0 255 0
0.01505824213584118 -0.02299342861844477 -0.0021169144105233307 244 208 63
-0.01322969911109731 0.020826433481409546 -0.012638629318784001 0 255 0
-0.005987618123617561 -0.002268801195668298 -0.0021169144105233333 255 0 0
-0.00976153400806852 0.0030924742946917784 -0.004254798362722914 255 0 0
0.024515986675176717 -0.008716332003525324 -6.287928861596204e-05 244 208 63
-0.009333633722165884 -0.027420215328705 -0.006350754209066393 255 0 0
0.044942263915594714 -0.00029276351994041535 5.520292732718771e-09 244 208 63
-0.018363059064242113 0.007449624310236394 -0.0021169144105233346 255 0 0
-0.00675876327150185 -0.0014259162161729152 -0.006350754209066393 255 0 0
-0.008803972297040708 0.007528155048237857 -0.0010584544924320985 255 0 0
-0.009594111794318917 -0.027828263254001256 -0.008446710560122351 0 255 0
-0.012804092238694328 0.0030113316696170956 -0.006350754209066394 255 0 0
0.015077207211911383 -0.031711167760358525 -0.009494690502143998 0 0 255
0.017377018446935365 -0.007962221911195682 -6.287928861596292e-05 244 208 63
-0.009485921627552674 -0.024160477299981685 -6.287928861596621e-05 255 0 0
0.045044013951142735 -0.005314914620988552 -0.0005292208426764797 244 208 63
-0.026704728863460418 0.013466454687363301 5.520292723944545e-09 255 0 0
-0.007420658861128749 -0.04060841496101808 -0.001587688047554121 255 0 0
-0.01097651119593337 -0.02895678824152374 -0.0021588389833920897 255 0 0
-0.013917220467365479 -0.024734672535308328 -0.0003528132642270611 255 0 0
-0.010702872241206177 -0.015188254051302634 -0.002011067749970177 255 0 0
0.011040100930451064 0.007540808190059231 -0.012638629318783998 0 0 255
-0.027774267094263807 -0.013886794380346743 -0.002116914410523336 255 0 0
-0.007988889404391372 -0.02929966971052129 -0.0021169144105233333 255 0 0
0.01948153017920449 -0.03143552610651896 -0.00211691441052333 244 208 63
0.01992645239813735 -0.031328250478762705 -0.0015120812351153458 244 208 63
-0.011518129259660394 0.007576591295318576 5.520292725804367e-09 255 0 0
-0.01102661602246608 0.004462641484691438 -0.0007056356763677823 255 0 0
0.0073422633860713675 -0.02442207179613587 -0.0021169144105233316 244 208 63
0.016395514185380135 -0.03222080421320988 -0.0010584544924320954 244 208 63
0.009127096291377732 -0.026392437008324447 -0.012638629318783998 0 0 255
0.019953862323388055 -0.03163148981089476 -0.0014364779556639191 244 208 63
0.014877920480580979 -0.03230395054682189 -0.0005292208426764833 244 208 63
-0.03081839397127098 0.013395614253387854 -0.001587688047554124 255 0 0
-0.023703409679980237 -0.010230093931192135 -6.287928861596795e-05 255 0 0
-0.01952536344848661 -0.03143938614755007 -0.0007056356763677834 255 0 0
-0.019933092395496822 -0.028367197256770723 -0.0005292208426764877 255 0 0
0.0019369633404000427 -0.0495208136302647 -0.00158768804755412 244 208 63
-0.02006274293682409 -0.028330920542707975 -0.002116914410523335 255 0 0
0.012736042864721762 -0.01604656405354811 -0.0021169144105233307 244 208 63
0.009812020397234538 -0.01563462580447207 -0.002578028688994597 244 208 63
0.02409484852705321 -0.01699094974062743 -0.009494690502143997 0 0 255
0.010954561250268767 -0.01826776934841142 -0.002116914410523331 244 208 63
0.020202092033127002 -0.010029689766435625 5.520292729688974e-09 244 208 63
-0.008949976532077434 -0.002543122016953156 -0.0018523012290387274 255 0 0
0.01988175909879286 -0.032014566581633604 -0.002041307598084558 244 208 63
-0.01536931359620555 -0.021320993163120566 -0.0010584544924320993 255 0 0
-0.014538907128014181 -0.030025948947393646 -0.006350754209066394 255 0 0
-0.013266845949471986 -0.04125826659678445 -0.012638629318784001 0 255 0
0.0037618017755560017 0.05113334980870974 -0.001058454492432097 244 208 63
-0.012752826573462408 -0.020818973830985937 -0.001058454492432099 255 0 0
0.008462676129936291 -0.039557841806284896 -0.0021169144105233316 244 208 63
0.01521327264883297 -0.03919528462604823 -0.0021588389833920867 244 208 63
0.013001424723310237 -0.016213753090132916 -0.0014112732454073526 244 208 63
-0.022226386783005946 -0.03000744820680313 -0.0063507542090663945 255 0 0
0.00998026933002297 -0.017549965243468246 -0.012638629318783998 0 0 255
-0.03440267221754435 -0.020364708374661884 -0.002116914410523337 255 0 0
-0.0034543925089313967 -0.05174630090579065 5.52029272679189e-09 255 0 0
0.022075380847313062 -0.01955471954505216 -0.0013230676739167011 244 208 63
0.019813865176263493 -0.032298000996132205 -0.0009072443374528366 244 208 63
0.006672518003275428 0.00022653767215056328 -0.0005292208426764843 244 208 63
-0.012004215828292147 -0.012622118154781429 -6.287928861596651e-05 255 0 0
0.008807662754679237 -0.03995304782729304 -0.012638629318783998 0 0 255
-0.010749276515850803 -0.00026158049038292364 -0.0010584544924320987 255 0 0
-0.02271308304431102 -0.018832938305783 -0.004778782781896484 255 0 0
0.027811101010902176 -0.013183485617769337 -0.0005292208426764818 244 208 63
-0.008025717264480004 -0.014483044541533395 -0.0010584544924320985 255 0 0
0.009791212111194984 -0.02360755670502419 -0.001058454492432096 244 208 63
0.03401822262886557 -0.017558149661010145 -0.0010584544924320933 244 208 63
-0.010669991232694853 -0.017638958166424447 -0.006350754209066394 255 0 0
-0.014197881991510406 -0.024414048886586905 -0.00035281326422706113 255 0 0
-0.02287568727274643 -0.019439941871024147 -0.009494690502144004 0 255 0
-0.009797664355512672 -0.01808942212836483 5.520292726015063e-09 255 0 0
-0.01965096619574098 -0.034407666852225814 -0.0063507542090663945 255 0 0
-0.013402620672006297 -0.02443443523299492 -0.006350754209066394 255 0 0
0.04062858730933546 0.004646402250776164 5.520292732190498e-09 244 208 63
0.027422799456591932 -0.015816732123054185 5.520292730573255e-09 244 208 63
-0.010864142009849975 -0.01530744291238764 -0.0001058412033494906 255 0 0
0.0026855448122465844 -0.05249681239815275 -0.0015876880475541198 244 208 63
-0.007001131755234751 -0.004284045946105713 -0.0008820468824381427 255 0 0
-0.019922267322270464 -0.03190198137860966 -0.00042337774665520615 255 0 0
0.011532035097851959 0.018130443139719996 -0.004254798362722911 244 208 63
-0.015301680105314788 -0.022029235994882088 -0.0017640956575480776 255 0 0
0.0441010616475007 0.0016031472645745921 -0.009494690502143995 0 0 255
0.012045967663315336 -0.025894392791665888 -0.0005292208426764837 244 208 63
0.010469911093349167 0.031726331342045055 -0.002116914410523331 244 208 63
0.008034007166929787 -0.029299191243092226 5.520292728198813e-09 244 208 63
-0.03922299535993577 -0.01703112889156943 -0.006350754209066397 255 0 0
-0.007696445367449477 -0.02499295813645729 -0.0021588389833920893 255 0 0
0.007088866934695984 -0.041456784146298505 -0.0010584544924320965 244 208 63
-0.009955524286655665 -0.015820533617437852 -0.0070494049801851045 0 255 0
-0.004133657273773322 -0.050398492478562706 -0.012638629318784 0 255 0
0.011609390360492354 -0.02873644692446456 -0.0015876880475541187 244 208 63
-0.01996000972136908 -0.03170270877922864 -0.0014818377278355008 255 0 0
-0.011740140165596522 0.02138598599832687 -6.287928861596649e-05 255 0 0
-0.01139532766665846 -0.01411875821634739 5.520292725819406e-09 255 0 0
-0.01992180298679078 -0.031367066906014325 -0.00017640568577763604 255 0 0
0.019958838788420315 -0.03136432328898437 -0.0003024147265767275 244 208 63
-0.020365737988116833 -0.03194007101989309 -0.009494690502144002 0 255 0
-0.024743288986731324 -0.011867602273619542 -0.0010584544924321004 255 0 0
-0.00851640327792301 -0.024283075998567497 -0.008446710560122351 0 255 0
0.010240602044982365 -0.028477577875691124 -0.010542669434740694 0 0 255
0.019116679585468175 -0.03449342355877361 -0.00022680785104889578 244 208 63
-0.0071421736571885995 -0.02521820525880182 -0.0021169144105233333 255 0 0
-0.008421403267054645 0.04251136269925644 -6.287928861596608e-05 255 0 0
-0.019837380740034594 -0.03226430639110648 -0.0011642974938197916 255 0 0
-0.007940337578153208 -0.015626412113606453 -0.012638629318784001 0 255 0
0.018126671928085 -0.007260538322797168 5.520292729434808e-09 244 208 63
-0.015436554420788492 -0.03227381113649061 -0.000529220842676487 255 0 0
-0.02308395788618375 -0.018083022374144848 -0.011066657891614092 0 255 0
0.02234720687481958 -0.019740570830220416 -0.00026460766119187624 244 208 63
-0.010361353495899 -0.025750361982417817 -6.287928861596632e-05 255 0 0
-0.006808868098034562 -0.004281143849357692 -0.001587688047554121 255 0 0
-0.017495896405133975 -0.0371162083838162 -0.0018523012290387285 255 0 0
-0.01326339270669808 -0.020650131356323476 -0.006350754209066394 255 0 0
0.03869457350865636 -0.01530744291238764 -6.28792886159603e-05 244 208 63
-0.014292954680975592 -0.02321706469855979 -6.28792886159668e-05 255 0 0
-0.01342596766180977 0.03035758542238321 5.520292725570724e-09 255 0 0
-0.010176097771454685 0.002530251091697561 -0.0038356013387894745 255 0 0
0.019958838788420315 -0.03136432328898437 -0.00022680785104889567 244 208 63
0.021779078283477495 -0.007901524179176452 -0.012638629318783996 0 0 255
0.014067452174117236 -0.01714954857083809 -0.0010584544924320957 244 208 63
0.0018483042847479837 0.04918551899923519 5.520292727441283e-09 244 208 63
-0.001167496613861065 -0.05012606079608269 -0.0005292208426764853 255 0 0
-0.014572034436214727 0.004004574281627476 -0.002116914410523334 255 0 0
0.04397769376709854 0.0020756086151525028 -0.012638629318783994 0 0 255
-0.007382815519534547 -0.004193689290034181 -0.001234862102426054 255 0 0
0.01596175216875897 -0.009969079854387553 -0.012638629318783998 0 0 255
0.009975901548239078 -0.015255074955103951 -0.010542669434740694 0 0 255
0.006423285934555337 -0.0006301903088328825 -0.0021169144105233316 244 208 63
0.0211230449292816 -0.03642299588964704 -0.0015876880475541176 244 208 63
-0.013226535573285729 -0.021352959632621904 -6.287928861596668e-05 255 0 0
-0.01517734014868016 -0.030026312340377746 -0.012638629318784001 0 255 0
0.022116722855804183 -0.01958912478524679 -0.0015876880475541176 244 208 63
0.04282724406953536 -0.0007999629685921441 -0.012638629318783994 0 0 255
-0.009820750913677543 -0.015540104261032769 -0.0021588389833920897 255 0 0
-0.034166309307586185 -0.02040647030393463 5.520292723030765e-09 255 0 0
-0.026037420232507862 -0.02009480025457145 -0.0032068186730575036 255 0 0
-0.009802192635864541 -0.02806780383372039 -0.008446710560122351 0 255 0
-0.019203114625586295 0.010624808362246786 -0.012638629318784001 0 255 0
-0.02667837883441334 -0.020130755971498243 -6.287928861596832e-05 255 0 0
0.005971211435097919 -0.0023122311996805604 -0.0015876880475541196 244 208 63
0.019488511362199035 -0.03491321109630622 -0.003206818673057498 244 208 63
0.009435154618248938 -0.024192807162467123 -0.011066657891614087 0 0 255
0.01955155802609049 -0.009549552748493556 -0.010542669434740694 0 0 255
-0.044093325414639194 -0.008845895734306388 -0.006350754209066397 255 0 0
0.019948681954514717 -0.031342717557229706 5.52029272965794e-09 244 208 63
-0.009327409607888212 -0.026011058090361312 -0.008446710560122351 0 255 0
-0.013488725630163857 -0.024347909344630776 -0.00215883898339209 255 0 0
-0.01607012605086718 -0.029982896973027345 -0.006350754209066394 255 0 0
0.021477492389423095 -0.007321583801713682 5.520292729845165e-09 244 208 63
-0.01533419772084201 -0.02008426589573237 5.520292725337033e-09 255 0 0
0.008279263615461328 -0.0033478297875501957 -0.0021169144105233316 244 208 63
-0.00943548268135958 0.001833283536692702 -0.010542669434740698 0 255 0
-0.008088344512302309 -0.028455406865961194 -0.0032068186730575014 255 0 0
0.02066097258034913 -0.03045950706017373 -0.010123476448507078 0 0 255
-0.0243923664385356 -0.015839978170362076 -0.0015876880475541233 255 0 0
-0.01016929323782741 0.010888928439640469 -6.28792886159663e-05 255 0 0
0.011874511787442223 -0.016209849643828707 -0.008446710560122347 0 0 255
0.00981634477374533 -0.015645595225467112 -0.0013204557868434828 244 208 63
-0.009437660010989314 0.03525600777360748 -0.0010584544924320985 255 0 0
-0.010712826180695653 -0.02346339467053186 5.520292725902988e-09 255 0 0
0.04213825904708123 -0.010046681416717171 -0.012638629318783994 0 0 255
0.02153427052433882 -0.009583085845526348 -0.0042547983627229105 244 208 63
0.012416275208362889 -0.018612191199891576 -0.012638629318783998 0 0 255
-0.04080871717385405 -0.016379463319157427 5.520292722217304e-09 255 0 0
-0.031236410977431052 0.01112739398178164 -0.006350754209066395 255 0 0
-0.019922267322270464 -0.03190198137860966 -0.00021168429937077317 255 0 0
0.04243633416113925 -0.014384808314256625 -0.001587688047554115 244 208 63
0.023610865600029413 -0.016834323326780466 -0.0017640956575480729 244 208 63
-0.034915165343020714 0.011990796532929296 -6.287928861596933e-05 255 0 0
-0.0422095446374622 -0.009725404670049325 -0.012638629318784005 0 255 0
-0.011846400311847213 -0.018163528052072397 -0.003206818673057502 255 0 0
0.011495018475296584 0.01774101102945922 -6.287928861596364e-05 244 208 63
-0.019869159456494145 -0.032136062988167645 -0.0019052246224043668 255 0 0
-0.01942820023993789 -0.029077616408737017 -0.0063507542090663945 255 0 0
0.0125926792853695 -0.012117458166962337 -0.010542669434740694 0 0 255
0.020588695734661534 -0.03125775829639702 -0.010542669434740694 0 0 255
0.025170439269891775 -0.013513410108033811 -0.0010584544924320944 244 208 63
0.015187008420907136 -0.020174940520664993 -0.0015876880475541183 244 208 63
-0.022567180761194832 0.01219704829645495 -0.012638629318784003 0 255 0
-0.018968594925597475 -0.035960953823463246 -0.0063507542090663945 255 0 0
0.014331324942396738 -0.024240706395471337 -0.0002646076611918772 244 208 63
-0.04259333204336995 -0.008285210642588622 -0.012638629318784005 0 255 0
0.045026078488527486 -0.0014668648012874995 5.520292732729035e-09 244 208 63
-0.0256958873552513 -0.013783275832276098 -0.012638629318784003 0 255 0
-0.008526313812139386 -0.02911516903594394 -0.0032068186730575014 255 0 0
0.025371482400645327 -0.015096693151258793 -6.287928861596195e-05 244 208 63
-0.009847755050096002 0.03957830083128973 -0.012638629318784001 0 255 0
-0.006502508128651547 -0.04291324707577238 5.520292726418603e-09 255 0 0
0.009835730780022115 -0.0302755292677235 -0.009494690502143998 0 0 255
-0.006745573115603973 -0.004273380866734853 -0.0010584544924320983 255 0 0
-0.0076818329317888305 0.03938151141730006 -0.0005292208426764862 255 0 0
0.006223911383253777 -0.0434906906406069 -0.0005292208426764844 244 208 63
-0.027482258624190355 -0.02016533483278528 -0.006350754209066395 255 0 0
0.02011614757353742 -0.033033696148992577 -6.287928861596258e-05 244 208 63
-0.01005058284417147 -0.001132383640594274 5.5202927259840895e-09 255 0 0
-0.009791280752091982 -0.01570759915337919 -0.0070494049801851045 255 0 0
0.013590477684561796 -0.024390628208761655 -0.009494690502143998 0 0 255
0.012563367603502002 -0.0197844505330505 -0.0010584544924320959 244 208 63
-0.026927609893708473 -0.015673571438118043 -0.003206818673057504 255 0 0
-0.012715563651217811 -0.02017954147961368 -0.0015876880475541217 255 0 0
-0.015518741800692463 -0.03001794016979406 -0.006350754209066394 255 0 0
0.04301736320341688 0.005736864851489027 -0.001411273245407349 244 208 63
0.007189018545826447 -0.016306330481107283 -0.0010584544924320965 244 208 63
-0.005897029299806187 -0.04830856289920556 -6.287928861596577e-05 255 0 0
-0.023270184677435576 -0.01782589761169509 -0.012638629318784003 0 255 0
0.0330655051482008 -0.018354921080248183 -0.012638629318783996 0 0 255
0.01065899758550087 -0.031371447810322646 -0.002116914410523331 244 208 63
0.009436691972456671 -0.04155306309858592 -0.010542669434740694 0 0 255
-0.04391989409412751 -0.009570447845079311 -6.287928861597043e-05 255 0 0
-0.025477157080421635 -0.012344576763174984 -0.0105426694347407 0 255 0
0.01865883067055091 -0.035547985960932255 -0.00022680785104889584 244 208 63
-0.01066858409430642 0.013124645227668843 -0.012638629318784001 0 255 0
-0.006603428416885876 -0.004243141018620469 -0.0021169144105233333 255 0 0
0.01460744506366537 -0.019150501378038334 -6.287928861596326e-05 244 208 63
-0.037375969764250595 0.008861291483732762 -6.287928861596963e-05 255 0 0
-0.007349267281127419 0.040063705028651336 -0.000529220842676486 255 0 0
-0.014850055304675194 0.00428903755251231 -0.002116914410523334 255 0 0
-0.02143153327118399 -0.028750970530729093 -0.012638629318784003 0 255 0
0.0154810781367404 -0.03005312670490451 -0.009494690502143998 0 0 255
0.017542031163315392 -0.029136427525513795 -0.000529220842676483 244 208 63
-0.022822520860322673 -0.018541727281424655 -0.012638629318784003 0 255 0
-0.0031569856341941466 -0.05132767218810735 -0.003206818673057501 255 0 0
-0.035699096876820546 0.00983001137822236 -0.012638629318784005 0 255 0
-0.0318162650490601 -0.020144934354427883 -0.006350754209066395 255 0 0
0.01745981350066275 -0.010133468746144876 -0.0010584544924320952 244 208 63
-0.010261042900337991 0.011280595416753459 -0.012638629318784001 0 255 0
-0.018717492392434223 -0.03540733672528623 5.520292724922699e-09 255 0 0
-0.005633199432087307 -0.04571726809508515 -0.0021588389833920893 255 0 0
-0.025019554465193595 -0.020564663345313046 -0.0021169144105233355 255 0 0
0.04269615610707098 -0.008046919226252332 -0.0032068186730574953 244 208 63
-0.016808869667094165 -0.04023935708406585 -6.287928861596711e-05 255 0 0
0.019637504504529984 -0.03139222783246343 -0.00026460766119187657 244 208 63
-0.023736724741222567 -0.008383519043749734 -0.009494690502144004 0 255 0
0.009798104464793416 -0.026445617552697583 5.5202927284148524e-09 244 208 63
-0.00981663044100783 -0.026876579424491263 -0.00021168429937077192 255 0 0
0.004083368731898651 0.04681224383477555 -0.0032068186730575 244 208 63
0.010501501047341981 -0.028673658673361798 -0.012638629318783998 0 0 255
-0.04156773206204409 0.0037596663370619357 -0.012638629318784005 0 255 0
0.008333590866584294 -0.040069030754718314 -0.009494690502143998 0 0 255
-0.028751796240342964 -0.0181152512941347 -0.002116914410523336 255 0 0
0.018168405593458985 -0.009594505470051693 -0.0021588389833920862 244 208 63
0.023369397018644638 0.012998316703871225 5.520292730076857e-09 244 208 63
0.022225260264755235 -0.029460329786491764 -0.003206818673057498 244 208 63
0.02132291107053665 -0.010056389056517423 -0.00211691441052333 244 208 63
-0.00710444639946432 -0.02541044014739077 -0.00035281326422706026 255 0 0
-0.00999268525697972 0.0039108655776338595 -0.010542669434740698 0 255 0
0.04065578121764562 -0.016532780837999167 -0.0015876880475541152 244 208 63
0.009365286260505958 -0.03940845498822117 -0.0010584544924320963 244 208 63
0.02155541393946371 -0.028734052568469323 -0.012638629318783996 0 0 255
0.04104994147439951 0.008607532144085757 -0.000705635676367776 244 208 63
-0.03643666350354903 -0.0163787234106648 5.520292722752727e-09 255 0 0
0.01115146876697827 0.019695544420640504 -0.001058454492432096 244 208 63
0.04248111225218002 0.006742296522197337 -0.0007056356763677758 244 208 63
-0.006745573115603973 -0.004273380866734853 -0.001234862102426054 255 0 0
0.03324205559182601 0.010731373354834138 -6.287928861596098e-05 244 208 63
-0.03963725528641023 0.006819782000657035 -0.009494690502144005 0 255 0
0.03359017597634434 -0.017686118500360993 -0.0005292208426764811 244 208 63
0.009366549051125706 0.035358912591304976 -0.0010584544924320963 244 208 63
0.007883374213758086 -0.017700409938885685 5.520292728180366e-09 244 208 63
-0.009994833313285736 -0.00035534723631150037 -6.287928861596627e-05 255 0 0
-0.02336183238802562 -0.017044303906092968 5.520292724353932e-09 255 0 0
-0.014927904176118991 -0.01841754782335801 -0.0010584544924320991 255 0 0
-0.00705071420435282 -0.016808044966905248 5.520292726351468e-09 255 0 0
-0.012549302276167417 -0.009299652440452702 5.520292725678085e-09 255 0 0
-0.011992361141610838 -0.029480732283699074 -0.006350754209066394 255 0 0
-0.014997902749681272 -0.018585158799574352 -0.001411273245407356 255 0 0
-0.026624051583290374 -0.010769855662425382 -0.003206818673057504 255 0 0
-0.025856591845919832 -0.020593409749205274 5.520292724048412e-09 255 0 0
0.010466994864651764 -0.028649208382081598 -0.004254798362722912 244 208 63
0.009146627654848156 -0.026704528997319163 -0.008446710560122347 0 0 255
-0.008526313812139384 -0.02911516903594394 -0.009494690502144002 0 255 0
-0.013647630316136136 0.006945095042949084 -0.002116914410523334 255 0 0
0.020687338760195503 -0.030481056264130866 -0.007398730618100696 0 0 255
0.009792793880100776 0.011608619159826097 -0.001058454492432096 244 208 63
-0.009474748302716553 0.002007148152866674 -0.004254798362722914 255 0 0
-0.009978087962693413 -0.023637098535781616 5.520292725992968e-09 255 0 0
-0.00799566617883236 -0.017270449416648192 -0.005093181306915279 255 0 0
-0.011895649146017378 -0.03972977514016211 -0.003206818673057502 255 0 0
0.012650808030876131 0.015221729611112943 -6.28792886159635e-05 244 208 63
-0.0017983689154297325 -0.05023436401844399 -6.287928861596527e-05 255 0 0
0.007767101581370483 -0.0038566397737189568 -0.0021169144105233316 244 208 63
-0.01756831860801521 -0.040463950099039 -0.0010584544924320996 255 0 0
0.01104771906059274 -0.015986344788957947 -0.010542669434740694 0 0 255
-0.00777510682598272 -0.01714674842601061 -0.010542669434740698 0 255 0
0.026782757412546356 -0.01717156211027491 -0.001587688047554117 244 208 63
0.026997090632268413 -0.010368030841981839 5.5202927305211214e-09 244 208 63
-0.026516107716213353 -0.017817900947194976 -0.0009072443374528422 255 0 0
0.006847151548909507 -0.003844596324570906 -0.009494690502144 0 0 255
-0.0038962364864614392 0.0499753819140755 -0.012638629318784 0 255 0
-0.026529819744813398 -0.017773310609195986 -0.0018144942267429385 255 0 0
-0.010078515651549295 0.004208707766883313 -0.0021588389833920897 255 0 0
0.01504895542624751 -0.01096333820025974 -0.0021169144105233307 244 208 63
-0.022916100610278184 -0.019473097443123456 -0.0063507542090663945 255 0 0
-0.0019750775864167654 -0.04938284542730136 -0.0010584544924320976 255 0 0
0.00973306923373897 -0.01752116231177849 -0.002158838983392087 244 208 63
-0.0003183721263574354 0.05055693585733017 -0.0013230676739167037 255 0 0
-0.036563164639014094 0.011297136863504703 -0.009494690502144005 0 255 0
-0.010486448502400589 -0.011013964899494619 -0.0014112732454073555 255 0 0
-0.019270108141055058 -0.03150359566899064 -0.0014112732454073565 255 0 0
0.009787744736471695 -0.025774275259621515 -0.0013204557868434828 244 208 63
-0.014287774312102255 -0.024300214015467638 -0.00035281326422706113 255 0 0
-0.007915452224717043 -0.03978588705460699 -0.0010584544924320983 255 0 0
-0.0056225489893783065 -0.04866877013814504 -0.006350754209066393 255 0 0
0.04506476369053485 -0.004463686239520726 -0.0015876880475541148 244 208 63
-0.023270011056343173 -0.01966793059154872 -6.28792886159679e-05 255 0 0
0.011027345836709149 -0.01829007360223552 -0.0014112732454073529 244 208 63
0.019444877959058172 -0.029079792728941796 -0.009494690502143998 0 0 255
-0.01599631084154689 0.008346952624724662 -0.012638629318784001 0 255 0
-0.012559155273161308 -0.029211781098466772 -0.002116914410523334 255 0 0
0.02221775821848348 -0.02859919137552004 -0.0003528132642270567 244 208 63
0.009450810799313914 -0.01310021007776298 -6.28792886159639e-05 244 208 63
-0.04292389449020651 -0.004218299070457404 -0.0032068186730575057 255 0 0
0.04334822847774019 -0.011493362008944063 -0.0032068186730574953 244 208 63
0.02157120134577295 -0.010077284153103178 -0.0010584544924320948 244 208 63
0.01232517864379873 -0.04138062101453095 -0.0032068186730574992 244 208 63
-0.007136470910900617 -0.0037140600128448965 -0.008446710560122351 0 255 0
0.01077059758976792 -0.030812838096314073 -0.0032068186730574992 244 208 63
-0.010264075212905316 0.03256878125938448 -0.0021169144105233338 255 0 0
0.005250809575030906 -0.04538465853443816 -0.0005292208426764845 244 208 63
0.013187695929260121 -0.021696858601974938 -0.008446710560122347 0 0 255
0.018753583372305097 -0.00956487581932311 -0.0021588389833920862 244 208 63
0.010595456303381058 -0.01591274761542812 -0.0034164116331869623 244 208 63
0.013291909971125337 -0.024624320180286687 -0.007922722103248956 0 0 255
0.0077659987846062355 -0.02486335200982808 -0.007922722103248956 0 0 255
-0.0263870648487095 0.011256188530746359 -6.287928861596827e-05 255 0 0
-0.021784238463851715 -0.010142697918516063 -0.0010584544924321 255 0 0
-0.01211085349947632 -0.013281547214528748 -0.0021169144105233338 255 0 0
0.019029675229674966 -0.03471930863769023 -0.0006804309661112114 244 208 63
-0.01020970455650925 -0.015871828555993492 -0.007748059284291161 0 255 0
-0.014393251144587216 0.006948258076048188 -0.012638629318784001 0 255 0
0.022017601362841147 -0.0194957206752336 -0.00211691441052333 244 208 63
-0.009491943856839175 0.0020781044183558013 -0.008446710560122351 0 255 0
0.021610161111368303 -0.028224951110844564 -0.0014112732454073516 244 208 63
-0.01932677120152582 -0.03393576876077326 -0.0005292208426764876 255 0 0
0.012598642968008562 0.01210798269490193 5.52029272875782e-09 244 208 63
-0.03566195003844587 0.009847713663672814 -0.006350754209066396 255 0 0
-0.007258809177847826 -0.04096376484707009 -0.001587688047554121 255 0 0
0.039384895009752015 0.010172313437295265 5.52029273203819e-09 244 208 63
0.011456029436377512 -0.039263017040584665 -0.001587688047554119 244 208 63
0.0033686837500690008 0.04708103351201492 -0.001058454492432097 244 208 63
0.011508688108048483 -0.02868624014601131 -0.001058454492432096 244 208 63
0.015475055907453896 -0.029546449886023663 5.520292729110079e-09 244 208 63
0.02714049761689378 -0.012170247054452611 -0.003206818673057497 244 208 63
0.022113747071034386 -0.0340058551543067 -0.0010584544924320948 244 208 63
-0.027684868382475362 -0.014650277992816256 -0.0017640956575480792 255 0 0
-0.014035683551907242 -0.031624379421505866 -0.006350754209066394 255 0 0
-0.02277426025318427 -0.030439120713765713 -0.002116914410523335 255 0 0
0.004707435616593207 0.04583052153742986 -0.0032068186730575 244 208 63
0.007562938822790927 -0.0033984567391413126 -0.009494690502143998 0 0 255
0.007123750137607203 -0.025305833439217735 -0.0015876880475541194 244 208 63
-0.025346345700395158 -0.012035648311991849 -0.006350754209066395 255 0 0
-0.03859470504122601 0.010741037589361289 -0.0010584544924321022 255 0 0
-0.002560183822269133 -0.04952528336396913 -6.287928861596536e-05 255 0 0
0.03152736560785061 0.01274470272141786 -0.0032068186730574966 244 208 63
-0.013645946595309806 0.028236937022770133 5.520292725543785e-09 255 0 0
-0.026865853274910576 -0.017043825438663902 -0.0006048277497488501 255 0 0
-0.011321730493128634 -0.026166741701299526 -0.0010584544924320987 255 0 0
-0.007820872639342781 -0.029050321557931278 -0.00035281326422706037 255 0 0
0.019961305823012372 -0.031570910181595364 -0.0012852678637737204 244 208 63
-0.012864920186532859 -0.03964869409000974 -0.009494690502144002 0 255 0
0.015192754067755741 -0.021799171896648317 -0.0005292208426764833 244 208 63
0.01343787080088896 0.016666393372278078 -0.0010584544924320957 244 208 63
-0.023264495558384498 -0.010011131488622625 -0.009494690502144004 0 255 0
-0.01041044284092614 -0.02859025190811118 -0.008446710560122351 0 255 0
0.005408915805863122 -0.04606181713410974 -0.012638629318784 0 0 255
0.009182947774184004 -0.017450423829723585 -0.010542669434740694 0 0 255
0.023926006052390748 -0.020367871912473464 -0.0021169144105233294 244 208 63
-0.003498025407359781 0.05046723028035515 -0.006350754209066392 255 0 0
-0.04101442990445329 0.0038709037054136023 -0.0021169144105233377 255 0 0
0.04189195935785784 -0.009015639625454408 -0.0021169144105233273 244 208 63
0.029998613719589673 -0.02013219339263535 -6.287928861596138e-05 244 208 63
-0.02708739984536702 -0.016621323557425065 -0.001764095657548079 255 0 0
-0.03073101007169438 -0.020202047618428948 -6.287928861596882e-05 255 0 0
0.04427765448697405 -0.007938917821952829 -0.003206818673057495 244 208 63
0.024353150279001465 -0.015979728008372458 -0.0010584544924320944 244 208 63
0.023975368951580922 -0.019909370909034732 -0.012638629318783996 0 0 255
-0.0071022847159214015 -0.04758389672341262 -0.000529220842676486 255 0 0
0.022470138683640815 -0.018218884916650312 -0.001323067673916701 244 208 63
0.006328401502844413 -0.0009628141276073741 -0.0015876880475541194 244 208 63
0.01355803274763139 -0.017333526363288318 -6.287928861596338e-05 244 208 63
0.025619421395996995 -0.020634327799214945 -0.0017640956575480727 244 208 63
0.01969229609113263 -0.03137767394345022 -0.0007938413109474889 244 208 63
-0.02660331597584764 -0.01758847682438321 -0.00166329132700555 255 0 0
0.019922329906617724 -0.0313279738963248 -0.00211691441052333 244 208 63
0.007924423993724493 -0.03985275136368141 -0.0018523012290387255 244 208 63
-0.0252591939685584 0.011118251619956655 -0.012638629318784003 0 255 0
0.020868690028910654 -0.0072546468140424454 5.520292729770608e-09 244 208 63
0.027216911086050382 -0.016356710880652936 -0.002116914410523329 244 208 63
-0.007893628457171922 -0.017713368936468674 -0.001411273245407355 255 0 0
0.009145713115838169 -0.002324448774633492 -0.0015876880475541191 244 208 63
-0.01019314796838367 0.03444542338327382 -0.006350754209066393 255 0 0
0.008356734961971646 -0.01729508947982009 -0.012638629318783998 0 0 255
-0.014582700020298064 -0.019147773911807674 -0.012638629318784001 0 255 0
0.044327427212696294 0.00039665858351958734 -6.287928861595961e-05 244 208 63
0.015900532564037576 -0.029496634764453276 5.5202927291621845e-09 244 208 63
0.022991486484829748 -0.020081871539737135 -0.0017640956575480729 244 208 63
0.04252650003589412 0.0010996044578253706 -6.287928861595985e-05 244 208 63
-0.015259803101597075 -0.01955412398432822 -0.0017640956575480776 255 0 0
-0.012810752424552919 -0.025608725529164985 -0.0014112732454073557 255 0 0
-0.0189042985936107 0.008429604340108315 -0.0063507542090663945 255 0 0
-0.013730746366999473 0.02102508225616786 5.520292725533399e-09 255 0 0
-0.013251900403575914 0.021369443542150666 -0.012638629318784001 0 255 0
0.022314471223501893 -0.01845224175909001 -0.001323067673916701 244 208 63
0.006838241859536841 0.0007887608751447809 -0.0005292208426764843 244 208 63
-0.01086197982159458 -0.026248361784378317 -0.0010584544924320987 255 0 0
0.020293364237633477 -0.032420004133994075 -0.012638629318783998 0 0 255
-0.027482113266996715 -0.015583563033656272 5.520292723849343e-09 255 0 0
0.02157120134577295 -0.010077284153103178 -0.0007056356763677784 244 208 63
0.007395894133974805 -0.0407911451042229 -0.0007938413109474904 244 208 63
0.0204471460919549 -0.0072218389888404205 -0.00211691441052333 244 208 63
-0.007608526472646283 -0.02523798191253651 -6.287928861596598e-05 255 0 0
-0.017539529808274838 -0.010147239321392358 -0.0021169144105233346 255 0 0
-0.03229477689282327 -0.018466767384204455 -0.0021588389833920923 255 0 0
0.023524311447766507 0.01070609634451511 -0.0032068186730574975 244 208 63
0.009854709988041697 -0.017535484033051857 -0.004254798362722912 244 208 63
0.007202992015490051 -0.024705998810012918 -0.0010584544924320965 244 208 63
-0.009671017862853968 -0.027922596034973816 -6.287928861596623e-05 255 0 0
0.032802402571162605 -0.020061032970948908 -0.010542669434740692 0 0 255
-0.010158990037303217 -0.02577582775520359 -0.006350754209066393 255 0 0
0.042770538613216454 -0.00030460407467234333 -0.009494690502143995 0 0 255
0.026128464306974318 -0.009258704107694356 -0.0021169144105233294 244 208 63
0.019861009359400744 -0.032105170546819314 -0.0018901010391817047 244 208 63
0.030074459891921097 -0.018164079198098284 -0.0005292208426764815 244 208 63
-0.0141787866996209 0.004468068153253999 -0.012638629318784001 0 255 0
0.019741588330575897 -0.007189190148068939 -0.00211691441052333 244 208 63
-0.019427067665137444 -0.009436516332514355 -0.012638629318784001 0 255 0
-0.009218653153721747 -0.026154188492548778 -0.006350754209066393 255 0 0
0.008858521621653955 -0.03947474190622085 -0.002116914410523331 244 208 63
-0.02650834321945308 -0.017852988558659754 -0.0012096645843222994 255 0 0
0.01918595238248721 -0.029167596549300026 -0.012638629318783998 0 0 255
0.019218310508871413 -0.03151250485365083 -0.0013230676739167013 244 208 63
-0.03767977841205774 0.007999281434311677 -0.0005292208426764898 255 0 0
-0.009841820640780657 -0.015495034446179754 -0.004254798362722914 255 0 0
-0.024226919669424564 -0.008009148563254952 -0.0021169144105233355 255 0 0
0.022174851601310816 -0.018689474793360108 -0.00211691441052333 244 208 63
-0.012196987730957598 -0.02321706469855979 -0.012638629318784001 0 255 0
-0.00910570354828875 -0.012780877483560068 -0.0010584544924320985 255 0 0
0.019937624713548516 -0.03133212465174319 -0.0005292208426764827 244 208 63
0.011775114721466246 -0.023529011330360866 -0.008446710560122347 0 0 255
-0.0064868655748234715 -0.047482873473832794 -6.287928861596585e-05 255 0 0
0.007193603858688321 -0.04122358679300183 -0.0010584544924320965 244 208 63
0.0007849760362728829 0.05334080067912486 -0.0010584544924320974 244 208 63
-0.01128497531163682 0.004694954077014326 -0.0010584544924320987 255 0 0
-0.02607416128205029 0.010719910325035692 -0.001764095657548079 255 0 0
-0.0189742396299505 -0.03158468075684284 -0.0003528132642270617 255 0 0
-0.013738668334052856 -0.01752254118626816 -0.004254798362722915 255 0 0
-0.018602510814565133 0.007617974690232886 -0.0010584544924320998 255 0 0
0.0030428073062336593 -0.05222292714373633 -0.001058454492432097 244 208 63
0.019742648226779524 -0.031364714945867234 5.520292729632708e-09 244 208 63
-0.01932677120152582 -0.03393576876077326 -0.0012701479397165328 255 0 0
0.023216848681619242 -0.018033019499532673 -0.0021588389833920854 244 208 63
-0.009152717515606697 -0.02640050433257147 -0.006350754209066393 255 0 0
0.00839237271003735 -0.002466375942273606 -0.012638629318783998 0 0 255
0.0021928555949787243 -0.04928083697896465 5.5202927274834785e-09 244 208 63
0.01323704570592587 -0.017028922288615977 -0.008446710560122347 0 0 255
0.01865883067055091 -0.035547985960932255 -0.001738894606456971 244 208 63
-0.01537579915154678 -0.021139510669161157 -0.002116914410523334 255 0 0
-0.009448165096504675 0.001697494429852773 -0.0025780286889945997 255 0 0
-0.01220379327400983 0.001444489635360253 -0.0005292208426764867 255 0 0
0.02669923355400086 -0.017292955555463455 -0.002116914410523329 244 208 63
-0.02035167669848207 -0.028819112771797595 -0.012638629318784001 0 255 0
-0.01587401698929774 -0.0383657755366426 -0.0005292208426764871 255 0 0
0.009128083508984535 -0.02629066072772757 -0.001320455786843483 244 208 63
0.025164881376084955 -0.01384845742994914 -0.0017640956575480727 244 208 63
-0.03522910054198478 -0.017618977608848677 -0.009494690502144004 0 255 0
-0.013566429144414015 0.029209604778261997 -0.0010584544924320991 255 0 0
0.01992645239813735 -0.031328250478762705 -7.560135523510214e-05 244 208 63
0.02228106733286345 -0.01850558179260617 5.520292729943575e-09 244 208 63
0.02404216260090843 -0.007952224061720628 -0.0010584544924320944 244 208 63
-0.01281610641451866 0.016247359875187484 -0.006350754209066394 255 0 0
-0.010755414829007227 -0.015243016364581563 -0.0015876880475541215 255 0 0
0.04260999563054085 0.0007121455209970116 -6.287928861595983e-05 244 208 63
0.019774715638776443 -0.030691806025259713 -6.287928861596262e-05 244 208 63
0.021087725150076984 0.00966418506532793 -6.287928861596246e-05 244 208 63
