ply
format ascii 1.0
element vertex 677
property float x
property float y
property float z
property uchar red
property uchar green
property uchar blue
end_header
0.04179343166659439 -0.00894395813931628 0.16584463180895884 255 0 0
0.005069992327348538 0.03553705340363072 0.1608515011087991 0 0 255
0.02049861846976249 -0.008737344508263682 0.16777076434667962 255 0 0
0.02657822023713089 -0.004695816126063977 0.1692574870788235 255 0 0
0.022217708013367483 -0.03025314809182679 0.15718387515263418 0 255 0
0.002583908464304068 -0.004649636806035721 0.1603922750848673 0 255 0
-0.00834891792897977 0.025007235536984126 0.15752393070502424 0 0 255
0.026349477442294926 -0.0034342082954356822 0.16819159893245708 255 0 0
0.05093369287832686 -0.00460741625317931 0.16938038777255696 255 0 0
0.034694952121289334 -0.008328286758085808 0.16963514567958696 255 0 0
0.0305826333478912 0.03171175179237145 0.1693409154937393 244 208 63
-0.0033564960990858468 -0.026461817341779374 0.16893744079088752 255 0 0
0.018630964571741595 0.01531744412841779 0.16801687044125455 244 208 63
0.055901098163362216 0.00883481089463866 0.16878727390682094 244 208 63
0.032515673937677174 0.01753776714311525 0.17018399221045794 244 208 63
0.016246544677520697 0.0017422718320856834 0.16854377461231193 255 0 0
0.01761668684614483 0.015320636557564285 0.15764103174725533 0 0 255
0.03965429378446124 -0.005727240107115125 0.16173099778875494 0 255 0
0.06267712072826088 0.006474645030142711 0.1703840339139884 244 208 63
0.03578468475349597 0.03504575602619166 0.170464766819897 244 208 63
0.059696078365065866 0.008768107144135121 0.1672237394308241 244 208 63
0.020986662988834594 0.05044542960328389 0.16946276819187261 244 208 63
0.02208277003657133 -0.019099108167369476 0.16349978310924743 255 0 0
0.013961680903065146 -0.03535039893257147 0.16742471209534407 255 0 0
-0.0004994513124596377 -0.029579504255677985 0.1693874590498881 255 0 0
0.024251887704680862 0.050062358035518235 0.16948659313603107 244 208 63
0.026899774050098208 -0.0008178054062042053 0.15960995119909963 0 255 0
0.031817528532754775 0.014243014016171746 0.16811823697787884 244 208 63
0.06291317126504344 0.0022172667097637927 0.16717994245720172 244 208 63
0.033037880972604565 0.01742066275621118 0.1688586047798825 244 208 63
0.03262068300149318 0.033795117067787483 0.16938109381188335 244 208 63
0.031199695552896516 0.01943990183579692 0.16990775944942563 244 208 63
0.06071075755088175 -0.003993903307164493 0.16868872416354164 255 0 0
0.042341089767146844 -0.007629040004896046 0.1684915932571372 255 0 0
0.03432124293840791 -0.005726173584248248 0.16065269102095037 0 255 0
0.015842292378088187 0.002058352593243281 0.16161164887644136 0 255 0
0.011196894757343659 -0.03447508021009109 0.15704336625941623 0 255 0
0.029143558403693214 0.01744066087099581 0.1618933254206961 0 0 255
0.008767718851180332 -0.03263164798669976 0.16943366606238328 255 0 0
0.04053922659628283 -0.015074083773827286 0.16829072633539863 255 0 0
0.05044904649705205 0.02207226222836638 0.17037464685142784 244 208 63
0.019684928426686586 -0.03184190985283939 0.15714484415391428 0 255 0
-0.004737107508129264 -0.02196075184974145 0.16897464947462257 255 0 0
0.029842963725029842 0.01482286210620311 0.15980562281794247 0 0 255
0.022176402378560327 -0.0025907628604730053 0.16889504328639585 255 0 0
0.046261874039949205 0.026310113699163452 0.15800641402376214 0 0 255
-0.012517507344115334 0.02552793753749548 0.15749385916976616 0 0 255
-0.023645613761674122 0.006474853851588283 0.15719081755911318 0 255 0
0.01577290727617503 0.001259077649761505 0.16783917091101397 255 0 0
0.010178854784153707 0.0006742332912279912 0.16361317429046673 255 0 0
0.06163242732760164 0.0034119835712822593 0.16825587492597993 244 208 63
0.004778502770128124 -0.03370612314222084 0.1673638840009461 255 0 0
0.02850224910516475 -0.019757268812320216 0.1666454167388173 255 0 0
0.03133292761100603 -0.006312499436025855 0.1694544655487162 255 0 0
0.02268213410389175 -0.0022716713807904862 0.16890285701097318 255 0 0
0.027731901983654043 -0.006281032905947807 0.16988342184889857 255 0 0
-0.03506156695421795 0.01624114454329391 0.16860943752389537 255 0 0
0.05426340781775868 -0.004196711528496724 0.16393812023552184 255 0 0
0.017576776953563775 -0.014737402679322307 0.1635086731460248 255 0 0
0.014045103010956139 0.05196743248630862 0.16907219283505273 244 208 63
0.016251770989203513 0.0027617784750716126 0.16838110513770194 255 0 0
-0.004127987546348452 -0.02106964046963522 0.15705803273632088 0 255 0
0.05358101843786085 0.011478353387479772 0.16874971912659437 244 208 63
0.02167812907419456 -0.006761534990322734 0.1678024086978455 255 0 0
0.008646087803831363 0.019440960325077826 0.15760900761075342 0 0 255
0.0511856646913767 0.021554496428268757 0.16836399027359522 244 208 63
0.03398173905918327 -0.005358950999796152 0.1700090229929838 255 0 0
0.029209431582053427 -0.0009816343741969671 0.1682776087529826 255 0 0
0.006598112396971504 -0.000263946726106825 0.16826535443379834 255 0 0
0.0305703682235084 -0.006073119079071187 0.16892907463895115 255 0 0
0.006855430446476833 -0.03372538299489413 0.16320982891159533 255 0 0
0.028546474827536944 0.03140309473262766 0.1689724554137795 244 208 63
0.026350132234329384 -0.00347904575421068 0.16985977510861036 255 0 0
-0.0025570101362533443 0.02380384339568685 0.1616908324828531 0 0 255
-0.0036410638944834412 -0.023791849878843786 0.1570325446138543 0 255 0
0.042360842768608645 -0.008277662768049206 0.1700490688463627 255 0 0
0.03038840900202896 -0.006511818949905775 0.16990368648620785 255 0 0
0.020073350627299223 -0.01621546982515137 0.15938362892164815 0 255 0
0.009276075056131159 0.00012735460354791096 0.158643057615774 0 255 0
-0.00044400338999714406 -0.026171052889095277 0.16896558375073886 255 0 0
0.012448323516077933 0.051243303455129126 0.16870296948145233 244 208 63
0.019591225781328863 -0.013342836423567046 0.16875571184472765 255 0 0
0.04702528480219788 0.023545732644918032 0.16965365363012322 244 208 63
0.04998611320112821 0.025372874830205845 0.16943822608247702 244 208 63
0.023434500697033518 -0.03139144409056853 0.16647518519000407 255 0 0
0.04358232835381146 -0.014780379874057916 0.1688414817990947 255 0 0
0.028342404975997413 -9.398014668529457e-05 0.16793220995992064 255 0 0
-0.00312579673831418 -0.026881567042345976 0.1678919242336585 255 0 0
0.005930466049076698 0.031001005800036237 0.15771168919032966 0 0 255
0.046440378831858635 0.023543774188938032 0.16541242376362758 244 208 63
0.0071976262348447916 0.03540981314494772 0.16813777319896273 244 208 63
0.03532647907989819 -0.003377017227654113 0.16378466866114227 255 0 0
0.027552565315073014 0.030431362001082592 0.16860570355613758 244 208 63
0.026154236111606215 0.04965008047711008 0.1694984131996995 244 208 63
0.037069332626763735 -0.001594529796003866 0.16833832856870096 255 0 0
0.03697818890949649 0.03086244491108394 0.1703674550335974 244 208 63
0.03772692353786275 0.03152717618288992 0.16835725262503606 244 208 63
0.04727104396196938 0.024244305890133072 0.1703835991871635 244 208 63
0.0219961444963139 -0.032471777094439117 0.16335332046767276 255 0 0
0.030356236391023885 -0.006348287148304075 0.16061191212524237 0 255 0
0.041882412495686305 -0.007984983171537261 0.15966032733123364 0 255 0
0.011703905965979934 -0.035199478211322265 0.1679284495884885 255 0 0
0.015555263119852987 0.0017740504692518146 0.15747574011721177 0 255 0
0.004531327185528446 0.03766626396305138 0.1691824116126592 244 208 63
0.03203202304409478 0.03170978170387787 0.17033427508828525 244 208 63
0.000992712069537203 -0.030925858046890728 0.16938558330906694 255 0 0
0.02766495177774364 0.031353615202325484 0.16099966601947224 0 0 255
0.0150170956025872 -0.03535468096157825 0.16899808973332608 255 0 0
0.03147188983070201 0.013846885582619178 0.16967533073336794 244 208 63
0.02664266453307054 -0.004965447702808412 0.16890746480347515 255 0 0
-0.03786802602726164 0.015512618425928186 0.1696203473471927 255 0 0
0.023247345958779517 -0.01732198250086152 0.16822224247957313 255 0 0
0.023062508781290864 0.05286099356517132 0.16898543014694853 244 208 63
0.014926361746690885 0.0033170753076019353 0.16889725114965026 255 0 0
0.03706878081899374 -0.003843869555235805 0.16999004271080476 255 0 0
0.05076361696192641 -0.004690654332052958 0.1701602094638213 255 0 0
-0.003970460808464693 -0.01644035786184609 0.1695008704096246 255 0 0
-0.021631198542715776 0.005327328838349002 0.15719558671899514 0 255 0
0.027635896809455406 0.015775744697954862 0.16914199519255008 244 208 63
0.019585264945560128 -0.013350411289668174 0.16945085523461553 255 0 0
0.0009737524448494642 -0.031621738384078675 0.16839688524946322 255 0 0
0.05335867785748451 0.01930609779933548 0.16625163981388164 244 208 63
0.030138834186600176 0.016470030734177032 0.16684769894747598 244 208 63
0.04480451918410729 0.024115700183521424 0.1579700050729297 0 0 255
0.03899953007776332 -0.004617525712776419 0.1658678186190991 255 0 0
0.040279567046339365 -0.002932764585826228 0.17008946446213505 255 0 0
0.008614485627049097 0.01871196651999139 0.16901088264465197 244 208 63
0.03728041924472855 -0.003725896024009691 0.16586279323600464 255 0 0
0.04649967342603526 -0.013610112584704745 0.1687228119434463 255 0 0
0.03384522180728091 0.032606202185977484 0.16106631090743004 0 0 255
-0.0005996302439183502 -0.03026113979616399 0.16787675938041388 255 0 0
0.035432925137393524 -0.0020352172223145606 0.16797185762927846 255 0 0
-0.02842239703049863 0.024672899027440146 0.16875824770360187 244 208 63
-0.0021044366621449234 -0.02852181285331291 0.16840426925276641 255 0 0
-0.002449288512332346 0.001786465708060436 0.16768866293807197 255 0 0
0.03264777385787954 0.030740595142283098 0.16830512780636617 244 208 63
0.03849158350896697 0.01243888390147754 0.16815580750211429 244 208 63
0.04040844107213149 0.017113170435058164 0.16874463274829501 244 208 63
0.033440924963298216 0.03289259795576571 0.16106596488172625 0 0 255
0.017167177337455788 0.014678917686119501 0.16851881387827017 244 208 63
0.027325471714314587 -0.025974198578459957 0.16346982237608843 255 0 0
0.030492145876250494 0.016992935774374367 0.1594218034223678 0 0 255
0.005283500102401417 0.038165439783571405 0.16707749106569267 244 208 63
0.04401409403784245 -0.014695925113080488 0.16968043039007497 255 0 0
0.047057894575995074 0.023715919698796484 0.1690225899099277 244 208 63
0.011342276746559125 0.049935132614976514 0.15796441746581893 0 0 255
0.030201102103602443 0.016508305800025058 0.16684864997043805 244 208 63
0.038317481756141 0.041637566255154516 0.16899394123915837 244 208 63
0.004100884312240861 -0.006194475621496092 0.16922223760048644 255 0 0
0.026688538393313744 0.02890207435515702 0.16927690713012167 244 208 63
0.026350227897341944 -0.01923679374722616 0.1690970813481845 255 0 0
0.023641077254306635 -0.028121520521130053 0.16967231202600133 255 0 0
0.020384586272618778 -0.019377664639112956 0.16869675433368994 255 0 0
0.028695020383262593 -0.017388258026337033 0.1666728844781404 255 0 0
0.02870410420421171 -0.0031714756471721717 0.16682788037056093 255 0 0
0.0417888714641885 -0.008783712797621763 0.16791151362136358 255 0 0
0.047973328456300625 -0.01224872080936748 0.16953247048309922 255 0 0
0.028321123929063177 -0.01565672986858059 0.16204190842480123 0 255 0
0.03418845703172917 0.04421761908010905 0.1700295702387113 244 208 63
0.047016076465850765 -0.013233341498002605 0.16951353281934137 255 0 0
0.001822752880572084 -0.008488787591537835 0.1681347810824682 255 0 0
0.027410321323134916 -0.01533680593432115 0.16984394617765744 255 0 0
0.028732505607320154 -0.0002409072702190436 0.16967214474000256 255 0 0
0.002741999495941546 -0.030069115721425167 0.16011663872371407 0 255 0
-0.009371700516088832 0.02711089738183857 0.1689481733883056 244 208 63
0.04055238472259118 -0.01488713508944228 0.16961390228672776 255 0 0
0.030337750105879874 -0.0059297442705142835 0.16971082939684393 255 0 0
0.03817786530034233 0.02031794815290692 0.16849970092387112 244 208 63
-0.023671756337238527 0.006802136071494016 0.16964716324576978 255 0 0
0.03519688233883278 0.02791126152393511 0.16829615554770197 244 208 63
0.03779897945540238 -0.017138511182328446 0.16956575902659438 255 0 0
-0.03571170004768642 0.017218057018047205 0.16887523455548809 255 0 0
0.01602112822707676 0.05203435278993722 0.17041845569170652 244 208 63
0.035080731214012235 0.027966370608915568 0.1701208608625044 244 208 63
0.03687172307664799 0.017993823043711887 0.16924536219723355 244 208 63
0.027185915221820053 -0.015418513384094152 0.1682767574023634 255 0 0
0.005171033253427812 -0.0053477789031384625 0.16819771956434668 255 0 0
0.026073097270085624 0.025450997798440768 0.17027693767732074 244 208 63
0.026969930273244534 0.02002732045535833 0.1680983908129049 244 208 63
0.02511712417924936 -0.00393014221095439 0.1689056648942027 255 0 0
0.01068287119559419 0.02494684337010015 0.1700775120335031 244 208 63
0.003257552294572386 -0.03302894816135475 0.16787967425223968 255 0 0
0.022147860399123427 -0.00619274740853954 0.1683340879116266 255 0 0
0.014931534747350312 0.0007219724382385873 0.16965120420762192 255 0 0
0.04069672984981371 -0.013322952303425097 0.16991786023024189 255 0 0
0.03953244731195223 0.012631494598835814 0.16709293555371688 244 208 63
0.05036507968023045 0.022140109449770455 0.1694807416316576 244 208 63
0.04649520283771354 -0.013615793685349724 0.16924416499548983 255 0 0
0.03825771428989175 0.02026612474730817 0.16902128129523047 244 208 63
0.019122038210042623 -0.014091399391273043 0.1666267217550197 255 0 0
0.03637375957179732 0.0207553343261011 0.17031409768575428 244 208 63
0.04059497470761573 0.015905256369606303 0.16977599067600896 244 208 63
0.05388044331079575 0.010144973830423763 0.17034859762768384 244 208 63
0.03966574314689885 -0.005622743108519084 0.15760188515734713 0 255 0
-0.021122631205657435 0.005069603447480683 0.1571971392778809 0 255 0
0.035227539227408275 -0.002261565786712636 0.1700534574059488 255 0 0
0.03017277346469628 0.01647230654507712 0.17015229174890045 244 208 63
0.01380667163707808 0.016185497496943514 0.16954933544429293 244 208 63
0.06439373704506664 0.004132202780941141 0.16880885448868055 244 208 63
0.05425077382139065 0.01048775188328742 0.16719578478472133 244 208 63
0.03127280632584269 0.013731111172842522 0.16915090154948936 244 208 63
0.0005057923539423404 -0.027541029688092338 0.16843733933293817 255 0 0
0.03865862294429396 0.03739812294593264 0.16981976711253 244 208 63
0.02662717265438512 -0.000496693403584156 0.16930366401174363 255 0 0
0.03346933293665889 0.020863377733167415 0.16820454219827435 244 208 63
0.02439972029215514 0.030365662782515034 0.17031614283159263 244 208 63
0.02385821872510769 0.028770731728736572 0.16820829232292342 244 208 63
0.06266443634751047 0.000286872005055577 0.16199384395468025 0 255 0
-0.0008484765886286783 -0.007431295805527106 0.1696877728265671 255 0 0
0.037518730671994516 -0.0045623540946420505 0.1690051192229224 255 0 0
0.025734861863716776 -0.003607699893996454 0.16969666270003916 255 0 0
-0.03779378808142021 0.019881411250737585 0.16966858997074677 244 208 63
0.039981640435230524 0.014254341533422428 0.16773402583838667 244 208 63
0.00524281751878939 0.030986986643522264 0.168072815935599 244 208 63
0.03341676533500432 -0.006413699467290661 0.15753968141694233 0 255 0
0.004343185055698135 -0.030637452917717925 0.16739358997090364 255 0 0
0.03935204646362196 -0.006386724834750505 0.1690009599807127 255 0 0
0.024286721140134738 -0.0037719463291010676 0.15749017829540876 0 255 0
-0.008512232149196351 0.026573593592677833 0.16993064097787441 244 208 63
0.035496041445929015 -0.0077675293481831555 0.16790993476346402 255 0 0
0.029827076874757337 0.032422306847181157 0.16102985154526905 0 0 255
0.04118192359230788 -0.013526972209848857 0.16998175876268756 255 0 0
-0.01065133025467222 0.024726421363715882 0.16995413111120336 244 208 63
0.01782884195518323 -0.015476953054436415 0.1573072545738532 0 255 0
0.025871287032868687 0.02723398203506104 0.16816749981297155 244 208 63
0.02707307930599724 -0.004299004186324008 0.16835049092875654 255 0 0
0.0072388284801697044 -0.0004333757284439299 0.16774754902294134 255 0 0
0.04806697714502904 0.0239188348676532 0.1683217026280928 244 208 63
0.041268003858437353 -0.015101527253084113 0.16913100963520117 255 0 0
0.03396573839191146 -0.007982860799222074 0.15959246519204434 0 255 0
0.038645804098628646 0.019297176550631807 0.1702557299131173 244 208 63
0.02603317863371152 0.05234615251995926 0.16848384012698286 244 208 63
0.03247722509285249 0.015994977356384107 0.16883826170558483 244 208 63
-0.011556901958864184 -4.8845650174210095e-05 0.1686334799784095 255 0 0
0.05314906188143091 0.0110690658561044 0.16965711871948183 244 208 63
0.05065786292657945 -0.011797211839808343 0.16692213999313768 255 0 0
-0.03139680526796851 0.012182725839105206 0.1571865490677539 0 255 0
0.028015634395562948 -0.015644911824581928 0.16668605572580406 255 0 0
0.023928985473896998 -0.01756265576868364 0.1614671850678009 0 255 0
0.05076859577492438 0.02260316070993982 0.16110242684186046 0 0 255
0.051495130369122975 0.021836199210948398 0.17039357986135947 244 208 63
0.015113274414909745 0.05230448149974386 0.1687373848504037 244 208 63
0.038706516011428 0.038537716680336204 0.16983259576455365 244 208 63
0.020400521839951422 -0.03149230241704811 0.16025255183794238 0 255 0
0.02844314502481858 -0.0005252853359975131 0.15962637310778824 0 255 0
0.031571656028381266 0.04791995284116652 0.15811592475507477 0 0 255
0.06196770193757588 -0.0003648866963532262 0.15991559311493964 0 255 0
0.06310446119977246 -0.0016259390375396748 0.16713970396618436 255 0 0
-0.03358164595298259 0.014585074288243542 0.16912554234734714 255 0 0
-0.02150394580403845 0.005593559291710275 0.16860966872872615 255 0 0
0.03857098539284057 0.020029948077917942 0.1700643077734367 244 208 63
0.01478947669744555 0.0006415183945196416 0.1691276488958451 255 0 0
0.03057084778057688 0.017281340952908807 0.16727328046212767 244 208 63
0.009474440445016854 -0.032727161309159 0.16634092295444033 255 0 0
0.04637088332590922 0.024592403573375186 0.16728191106558254 244 208 63
-0.02290238446660761 0.0034374799204517064 0.16857418270368477 255 0 0
0.03830854045718811 0.0416262038984371 0.1700366616067812 244 208 63
0.035594367613198855 -0.0019122877348658586 0.16866985852089658 255 0 0
0.030010613800346687 0.016643668839876644 0.15982690145193995 0 0 255
0.017746690523082767 -0.015197697082505084 0.15730959313511128 0 255 0
0.041016351622233965 -0.004724947363373626 0.16691652962689735 255 0 0
0.018072895858958833 0.015897807428922977 0.17004227540087477 244 208 63
0.06334750458255248 -0.0021146681236959637 0.16873181192261766 255 0 0
0.030692795145655934 -0.006135860246593708 0.1691901674126817 255 0 0
0.02645230507437508 -0.0037958790078476898 0.16923144980077953 255 0 0
0.047389418330198295 0.023647258739031302 0.16917367370691672 244 208 63
0.027095977003189883 0.02075867171649765 0.17023457731814634 244 208 63
-0.0006599822446215851 -0.02678072759913355 0.1694165803221211 255 0 0
0.01744273386265232 -0.03267156908489283 0.15711657673249307 0 255 0
-0.03542501371201327 0.01674917567749916 0.16861185691161792 255 0 0
-0.02986137604365695 0.008868424800636845 0.15716359992463225 0 255 0
0.01754907592163905 -0.012375767105216623 0.16043641058757785 0 255 0
0.0203810070559253 -0.016594309038788016 0.16144731316792663 0 255 0
-0.02221632192619808 0.003078637512952351 0.168576155423216 255 0 0
0.034805184005700415 0.018481873389153143 0.16888532319777105 244 208 63
0.04020680170402574 -0.009049351842896184 0.16376470677452684 255 0 0
0.02651871386530341 -0.016192709695056835 0.163569491765924 255 0 0
0.009433233317044628 0.00015670790273003207 0.16855755658292756 255 0 0
0.03809140284758258 -0.004566948910954014 0.16942714461265743 255 0 0
0.06505846574034094 0.002770513185771312 0.16879971640600033 244 208 63
0.04144326813085506 0.014135169330043437 0.15989760143654463 0 0 255
0.040538016345137456 0.015268115324371495 0.1695078256093517 244 208 63
0.04569937987722424 0.01601525622340743 0.16718268914175397 244 208 63
0.0287118587160687 -0.017685990613711323 0.16357202588088202 255 0 0
0.0371879274853562 0.018383423831116553 0.1681680965846333 244 208 63
0.015926722783623535 -0.032989785981444565 0.1571001094199721 0 255 0
0.015065073744181388 0.0517565527290442 0.17040723040763395 244 208 63
0.039298400217446496 0.012771586036273787 0.16089693713175524 0 0 255
0.009336648033051622 0.00011627344584744237 0.166078083680562 255 0 0
0.046272727300206824 -0.016118502177098294 0.16993521159868186 255 0 0
0.02981562258787109 0.03387908163766179 0.16724114559486244 244 208 63
0.024072506811789168 0.023866114101585803 0.15778950892798566 0 0 255
0.06190205749507723 0.002999691022835412 0.16825369431155646 244 208 63
-0.036516800749380414 0.021019275122672303 0.16969193922281817 244 208 63
0.021826668861485106 -0.017156367472213156 0.16977623903836717 255 0 0
0.04675116953248002 -0.014026098952302845 0.1668643523773205 255 0 0
-0.00036380624010950297 -0.026319523647149484 0.16948610687033752 255 0 0
0.014324326090736254 -0.033161327811468085 0.1601822615215089 0 255 0
0.005617528580061514 0.03982270739334384 0.1609028963019742 0 0 255
0.037692340301440266 0.016753638707163156 0.17028179864408843 244 208 63
0.04016477021896463 0.017770480694694852 0.17031408002792384 244 208 63
0.04180961506387646 -0.007904407911717908 0.16792127314157548 255 0 0
0.030670808359224075 -0.006137778975867696 0.16997214508814923 255 0 0
0.022579806085742712 -0.01981370220472978 0.16975374061903803 255 0 0
0.03528946637152096 -0.003774575135509459 0.15758449789252604 0 255 0
-0.03422468938498985 0.01237089105828843 0.16335987170500427 255 0 0
0.03699436599180852 -0.0054768989207889095 0.17003357092786694 255 0 0
0.024694460925689696 -0.019643424133704665 0.16838317876446107 255 0 0
0.025289820755628172 -0.01647782689591074 0.16877041565382184 255 0 0
0.014792119055947073 0.05176259856175456 0.15801391337383736 0 0 255
0.06474640989457084 0.0006997340126839081 0.16098360808990797 0 255 0
0.03647328749369842 0.03643457283226408 0.16629349429522278 244 208 63
0.06417794008380402 -0.0004120717547509479 0.16716213633580393 255 0 0
0.037886946963715994 -0.015266989643798665 0.16677482012154493 255 0 0
0.01931007950544723 -0.011281682555044843 0.1573656713359964 0 255 0
0.026428531362803622 -0.0037197238024525067 0.16985782474890126 255 0 0
0.04703666324241763 0.023703427737321286 0.16946923577952633 244 208 63
0.017654862533093778 -0.011636503513064998 0.15734761146811405 0 255 0
0.03599694858425972 0.02082824376853543 0.16952947390458295 244 208 63
0.02874396490375055 0.03151025018133121 0.17036586699707965 244 208 63
-0.035816525620792995 0.017423889165029044 0.16887657859894825 255 0 0
0.0464167439956331 0.02468003115842303 0.1590225669040253 0 0 255
0.03722150806174912 -0.0019322912003200843 0.15762114017052745 0 255 0
-0.0038689271958540867 -0.015812356699574107 0.16950858428561527 255 0 0
0.03881846685347803 0.013030320892394634 0.16089564110839538 0 0 255
0.02637023903718692 0.029564274069824377 0.17026234619074054 244 208 63
0.0647734177781781 0.001946322642220192 0.1609974235582707 0 0 255
0.028119503753486933 -0.007500244837129525 0.16854487069255245 255 0 0
0.0506351840354103 0.02197833608484353 0.16866186678413372 244 208 63
0.01840249908780389 -0.006932496227164861 0.16829391061536342 255 0 0
-0.0047568417245692374 -0.021702759616413693 0.1674129174082054 255 0 0
-0.0010984422305195954 -0.025881739536682484 0.16322709559407056 255 0 0
0.0467085576130358 0.01963887041568162 0.16723082875660183 244 208 63
0.026318049864036918 -0.020476996496590388 0.1680403773966396 255 0 0
0.04823348983792465 0.023278150320183634 0.1702198032482715 244 208 63
0.012068295435430648 -0.0008505275889096383 0.16882732960755065 255 0 0
0.02624069446860355 -0.021026336765901186 0.169424282033178 255 0 0
0.0020908923129383276 -0.00444325021674789 0.16870262432297622 255 0 0
0.02489962455696182 -0.02726523447366232 0.1572394313302559 0 255 0
0.015941163615064976 0.05253386620675067 0.16892080015034647 244 208 63
-0.00550470858889583 0.02393525787138091 0.16894672830475194 244 208 63
0.04182732047724907 -0.007881908359513141 0.1658564953908175 255 0 0
0.017037871292200784 0.014699891534368886 0.17008230777715186 244 208 63
0.04152899792348683 -0.01508675850666201 0.169759157571983 255 0 0
-0.02641247243611261 0.005542184166025806 0.1675241047460543 255 0 0
0.04997544828448387 0.02239208326259526 0.16843723607928565 244 208 63
-0.013908842234784778 0.00035087122921556926 0.16966058157119948 255 0 0
0.04909083226959306 0.02285782260029104 0.16985010700227948 244 208 63
0.005963815976635145 0.041630862958791856 0.17021884934994513 244 208 63
-0.004100958750245719 -0.014022038831012332 0.16802369046355575 255 0 0
0.042274499160218755 -0.010009205685473123 0.16846508596055845 255 0 0
0.03820563650757567 0.012645683198610726 0.16954615939751216 244 208 63
-0.004827267511727118 -0.021055405017035952 0.1674193676282957 255 0 0
0.016363239342451277 0.0023625889015152007 0.16820389446696124 255 0 0
0.032094003495644244 -0.00635723239783243 0.1678961301598693 255 0 0
0.050446448909152446 -0.005051697627619983 0.1680677280861022 255 0 0
0.009982520812268055 0.00048506851941125875 0.16980495050812336 255 0 0
0.04909019358758579 0.022857010980767544 0.16992458910392041 244 208 63
0.05039244709831238 0.022798993655877422 0.16316651058286707 0 0 255
0.027821668211888143 -0.015675767671980576 0.16823293929015876 255 0 0
0.006757863308066736 0.0367982040907816 0.16707523514210634 244 208 63
0.03550045835873775 0.027701230091693473 0.16907865705141795 244 208 63
0.062068266397742655 0.002707625428072774 0.16929485062946692 244 208 63
0.020779612316480876 -0.01887230828024691 0.16968660104341338 255 0 0
0.04127374803195015 -0.004152251104253922 0.17008470098806944 255 0 0
-0.021784932527925658 0.02609753662284797 0.15742059807938152 0 0 255
0.025786218245369356 -0.023688578798122105 0.16834846115193614 255 0 0
0.007762831636526533 -0.03229442892440247 0.16013544334223873 0 255 0
0.025037413760710628 -0.01893984915616301 0.1604290951320226 0 255 0
0.04458752276520461 0.020424537473424417 0.16933801207643828 244 208 63
0.030389765529532133 0.0167992083897532 0.16313612397173297 0 0 255
0.04310801987393102 -0.014867221319876178 0.16883646831939098 255 0 0
0.05321324902685454 0.010847148711765174 0.1689599774863912 244 208 63
0.009802934981936838 0.0006860486643836729 0.16154490777414046 0 255 0
0.004545282087738127 0.037728680942630474 0.16814029775035189 244 208 63
0.047262634754320826 0.02367684972427318 0.1699178514877331 244 208 63
0.02752770715423451 -0.0067962944651617455 0.1685474668870917 255 0 0
0.02689501163696651 0.029433513407803334 0.1685891916549463 244 208 63
0.02533952165797243 -0.0264640716280835 0.16654521348118254 255 0 0
0.03556002813332113 -0.0019427947819112609 0.1700597820858714 255 0 0
-0.023745200281958097 0.0038755593863075543 0.16961464302886708 255 0 0
0.044148378216164096 0.025249929830544967 0.1704297417171842 244 208 63
0.029613210203011102 -0.008475618379316718 0.168547050695806 255 0 0
0.045329562475247574 -0.01423809751429729 0.16792374819615616 255 0 0
0.02629711476461363 0.05019359751217438 0.16738875115000595 244 208 63
0.026390183712137017 -0.019474122874999 0.16770428740634302 255 0 0
-0.003073178328031804 -0.02540711776591032 0.1570198129019605 0 255 0
0.026087396123490952 0.02190185810910006 0.1619157318630518 0 0 255
0.029306465431199136 -0.00226240369412924 0.17000267522773382 255 0 0
0.029426037855524487 -0.005503365111063063 0.16061314267797153 0 255 0
0.026574124591394063 0.05219985539935372 0.17057271198698684 244 208 63
0.03403553672239077 0.044443063706453026 0.17003071558515304 244 208 63
0.03999554903493585 0.018183203019739566 0.16953493921021973 244 208 63
0.02427058562308079 -0.019202489196540357 0.16661517568345252 255 0 0
0.015818060333207838 0.001280021688652145 0.16992561376041254 255 0 0
0.0260540809645205 0.028320094232993757 0.17024607751555448 244 208 63
-0.035306921406084234 0.016586942057243398 0.16808964133641272 255 0 0
0.026156338680642488 0.025994529620464273 0.1681977468099909 244 208 63
0.0533857554284778 0.01751728043709177 0.16990323724266077 244 208 63
0.013423125287475432 0.016963188223660105 0.17001401302773297 244 208 63
0.01393785292334944 0.01612137577358724 0.1695497615961331 244 208 63
0.0258648008089057 -0.019292466422604366 0.16874467541644053 255 0 0
0.033753465194208986 0.018051244594064833 0.17026216269993505 244 208 63
0.019597186616564656 -0.013335261558143165 0.16806056851699028 255 0 0
0.05063582271661816 0.021979147703351153 0.1685873847757185 244 208 63
0.010120774629696192 0.0005864805864938902 0.1698072411019094 255 0 0
0.06442173320185882 0.0027861453401294865 0.16719907731426664 244 208 63
0.03648139665679919 -0.005323759742346433 0.16583852997409096 255 0 0
0.055276762794416484 0.011700887866603747 0.17031556439391682 244 208 63
0.038202728232870145 0.033778754082291515 0.16977641814531882 244 208 63
-0.0011964411585472208 -0.013478554653307145 0.16788070227927368 255 0 0
0.04139332872162225 -0.015097428928141136 0.16965358227564553 255 0 0
0.03011050554769401 0.016434031479229096 0.17015134072593838 244 208 63
0.03105693012767134 0.03161832398238291 0.16934396450792824 244 208 63
0.041900049897095885 -0.008027323672961984 0.1575948419483037 0 255 0
0.01883583112921472 -0.01756985125648113 0.1665863634045974 255 0 0
0.03308462364368293 -0.008944091871121943 0.16891934978083153 255 0 0
0.022854073917013076 -0.029715136161842584 0.16029295647648545 0 255 0
0.006481310428371904 -0.0010333620851854068 0.1694727060900045 255 0 0
0.029962764146646025 0.014704129166563254 0.1618705305404188 0 0 255
0.014384403248496502 0.0032843106318885184 0.1688922468387654 255 0 0
0.000221448370643335 0.024566615534785393 0.1575926199987245 0 0 255
0.05349790305343655 0.016156029800343415 0.16832499142944607 244 208 63
-0.0038439900549095104 0.0012337395297772735 0.16969454669936543 255 0 0
0.033042974775955254 0.030898672082142177 0.17033410544050326 244 208 63
0.023383021515530924 0.02405066773611508 0.16919569741195153 244 208 63
0.04054021561557282 0.014921974172894537 0.16820043230371962 244 208 63
0.030551919925355085 0.017203277015199237 0.16520708927675484 244 208 63
0.030791950260192942 -0.006156356461420461 0.1678871540014706 255 0 0
0.040246599572102776 -0.0028964467602778255 0.16974194079617194 255 0 0
0.04019253542615133 -0.007646356588889454 0.16377987265598892 255 0 0
0.05043079176654516 0.025122746333560025 0.16996077405203408 244 208 63
0.05054651319556 0.0226411780173739 0.1672964547866497 244 208 63
0.03057545648625606 0.017183579822790545 0.1581854890843281 0 0 255
0.036343095470074645 0.020482928685675864 0.16198821236109298 0 0 255
-0.03416359278094491 0.01935697483633003 0.1696940040977224 244 208 63
-0.0356316746041702 0.017062411091481107 0.16939568519580894 255 0 0
0.03962649634771672 -0.01711835962654355 0.16676956262850615 255 0 0
0.006860780120431889 0.044294111776818745 0.17025556178872164 244 208 63
0.014266630976801038 0.0032853435126773975 0.16784833452681847 255 0 0
0.02706886384144232 -0.002710924750098891 0.1657862894038751 255 0 0
0.024051965773777065 0.02408181744117542 0.1577916832738585 0 0 255
0.03871924609517626 0.03895139018842422 0.1684466622341842 244 208 63
0.03839726926772672 0.013807288896891536 0.16864489692505316 244 208 63
0.03307866280791419 -0.008951666737223071 0.1696144931707194 255 0 0
0.06345222176094029 0.004720076759612885 0.16101631949218986 0 0 255
0.011294949034708398 0.04700798704706988 0.16829929107320415 244 208 63
0.02607141411187796 -0.0011208613920762923 0.15959954568252782 0 255 0
0.04510577641624129 0.019470143928856 0.16101972833730635 0 0 255
0.02891686643874132 0.017521481914455767 0.17015295507595474 244 208 63
0.03882333562576191 0.012292395165446154 0.17024288344258748 244 208 63
0.034948355586152446 -0.0028472980588354867 0.1690017670168057 255 0 0
0.040406205717215614 0.017110329807529873 0.1690053163594718 244 208 63
0.04643285221302422 0.02467115193024056 0.16005519589878367 0 0 255
0.03800462516708935 -0.004519642957125615 0.1692183353482731 255 0 0
0.015755024800578683 0.0012363530917541285 0.16992459738272386 255 0 0
0.052556146770880025 0.019760745415376528 0.1697467463274875 244 208 63
0.05347934753298504 0.01680735955295464 0.16937484342531683 244 208 63
0.040554414753304416 0.013984002968364603 0.17021419939694077 244 208 63
0.03916366716819406 0.01220952579150379 0.17024489876207444 244 208 63
0.038111608987131715 0.01279765339963016 0.1691993723576215 244 208 63
0.03263981055042147 0.017716097934435644 0.1681218248615799 244 208 63
0.039908057381751634 0.017284278191455747 0.15940246006092937 0 0 255
0.028875568919638443 -0.0013972015600473234 0.16251182385146917 255 0 0
0.025466015714500204 -0.019405514297023137 0.16799508866190618 255 0 0
0.028136880550466828 0.03360392270855424 0.1610282340361486 0 0 255
0.016926339174237102 0.052370398003772814 0.15803883734673432 0 0 255
0.028279255982615128 -0.006851051699175461 0.16368638291685572 255 0 0
0.025946705162151803 -0.01927526865225631 0.16934151843541187 255 0 0
0.02767717640558584 -0.015233358039827971 0.16906517458824624 255 0 0
0.03243035935749508 -0.009008575100295799 0.1696083138648538 255 0 0
0.05530303308308473 0.012683608554907091 0.16206580537198942 0 0 255
-0.017713892091341502 0.024701277630569837 0.167807468407904 244 208 63
0.04677781964884513 0.017195754604015866 0.16984307075658792 244 208 63
0.026252928304753034 -0.0027807959126656245 0.16371336013673807 255 0 0
0.013259576150667668 0.019005700164711644 0.15764382518835623 0 0 255
0.02756013472290655 0.033886504709988816 0.17038160935002422 244 208 63
0.06301757363147244 0.00513458867671891 0.17031038972768373 244 208 63
0.04874484530686217 -0.015210196427154894 0.17002826878735053 255 0 0
-0.01113116390721081 0.00048785724847405856 0.15723288928579204 0 255 0
0.036587747920396804 0.03771334720334508 0.16630841038964428 244 208 63
0.04178732230404304 -0.007057423471233811 0.16379996542012534 255 0 0
0.02096142784106435 -0.006829884798143935 0.15742834212993212 0 255 0
0.04053207358781779 -0.015083173620191976 0.1691248990496291 255 0 0
0.03639459201106793 -0.006753442143286865 0.16862396713982483 255 0 0
0.014674492710875009 0.052167114874565615 0.16977503918226183 244 208 63
0.031783707661182665 -0.00833710584218846 0.16163506843699862 0 255 0
0.03949763333371988 -0.0023526278655152397 0.17008908105855222 255 0 0
0.016093270142346607 0.0029695906678100185 0.16994638463944267 255 0 0
-0.0009382292854418304 0.023377764329880243 0.1575697210731568 0 0 255
0.047090560241408966 0.023711443897781483 0.1697677637122852 244 208 63
0.033597384906172256 0.01795534694340716 0.16921686556807536 244 208 63
0.01906530214224269 -0.013810791794500416 0.16972705541391012 255 0 0
0.04984530036006701 -0.009234612611824431 0.16074757849575994 0 255 0
0.035793091668207475 -0.0066111161948527826 0.16375342839338788 255 0 0
-0.004822455756408494 -0.019196651652029655 0.16743966342646252 255 0 0
0.05413157701683283 0.0222453616302744 0.17048260707881063 244 208 63
0.03839230371471522 0.013722068566716216 0.1701928050960657 244 208 63
-0.037314946876902115 0.01952450847163481 0.15845490853941205 0 0 255
0.008777591585602975 0.04434970177513549 0.15788156181530175 0 0 255
0.03349719156507718 0.02086957891602287 0.16846557530518558 244 208 63
0.05209592476893289 0.02048665669938162 0.17009835036980583 244 208 63
0.028902390653931933 -0.0018970694923236345 0.15878929291635288 0 255 0
0.03459470532660438 -0.00769540595899141 0.16373133693114952 255 0 0
-0.03726538650633464 0.019585524613216214 0.16465151667840974 244 208 63
0.023242875309702773 -0.017327663678712295 0.16874360261677165 255 0 0
-0.02981722348473942 0.011246947242586795 0.16859998665980797 255 0 0
0.04517791473556312 -0.0147966589901165 0.16374470644953534 255 0 0
0.03040458325702731 0.018337203248268805 0.16988892545322534 244 208 63
0.026106084744870413 -0.024550592457668566 0.1593445329581939 0 255 0
-0.0035926128570638845 -0.02408202620400021 0.16012755994895414 0 255 0
0.06486072466032818 0.0016250471887984252 0.15789690945163284 0 0 255
0.00735912176267227 -0.0003363053686242009 0.16879255196777654 255 0 0
0.02694679149990307 -0.019318490349953123 0.16973462246362622 255 0 0
-0.004377163995986832 -0.015401465403540735 0.16904921147357818 255 0 0
0.02107388661178501 -0.017179039828288268 0.1635120546381042 255 0 0
0.04082873716952642 0.014522893534013374 0.16950219797015412 244 208 63
0.025551910127561278 -0.029265026919052663 0.169614275578832 255 0 0
0.04906500338452275 0.02343338453403371 0.16832497080162884 244 208 63
-0.004172680471558358 -0.020291460355997756 0.1570661291996665 0 255 0
0.04660200671393007 0.018966716881979408 0.17032035316933206 244 208 63
0.054054106704405136 0.01697089087287587 0.16106922606755997 0 0 255
0.05549115152152915 0.013815343063447744 0.16104716318929907 0 0 255
0.015209590460352812 0.0008918694253952746 0.1691339793950573 255 0 0
0.050326248753498164 0.022902761370059564 0.1590367241775741 0 0 255
0.043033615384101664 0.012434617511025904 0.1697590829584954 244 208 63
0.030456335766796048 0.0317274767266662 0.16968764059885388 244 208 63
0.05533693797688045 0.013094358327633228 0.1662009150115076 244 208 63
0.01751981342072098 -0.009025333037990932 0.16774208300909405 255 0 0
0.03687100563807798 -0.004108879580133688 0.1699854590222119 255 0 0
0.042988525656997345 0.013003707698879242 0.1702243897116829 244 208 63
0.02790688169231894 -0.023777612046612134 0.1634987438022919 255 0 0
0.038579839723756705 -0.012674822317191813 0.16788290426536168 255 0 0
0.03139995450332153 -0.008324271902492079 0.16369708937784827 255 0 0
0.004748232439719016 -0.030841522465197578 0.1673948395281171 255 0 0
0.026096554010511863 0.05191804758217372 0.15811254250091394 0 0 255
0.050266357052717994 -0.005456727484025338 0.169452320682284 255 0 0
0.03787450860511085 0.015544003543299097 0.16853198878175213 244 208 63
0.02833328230519251 0.04972888069800068 0.1581078673848961 0 0 255
0.03541143248539882 0.018516470732094635 0.16819562177995698 244 208 63
0.035732559253202796 0.01845068073460347 0.16993584924928226 244 208 63
0.024844391078766907 -0.01673127331614644 0.16824237396159253 255 0 0
0.02817784884810117 0.03364306116723389 0.15793124995003427 0 0 255
0.026613233751291335 0.03272902879043199 0.15790787335358508 0 0 255
-0.035418307768775664 0.016757697405672425 0.1678298202483976 255 0 0
0.030677693438077285 0.04776980463865098 0.1695167126595023 244 208 63
0.028791868917219063 -0.001247415205953957 0.1699473615619701 255 0 0
0.04172086567835798 0.012025663959818519 0.1702648231572316 244 208 63
0.055496982213790305 0.009822245413137413 0.15945482209461395 0 0 255
0.028694260183229743 -0.017090362781212114 0.16667612407618482 255 0 0
0.05233357652627156 0.021033116234814048 0.16213132560923924 0 0 255
-0.002375009027521968 0.0013030784422569924 0.16351237767260873 255 0 0
0.015206726503873438 0.0014605676537832136 0.16986037778835772 255 0 0
0.022439210840796853 0.05093370491347572 0.16116821653152394 0 0 255
0.043432484846075356 -0.014803380900660933 0.16821419720733577 255 0 0
0.04448325853002775 0.019049218174302295 0.170365045145759 244 208 63
0.036867158966076875 -0.004171951444209525 0.16378921767875518 255 0 0
0.01923246242363754 0.0525881265965377 0.17045202718000518 244 208 63
0.007413295039093002 -0.00028703265512155206 0.1684459167298125 255 0 0
0.038954076930173887 0.012926477975514803 0.16089567240151442 0 0 255
0.058502912754871586 0.009753580153016233 0.16102872858101414 0 0 255
0.04387211592352776 -0.014728837157370838 0.16978314995704086 255 0 0
-0.003804530113181538 0.024123197758785544 0.15961844073518372 0 0 255
0.026069328200460318 0.02533788477943721 0.16923275901693022 244 208 63
0.02609159427729492 -0.0034489034502793257 0.16917999157721159 255 0 0
-0.01719349635671597 0.026789821964859017 0.16985855557798654 244 208 63
0.037788363460373356 0.017878954870462392 0.16197223040972766 0 0 255
0.019964361139968845 -0.019197744953819155 0.16869511147051502 255 0 0
0.006472845668658526 0.022510138989116944 0.16903390621654768 244 208 63
0.010389213305945385 0.049818975801137 0.168322155307729 244 208 63
0.044698286756632566 0.023980702937339962 0.17035866542457978 244 208 63
0.06243675641354031 0.001976885978837657 0.17033296143701468 244 208 63
0.04052226970001958 -0.01505268102884555 0.16787364940462213 255 0 0
0.039106074966793435 -0.01764514194356932 0.1695714466610535 255 0 0
0.01479496962175422 0.02046067680083969 0.17012584930968777 244 208 63
-0.0009460001479609185 -0.008423283491054255 0.1572231235172291 0 255 0
0.0171803679729665 0.0524275178999061 0.15804163806316637 0 0 255
-0.004803308610672716 -0.02144781358309587 0.16897967120803586 255 0 0
0.01768511939306797 0.014578231177753937 0.1690436184324242 244 208 63
0.05734094605416406 0.010425281578970656 0.167221602199153 244 208 63
-0.003883285012402673 -0.0162899832107684 0.16020997608666163 0 255 0
-0.028028711791750323 0.009833025418248664 0.16912137629273355 255 0 0
0.03868931084563223 0.019963177859112533 0.16823949403393162 244 208 63
0.06111167367454277 0.005142627831545028 0.15790309195328125 0 0 255
0.005136231525077625 0.023084644645090215 0.16902870508246468 244 208 63
0.035800042999743646 0.02085003525700431 0.17031021002252986 244 208 63
0.041365449205772536 -0.0055248072109088725 0.16691080718467913 255 0 0
0.031590605053684315 0.019817782765766675 0.1685246751659218 244 208 63
0.00846012920854338 -0.03215248072961109 0.16845529731347805 255 0 0
0.04031734439691782 0.012060519089781407 0.16868879366490472 244 208 63
0.05041629148095211 -0.005112951272468287 0.16806680201582086 255 0 0
0.03551179435543067 0.028650896791310138 0.15793973951936546 0 0 255
0.027178374776083127 0.02992353014125758 0.1703351518701198 244 208 63
0.04099246709875673 -0.01769501457989322 0.16854416523324384 255 0 0
0.038341137976048455 -0.016865693384338583 0.16676129397877412 255 0 0
-0.02690016959616899 0.006726315316341942 0.1571656499661259 0 255 0
0.04795745372494221 0.023430303400738428 0.16843124514895058 244 208 63
-0.030274377334043846 0.021648129887468778 0.16969035918291686 244 208 63
0.03562254620366848 -0.006816468316691726 0.15755420702064207 0 255 0
0.009902625842535349 0.02616669306863855 0.1700841139573476 244 208 63
0.030690659366371283 0.017621474902463102 0.16603890510266373 244 208 63
0.050835700975121745 0.022542297671139723 0.16213492667511498 0 0 255
0.02629260513225431 -0.020589011734654154 0.16977712934677244 255 0 0
0.030334551398544223 0.016705902360425042 0.16561284157932415 244 208 63
0.0273388071205533 -0.015353898235781614 0.1682787725471748 255 0 0
0.06466990376567111 0.0019451472726935318 0.17028980358212673 244 208 63
0.006817294618950993 0.03477161209885707 0.1577603814138134 0 0 255
0.0272019902560862 -0.004972597466134989 0.16989313568143558 255 0 0
0.03983713571105178 -0.01770022165567891 0.1688818382463748 255 0 0
-0.030208261813589644 0.02118427563666354 0.1692263794644774 244 208 63
0.05323619992480162 0.01078161616071665 0.1693070968812211 244 208 63
0.021023079503396158 -0.016693681963640978 0.1687314763248988 255 0 0
0.03800820168677709 -0.004515098014303199 0.16880124718879388 255 0 0
0.05309545976765911 0.0197354921935657 0.16831923651598288 244 208 63
-0.0016154448062527865 -0.02468278102944025 0.16013796778247597 0 255 0
0.050571370242250585 -0.004843397491469438 0.1698092598153859 255 0 0
0.0464590742570092 0.0237431599091007 0.1604583446154885 0 0 255
0.023907116164977114 -0.0016168579379707724 0.16857285990694462 255 0 0
0.019959967108176872 -0.016163541033290357 0.1635135685360894 255 0 0
0.03862595015330964 0.013371637129679625 0.15779994767755928 0 0 255
0.03746033932357189 -0.004611001600689063 0.16942125322490637 255 0 0
0.026300951593236845 -0.0034116336886172924 0.16954721527359254 255 0 0
0.04702743094431381 0.02369392507429107 0.16984152426636573 244 208 63
0.03960867918317143 0.018868323119122274 0.17032127457526633 244 208 63
0.04832135286749674 -0.011700619410239112 0.1684985065033096 255 0 0
0.016251673906588195 -0.0329948469513524 0.16329836197932768 255 0 0
0.025616921459374938 -0.003072185573290285 0.16163955940439553 0 255 0
0.04548669850713759 0.015587369747175155 0.16098068476601235 0 0 255
0.0018589214840256936 -0.00528500903830729 0.15728137291807162 0 255 0
-0.031171511967613127 0.020799509064629147 0.16817100602799281 244 208 63
-0.026945344887665625 0.02237228622211621 0.16822438359700873 244 208 63
0.019138831832276333 -0.014420858232065552 0.1697210381328257 255 0 0
0.02729109166134903 -0.0006731636155406506 0.15754970762993037 0 255 0
-0.010055412451699707 0.0016716523494148573 0.16964605578610187 255 0 0
0.01917692279161677 -0.018680063941898327 0.16938927734098097 255 0 0
0.06232872620083495 -7.850824008267827e-05 0.17024767659805481 255 0 0
0.03612769558766474 0.028728731746739657 0.1579458690108092 0 0 255
-0.002559198845561453 -0.019308509886301815 0.16018843768836358 0 255 0
0.04110028298254959 -0.013687768950627 0.16980548637304177 255 0 0
0.020714511283694132 -0.007217032401000859 0.15742200614175447 0 255 0
0.03436655095979233 0.021000731631332894 0.16873518583523192 244 208 63
0.027596049484655015 -0.01567035634735347 0.1620355424454943 0 255 0
-0.02437966398076616 0.006833370139897812 0.16338395105370854 255 0 0
0.04181177641194204 -0.012007756648906121 0.16948226108878722 255 0 0
0.04054280308506013 -0.015069538870285011 0.1678736417806474 255 0 0
0.02711296082120213 0.03075545176584802 0.17028169508238228 244 208 63
0.03041352449495872 0.018348565527441806 0.16884621220183277 244 208 63
0.02633141526800968 -0.01919884435303603 0.1684517219341186 255 0 0
0.016486122891592646 0.01554286886423319 0.1700248011569431 244 208 63
0.0139437984274688 -0.035373123490578834 0.16951013856705394 255 0 0
0.025338234065107604 0.031113531344690703 0.16097709832269477 0 0 255
0.008887445194735194 -0.0341850274958536 0.16322224471065302 255 0 0
0.03677739929106453 0.01804159893036047 0.17028798774578452 244 208 63
0.040590794305293734 0.016218405059917257 0.1682149930141984 244 208 63
0.03298332165859553 0.01734126925606823 0.17024782225248264 244 208 63
0.007915541710850921 0.04075983854074129 0.16976660182004324 244 208 63
-0.0021264315165082726 -0.01853569995675343 0.16955581148541404 255 0 0
0.005006085661996924 0.035958641742881575 0.17014882755295924 244 208 63
0.02632445222967963 -0.0034395229486269222 0.16996427766533073 255 0 0
0.053495857772525975 0.010479300422534714 0.16878456877432177 244 208 63
0.050545145189929745 0.02202586221434262 0.1694065479066509 244 208 63
0.036564955196635156 0.036712377342946315 0.15803661500656363 0 0 255
0.040093326708503046 0.014314831712730978 0.1578228082320312 0 0 255
0.040881276418936324 -0.014139315225790788 0.16892959435132684 255 0 0
-0.028958005913317236 0.008089346412856692 0.16335837806759115 255 0 0
0.023302511026650104 -0.0024434355434647236 0.1636917365502405 255 0 0
-0.004138344964505485 -0.018409214628325024 0.16018469602938626 0 255 0
0.026103065686904636 -0.0034345911850198266 0.16787660558303039 255 0 0
0.03429153237878142 0.02961358368175935 0.16207011554708706 0 0 255
0.03845798835679888 0.013615780017119142 0.16554557198248424 244 208 63
0.0556656630005659 0.009669890137903397 0.1625523672266571 0 0 255
0.008892366219589132 0.044569930301247805 0.15788494579963472 0 0 255
-0.03265927019157276 0.010873068829526418 0.16955249467785324 255 0 0
0.037008466853876876 0.01787233078048998 0.16994048793570093 244 208 63
0.03844638331803515 0.013513415822525899 0.1686421157889173 244 208 63
0.020516112891308814 0.051077336336449945 0.16115329114721033 0 0 255
0.03659483667311303 0.01814960609812355 0.1702875992130684 244 208 63
