ply
format ascii 1.0
element vertex 735
property float x
property float y
property float z
end_header
-0.03824450104741693 -0.017697241744289553 -0.01276073489072455
-0.026216501572573075 0.04429425102009629 -6.348678420001994e-05
0.03043952297351278 -0.0162066923684569 5.573625925934001e-09
-2.1952320372336877e-05 -0.03920740559611361 -0.00117554611958497
0.020103809299358132 -0.04615545488174596 5.573625923003989e-09
0.033276355517924176 -0.017341414518994902 -0.0005343338032711754
0.02057971282861251 -0.02004711720989197 -0.012760734890724544
0.01703571282272631 -0.010542121490821973 -6.34867842000187e-05
-0.001236077392972641 -0.03803857975011192 -0.0019236315664111936
-0.007451737333250815 -0.01721724812677988 -0.0016030271758899486
0.020478025447269562 -0.043345207238910916 -0.001068680537354499
-0.03689228927703709 -0.02706691124135534 -0.0016030271758899523
-0.013018493656921237 -0.026290231330610567 -0.0005343338032711809
-0.038833868561264306 -0.009421613330951182 -0.0016030271758899514
0.02748739488658942 -0.03086826446521465 -0.009586421542347836
0.02724593394280361 -0.045896158875892164 -6.348678420001979e-05
0.0016607747527330155 -0.026013501912355772 -0.0010686805373545001
-0.019152656016099383 0.0065096789113591935 5.5736259220653545e-09
0.010323744174831055 -0.042896098405050605 -0.0010686805373545001
0.02827455801970848 -0.0181412389173198 -0.0021373665527870465
0.032553044631920526 -0.02932516457456769 -0.012760734890724544
-0.015480030826933486 -0.02808085318488598 -0.0007124530333509887
-0.009085367342608171 -0.0032877538913187736 -0.012760734890724547
0.001322280955734799 -0.01793594223313652 -0.008528316753163167
0.023310570254024953 -0.010447129648692875 -6.348678420001804e-05
-0.01605476623965068 -0.02237357877534245 -0.006412110741914413
-0.009928309552834044 -0.00012770051718792117 -0.012760734890724547
0.019452627172971557 -0.019310601903763158 -0.000534333803271177
0.034597171880475064 -0.01422373708813736 -0.0016030271758899438
0.04373340473171082 0.008046029246264914 -0.01276073489072454
0.007792368015450008 -0.0297752536551705 -0.0010686805373544997
0.00023263560217066747 -0.03942992250136695 -0.00032060244771449657
0.02239836937673857 0.0012361571444343751 -0.0003562218985282963
0.029460174642299195 -0.004973614520626335 -0.002179696171473617
0.016801551480228768 -0.005637934261423019 -0.012760734890724544
0.027976106399151542 -0.04595026948780513 -0.0021373665527870483
0.027136825064606514 -0.03060889576584842 -0.0003562218985282977
0.018151002011161252 -0.010073521162626596 -0.002179696171473619
0.027568604308590088 -0.0322167533998741 -0.012760734890724544
0.0018805595933902896 0.019279618913569843 -0.012760734890724544
0.01650777661155525 -0.008735717013245756 -0.0038726582286938813
0.008452364602448055 0.0013617510011436319 -6.34867842000189e-05
-0.012356265720013339 -0.02703816246520532 -0.008528316753163168
0.020812120927982625 0.025034266757404663 -0.009586421542347835
-0.01748010704976298 -0.019709843377677262 -0.0017811391124821197
-0.016533830142387976 0.04104483117801686 -6.348678420001911e-05
0.0010642135118945305 -0.020392572086289248 5.573625922562217e-09
-0.03452139818821043 -0.008197411963503546 5.573625919534834e-09
0.02525591892135341 -0.0444469418299118 -0.0010686805373544986
-0.02451417566775803 0.04480124399772839 -0.009586421542347838
0.021748146427598893 -0.010986965054172158 -0.0021796961714736184
-0.006713968056354649 -0.002459500706770393 5.573625922835367e-09
-0.016257088746860857 -0.01822958858375495 -0.0010686805373545014
0.022047659163802944 -0.046728271343267985 -0.001068680537354499
-0.003740943781806992 -0.007141983525265694 -0.0010686805373544995
0.027982931567029194 -0.037545513305517225 -0.012760734890724545
-0.001963132070028765 -0.01847918497883705 -0.0008015108489059492
-0.03963587442846591 -0.013232080156207195 -0.009586421542347843
0.002808174705021466 -0.04391049197915395 5.57362592130712e-09
0.0009287644168779204 -0.019829647554315644 -0.0051423880524247385
-0.020683959896364183 0.009457244969504992 -0.006412110741914411
-0.01607225809247534 -0.023466138178864466 -0.012760734890724549
-0.002339697088505934 0.02771651170756785 -0.003237800705863964
0.023343820120775596 -0.010499915705402235 -0.004295905240254309
0.01953993822381478 -0.010393647989618521 -0.00035622189852829733
0.027351076247194104 -0.04177815140547725 -0.00641211074191441
0.03628740233396785 -0.02039425908876555 -0.0032378007058639626
0.03853923146565852 -0.0011624167945807 -0.010644525312355196
-0.03689823961693705 -0.027057371371664744 -0.002137366552787054
0.02360518490468337 -0.016560684868920733 -0.0018701968643384957
-0.019896455652603683 -0.03281415704120624 -6.348678420002399e-05
0.02373095859013949 -0.011213560212419356 -0.010644525312355197
0.02771850350062045 -0.030619794932271915 -0.006412110741914409
0.013824731529584458 -0.03973009038746045 -0.0064121107419144105
0.0018750143380964123 -0.018558683143542 -0.0064121107419144105
0.0293822624995875 -0.00046342006571411913 -0.0014249079776594272
0.028860928663114172 -0.00553384567418341 -0.0008015108489059452
0.04413197663556895 0.012570087108352996 -0.0005343338032711725
0.0049564244267373755 -0.025506947278683603 -0.012760734890724547
0.02310262435773518 -0.046990452028766935 -0.0021373665527870487
0.020278523785457806 0.0004674530871752057 -0.008528316753163163
0.00012152475320742248 0.023306633981176966 -6.348678420001843e-05
0.003220282710995039 -0.025700652173637047 -0.0010686805373545
0.029481128683925915 -0.00502461675231108 -0.008528316753163161
0.02402851340544577 -0.019288484145098345 -0.0008015108489059465
-0.0014415383718099656 -0.037424826422243096 -0.001068680537354501
0.029385773493908727 -0.004404879177134627 -0.008528316753163161
0.02208402327345683 -0.013510345321148611 -0.0003562218985282972
-0.039345247585467334 -0.02070399987260206 -6.34867842000253e-05
-0.010557794883606126 -0.029109050020474918 -0.012760734890724549
-0.00036033128112675174 -0.02505332851406398 -0.00213736655278705
0.034285711872680875 0.023829569270837736 -0.002137366552787043
0.027610549151394104 -0.021509379062772203 -0.0016030271758899451
-0.0035776033699107456 -0.021855490125475045 -0.0010686805373545003
0.03149307106158162 -0.01914520738441014 -0.0010686805373544964
0.016493526694947164 -0.008730901237837792 -0.007258594063673491
0.0036058744644308117 -0.03277821655955081 -0.00958642154234784
0.019881413604546212 -0.009918413417252267 -0.004295905240254309
0.03001265970463669 0.0036713877211924286 5.57362592710591e-09
-0.019044205769591052 -0.0006428002732151579 -0.012760734890724547
-0.025700911017310427 0.04489755390614644 -0.0013332131045088655
0.011687118658138115 0.02042422403074944 5.573625926188164e-09
-0.01641666310284746 -0.0306070137480806 -0.0010686805373545023
-0.03987218331872256 -0.011892728857799493 5.5736259187410695e-09
-0.013683751491210023 -0.0196589145005495 5.573625921043008e-09
-0.02046668977575995 0.045154866099835114 -6.348678420001927e-05
0.024502562073048715 0.028127461599693215 -6.348678420001555e-05
0.033715719372360634 -0.01855520698053923 -0.0006106711712501645
0.03274248728249023 -0.017820876730055297 5.573625926079407e-09
0.01624563509892873 -0.041554995798363546 -0.004295905240254311
0.00072419884606899 -0.028756677732281456 -0.0003562218985283004
-0.02673012814947897 0.03865155309363497 -0.0021373665527870487
-0.03182652421176166 -0.02996342923617787 -6.348678420002508e-05
-0.016062168357881785 -0.02354479736419508 -0.008528316753163168
0.021324675069876203 -0.010574986553332336 -0.004295905240254309
-0.0016165222328008346 -0.03753703577878985 -0.001068680537354501
-0.003576459148882066 -0.017829766810888235 -0.0021373665527870496
-0.01162662453957528 -0.0015599443364504857 -0.0021373665527870496
0.03409147506669611 -0.002033981635832853 -0.008528316753163161
0.0016621759934643352 -0.03404036646107874 -0.012760734890724547
-0.0015937151724050077 -0.037593212506987134 -0.001282419218248113
-0.0031989258037705753 -0.022486354030003337 -0.008528316753163167
0.028026415220617273 0.00250077547066063 -0.003237800705863962
-0.034295594556379524 -0.029758389471305092 -0.01276073489072455
0.006061538282945961 -0.025283380038989008 5.573625922792746e-09
0.0013840958636683358 -0.01798379051581999 -0.008528316753163167
-0.014104735059593648 0.00408684124921805 -0.012760734890724547
-0.0030367312633775593 -0.024293503277392433 -0.008528316753163167
-0.029058541433437685 0.04283292382998462 -0.001068680537354499
-0.0037923694376554608 -0.007180724664837035 -0.0012467924739466697
0.013104544032240139 -0.0387754976735761 -0.0007124530333509863
-0.014089804335391474 -0.02976707180400463 -0.0021796961714736236
-0.030311118896599647 -0.03372534551346988 5.573625918418231e-09
0.019597683001827196 -0.017198486911980837 -6.348678420001884e-05
-0.025957439023254796 0.043684647822045786 -0.0013358502258030494
-0.004518040290537179 -0.007400965418989647 -0.0016030271758899475
0.007064340339442423 -0.030555170201925767 -0.00958642154234784
0.029725641192989757 0.026431211498615135 -0.009586421542347833
0.0030145112921334087 -0.032582909672765156 5.573625922022618e-09
0.02283881930442874 -0.009799777016747311 -0.012760734890724544
0.03686274150708821 0.02451456434687809 -6.348678420001446e-05
-0.0006452790703851538 -0.018746191205456987 -0.010644525312355201
0.010616355663029212 -0.03966388910279191 -0.00035622189852830004
-0.014488584934707123 -0.020406389298837577 -0.0003562218985283015
-0.010191856547756773 -0.0021304252043147444 -0.0064121107419144105
-0.02953285757874784 0.03723975384845263 -0.002137366552787049
0.036856377740852674 -0.022997803378609717 -0.0021373665527870457
-0.0008682740381424579 -0.024212311279806338 -0.0008015108489059495
0.017197914523539377 -0.00859897358088495 -0.001756452727033782
-0.007037027390165639 -0.01664989336855758 -0.006412110741914411
-0.02615223553708845 0.024305284845968576 -6.348678420002116e-05
0.02628617169896738 -0.04705977038657677 -0.000534333803271178
-0.0021765866385355702 -0.01935738413527085 -0.0018167585951452136
-0.015386878661810634 -0.028146321419641736 -0.0014249079776594334
-0.005817115219482801 -0.003309927008952732 -0.002137366552787049
-0.0076076408208607975 -0.0016176593478013986 -0.0016030271758899475
0.006300775435326039 -0.026146647588934938 -0.012760734890724547
-0.007623403524873472 0.034561001144843305 -0.012760734890724544
0.017197914523539377 -0.00859897358088495 -0.0013332131045088642
0.03425762584346888 -0.021580630987792584 -0.0018320245973037638
-0.032306289074406594 -0.03170625804125862 -0.006412110741914415
0.022400244523585137 -0.018862336139172098 -0.002137366552787047
0.017684972043813307 -0.042533736422440765 -0.004295905240254311
0.024650325833397903 -0.012123611778332856 5.57362592557003e-09
0.022111432849713886 -0.01312814513697406 -0.0014249079776594287
0.022099942077107713 -0.009072332994098691 -0.004295905240254309
-0.0032130924414188458 -0.02264489151433591 -6.348678420002159e-05
0.009195609611130445 0.0027529076807887186 5.573625924841865e-09
0.004842948813474196 -0.02833318687428762 -0.00021372944459922531
0.008345235824100116 -0.04313244635334196 -0.006412110741914411
0.02775262606251821 -0.030589352024551847 -6.34867842000188e-05
-0.030309487011080573 -0.031104124734472344 -0.009586421542347843
-0.037201156675574436 -0.02192242652890567 -0.0032378007058639705
0.043020530286196665 0.014620282862144632 -0.0032378007058639596
-0.01776060854979512 -0.023551252095265825 -0.009586421542347841
-0.0018640622221739837 -0.01853445212880977 -0.001603027175889948
-0.009994840649934814 -6.295124404152913e-05 -0.0064121107419144105
-0.029747567102002763 -0.0014992418242858565 -0.0005343338032711811
0.005377579535938148 -0.030146029548357454 -0.012760734890724547
0.03639928474585761 -0.0024560776226656184 -0.010644525312355196
0.016423534072368195 -0.008328436633613821 -6.348678420001864e-05
0.02758552686891291 -0.04081955082576783 -6.348678420001945e-05
-0.018704781687416624 0.04173852580161541 -0.001068680537354498
-0.012050310119882765 -0.0016322074878885983 -0.0021373665527870496
0.018924672376524915 -0.04267414012653669 -0.0010686805373544992
0.027057612913793758 -0.046060306038145385 -0.00641211074191441
-0.014887050682200838 -0.028465696455499564 -0.0010686805373545018
0.008724048086571406 0.003024114661942704 -0.003237800705863964
-0.004017318680519242 -0.037906992146089134 -0.006412110741914412
-0.027248400487020277 0.03706453092144521 -0.012760734890724545
-0.010769162349635023 -0.02762106082900449 -0.011173576178181571
-0.0061849796035696025 -0.006876982668409664 -0.002137366552787049
0.03424529453817193 -0.02139925762583875 -0.0009923468320439713
-0.00225827462980347 -0.019441224257529425 -0.0005343338032711793
-0.011471960667638897 -0.029906637858053364 -0.0032378007058639683
-0.0001340161329548406 -0.03707379057120166 -0.001068680537354501
0.022097383741703523 -0.013415255647736539 -0.0014249079776594287
-0.034679204622907224 -0.0292921506425387 -0.009586421542347843
-0.026379557117478945 0.04640519281102084 -0.0013332131045088655
0.025185663145344532 0.0029895359932827696 -6.348678420001701e-05
-0.026216501572573075 0.04429425102009629 -0.008951559688014346
-0.02077797532699123 0.04529995441004122 -0.006412110741914409
-0.0006334933933918119 -0.018706566899729774 -0.012760734890724547
0.035458196469989114 -0.015428421613035669 5.5736259265139244e-09
-0.0006738119285232263 -0.021999912282769353 -0.00035622189852830015
0.001595561068658777 -0.0199444029074873 -0.00035622189852829977
0.015849979747550178 -0.0014767639072836118 -0.001068680537354497
0.03196568661411847 -0.004903112644751689 -0.006412110741914406
0.02477459898363304 -0.012503415557313834 -0.0021373665527870465
0.042120002901197336 0.009562222084816146 -0.006412110741914404
-0.001263221194623905 -0.022024585223085293 -0.0032378007058639665
0.018151002011161252 -0.010073521162626596 -0.004295905240254309
-0.0006323983322653196 -0.018698999520721234 -0.008528316753163167
-0.028903767801200714 0.034798467730799594 -6.34867842000208e-05
0.006230511746322772 -0.0260613696492445 -6.34867842000208e-05
0.024536513931046763 -0.044454876312214286 -0.000534333803271178
-0.008848979936392026 -0.005239493608206899 -0.0064121107419144105
-0.027148685537548758 0.03194985527656289 -0.003237800705863966
-0.037977876500690844 -0.02403750882505556 -0.01276073489072455
-0.005295101302008566 -0.006670003396202006 -0.0064121107419144105
-0.018380308381649807 -0.02255437956652624 -0.0014249079776594334
-0.025660433598579144 0.04490272012261972 -0.012760734890724545
0.018524288409610557 -0.0012220408188845303 -0.0021796961714736184
-0.014451082919910381 -0.028759669650350452 -0.0013740189257171926
-0.010254718216975428 -0.02869746402047138 -0.0032378007058639683
-0.0028731968929297013 -0.021333035830838842 -0.007999265887336798
0.008649571678568578 -0.04301620156931414 -0.012760734890724547
0.01866092249757317 -0.044964606297287574 -0.012760734890724545
0.008505453140101383 0.0016321684690028017 -0.009586421542347836
0.0023004833194758814 -0.019063872422478145 -0.0007124530333509863
-0.015209689320519018 -0.020395003181560126 -0.009586421542347841
0.01985002798866297 -0.01691712176043117 -0.011173576178181566
0.019605650365626965 -6.46397314404426e-05 -0.010644525312355197
-0.0347307651564642 -0.005328017374470212 -6.348678420002388e-05
0.02011068321668298 -0.009967040889312497 -6.348678420001835e-05
0.004087463295426879 -0.028325715060360083 5.573625922397091e-09
0.03043952297351278 -0.0162066923684569 -0.002137366552787046
0.029692785562226983 -0.031164332070796177 -0.008528316753163163
0.017615988028327978 -0.008446870630462998 -6.348678420001852e-05
0.02164883545036659 -0.04427838174357932 -0.012760734890724545
0.030245872066781972 -0.01641414599253197 -0.002137366552787046
0.005073463010643405 -0.028640062790694046 -0.0017098928855175807
0.03276113447115229 -0.00513424942837216 -0.0021373665527870452
0.0017940814051724146 -0.026011801199632055 -0.0021373665527870496
-0.017611676876390307 0.04428120236390987 -0.0010686805373544977
-0.0008834623598671949 -0.01845404513910789 -0.0064121107419144105
0.02849760265413984 0.0013961828728812165 -0.0010686805373544956
0.017101963267216126 -0.00862977383576423 -6.348678420001858e-05
0.021133370242927958 0.02705985080718655 -0.0032378007058639613
0.021711235281222645 -0.014446227122312687 -0.0017811391124821151
0.002396805011824546 -0.018755790243762227 -0.0003562218985282996
-0.010133535322141951 -0.02748542314950723 -0.0018701968643385
-0.015319122114567239 -0.030563571030571685 -0.012760734890724549
-0.02333845075255556 0.00012140583759820064 -0.002137366552787051
0.016924207351646615 -0.00868136151157421 -0.010644525312355197
0.014753568691625992 -0.011115363815690662 -0.0021373665527870474
0.024072984772041145 -0.019792635792755236 -0.008528316753163163
0.03232648272818174 -0.018270864925080763 -0.0005343338032711756
0.01946298735706427 0.002010013951173666 -0.006412110741914407
0.028967017993930644 -0.04427175361627884 -0.0005343338032711776
-0.03693544206117034 -0.022505317769192304 -0.006412110741914415
0.0029892103981115723 -0.035908185755043065 -0.00213736655278705
0.03637476959524356 -0.022521813275521316 -0.006412110741914407
0.030221682416876592 -0.03754320582029779 -0.0010686805373544977
0.02301758078883452 -0.019169290053833395 -0.001870196864338496
-0.01718512087061418 0.040852932698020955 -0.001603027175889946
0.0049012762700621874 -0.029991140867695786 -0.0010686805373545
-0.028488291467322423 -0.0009046254888651566 5.5736259206212444e-09
0.029086347647786916 0.004413672949172717 -0.002137366552787045
-0.001709310424786995 -0.01875803970517145 -0.0020304972760388255
0.03007361226698006 -0.03967266138303743 5.573625924458318e-09
0.033772872851951 -0.018781515340804397 -0.0019846955750454044
-0.011111776822955634 -0.026982452985219712 -0.0008015108489059507
-0.03038481162648345 -0.031054907488827645 -6.3486784200025e-05
0.008547892163656787 0.0018689637058522004 -0.009586421542347836
0.000631095932909978 -0.042368605407763535 -0.006412110741914412
0.014968010345804823 -0.01030248629370585 -0.008528316753163163
-0.027205448181778148 0.03838971447477683 -0.0064121107419144105
-0.003117438028028567 -0.025623264787977284 5.573625921798434e-09
0.022703682806023077 0.0019714570061328098 -0.0021796961714736175
-0.026379557117478945 0.04640519281102084 -0.008951559688014346
0.003408486426737906 -0.03224256038223895 -0.00213736655278705
-0.026795774591000847 0.035975797319536616 -0.0005343338032711785
0.02898312604773915 -0.00355835547199256 -0.0013358502258030466
0.02573164340372682 -0.021982562021926593 -0.002137366552787047
0.04037081906776169 0.003398420645484063 -0.003237800705863961
0.02762233078953448 -0.03263616931499945 -0.009586421542347836
0.027217973376354565 0.026650457422849265 -0.003237800705863961
0.004502120915812502 -0.025089560000779033 -0.0003562218985282998
-0.01741471282617221 -0.00039537831850915513 -0.0010686805373545005
-0.014256148748630414 -0.028169772651250393 -0.012760734890724549
0.03938589703635057 0.017514413025852882 -0.0010686805373544934
-0.005420650739579777 -0.01731971202593119 -0.0002671641148226287
0.002570407828196638 -0.0409616377393859 -0.0008015108489059502
0.0023048372899712446 -0.019054389382775098 -0.002137366552787049
0.027030674721456566 -0.03141952571965633 5.57362592464095e-09
0.027461795191617115 -0.019154018136450526 -6.348678420001814e-05
0.03247773427452883 -0.017214102304133044 -0.010221282377504016
0.03336875405053318 -0.01747809800474217 -0.0008396758543023303
-0.004934975211307216 -0.03729590940281047 -0.0007124530333509881
0.014893356927294085 -0.003863108503305153 -0.002137366552787047
0.03928148901452142 0.022656086359252176 5.5736259292514174e-09
0.019401349123385182 -0.017540239974003956 -0.007999265887336795
0.015378431495038597 -0.0039555995557072465 -6.348678420001849e-05
0.03688013269536202 -0.02170424171268647 -0.001603027175889944
0.0271024304124306 0.002850201411149651 -0.012760734890724542
-0.016024875692931435 -0.02376529982308282 -0.006412110741914413
-0.026112438450242307 0.043232389455031724 -0.000534333803271178
-0.026793204241249504 0.036426365207428674 -0.0021373665527870487
-0.01794988020728063 -0.032004248015284203 -0.004295905240254314
-0.018537125723661646 -0.03407347952089466 -0.006412110741914414
0.025843250512563767 0.0047551146836339086 -0.006412110741914407
0.03444438865012747 0.026913248409314246 -0.0003562218985282934
0.024605393823148525 -0.02152406898737806 -0.009586421542347836
0.012914603125214613 0.016963276815708788 5.573625926106426e-09
0.034086020451287245 -0.020260343390716088 -0.001526689903458828
0.014882394367666087 -0.006622532676316621 -0.006412110741914409
0.0021758342853713947 -0.018045849823441488 -0.0017811391124821175
-0.013773465645564526 -0.02953806354571931 -0.010644525312355203
-0.014337114193993214 -0.02923648692590553 -0.0010686805373545018
0.014170237919387832 -0.039364804192242565 -0.0013358502258030503
0.04156190478107099 0.006149495936098129 -0.01276073489072454
0.012547834683242364 -0.038869058023827625 -0.002137366552787049
-0.03348357653785638 -0.00716528305893421 -0.0005343338032711819
0.02792772973589277 -0.04600272991600646 -0.0016030271758899464
0.021253857568626203 -0.018380215866587123 -0.005142388052424737
0.0257206345354302 0.0030066150215652507 -0.006412110741914407
0.042186300508461 0.0019984607380836472 -0.0005343338032711733
0.02124393031494417 -0.01783263740908006 -0.0038726582286938813
0.019179965656503078 -0.018858497631197624 -0.0021373665527870474
0.035378044443621956 0.02566554053016823 -6.348678420001454e-05
0.008064949158800957 0.00022898326795540072 -0.009586421542347836
-0.010327014025349796 -0.029668699419441672 -0.0010686805373545014
-0.028768891522403698 -0.001028634401748992 -0.0010686805373545016
-0.016062168357881785 -0.02354479736419508 -0.002179696171473623
0.008868646367370803 0.00412773595425406 -6.348678420001868e-05
0.0016723239825352282 -0.04050798832479103 -0.001068680537354501
-0.021661928324695757 0.045682861904775995 -0.012760734890724545
-0.0037595724261382272 -0.02293391110888609 -0.00213736655278705
0.015012847717061512 0.023487729734967544 -6.348678420001684e-05
0.016611479946910555 -0.0011576298630286402 -0.012760734890724544
0.019558470644874097 0.023880945513462197 -0.002137366552787045
0.026187987613104792 -0.04455146301385826 -0.012760734890724545
0.01805205975954469 -0.003198440083640174 -0.0010686805373544969
0.02983172372256341 -0.000780324335443456 -0.006412110741914406
0.0005279212973142174 -0.033960823555847904 -0.0021373665527870504
-0.00011675674522855987 -0.027874434873387543 -0.012760734890724547
0.032479977598719345 -0.004649089652745325 -6.348678420001671e-05
-0.026601910603059716 0.046334303470826926 -0.00641211074191441
0.020558597593707324 -0.02002393450174437 -0.0042959052402543095
0.01613739050023543 0.022184916208945336 -0.009586421542347835
0.021178240889767226 -0.01822665285261124 -0.0038726582286938813
0.02955376519473581 -0.034841249125654304 -0.006412110741914409
0.02114051832342581 -0.018099137481680044 -0.007681833431404082
0.033514566908284985 -0.01625398358259024 -0.0032378007058639626
0.022535389218474925 -0.017602073420688407 -0.0010686805373544973
0.04014089701033398 -0.0005504600406747558 -0.0007124530333509811
0.02422524054882079 -0.019286252003697647 -0.001335850225803048
0.01919205217108585 -0.016822594684468756 -0.0010686805373544975
0.020382551134752097 -0.007732974238655944 -0.0007124530333509836
0.014308194218085732 -0.007456774113145292 -0.0005343338032711768
-0.025921976941606674 0.044795162398024446 -0.008951559688014346
-0.014207943929827391 -0.029114813118602464 -0.0007124530333509886
0.0029304210143442483 -0.041111191731615586 -0.0016030271758899488
0.031126655126431427 -0.028252874329514028 -0.006412110741914408
0.040316332275055974 0.020079880827461698 -6.348678420001437e-05
0.03596379774803004 -0.02475720533872773 -6.348678420001757e-05
-0.0003049838056338241 0.024118826698875537 -0.004295905240254309
0.01701054185289528 -0.008657315051152976 -0.005142388052424737
0.0333047460087366 -0.017369870455140338 -0.0011450141152678573
0.001351089568167754 -0.03599336411341155 -0.006412110741914411
-0.01030960809083266 -0.027978186633767894 -0.0079992658873368
0.005456781328652464 -0.03408031310566426 5.57362592218995e-09
0.03218641873096237 -0.018426589995986915 -0.001335850225803047
0.02915634550998823 -0.03183803449647476 -0.002179696171473619
0.0017273029822963701 -0.01913760592023585 -0.007681833431404083
-0.01451680022804971 -0.030057143601114937 -6.348678420002325e-05
0.003189208494191394 0.020190704197193522 -6.34867842000183e-05
0.020303612185373927 -0.007716090989372307 5.573625925378911e-09
0.022573908845149784 -0.019534525895053955 -0.008528316753163163
-0.0097128903381177 -0.017573978027617086 -0.0021373665527870504
-0.0015844150544597913 -0.03748425957421295 -0.001603027175889949
0.000734064349531228 -0.03984715531477836 -0.0020304972760388264
0.04183218684534359 0.012937129706809868 -6.348678420001464e-05
0.03397016477553495 -0.014279134134081335 -0.0032378007058639626
-0.017977862005756583 -0.020748749406841918 -0.00035622189852830194
-0.017830835646810896 -0.020381162091373826 -0.0010686805373545016
-0.013407648892318927 -0.018784910079521964 -0.003237800705863968
-0.01336396531297075 -0.0018634750139270148 -0.00958642154234784
-0.024284881989063586 -0.03548338866471681 5.573625918949709e-09
0.014858874812553187 0.020050051543887067 -0.0021373665527870457
-0.012827282160048045 -0.000298876209692265 5.573625922319304e-09
0.022625915064849567 -0.02128083166884465 -0.012760734890724544
-0.025675222368305384 -0.0006862460349878263 -0.012760734890724549
0.029638255283398116 -0.038766644688391805 -0.012760734890724545
0.016964067101330534 -0.004890123870081799 -0.002179696171473619
0.0403832574563774 0.004446784606069565 -0.001603027175889942
0.03922467899988598 0.002559355303721004 -0.002137366552787044
0.019510599786751112 -0.01850141193401176 -0.007999265887336795
0.029325130208150186 -0.0002017258777589602 -0.0007124530333509822
0.01107818315167281 0.013950476376666288 -0.006412110741914408
0.027918505781840016 -0.03498078618556465 -0.006412110741914409
-0.021184206106378153 0.01385755554196304 -0.0010686805373545
0.01781162617127334 -0.04519244551289869 -0.0016030271758899475
0.01624563509892873 -0.041554995798363546 -0.0106445253123552
-0.036617426431128745 -0.0221159989251452 -0.0021373665527870535
0.029834072299429165 -0.00111778547212399 -6.348678420001678e-05
0.029151808161177597 -0.029554134536693973 -0.012760734890724544
0.015192050925433824 -0.010822010852975059 -0.012760734890724544
0.0062341881381020635 -0.025415313028824986 5.573625922802978e-09
-0.004079374547239814 -0.007331675395171246 -0.0019592510490742876
0.0270077601696215 -0.04296567708667578 -0.009586421542347838
-0.027229794211964913 0.03379980878413645 -6.348678420002068e-05
-0.002215129601024466 -0.018356354077692195 -0.0013358502258030507
0.010954211516637818 0.01359652099082736 -6.348678420001788e-05
0.027652456317027042 -0.03285768049286138 -0.007999265887336795
-0.01776523171985171 -0.033731120313414874 -6.348678420002381e-05
0.02451419212952709 0.002854097476339035 -0.010644525312355196
-0.036356785347520085 -0.010723485143487938 -0.0016030271758899512
0.01870765234106725 -0.007623387131288088 5.573625925215324e-09
0.021211616728543787 -0.018299582015714768 -0.010221282377504016
0.01512558086486188 -0.042805394809019556 -6.348678420002089e-05
0.0016946718283712553 -0.01917681435191251 -0.0013332131045088666
-0.02589001366463629 -0.0007275989910790042 -6.348678420002266e-05
-0.003760170668444195 -0.005366921823419923 -0.0016030271758899473
-0.025947859263191923 0.04476905333121438 -0.008951559688014346
-0.03802841350698619 -0.019196190736855214 -0.009586421542347843
0.02992124454369866 -0.01674937439988173 -0.0016030271758899445
0.03431819335322082 -0.0036525193908488562 -6.348678420001646e-05
0.020103809299358132 -0.04615545488174596 -0.002137366552787049
-0.02326480797745164 -0.033253451855014694 -0.009586421542347843
0.004453073441533995 0.008800855951027087 -0.0010686805373544975
0.0007866881003018561 -0.03385994106757754 -0.0010686805373545005
-0.013840987553024662 -0.028357796328594684 -0.009586421542347841
-0.024260428233683892 0.044288721591120565 -0.0010686805373544984
-0.01552476765963362 -0.0221087264393867 -0.0010686805373545016
0.03678275473249828 -0.023714693373874836 -0.0021373665527870457
-0.03922157253250108 -0.022699904510716604 -0.0010686805373545042
-0.02225530873542214 0.01566168874049544 -0.0021373665527870496
0.0023410965560029546 -0.01830238039657975 -0.0010686805373544995
0.034582831171720146 -0.02020740509622952 -0.00535400646231839
-0.026822421666142737 -0.03445669541393341 -0.00323780070586397
0.01574044236560208 -0.0016923949502738742 5.573625925263797e-09
-0.0030106353615251785 -0.015130460153756563 -0.001781139112482118
0.019702852036336534 0.002937142872772363 5.573625925967519e-09
0.010060283536219395 -0.04303171752927049 -0.0003562218985283003
-0.0040392201320710985 0.029490315405414753 -0.002137366552787047
0.023255686699849013 -0.010362325544825761 -0.004295905240254309
0.03771112984068312 -0.0016805977563647465 -0.012760734890724542
0.011631081867286945 -0.039211156608319725 -0.00035622189852829993
0.021137409274456877 -0.018042212654246832 -0.012760734890724544
-0.035751532598591436 -0.008840773855284714 -0.006412110741914414
0.02244632358816636 -0.008706510949429147 -0.000801510848905946
0.020313055418040623 -0.010603657163997431 -0.002137366552787047
0.008064949158800957 0.00022898326795540072 -0.006412110741914409
-0.003822751715554646 0.03277365488135038 -0.006412110741914408
0.027028540186970845 -0.031072416802278378 -0.0010686805373544977
0.026051560754583317 0.0024499895126876324 -0.0003562218985282958
-0.008216490620810452 -0.0060639898374226595 -0.0021373665527870496
0.03777401890068268 0.00031354757929650845 -6.348678420001585e-05
0.01847125834472783 -0.009977790596861666 -0.006412110741914408
-0.0028705589233259934 -0.020205576151082587 -0.0010686805373545001
0.016431150015424924 -0.008138950157009401 -0.002179696171473619
0.023949014990282118 0.002078303572545752 -0.001068680537354496
-0.019447014872038038 -7.365919964905022e-05 5.573625921631022e-09
-0.005152112164725979 -0.0067141411952789665 -0.004295905240254311
-0.001236077392972641 -0.03803857975011192 -0.002030497276038827
-0.024144838191008596 0.01500540299855875 -0.012760734890724547
0.029282004969780128 -0.0314966418878837 -0.006412110741914409
0.02906694561818098 0.00045526263777986067 -0.00035622189852829565
0.007363208329571807 -0.0003747403896397795 5.5736259244560116e-09
0.017846327820977583 -0.008358900548451122 -0.006412110741914408
-0.02413976970918315 0.04425498625699137 -0.0016030271758899464
0.037632908202023876 0.0008629860181476967 -0.0016030271758899425
0.04132566313428076 0.014703927239966897 -0.00323780070586396
-0.009134121920829146 -0.00328230491817312 -0.012760734890724547
-0.00020577502059351265 -0.02783341199293284 -0.004295905240254312
-0.03760889228193599 -0.020884428837270815 -0.006412110741914415
-0.03266730147837831 -0.0284426993659346 -0.0010686805373545038
-0.001150171163674633 -0.03813008778560322 -0.001282419218248113
-0.016132400783941927 -0.027529763143294896 -0.00035622189852830215
0.03364459006993929 -0.02568623022702189 -0.010644525312355197
0.0009042392278102814 0.02173131837785215 -6.348678420001845e-05
0.03281140916712545 -0.013914013349427642 -0.0021373665527870457
-0.027195893285533915 0.03859204648602669 -6.348678420002039e-05
-0.01750350796846902 -0.024416541874699736 -6.348678420002322e-05
-0.0015486614117493584 -0.03746678055722909 -0.001068680537354501
0.033514566908284985 -0.01625398358259024 -0.004295905240254308
0.03415488380054018 -0.0182757223323129 -0.008528316753163163
0.033064141078341255 -0.0025623020052639093 -0.010644525312355196
-0.02834527711413393 0.02418729658903993 5.573625922172849e-09
-0.0043383744049984956 -0.007394001318071403 -0.0019592510490742876
0.04440301578086276 0.009512738507838193 -0.0005343338032711726
-0.03726309272240115 -0.007993475117791282 -0.006412110741914414
0.022608342421047964 -0.013134683985042127 -0.0021796961714736184
-0.01572959324283822 -0.021231629750308418 -0.009586421542347841
0.039805250858981706 0.017841688250188514 -0.009586421542347833
0.006688661440519007 -0.03260585364699483 -0.0010686805373545
0.0381878008795427 0.00065132555236817 -0.006412110741914405
0.022512373449444352 -0.012411851429938121 -0.012760734890724544
-0.03538540798891348 -0.005090089272499431 5.5736259196334675e-09
-0.0271744319702206 -0.0033679722787494904 -0.0021373665527870513
0.01710196326721613 -0.008629773835764229 -0.011914252078554117
0.005609640538882353 -0.02826665673139206 -6.348678420002101e-05
0.023186255744800183 -0.00954961815390587 -0.000801510848905946
-0.003935675496997694 -0.03802789236381823 -0.006412110741914412
0.0017560216945527824 -0.019100235027446375 -0.0051423880524247385
0.0377560211571886 0.0002996566414329697 -0.008528316753163161
0.007467117414602267 0.00011476098826964175 -6.348678420001907e-05
-0.03459634490479724 -0.0075178480471318485 -0.0032378007058639696
0.00023263560217066747 -0.03942992250136695 -0.0007480761468332564
0.0023917893437959883 -0.01846730402779562 -0.0007124530333509862
0.0034987637659436694 -0.04182185961110626 -6.348678420002207e-05
0.03687085066074074 -0.02144516842574527 -0.001603027175889944
0.016468695039879112 -0.008713179377083345 -0.0013332131045088642
-0.0006638133651375388 -0.027586742826623826 -0.006412110741914411
0.02114558019904333 -0.01798826775951271 -6.348678420001873e-05
0.02959466404814683 -0.002925948010813776 -0.006412110741914407
0.016205761380439155 0.024357303291030818 -0.009586421542347835
-0.017179873066502923 -0.025126823345233154 -0.009586421542347841
0.00584859140198159 -0.025154934497661433 -0.0010686805373544995
0.002119810424355297 -0.033201629692219806 5.5736259218898425e-09
0.034271777046457 -0.013986730034297118 -0.0021373665527870457
0.029024341600585556 -0.044127224755951405 -0.0005343338032711776
-0.010317172518003206 -0.0028690072599309433 -0.008951559688014348
-0.001088608759922131 -0.024906332311973665 -6.348678420002151e-05
-0.020267634835984136 1.8061243849331483e-05 -0.0021373665527870504
-0.01014687770083447 -0.02827290595485469 -0.0079992658873368
-0.0006571901463949927 -0.018771592779098168 -0.012055330678757454
0.031902581887741546 -0.014635403999185486 5.573625926185383e-09
0.032370306464229164 -0.017345689063078103 -0.002602935793998536
-0.010316848727553972 -0.028803136093836185 -0.009586421542347841
-0.0047614298884084034 -0.007351676146932895 5.573625922742889e-09
0.03323899824801334 -0.01733369814804174 -0.001755694586510994
0.034016561427575566 -0.017744652166641534 -0.01170263010153987
-0.009980496337686513 0.0385662500968282 -0.012760734890724544
0.03938248175315682 0.02157475442417004 -0.006412110741914404
-0.027240006277095472 0.034169406295416434 -0.003237800705863966
0.026756795005541727 -0.0421141516989924 5.573625923957046e-09
0.0037111385645933657 -0.041868414020145676 -0.012760734890724547
-0.0029904054295367072 -0.02160347535711522 -0.006412110741914411
0.033216480628493285 -0.026418551157067136 -0.0021796961714736184
-0.024686717134851256 0.019713318767631036 -6.348678420002128e-05
0.02170893421243127 0.0034546689935911206 -0.012760734890724544
-0.03180924204814337 -0.0327918769581948 5.573625918316502e-09
0.00846665650489761 0.011160595071241392 -6.348678420001829e-05
0.03363011262767107 -0.01823847804646907 -0.0009160094959142733
-0.0010056714831747162 -0.023129515466914614 -0.0005343338032711794
0.02412451141656 0.002706409187675196 -6.348678420001715e-05
0.03621373843685521 -0.019898147190477562 -0.0032378007058639626
0.027472408666752983 -0.03129823654146124 -0.007999265887336795
0.0281507320903467 0.028915075646933793 -0.0010686805373544938
0.03447649416357845 -0.019670641642753832 -0.008528316753163163
-0.004812252039019691 -0.01515760797234591 -6.348678420002131e-05
0.028126155939900487 -0.04577433467014921 -0.0021373665527870483
0.04183665649236537 0.0014473038430924006 -0.001068680537354494
0.02950020914798127 -0.019928599465973376 -0.0032378007058639635
-0.0043383744049984956 -0.007394001318071403 -0.0010686805373544995
-0.00414006826380915 -0.038698191749123666 -0.0010686805373545014
0.01762831088762156 -0.0028240431099904304 -0.006412110741914408
0.018274306673306644 -0.001585850534622719 -0.0021796961714736184
-0.01432159272465269 -0.028855263766817234 5.5736259204122465e-09
0.01941018613448811 -0.016589011360966483 -0.001424907977659429
0.033947844137054206 -0.017494857648873267 -0.007470211963978489
0.016927367289821 -0.011185828916516538 -0.0005343338032711768
-0.037116702369927736 -0.02211280751783827 -0.009586421542347843
-0.001952531663912904 -0.016088475241906448 -0.0032378007058639665
0.018156927569813054 -0.0017757099568287112 -0.004295905240254309
0.03127257022206707 0.026025872856227216 -0.0032378007058639605
0.02136223947070907 -0.01130557075035666 -0.0014249079776594287
-0.01089810506407294 -0.0294403239741822 -0.009586421542347841
0.0032763175310793805 -0.041235944338193956 -0.0013358502258030516
-0.01259589126667132 -0.000540200587940482 -0.0005343338032711793
0.03332818992517055 -0.016288998255925 -0.00768183343140408
-0.01818365847774351 -0.031582833730814115 -0.0017811391124821206
0.03410784591206111 -0.023124553178908686 5.5736259258994574e-09
-0.0269307858255467 0.046768296126960714 -0.0021373665527870483
0.024199916739101872 -0.0144556340669534 -6.348678420001819e-05
0.031588874308584106 -0.019053996886572493 -0.002137366552787046
0.04283376856545271 0.01654244518261192 -0.001068680537354493
0.014803349966900201 -0.004183328709476183 -0.0016030271758899453
0.03255991565388318 -0.018015962420470513 -0.002137366552787046
-0.027110341798557987 0.046660872949674866 -0.0010686805373544986
-0.0009092312122475142 -0.028130251996351247 -0.0007124530333509872
0.005689212276844784 -0.03384468444620483 5.573625922229029e-09
0.006119520387280019 -0.02594024109228683 -0.004295905240254311
0.005749884944292478 -0.025107562472974177 -0.0010686805373544995
-0.011649403009078562 -0.0017105980139150993 -0.001781139112482118
-0.001725478762023452 -0.01879136329916196 -0.001282419218248112
-0.017820973707013226 -0.02316221157457045 -6.348678420002318e-05
0.02001107852694213 -0.020109531524989416 -0.000801510848905947
-0.002421299439614355 -0.02575183757635493 -0.004295905240254312
0.023670928710603525 -0.0192768382180161 -0.001335850225803048
-0.026763116167690632 0.037854321320598405 -0.001068680537354499
0.022373691196556605 -0.043950394847166376 5.573625923379747e-09
-0.038269610517500524 -0.01740073398364487 -6.3486784200025e-05
0.030137989306298203 0.00354593452374972 -0.0010686805373544951
0.037832756430097494 -0.002305992973902424 -0.0010686805373544947
-0.012669610542952419 -0.004483584175728828 -0.0005343338032711795
0.031951769925222376 0.025207114164120036 -0.0010686805373544936
0.03878700965288279 -0.000996997236887777 -0.012760734890724542
0.033064141078341255 -0.0025623020052639093 -0.0021796961714736166
0.003322471677732451 -0.026201019348538898 -0.00958642154234784
0.016933505552429957 -0.005022753366135113 -0.012760734890724544
0.04302009681444129 0.005103548249091009 -6.348678420001499e-05
0.0334144522633094 -0.016219673173710817 -0.011491009143702937
0.016542484591009248 0.024575089721932623 -0.012760734890724542
0.03706543353898822 -0.0020659946955283253 -0.008528316753163161
-0.0294936591369363 0.03874074196146866 -0.002137366552787049
0.028968156378933938 -0.042383583574804935 -6.34867842000194e-05
0.005751566216948388 0.0034366860565252194 -0.0021373665527870474
0.027444694347519966 -0.035437689024550856 -0.0021373665527870474
0.022152778055289486 0.025124030991990468 -0.0010686805373544947
0.0012874378925734897 -0.01733117323693938 -0.0017811391124821175
0.02272498081607464 -0.01905873390505069 -0.0008015108489059467
-0.029726369238745068 -0.034027428140452225 -0.0010686805373545038
0.007612795321714939 -0.027718069156904963 -0.0003562218985282996
-0.017789071782860558 -0.022031964355729856 -0.006412110741914413
0.002405826076115593 -0.01858054671603783 -0.0007124530333509862
-0.005721521126934757 -0.006522958201708398 -6.348678420002087e-05
0.033514566908284985 -0.01625398358259024 -0.01170263010153987
-0.015959149326821603 -0.02187604198662654 -0.012760734890724549
0.029701678627401692 -0.00240493128799785 -6.348678420001686e-05
0.002729141458030571 -0.033421816385958064 -0.006412110741914411
0.030702089404625852 0.02620385095520553 -0.009586421542347833
-0.004406309275854633 -0.00740045517905587 -0.001424907977659431
0.016493526694947164 -0.008730901237837792 -0.011491009143702937
0.03718125924258527 0.02179744164171257 -0.00323780070586396
-0.026465915610500046 0.029070245199702006 -0.0005343338032711789
0.03265916357109375 -0.014646912661114656 -0.009586421542347836
0.04151861859751904 0.014163665381857414 -0.009586421542347833
0.018847809358615006 -0.007612250793166613 -0.0014249079776594287
0.023032679909877788 -0.00933697297563083 -0.0010686805373544966
-0.0033160132947939033 -0.006085270172259733 -0.0010686805373544992
-0.009159333894793209 -0.003276492820376343 -0.01022128237750402
0.0007081551450383633 -0.040427568997234445 -0.006412110741914412
0.02209171851339477 0.001056794978936722 5.573625926105737e-09
-0.001133418191767118 -0.027258241090201803 -6.348678420002166e-05
0.042111682464776104 0.009363902661509422 -0.01276073489072454
0.031126655126431427 -0.028252874329514028 -0.0032378007058639635
0.024008644425135835 -0.011903797941308542 -6.348678420001805e-05
-0.025660433598579144 0.04490272012261972 -0.002602935793998538
-0.014338525422961653 -0.028130175735970982 -0.006412110741914413
0.0012261152124058935 -0.026488081431452776 -0.0032378007058639665
0.002369616456143431 -0.01838014201723618 -0.002137366552787049
0.01599788219777542 -0.0023052534083483154 -6.348678420001831e-05
0.033715719372360634 -0.01855520698053923 -0.0010686805373544962
0.019557904103642818 -0.019472787569324038 -0.000801510848905947
-0.0006912342132385013 -0.018825115363882733 -0.002885100383440715
-0.013609889871502058 -0.01623042327251054 5.573625921260777e-09
-0.00177256580034611 -0.018870349004912537 -0.0021373665527870496
0.0017264458263501119 -0.02885933374618752 -0.0017811391124821182
-0.0032224421670394446 -0.022848458441550177 -0.012760734890724547
0.014843672748439429 -0.007167307580034753 -6.348678420001873e-05
0.023905088185699242 0.02571445618992458 -0.0021373665527870444
0.014354249598525565 0.023633848152911103 -0.0010686805373544956
-0.012685439399433158 0.041190525504815355 -0.002137366552787047
-0.01873125931158295 0.006879478498258021 -0.006412110741914411
0.006231278072020014 0.003815624351070846 -6.348678420001898e-05
0.028569778719759277 -0.020457070366820797 -6.34867842000181e-05
-0.028496483619926426 -0.003918407980867104 -0.0010686805373545018
-0.03926991003940489 -0.020963997229459994 -0.01276073489072455
-0.0005971221241707127 0.024661831437609246 -0.004295905240254309
0.023716683156923605 0.02795554022473732 -0.006412110741914405
0.003248601082110955 -0.041757584776883724 -0.0032378007058639674
0.0020668595309619965 -0.017933488370755937 -0.0017811391124821175
-0.004494592982702527 -0.03695099520469811 -0.012760734890724549
0.041069960293076586 0.00041104646717166456 -0.0016030271758899423
-0.03305915489997551 -0.031040465012716283 -0.009586421542347843
0.023706755855365805 -0.04430211774415046 -0.0005343338032711781
0.022635817006286713 -0.01901344543132742 -0.0010686805373544973
-0.0018507031765984101 0.030130291030320902 -6.348678420001822e-05
0.03563959388377678 -0.0028964600280315025 -0.012760734890724542
0.0018618960127511853 -0.04118944903767058 -6.34867842000222e-05
0.004394136390642276 -0.025134445229108304 -0.0014249079776594313
-0.011675393266368028 -0.0015078801856297861 -0.0021373665527870496
-0.03715588808048153 -0.011122795836745069 -0.009586421542347843
0.000734064349531228 -0.03984715531477836 -0.00010686376682088463
-0.005177423146116094 0.031935338283362126 -6.348678420001846e-05
0.007061903363146193 0.0008689745860787867 -0.012760734890724545
0.029441837388228843 -0.004917446206643114 -0.006412110741914407
-0.015280688113014144 -0.025337177836769417 -0.008528316753163168
0.012197210373146064 -0.03898670176458293 -0.0021373665527870496
-0.03990725014862545 -0.015081014448785415 -0.009586421542347843
-0.0036319195491134187 -0.007043783033349105 5.5736259228815345e-09
0.021145580199043335 -0.017988267759512705 -0.012760734890724544
0.017297828475959197 -0.008565073439580094 -0.00725859406367349
-0.026387689371182004 0.028355289926342755 -0.0010686805373544997
-0.004573331870951364 -0.00739333604640267 -0.001870196864338498
0.03365855315052812 -0.018340629702822502 -0.0007633421489918054
-0.001611759501265896 -0.03755348741079623 -0.00010686376682088474
-0.034392271556083105 -0.008057932974777547 -0.0016030271758899507
0.03042660168635881 -0.01700709388639244 -0.003237800705863963
0.007298315104028022 0.00033394090962045336 -0.012760734890724545
0.00430756198846371 -0.028278287508889305 -0.0010686805373545
0.01676892432667983 -0.008718250380620017 -0.008105076875843917
0.021624745495233185 -0.008747480969436018 -6.348678420001811e-05
0.0009700628132801877 -0.020465199352903033 -0.0003562218985282999
0.021303355803028837 -0.017778891322279375 -0.0013332131045088644
0.022061281477277282 -0.017289975830252078 -0.003237800705863964
0.03155668409471675 -0.0013609095990441778 -0.006412110741914406
0.025906239286252932 -0.021380555053151236 -0.006412110741914408
-0.03487729756298176 -0.00468561979928863 -0.0016030271758899505
-0.002308163573153785 -0.03998935106636227 -0.006412110741914412
-0.0035222686907561036 0.02962806520823504 -0.006412110741914408
0.03275570725818459 -0.0269595979525157 -6.348678420001804e-05
0.04082099744247108 0.02029349821773027 -0.0021373665527870426
-0.026441528715365346 0.04638873257309823 -0.00641211074191441
-0.033136451251715555 -0.028658294961352977 -0.0032378007058639705
0.007165562760353905 -0.0003195614294524259 -0.001603027175889946
-0.004573331870951364 -0.00739333604640267 -0.0013358502258030503
0.028347505604830875 0.002305623215206934 -6.348678420001673e-05
0.02796270529551836 -0.04492225627965544 -0.012760734890724545
-0.0018016440573684943 -0.01891330801443764 -0.0017098928855175807
0.029809770315067017 -0.0015884943032516388 -0.006412110741914406
0.03372066607910792 -0.01674884843142552 -0.0021796961714736175
0.004823128022116623 -0.024998030390169745 -0.0007124530333509863
0.004027395864758081 -0.02584454605660809 -0.004295905240254311
0.029806929584051203 -0.0004023475084695441 -0.009586421542347835
0.006465524152255987 0.0007480455877970848 -0.001068680537354498
-0.0009311403489265402 -0.024064042624117408 -0.001335850225803051
-0.028888653185005178 0.027173775309387763 5.573625922298089e-09
0.03752375458777777 0.020479016494525996 -0.002137366552787043
0.03922666151570434 0.01883352031506779 -6.348678420001456e-05
-0.009763743587366723 -0.0030793636079334435 -6.348678420002109e-05
-0.004787224446690815 -0.014639484099382507 -0.0005343338032711793
0.02430556222175626 -0.013405325214020188 -6.348678420001811e-05
-0.024626573998296715 0.01488612318338124 -0.00213736655278705
0.0069401138897460775 -0.00018642601322096323 5.57362592442267e-09
-0.02561691689387626 0.044906021097706174 -0.005142388052424738
0.03232648272818174 -0.018270864925080763 -0.0018701968643384948
-0.0015068963371388817 -0.03744928134675915 5.57362592124511e-09
-0.011295868046909923 0.0012170739823853794 -0.012760734890724547
0.019355321234740958 -0.01770673630234636 -0.0032378007058639644
0.02567688497070819 -0.047209619248296524 -0.0010686805373544988
