ply
format ascii 1.0
element vertex 719
property float x
property float y
property float z
property uchar red
property uchar green
property uchar blue
end_header
-8.663379669189453 -37.695648193359375 0.05940645933151245 244 208 63
41.16872787475586 -10.139473915100098 6.000001430511475 255 0 0
-10.232697486877441 -26.74180030822754 1.9999970197677612 244 208 63
33.94955825805664 -16.320329666137695 11.940596580505371 0 255 0
-18.58116340637207 -31.02103042602539 1.571427583694458 244 208 63
-9.50999641418457 -14.910558700561523 11.940596580505371 0 0 255
-10.968202590942383 -27.149330139160156 0.49999192357063293 244 208 63
31.749500274658203 12.289741516113281 0.49999192357063293 255 0 0
3.834890365600586 47.016510009765625 6.000001430511475 255 0 0
-7.998407363891602 -27.3798885345459 0.05940645933151245 244 208 63
32.73073959350586 9.180414199829102 1.4999998807907104 255 0 0
-18.640729904174805 -30.810897827148438 0.6428506970405579 244 208 63
9.69544792175293 -17.142601013183594 1.666664481163025 255 0 0
8.647212028503418 -24.942401885986328 7.980197906494141 0 255 0
12.308616638183594 -24.06943702697754 1.9999970197677612 255 0 0
21.458637237548828 -17.79279327392578 7.485149383544922 255 0 0
24.13167381286621 -8.285431861877441 0.33332735300064087 255 0 0
10.551566123962402 -22.52978515625 11.940596580505371 0 255 0
-15.019904136657715 -9.437582969665527 2.0396060943603516 244 208 63
7.200891494750977 -37.99342346191406 1.9999970197677612 255 0 0
9.52762222290039 -22.791805267333984 0.05940645933151245 255 0 0
-6.933075904846191 -3.9443321228027344 -5.21540641784668e-06 244 208 63
-1.096604347229004 -49.76830291748047 8.970297813415527 0 0 255
10.328807830810547 4.9172234535217285 0.9999959468841553 255 0 0
10.109174728393555 -14.341865539550781 0.6999969482421875 255 0 0
-8.22541618347168 -37.76374053955078 7.485149383544922 0 0 255
10.264114379882812 -14.462011337280273 0.49999192357063293 255 0 0
-18.310409545898438 -36.114540100097656 11.940596580505371 0 0 255
-24.069644927978516 -14.025720596313477 11.940596580505371 0 0 255
18.74176025390625 -30.482345581054688 0.49999192357063293 255 0 0
-10.873062133789062 -27.101896286010742 0.7499973773956299 244 208 63
41.63129806518555 1.3845062255859375 11.940596580505371 0 255 0
-39.34632873535156 3.4956204891204834 3.029705762863159 244 208 63
9.015464782714844 1.6907942295074463 1.2475268840789795 255 0 0
6.696288108825684 1.4981544017791748 0.49999192357063293 255 0 0
-6.874414443969727 -39.96710205078125 8.970297813415527 0 0 255
2.785090923309326 45.00821304321289 1.9999970197677612 255 0 0
1.5162618160247803 -46.99246597290039 0.9999959468841553 255 0 0
-12.224885940551758 -18.298494338989258 4.019805431365967 244 208 63
29.768951416015625 9.997420310974121 -5.21540641784668e-06 255 0 0
-7.445657730102539 -26.382293701171875 7.980197906494141 0 0 255
10.308860778808594 -14.48376750946045 1.7999988794326782 255 0 0
41.94602966308594 -6.348505020141602 0.05940645933151245 255 0 0
-23.253419876098633 -19.367965698242188 1.3333284854888916 244 208 63
-10.721179008483887 15.776039123535156 0.05940645933151245 244 208 63
-20.614547729492188 -9.550751686096191 1.3333284854888916 244 208 63
18.793676376342773 -29.63631820678711 -5.21540641784668e-06 255 0 0
-8.663379669189453 6.569303512573242 11.940596580505371 0 0 255
11.33724594116211 32.1214714050293 6.000001430511475 255 0 0
-14.116257667541504 -17.557300567626953 0.49999192357063293 244 208 63
6.313668251037598 0.21295666694641113 0.9999959468841553 255 0 0
10.822429656982422 -27.143667221069336 -5.21540641784668e-06 255 0 0
10.460907936096191 4.254499435424805 0.6666633486747742 255 0 0
10.591033935546875 -14.595386505126953 1.9999970197677612 255 0 0
-8.542862892150879 -1.555924415588379 0.05940645933151245 244 208 63
-6.750950813293457 -25.112106323242188 1.4999998807907104 244 208 63
-18.58237075805664 -32.521446228027344 0.05940645933151245 244 208 63
7.095112323760986 -24.911762237548828 0.05940645933151245 255 0 0
29.89567756652832 -17.061168670654297 1.666664481163025 255 0 0
9.322164535522461 -14.592302322387695 2.0396060943603516 255 0 0
29.35016632080078 12.637375831604004 0.49999192357063293 255 0 0
-37.640018463134766 6.317412853240967 8.970297813415527 0 0 255
-10.466642379760742 -22.52606964111328 0.05940645933151245 244 208 63
-32.091793060302734 -18.79245948791504 11.940596580505371 0 0 255
-42.56837463378906 -2.2696733474731445 1.4999998807907104 244 208 63
42.37993621826172 0.15803813934326172 0.49999192357063293 255 0 0
-20.972272872924805 -29.301021575927734 3.029705762863159 244 208 63
-6.568085670471191 -39.46330642700195 -5.21540641784668e-06 244 208 63
-7.709365367889404 -38.036277770996094 7.485149383544922 0 0 255
8.66427993774414 -37.25151443481445 -5.21540641784668e-06 255 0 0
-25.080907821655273 -10.098922729492188 3.029705762863159 244 208 63
-19.437816619873047 -29.593217849731445 11.940596580505371 0 0 255
11.00855827331543 -29.486753463745117 4.019805431365967 255 0 0
-11.704694747924805 -14.983271598815918 1.9999970197677612 244 208 63
-12.505962371826172 -16.08841323852539 2.0396060943603516 244 208 63
-20.985706329345703 -27.78394889831543 0.05940645933151245 244 208 63
-11.010467529296875 -21.765832901000977 1.3333284854888916 244 208 63
21.331157684326172 -30.225095748901367 -5.21540641784668e-06 255 0 0
12.390390396118164 -15.410405158996582 0.33332735300064087 255 0 0
12.96573257446289 5.97800350189209 8.970297813415527 0 255 0
21.80902862548828 -17.08429527282715 1.544554352760315 255 0 0
21.522823333740234 -7.649221420288086 8.970297813415527 0 255 0
-42.539390563964844 -1.3880431652069092 1.4999998807907104 244 208 63
25.318920135498047 -10.527618408203125 8.970297813415527 0 255 0
-10.630452156066895 -22.46466636657715 11.940596580505371 0 0 255
5.6148481369018555 -2.322261333465576 1.4999998807907104 255 0 0
9.204965591430664 38.88530731201172 0.9999959468841553 255 0 0
23.323688507080078 -11.129570007324219 1.666664481163025 255 0 0
-9.31626033782959 -14.82387638092041 7.584159851074219 0 0 255
-14.358400344848633 -20.247060775756836 0.24999335408210754 244 208 63
-21.43857192993164 -18.83143424987793 0.24999335408210754 244 208 63
-23.727123260498047 -12.072164535522461 1.9999970197677612 244 208 63
1.3661338090896606 -49.599327087402344 8.970297813415527 0 255 0
18.813047409057617 -27.332029342651367 0.05940645933151245 255 0 0
-13.137991905212402 -11.033716201782227 -5.21540641784668e-06 244 208 63
12.815590858459473 -36.84715270996094 1.4999998807907104 255 0 0
26.209144592285156 -13.450185775756836 -5.21540641784668e-06 255 0 0
-11.192949295043945 -23.96235466003418 10.455445289611816 0 0 255
8.251060485839844 -16.474214553833008 9.564355850219727 0 255 0
-10.607942581176758 -26.963050842285156 1.7499984502792358 244 208 63
7.273919582366943 -3.07475209236145 11.940596580505371 0 255 0
10.080686569213867 -16.664756774902344 3.029705762863159 255 0 0
-14.08475399017334 -17.474990844726562 -5.21540641784668e-06 244 208 63
-41.33921813964844 2.626410722732544 8.970297813415527 0 0 255
1.0258198976516724 49.704830169677734 0.05940645933151245 255 0 0
-17.424720764160156 -29.450286865234375 0.05940645933151245 244 208 63
-26.281862258911133 -12.671991348266602 0.9999959468841553 244 208 63
13.97291088104248 -22.24267578125 0.33332735300064087 255 0 0
-25.88790512084961 -17.565895080566406 9.960396766662598 0 0 255
7.266900539398193 -37.87808609008789 0.9999959468841553 255 0 0
-6.834809303283691 0.17665505409240723 11.940596580505371 0 0 255
11.708707809448242 -15.580424308776855 6.000001430511475 255 0 0
12.072943687438965 -28.156108856201172 8.970297813415527 0 255 0
-19.263751983642578 -30.2948055267334 10.950496673583984 0 0 255
18.872230529785156 -29.66240692138672 1.9999970197677612 255 0 0
6.799489974975586 -16.275775909423828 0.9999959468841553 255 0 0
-16.202613830566406 6.087484359741211 1.9999970197677612 244 208 63
10.955599784851074 18.25334930419922 0.05940645933151245 255 0 0
-23.39044189453125 12.582950592041016 1.9999970197677612 244 208 63
-37.86372375488281 5.227843284606934 0.9999959468841553 244 208 63
26.185386657714844 -13.641002655029297 0.6666633486747742 255 0 0
16.581377029418945 -35.66503143310547 11.940596580505371 0 255 0
-0.5215500593185425 48.20881652832031 8.376238822937012 0 0 255
23.605546951293945 12.60653018951416 0.49999192357063293 255 0 0
8.240189552307129 -13.452817916870117 6.000001430511475 255 0 0
9.273921966552734 11.021377563476562 -5.21540641784668e-06 255 0 0
-20.117538452148438 -9.499191284179688 1.666664481163025 244 208 63
-31.25300407409668 -18.929508209228516 0.05940645933151245 244 208 63
-10.80783462524414 33.731136322021484 11.940596580505371 0 0 255
-2.6168441772460938 -48.80812072753906 0.05940645933151245 244 208 63
10.427115440368652 -13.778271675109863 0.49999192357063293 255 0 0
1.9276983737945557 -46.59428405761719 1.9999970197677612 255 0 0
-11.189207077026367 -29.51325225830078 0.05940645933151245 244 208 63
-10.957742691040039 -16.993227005004883 11.940596580505371 0 0 255
10.719694137573242 -14.637693405151367 0.8999985456466675 255 0 0
-13.785388946533203 -39.3588981628418 1.9999970197677612 244 208 63
12.048171043395996 -19.591245651245117 1.9999970197677612 255 0 0
10.140787124633789 -27.21795654296875 7.980197906494141 0 255 0
-18.376171112060547 -31.68641471862793 1.1428546905517578 244 208 63
-9.305936813354492 -25.718198776245117 0.7499973773956299 244 208 63
6.612607955932617 1.2187910079956055 1.4999998807907104 255 0 0
0.26938092708587646 48.328468322753906 3.62376070022583 255 0 0
20.807662963867188 -30.248483657836914 11.940596580505371 0 255 0
7.213654518127441 -3.8095855712890625 1.4999998807907104 255 0 0
21.52508544921875 -9.835227966308594 0.33332735300064087 255 0 0
-20.91007423400879 -26.934892654418945 1.3333284854888916 244 208 63
-10.720178604125977 -24.702136993408203 1.9999970197677612 244 208 63
12.343026161193848 30.451980590820312 0.9999959468841553 255 0 0
33.3101692199707 11.211029052734375 8.970297813415527 0 255 0
-33.59014129638672 -16.51129722595215 0.05940645933151245 244 208 63
-33.84572982788086 -18.734813690185547 1.4999998807907104 244 208 63
-5.042937755584717 42.31761932373047 3.029705762863159 244 208 63
-28.731674194335938 10.538270950317383 0.05940645933151245 244 208 63
18.876068115234375 -29.677967071533203 1.3999956846237183 255 0 0
23.925460815429688 -14.39474105834961 11.940596580505371 0 255 0
11.486894607543945 11.721692085266113 6.000001430511475 255 0 0
-12.546500205993652 14.727048873901367 1.9999970197677612 244 208 63
36.770870208740234 -16.326087951660156 0.05940645933151245 255 0 0
15.79697036743164 -9.248932838439941 11.940596580505371 0 255 0
11.751041412353516 10.699516296386719 -5.21540641784668e-06 255 0 0
8.996971130371094 -24.474332809448242 7.980197906494141 0 255 0
-9.37852668762207 -24.34844398498535 9.564355850219727 0 0 255
11.769561767578125 -18.447128295898438 1.9999970197677612 255 0 0
-20.79521942138672 -18.4111270904541 1.4999998807907104 244 208 63
10.45192813873291 -14.54445743560791 0.7999943494796753 255 0 0
1.1757011413574219 -47.297027587890625 -5.21540641784668e-06 255 0 0
8.664334297180176 -16.513587951660156 9.564355850219727 0 255 0
17.788856506347656 -33.24250411987305 1.9999970197677612 255 0 0
-22.488056182861328 9.67380428314209 0.9999959468841553 244 208 63
-10.405158042907715 17.403141021728516 1.9999970197677612 244 208 63
-14.496122360229492 -10.215559005737305 0.9999959468841553 244 208 63
7.910431861877441 -2.3375606536865234 7.980197906494141 0 255 0
10.482266426086426 -22.557106018066406 3.029705762863159 255 0 0
20.235336303710938 -26.62007713317871 0.49999192357063293 255 0 0
-1.1401854753494263 -47.974857330322266 8.970297813415527 0 0 255
39.29194259643555 -10.662625312805176 6.000001430511475 255 0 0
-1.4579205513000488 -49.59069061279297 0.05940645933151245 244 208 63
-28.538278579711914 -19.019481658935547 2.0396060943603516 244 208 63
-21.42191505432129 -27.852096557617188 1.4999998807907104 244 208 63
-6.206220626831055 -2.211615562438965 0.05940645933151245 244 208 63
-9.702568054199219 -14.001399993896484 0.05940645933151245 244 208 63
-13.44412899017334 -16.386695861816406 1.9999970197677612 244 208 63
37.29620361328125 -13.687668800354004 0.05940645933151245 255 0 0
-16.71084976196289 -37.550933837890625 3.029705762863159 244 208 63
23.69662857055664 -11.8995943069458 0.9999959468841553 255 0 0
-6.750744819641113 -15.692414283752441 1.4999998807907104 244 208 63
-24.25006866455078 -13.442508697509766 0.05940645933151245 244 208 63
-1.2388770580291748 47.64054870605469 11.940596580505371 0 0 255
13.047438621520996 -16.638887405395508 2.0396060943603516 255 0 0
9.00564956665039 2.1146786212921143 4.019805431365967 255 0 0
-17.97866439819336 -32.8017578125 0.9999959468841553 244 208 63
-23.10582733154297 -14.970151901245117 1.3333284854888916 244 208 63
8.38668441772461 -16.490583419799805 8.376238822937012 0 255 0
-10.450562477111816 36.113059997558594 0.9999959468841553 244 208 63
-5.518999099731445 -3.3328115940093994 1.9999970197677612 244 208 63
0.18857967853546143 48.3740119934082 10.752476692199707 0 255 0
-12.678792953491211 23.04275131225586 11.940596580505371 0 0 255
7.413930416107178 -27.485063552856445 1.9999970197677612 255 0 0
21.10211944580078 -17.475141525268555 1.2499945163726807 255 0 0
-21.657258987426758 -18.944190979003906 0.9999959468841553 244 208 63
-12.499286651611328 -20.295000076293945 0.05940645933151245 244 208 63
25.166296005249023 -16.544692993164062 1.285710096359253 255 0 0
9.334474563598633 -26.592193603515625 7.980197906494141 0 255 0
8.7539644241333 34.891746520996094 6.000001430511475 255 0 0
40.0852165222168 1.3224589824676514 8.970297813415527 0 255 0
11.196152687072754 -24.589557647705078 0.6666633486747742 255 0 0
-14.629538536071777 -7.415646553039551 1.9999970197677612 244 208 63
21.509387969970703 -17.641172409057617 11.940596580505371 0 255 0
-18.830888748168945 -30.014894485473633 1.285710096359253 244 208 63
-20.822898864746094 -18.44279670715332 1.2499945163726807 244 208 63
34.6536865234375 -18.41720199584961 0.9999959468841553 255 0 0
21.524538040161133 -7.1200103759765625 1.4999998807907104 255 0 0
-6.654589653015137 -0.4622972011566162 11.940596580505371 0 0 255
-18.71954345703125 -30.514179229736328 1.571427583694458 244 208 63
1.4070690870285034 -47.09332275390625 1.9999970197677612 255 0 0
-12.342605590820312 -20.875621795654297 7.980197906494141 0 0 255
8.569632530212402 -2.261146306991577 1.9999970197677612 255 0 0
16.194053649902344 -7.579442024230957 8.970297813415527 0 255 0
10.595215797424316 3.570115566253662 8.970297813415527 0 255 0
14.522822380065918 -19.472347259521484 -5.21540641784668e-06 255 0 0
-6.805170059204102 -23.34148406982422 0.9999959468841553 244 208 63
7.287217617034912 -27.276933670043945 0.9999959468841553 255 0 0
7.618442535400391 -2.6920084953308105 9.960396766662598 0 255 0
-6.722710132598877 -24.571462631225586 1.7499984502792358 244 208 63
-18.69479751586914 -30.610265731811523 1.285710096359253 244 208 63
-9.171314239501953 -25.265018463134766 1.4999998807907104 244 208 63
10.598258972167969 28.664154052734375 0.05940645933151245 255 0 0
-19.380443572998047 -29.837581634521484 7.980197906494141 0 0 255
-13.471095085144043 -36.77238082885742 1.4999998807907104 244 208 63
8.571043968200684 -2.259377956390381 1.2499945163726807 255 0 0
9.320629119873047 -25.683774948120117 -5.21540641784668e-06 255 0 0
12.339241981506348 -29.78702163696289 0.05940645933151245 255 0 0
-11.47398567199707 -21.395153045654297 -5.21540641784668e-06 244 208 63
-20.214393615722656 -27.12222671508789 8.970297813415527 0 0 255
-42.57607650756836 -2.7991585731506348 0.49999192357063293 244 208 63
3.108734607696533 -46.07950973510742 4.019805431365967 255 0 0
-32.33844757080078 -16.522512435913086 1.4999998807907104 244 208 63
11.043830871582031 -17.671701431274414 1.3333284854888916 255 0 0
10.264114379882812 -14.462011337280273 0.19999295473098755 255 0 0
25.13542366027832 -16.946245193481445 0.9999959468841553 255 0 0
35.31381607055664 8.370400428771973 6.000001430511475 255 0 0
-40.27193832397461 -7.947352409362793 3.029705762863159 244 208 63
-21.623355865478516 -18.29047393798828 11.940596580505371 0 0 255
-42.317138671875 -7.699341773986816 1.9999970197677612 244 208 63
23.638681411743164 -18.907560348510742 8.970297813415527 0 255 0
11.62689208984375 -18.261438369750977 1.9999970197677612 255 0 0
19.28790283203125 -6.797106742858887 -5.21540641784668e-06 255 0 0
42.20011520385742 1.2654292583465576 0.9999959468841553 255 0 0
30.98095703125 -19.412479400634766 -5.21540641784668e-06 255 0 0
-11.514851570129395 -14.895273208618164 1.3333284854888916 244 208 63
-42.069828033447266 -3.833754539489746 8.970297813415527 0 0 255
14.28524398803711 -17.90294647216797 0.6666633486747742 255 0 0
-11.078629493713379 22.32115936279297 7.980197906494141 0 0 255
-20.82452964782715 -26.86054801940918 0.9999959468841553 244 208 63
16.08154296875 -35.49924850463867 0.49999192357063293 255 0 0
20.95339012145996 -29.264541625976562 3.029705762863159 255 0 0
9.739714622497559 -24.931106567382812 0.7999943494796753 255 0 0
-18.69219398498535 -26.869129180908203 1.3333284854888916 244 208 63
-12.936057090759277 -10.557188987731934 11.940596580505371 0 0 255
-23.413089752197266 -19.393218994140625 1.9999970197677612 244 208 63
-0.5830352306365967 49.86388397216797 9.564355850219727 0 0 255
-42.44019317626953 -6.738253593444824 1.9999970197677612 244 208 63
-2.537221908569336 -49.597408294677734 1.4999998807907104 244 208 63
-14.357619285583496 -20.339035034179688 1.4999998807907104 244 208 63
7.096510887145996 -24.447778701782227 4.019805431365967 255 0 0
-18.783687591552734 -30.24639892578125 1.7142795324325562 244 208 63
-8.48332405090332 -37.72059631347656 11.940596580505371 0 0 255
-7.877260208129883 -28.039485931396484 1.4999998807907104 244 208 63
6.396676540374756 -3.564138412475586 9.960396766662598 0 255 0
34.92523193359375 -18.25835418701172 0.9999959468841553 255 0 0
-7.738812446594238 37.28060531616211 8.970297813415527 0 0 255
-21.228769302368164 -27.368921279907227 -5.21540641784668e-06 244 208 63
9.303752899169922 -14.628124237060547 11.940596580505371 0 255 0
-20.815906524658203 -9.093828201293945 0.05940645933151245 244 208 63
-14.321413040161133 -18.586713790893555 0.9999959468841553 244 208 63
40.19579315185547 5.140763282775879 8.970297813415527 0 255 0
-10.873062133789062 -27.101896286010742 0.24999335408210754 244 208 63
-22.856801986694336 -10.607885360717773 0.9999959468841553 244 208 63
-16.651721954345703 -9.10879898071289 7.980197906494141 0 0 255
-13.973011016845703 -28.41242790222168 3.029705762863159 244 208 63
10.073572158813477 5.9196577072143555 0.05940645933151245 255 0 0
12.038095474243164 -19.295005798339844 1.4999998807907104 255 0 0
-24.520248413085938 -9.311816215515137 0.05940645933151245 244 208 63
23.794525146484375 -11.084165573120117 7.980197906494141 0 255 0
-7.246670722961426 -25.60927963256836 2.0396060943603516 244 208 63
9.903620719909668 -11.126293182373047 0.05940645933151245 255 0 0
3.0980825424194336 45.31113052368164 6.000001430511475 255 0 0
20.73011016845703 -9.613579750061035 0.33332735300064087 255 0 0
31.91897201538086 9.473542213439941 0.9999959468841553 255 0 0
7.91481876373291 -3.0534756183624268 -5.21540641784668e-06 255 0 0
7.917244911193848 -3.0506515502929688 1.2499945163726807 255 0 0
-12.008803367614746 11.920500755310059 1.9999970197677612 244 208 63
10.166820526123047 4.240571022033691 1.9999970197677612 255 0 0
-18.852575302124023 -29.621719360351562 0.9999959468841553 244 208 63
-10.92452621459961 -21.816377639770508 1.666664481163025 244 208 63
-14.358400344848633 -20.247060775756836 0.7499973773956299 244 208 63
18.855478286743164 -29.63811492919922 0.49999192357063293 255 0 0
15.522953987121582 -7.1943135261535645 -5.21540641784668e-06 255 0 0
-10.907855987548828 26.99710464477539 3.029705762863159 244 208 63
37.63044357299805 5.495170593261719 1.9999970197677612 255 0 0
25.0645751953125 -16.791688919067383 1.1428546905517578 255 0 0
-7.392192363739014 36.797607421875 -5.21540641784668e-06 244 208 63
-22.77598762512207 -15.379230499267578 1.9999970197677612 244 208 63
25.044506072998047 -16.89855194091797 0.285712331533432 255 0 0
10.111751556396484 -14.349405288696289 0.9999959468841553 255 0 0
32.4576301574707 -16.979257583618164 11.940596580505371 0 255 0
-4.6464715003967285 46.01358413696289 11.940596580505371 0 0 255
12.060166358947754 -24.218631744384766 -5.21540641784668e-06 255 0 0
21.42934226989746 -18.08987045288086 8.970297813415527 0 255 0
-13.062674522399902 -37.337989807128906 0.05940645933151245 244 208 63
25.672874450683594 -17.034997940063477 -5.21540641784668e-06 255 0 0
-20.733871459960938 -18.25148582458496 1.9999970197677612 244 208 63
-39.51174545288086 7.291112899780273 1.666664481163025 244 208 63
25.079627990722656 -9.202390670776367 0.9999959468841553 255 0 0
9.244022369384766 -14.822450637817383 4.019805431365967 255 0 0
29.768951416015625 9.997420310974121 1.9999970197677612 255 0 0
9.289125442504883 -1.3361132144927979 -5.21540641784668e-06 255 0 0
35.31381607055664 8.370400428771973 3.029705762863159 255 0 0
-19.417444229125977 -28.787261962890625 2.4356439113616943 244 208 63
10.624238014221191 -14.606697082519531 0.39999455213546753 255 0 0
-39.70295715332031 -9.776004791259766 3.029705762863159 244 208 63
21.901947021484375 -16.951454162597656 3.029705762863159 255 0 0
-14.413209915161133 -30.518648147583008 1.4999998807907104 244 208 63
-23.416736602783203 -15.229705810546875 0.05940645933151245 244 208 63
8.678729057312012 -24.79248046875 6.000001430511475 255 0 0
8.310900688171387 -22.415424346923828 1.666664481163025 255 0 0
-7.185390949249268 37.235748291015625 0.9999959468841553 244 208 63
-9.808854103088379 -22.712074279785156 9.960396766662598 0 0 255
11.865511894226074 -27.598411560058594 -5.21540641784668e-06 255 0 0
-12.023568153381348 -17.951038360595703 9.960396766662598 0 0 255
-18.20916748046875 -27.943262100219727 1.9999970197677612 244 208 63
21.274688720703125 -30.512041091918945 0.9999959468841553 255 0 0
-24.15559959411621 12.130770683288574 11.940596580505371 0 0 255
-32.05439376831055 -17.122831344604492 8.970297813415527 0 0 255
15.561065673828125 -30.409482955932617 0.49999192357063293 255 0 0
-19.235347747802734 -26.732080459594727 0.33332735300064087 244 208 63
5.750924587249756 -3.7229442596435547 1.4999998807907104 255 0 0
5.30307674407959 -46.80865478515625 -5.21540641784668e-06 255 0 0
-41.086421966552734 4.482591152191162 -5.21540641784668e-06 244 208 63
7.1610941886901855 -15.670753479003906 9.960396766662598 0 255 0
13.492463111877441 -10.200122833251953 6.000001430511475 255 0 0
-25.430007934570312 -14.793551445007324 3.029705762863159 244 208 63
-10.910514831542969 -29.979867935180664 1.9999970197677612 244 208 63
-30.922382354736328 11.885515213012695 11.940596580505371 0 0 255
-24.089672088623047 -11.479741096496582 8.970297813415527 0 0 255
20.283140182495117 -9.014836311340332 8.970297813415527 0 255 0
18.361553192138672 -31.762060165405273 0.7999943494796753 255 0 0
10.382917404174805 -16.757471084594727 11.940596580505371 0 255 0
6.740938663482666 -25.730960845947266 1.9999970197677612 255 0 0
-30.95513343811035 -17.390363693237305 7.980197906494141 0 0 255
33.93659210205078 10.956451416015625 8.970297813415527 0 255 0
-14.11159610748291 -28.413043975830078 0.05940645933151245 244 208 63
27.542036056518555 10.682024002075195 11.940596580505371 0 255 0
7.452589988708496 4.022377967834473 0.9999959468841553 255 0 0
-20.736379623413086 -18.279617309570312 1.7499984502792358 244 208 63
-4.4359002113342285 46.318336486816406 0.05940645933151245 244 208 63
-32.646820068359375 11.452363967895508 0.05940645933151245 244 208 63
-0.7516978979110718 47.529502868652344 0.9999959468841553 244 208 63
25.77729606628418 -19.044376373291016 6.000001430511475 255 0 0
39.786537170410156 0.5758357048034668 -5.21540641784668e-06 255 0 0
7.160340309143066 -38.06820297241211 0.49999192357063293 255 0 0
6.794404029846191 -15.265212059020996 -5.21540641784668e-06 255 0 0
-13.390006065368652 -23.071840286254883 1.9999970197677612 244 208 63
-12.557796478271484 -23.26431655883789 4.51485013961792 244 208 63
-22.90175437927246 -15.229211807250977 0.9999959468841553 244 208 63
-26.653858184814453 -19.63926887512207 1.9999970197677612 244 208 63
11.341221809387207 -11.924997329711914 0.05940645933151245 255 0 0
-13.044578552246094 22.222482681274414 -5.21540641784668e-06 244 208 63
-14.25229263305664 -9.742815017700195 9.960396766662598 0 0 255
-39.61911392211914 2.8161168098449707 0.05940645933151245 244 208 63
-21.177099227905273 -27.27971649169922 -5.21540641784668e-06 244 208 63
7.639526844024658 -14.49910831451416 11.940596580505371 0 255 0
-26.27714729309082 -12.498091697692871 -5.21540641784668e-06 244 208 63
-7.4361982345581055 -23.364885330200195 1.544554352760315 244 208 63
32.64963912963867 -16.908340454101562 0.05940645933151245 255 0 0
29.10515785217285 10.564756393432617 11.940596580505371 0 255 0
38.868221282958984 -14.29844856262207 11.940596580505371 0 255 0
14.45656681060791 -20.812559127807617 0.9999959468841553 255 0 0
12.979880332946777 -16.55476951599121 6.000001430511475 255 0 0
-10.111221313476562 -15.052433967590332 8.376238822937012 0 0 255
-18.783687591552734 -30.24639892578125 1.1428546905517578 244 208 63
-11.00760269165039 25.657508850097656 3.029705762863159 244 208 63
9.887621879577637 5.250189304351807 11.940596580505371 0 255 0
-20.736379623413086 9.000907897949219 0.9999959468841553 244 208 63
5.972476959228516 -3.8961310386657715 0.33332735300064087 255 0 0
-19.53180503845215 -29.11575698852539 9.960396766662598 0 0 255
32.52580261230469 11.480631828308105 11.940596580505371 0 255 0
22.648996353149414 -18.767358779907227 11.940596580505371 0 255 0
-12.50300121307373 18.670297622680664 0.05940645933151245 244 208 63
11.11873722076416 -9.307785987854004 0.49999192357063293 255 0 0
39.03103256225586 4.051660537719727 0.05940645933151245 255 0 0
7.263350009918213 3.3826851844787598 0.9999959468841553 255 0 0
-33.224464416503906 -16.68044090270996 0.05940645933151245 244 208 63
-18.301677703857422 -33.257789611816406 4.019805431365967 244 208 63
16.859766006469727 -34.686134338378906 0.24999335408210754 255 0 0
-9.290199279785156 -14.802531242370605 0.4554477334022522 244 208 63
38.4109001159668 4.300863742828369 1.9999970197677612 255 0 0
14.487288475036621 -18.97500991821289 -5.21540641784668e-06 255 0 0
33.25143814086914 8.959616661071777 0.9999959468841553 255 0 0
-21.069950103759766 -27.118717193603516 1.9999970197677612 244 208 63
22.57792854309082 -7.445436000823975 1.4999998807907104 255 0 0
25.61850357055664 -14.025638580322266 6.000001430511475 255 0 0
-18.252119064331055 -6.790992736816406 1.4999998807907104 244 208 63
13.284263610839844 -7.9955949783325195 0.9999959468841553 255 0 0
-10.920042991638184 -9.512804985046387 1.9999970197677612 244 208 63
5.511852264404297 -2.8730506896972656 0.9999959468841553 255 0 0
-9.506240844726562 -37.174591064453125 1.3333284854888916 244 208 63
18.283357620239258 7.661586761474609 -5.21540641784668e-06 255 0 0
-23.958271026611328 -11.215964317321777 3.029705762863159 244 208 63
23.59697914123535 9.984670639038086 -5.21540641784668e-06 255 0 0
-13.222837448120117 -16.877973556518555 0.05940645933151245 244 208 63
29.620262145996094 -19.06122589111328 11.940596580505371 0 255 0
-8.060056686401367 -37.356266021728516 0.33332735300064087 244 208 63
-33.99102020263672 11.534343719482422 -5.21540641784668e-06 244 208 63
-39.4072265625 -10.470986366271973 11.940596580505371 0 0 255
28.8026123046875 -17.113454818725586 1.3333284854888916 255 0 0
3.2693638801574707 47.72211837768555 0.05940645933151245 255 0 0
-9.554099082946777 -14.213082313537598 7.980197906494141 0 0 255
8.453763008117676 -37.283660888671875 1.9999970197677612 255 0 0
-34.17727279663086 -15.685600280761719 0.49999192357063293 244 208 63
-18.830888748168945 -30.014894485473633 1.8571382761001587 244 208 63
-26.036827087402344 12.856748580932617 0.9999959468841553 244 208 63
-41.714820861816406 1.29852294921875 0.05940645933151245 244 208 63
-12.487401008605957 -36.948734283447266 1.9999970197677612 244 208 63
40.005401611328125 -8.778382301330566 11.940596580505371 0 255 0
8.524954795837402 -16.503799438476562 7.1881184577941895 0 255 0
13.29965877532959 -27.87260627746582 -5.21540641784668e-06 255 0 0
-31.386585235595703 -18.914690017700195 11.940596580505371 0 0 255
-26.674928665161133 -17.598468780517578 2.0396060943603516 244 208 63
-16.56353187561035 -30.249114990234375 0.49999192357063293 244 208 63
-13.571102142333984 -21.921567916870117 11.940596580505371 0 0 255
38.475074768066406 7.636033058166504 6.000001430511475 255 0 0
-17.701383590698242 -33.442256927490234 1.357141137123108 244 208 63
40.384212493896484 -12.020179748535156 8.970297813415527 0 255 0
35.35190200805664 10.234450340270996 11.940596580505371 0 255 0
-9.837465286254883 -26.449275970458984 1.4999998807907104 244 208 63
-11.757104873657227 -11.588906288146973 11.940596580505371 0 0 255
11.18603515625 -30.077011108398438 1.4999998807907104 255 0 0
10.109174728393555 -14.341865539550781 1.0999932289123535 255 0 0
25.300275802612305 -15.171565055847168 0.05940645933151245 255 0 0
-12.048162460327148 -15.741971969604492 2.0396060943603516 244 208 63
21.673019409179688 -7.684837341308594 11.940596580505371 0 255 0
21.487537384033203 -17.700448989868164 11.940596580505371 0 255 0
41.78965377807617 0.5642926692962646 0.05940645933151245 255 0 0
13.124580383300781 -16.03710174560547 0.6666633486747742 255 0 0
11.405448913574219 -18.018842697143555 1.4999998807907104 255 0 0
-17.459733963012695 -33.869266510009766 1.666664481163025 244 208 63
-10.90420913696289 17.236988067626953 2.0396060943603516 244 208 63
37.03515625 6.221202850341797 1.9999970197677612 255 0 0
11.522990226745605 -30.170547485351562 1.9999970197677612 255 0 0
8.897443771362305 1.5869617462158203 11.940596580505371 0 255 0
-7.035181045532227 -22.9683780670166 1.3333284854888916 244 208 63
23.537412643432617 -7.87791633605957 0.9999959468841553 255 0 0
-13.500048637390137 -38.8513069152832 3.029705762863159 244 208 63
37.6948356628418 -13.21743392944336 11.940596580505371 0 255 0
-9.31626033782959 -14.82387638092041 7.980197906494141 0 0 255
11.949287414550781 -21.4737606048584 0.05940645933151245 255 0 0
6.181745529174805 40.122520446777344 -5.21540641784668e-06 255 0 0
-42.55348587036133 -1.7302078008651733 0.49999192357063293 244 208 63
-8.136197090148926 -37.78173828125 7.485149383544922 0 0 255
25.441547393798828 -17.007469177246094 0.9999959468841553 255 0 0
-18.36095428466797 -9.479697227478027 0.49999192357063293 244 208 63
-10.695433616638184 21.120054244995117 -5.21540641784668e-06 244 208 63
3.683898448944092 44.454532623291016 0.05940645933151245 255 0 0
6.782504558563232 -3.4872169494628906 6.000001430511475 255 0 0
1.4561612606048584 50.095211029052734 1.9999970197677612 255 0 0
28.722497940063477 12.682560920715332 -5.21540641784668e-06 255 0 0
-28.17293357849121 12.802706718444824 1.9999970197677612 244 208 63
-9.280904769897461 -14.791961669921875 8.376238822937012 0 0 255
39.28582763671875 3.521585464477539 6.000001430511475 255 0 0
11.960323333740234 -24.27260398864746 0.6666633486747742 255 0 0
-19.716110229492188 -6.8539719581604 -5.21540641784668e-06 244 208 63
-20.73664093017578 -18.28138542175293 1.9999970197677612 244 208 63
11.767409324645996 32.50636672973633 -5.21540641784668e-06 255 0 0
-32.036216735839844 -19.273372650146484 0.33332735300064087 244 208 63
8.05776309967041 -12.898752212524414 0.6666633486747742 255 0 0
-10.33147144317627 13.626347541809082 11.940596580505371 0 0 255
14.252904891967773 7.150430679321289 0.05940645933151245 255 0 0
9.064228057861328 -26.291305541992188 7.980197906494141 0 255 0
-16.74783706665039 -35.333438873291016 0.05940645933151245 244 208 63
-17.831235885620117 -6.8040571212768555 0.49999192357063293 244 208 63
-9.256954193115234 -24.985023498535156 1.9999970197677612 244 208 63
-17.77785301208496 -33.279762268066406 1.7142795324325562 244 208 63
9.255880355834961 3.041987419128418 7.980197906494141 0 255 0
15.507393836975098 -36.45642852783203 6.000001430511475 255 0 0
-30.578285217285156 -18.97886085510254 2.0396060943603516 244 208 63
11.458023071289062 -17.3594913482666 8.970297813415527 0 255 0
3.8481879234313965 43.40329360961914 1.9999970197677612 255 0 0
-15.219590187072754 -28.330474853515625 3.029705762863159 244 208 63
36.750980377197266 -13.617368698120117 0.9999959468841553 255 0 0
-12.881001472473145 -8.18387508392334 -5.21540641784668e-06 244 208 63
18.876068115234375 -29.677967071533203 1.1999975442886353 255 0 0
-7.418184757232666 36.74211120605469 0.9999959468841553 244 208 63
-41.96553039550781 -6.314890384674072 8.970297813415527 0 0 255
-28.778736114501953 -19.018123626708984 0.05940645933151245 244 208 63
-40.76768493652344 5.1586127281188965 1.666664481163025 244 208 63
10.732730865478516 -27.55674934387207 0.05940645933151245 255 0 0
6.679165363311768 -16.003293991088867 -5.21540641784668e-06 255 0 0
12.595766067504883 -36.8768196105957 0.49999192357063293 255 0 0
-7.176425457000732 42.83154296875 1.9999970197677612 244 208 63
-19.613086700439453 -27.149425506591797 8.970297813415527 0 0 255
-17.3406982421875 -6.83811092376709 -5.21540641784668e-06 244 208 63
-12.506771087646484 -19.218414306640625 4.019805431365967 244 208 63
-11.51579761505127 -23.829952239990234 3.029705762863159 244 208 63
-29.875490188598633 -19.5474853515625 0.33332735300064087 244 208 63
5.690467357635498 41.15264892578125 3.029705762863159 255 0 0
-13.785539627075195 -22.56804656982422 0.9999959468841553 244 208 63
6.595088005065918 -0.5920946598052979 11.940596580505371 0 255 0
-8.192239761352539 -13.545546531677246 0.05940645933151245 244 208 63
18.66368865966797 -26.849950790405273 0.9999959468841553 255 0 0
-9.48123550415039 -26.738235473632812 2.0396060943603516 244 208 63
-13.431310653686523 -17.206113815307617 0.05940645933151245 244 208 63
-38.83314514160156 -11.580735206604004 8.970297813415527 0 0 255
-20.252532958984375 -9.508952140808105 0.6666633486747742 244 208 63
5.495922088623047 -3.154387950897217 1.9999970197677612 255 0 0
-7.218580722808838 -23.75241470336914 11.940596580505371 0 0 255
-12.220293045043945 -28.161113739013672 8.970297813415527 0 0 255
-31.278270721435547 -19.397001266479492 1.666664481163025 244 208 63
25.13401222229004 -16.617063522338867 1.9999970197677612 255 0 0
-7.278160095214844 -37.97383117675781 0.9999959468841553 244 208 63
13.942188262939453 -20.557941436767578 11.940596580505371 0 255 0
21.321971893310547 -30.2733097076416 1.666664481163025 255 0 0
12.51263427734375 -23.92932891845703 1.3333284854888916 255 0 0
-21.261520385742188 -18.734676361083984 0.24999335408210754 244 208 63
12.966719627380371 19.639501571655273 1.9999970197677612 255 0 0
38.85694122314453 -11.504156112670898 11.940596580505371 0 255 0
25.153148651123047 -10.174199104309082 11.940596580505371 0 255 0
-13.027496337890625 -23.420886993408203 1.4999998807907104 244 208 63
-6.2334747314453125 -4.051413536071777 0.49999192357063293 244 208 63
18.3178768157959 -36.06686019897461 6.000001430511475 255 0 0
7.7550530433654785 -16.380115509033203 7.1881184577941895 255 0 0
-6.787197589874268 0.009404420852661133 11.940596580505371 0 0 255
-9.31626033782959 -14.82387638092041 3.62376070022583 244 208 63
10.273148536682129 4.686911106109619 0.49999192357063293 255 0 0
-9.184118270874023 -25.113765716552734 -5.21540641784668e-06 244 208 63
35.59872055053711 7.557480335235596 0.9999959468841553 255 0 0
-10.812810897827148 -27.07129669189453 -5.21540641784668e-06 244 208 63
-14.35693359375 -19.428010940551758 0.9999959468841553 244 208 63
3.9699244499206543 46.83804702758789 6.000001430511475 255 0 0
-9.107032775878906 -1.6013014316558838 1.9999970197677612 244 208 63
-27.950613021850586 -17.60299301147461 2.0396060943603516 244 208 63
-9.955939292907715 35.92228317260742 11.940596580505371 0 0 255
-12.048162460327148 -15.741971969604492 7.980197906494141 0 0 255
5.928086757659912 -1.1214977502822876 -5.21540641784668e-06 255 0 0
-14.014714241027832 -36.60226821899414 0.49999192357063293 244 208 63
-13.747140884399414 -28.405738830566406 8.970297813415527 0 0 255
8.577322959899902 -22.84184455871582 2.0396060943603516 255 0 0
20.660263061523438 -26.80069351196289 0.9999959468841553 255 0 0
-7.877877235412598 -37.40890884399414 1.9999970197677612 244 208 63
-12.833308219909668 -10.635357856750488 4.019805431365967 244 208 63
-5.7751665115356445 -3.7334728240966797 0.49999192357063293 244 208 63
8.973268508911133 1.6476380825042725 9.564355850219727 0 255 0
9.493993759155273 -26.739990234375 9.960396766662598 0 255 0
22.088720321655273 -9.5072660446167 8.970297813415527 0 255 0
6.336548328399658 -41.135650634765625 4.019805431365967 255 0 0
-28.887435913085938 -17.14638328552246 0.9999959468841553 244 208 63
-13.149726867675781 -10.400768280029297 4.019805431365967 244 208 63
10.422426223754883 7.215000152587891 0.05940645933151245 255 0 0
-31.539112091064453 -19.358562469482422 0.33332735300064087 244 208 63
24.1872501373291 12.661476135253906 0.49999192357063293 255 0 0
12.892608642578125 -28.3262939453125 3.029705762863159 255 0 0
-10.117650985717773 -37.135108947753906 1.666664481163025 244 208 63
-12.079144477844238 -21.37482261657715 11.940596580505371 0 0 255
-33.66020584106445 -18.810131072998047 0.49999192357063293 244 208 63
-15.955657958984375 -9.673543930053711 1.9999970197677612 244 208 63
11.066163063049316 24.747472763061523 6.000001430511475 255 0 0
-29.833526611328125 -19.004304885864258 7.980197906494141 0 0 255
24.925853729248047 10.157157897949219 1.3333284854888916 255 0 0
-40.979793548583984 4.711504936218262 1.4999998807907104 244 208 63
41.69855499267578 -8.155702590942383 3.029705762863159 255 0 0
15.123156547546387 -29.860721588134766 9.960396766662598 0 255 0
1.0758305788040161 47.73390579223633 3.029705762863159 255 0 0
-9.814516067504883 -27.012704849243164 0.05940645933151245 244 208 63
-17.77785301208496 -33.279762268066406 1.1428546905517578 244 208 63
14.235069274902344 -28.3690242767334 3.029705762863159 255 0 0
6.095364570617676 -45.842437744140625 0.9999959468841553 255 0 0
-11.698786735534668 -21.814252853393555 2.0396060943603516 244 208 63
-9.506240844726562 -37.174591064453125 1.666664481163025 244 208 63
7.7564239501953125 -37.44292068481445 1.9999970197677612 255 0 0
-18.865283966064453 -29.690853118896484 1.4285688400268555 244 208 63
-10.626696586608887 0.3539407253265381 -5.21540641784668e-06 244 208 63
-4.331587791442871 46.465789794921875 0.05940645933151245 244 208 63
-14.46420669555664 -36.991920471191406 9.960396766662598 0 0 255
-41.374176025390625 -9.646522521972656 0.05940645933151245 244 208 63
9.954207420349121 -37.10926818847656 1.3333284854888916 255 0 0
20.92133903503418 -29.525466918945312 11.940596580505371 0 255 0
-36.737030029296875 7.261281967163086 8.970297813415527 0 0 255
-41.040992736816406 -10.636112213134766 3.029705762863159 244 208 63
-40.00135040283203 -1.0708290338516235 0.9999959468841553 244 208 63
-4.88808012008667 -46.559722900390625 11.940596580505371 0 0 255
32.80785369873047 9.68213939666748 6.000001430511475 255 0 0
23.000730514526367 -10.72856616973877 1.3333284854888916 255 0 0
-9.50999641418457 -14.910558700561523 2.831681728363037 244 208 63
13.291337013244629 -22.30451774597168 0.05940645933151245 255 0 0
5.687849044799805 -3.6520819664001465 1.3333284854888916 255 0 0
16.033672332763672 5.975124835968018 0.9999959468841553 255 0 0
-12.427451133728027 -27.72576904296875 -5.21540641784668e-06 244 208 63
-22.40388298034668 -7.895943641662598 0.05940645933151245 244 208 63
14.388555526733398 -30.49708366394043 0.9999959468841553 255 0 0
-40.09928894042969 -4.614938735961914 0.9999959468841553 244 208 63
-19.544775009155273 -28.797584533691406 9.960396766662598 0 0 255
23.862590789794922 -12.563525199890137 1.9999970197677612 255 0 0
-8.952448844909668 -39.240055084228516 11.940596580505371 0 0 255
8.117233276367188 35.32402038574219 0.49999192357063293 255 0 0
-12.906198501586914 27.268680572509766 1.9999970197677612 244 208 63
20.522253036499023 -26.718891143798828 1.4999998807907104 255 0 0
-29.234384536743164 -19.01410675048828 4.019805431365967 244 208 63
-23.42940330505371 -14.477201461791992 1.3333284854888916 244 208 63
22.344928741455078 -16.433307647705078 11.940596580505371 0 255 0
6.767725944519043 -15.3385009765625 0.6666633486747742 255 0 0
-17.388296127319336 -33.9786262512207 0.33332735300064087 244 208 63
-9.401886940002441 -22.284021377563477 1.9999970197677612 244 208 63
22.658634185791016 10.234313011169434 11.940596580505371 0 255 0
-23.544902801513672 -14.242666244506836 -5.21540641784668e-06 244 208 63
6.43281364440918 -4.044695854187012 0.33332735300064087 255 0 0
-11.680676460266113 -17.532472610473633 9.960396766662598 0 0 255
-12.999544143676758 25.778915405273438 1.9999970197677612 244 208 63
-41.98324203491211 -6.0944623947143555 3.029705762863159 244 208 63
1.665951132774353 -49.4405632019043 11.940596580505371 0 255 0
25.27828598022461 -10.432052612304688 11.940596580505371 0 255 0
40.12263107299805 -1.728699803352356 -5.21540641784668e-06 255 0 0
14.496322631835938 -29.89400863647461 9.960396766662598 0 255 0
19.144779205322266 -8.9221773147583 8.970297813415527 0 255 0
-37.48861312866211 -15.780988693237305 11.940596580505371 0 0 255
7.433794975280762 -38.56338882446289 0.05940645933151245 255 0 0
9.541166305541992 -14.981598854064941 6.660065650939941 255 0 0
-25.641525268554688 -11.498083114624023 3.029705762863159 244 208 63
7.1406402587890625 1.255805492401123 11.940596580505371 0 255 0
-24.095596313476562 -13.957229614257812 3.029705762863159 244 208 63
7.570611476898193 -37.523338317871094 -5.21540641784668e-06 255 0 0
-27.69833755493164 -19.0216064453125 0.05940645933151245 244 208 63
10.376419067382812 -14.513776779174805 0.49999192357063293 255 0 0
4.290881156921387 -47.201446533203125 8.970297813415527 0 255 0
9.278349876403809 -14.681822776794434 4.019805431365967 255 0 0
18.798585891723633 -30.246837615966797 1.9999970197677612 255 0 0
7.332951068878174 -38.775936126708984 11.940596580505371 0 255 0
-10.99133014678955 18.592321395874023 4.019805431365967 244 208 63
36.51445770263672 9.459366798400879 0.05940645933151245 255 0 0
40.55434036254883 -3.106680393218994 11.940596580505371 0 255 0
11.337095260620117 -17.949077606201172 -5.21540641784668e-06 255 0 0
36.73128128051758 -14.280653953552246 0.05940645933151245 255 0 0
-18.864269256591797 -29.675472259521484 -5.21540641784668e-06 244 208 63
10.392005920410156 -22.590351104736328 0.05940645933151245 255 0 0
7.787200927734375 -22.514114379882812 0.33332735300064087 255 0 0
-7.963997840881348 -37.381832122802734 1.3333284854888916 244 208 63
-19.04058265686035 -28.883142471313477 3.62376070022583 244 208 63
10.97513484954834 -17.614452362060547 1.3333284854888916 255 0 0
-11.031003952026367 -22.280855178833008 7.980197906494141 0 0 255
-24.234167098999023 -11.886091232299805 3.029705762863159 244 208 63
-6.987418174743652 -38.538246154785156 0.49999192357063293 244 208 63
-21.55010986328125 -18.07595443725586 11.940596580505371 0 0 255
30.99177360534668 -17.380273818969727 6.000001430511475 255 0 0
25.6050968170166 -17.550884246826172 4.019805431365967 255 0 0
-10.526126861572266 -26.917728424072266 0.24999335408210754 244 208 63
9.717616081237793 -16.586191177368164 3.029705762863159 255 0 0
-12.148855209350586 -39.054176330566406 0.05940645933151245 244 208 63
12.528934478759766 -28.27328109741211 3.029705762863159 255 0 0
40.17146301269531 -2.452744245529175 0.9999959468841553 255 0 0
-21.546531677246094 -17.813823699951172 2.0396060943603516 244 208 63
-23.925397872924805 -8.739202499389648 3.029705762863159 244 208 63
-8.204934120178223 -37.32419967651367 1.9999970197677612 244 208 63
-7.239816188812256 -23.68799591064453 7.485149383544922 0 0 255
-18.436437606811523 -29.69056510925293 0.24999335408210754 244 208 63
7.271424770355225 -16.652515411376953 1.3333284854888916 255 0 0
-14.535329818725586 -27.92184829711914 1.4999998807907104 244 208 63
24.807846069335938 12.70290470123291 0.9999959468841553 255 0 0
-20.954025268554688 -9.620269775390625 1.9999970197677612 244 208 63
-7.24787712097168 -15.877610206604004 4.019805431365967 244 208 63
-9.924065589904785 -26.521564483642578 1.2499945163726807 244 208 63
25.10608673095703 -16.682743072509766 0.5714230537414551 255 0 0
-38.88990020751953 8.017912864685059 0.6666633486747742 244 208 63
-42.484500885009766 -0.5415219068527222 -5.21540641784668e-06 244 208 63
14.455455780029297 -39.26397705078125 0.6666633486747742 255 0 0
10.707383155822754 23.104167938232422 1.9999970197677612 255 0 0
0.24800848960876465 47.798583984375 1.7499984502792358 255 0 0
11.218704223632812 -27.799345016479492 0.05940645933151245 255 0 0
11.70155143737793 4.742432594299316 8.970297813415527 0 255 0
-9.351327896118164 -17.08511734008789 0.6666633486747742 244 208 63
15.4328031539917 -9.351517677307129 6.000001430511475 255 0 0
-11.070157051086426 23.670433044433594 0.05940645933151245 244 208 63
8.26900577545166 -16.956636428833008 1.9999970197677612 255 0 0
25.522525787353516 -11.161827087402344 8.970297813415527 0 255 0
17.29649543762207 -7.441391944885254 11.940596580505371 0 255 0
8.283921241760254 -27.776134490966797 0.05940645933151245 255 0 0
-7.980283737182617 -16.890161514282227 0.9999959468841553 244 208 63
-24.204458236694336 -19.494691848754883 0.33332735300064087 244 208 63
34.99653625488281 -15.694703102111816 11.940596580505371 0 255 0
-30.928606033325195 -17.39444923400879 0.05940645933151245 244 208 63
8.573415756225586 6.230826377868652 6.000001430511475 255 0 0
9.614070892333984 2.390505075454712 2.4356439113616943 255 0 0
9.645821571350098 -14.99522590637207 2.0396060943603516 255 0 0
-11.961397171020508 -21.533519744873047 4.019805431365967 244 208 63
18.55080795288086 -31.165414810180664 0.19999295473098755 255 0 0
-33.54792785644531 -18.30881690979004 11.940596580505371 0 0 255
-12.695805549621582 -28.276172637939453 11.940596580505371 0 0 255
25.33269691467285 -16.199731826782227 0.5714230537414551 255 0 0
37.11054229736328 8.983744621276855 3.029705762863159 255 0 0
8.085318565368652 -40.9720458984375 11.940596580505371 0 255 0
-10.163151741027832 -26.69607925415039 0.49999192357063293 244 208 63
21.36421012878418 -30.04535675048828 0.33332735300064087 255 0 0
-30.261838912963867 11.986276626586914 0.05940645933151245 244 208 63
8.85504150390625 -28.313392639160156 11.940596580505371 0 255 0
12.01328182220459 -19.06502342224121 0.24999335408210754 255 0 0
-9.653091430664062 -14.953316688537598 11.5445556640625 0 0 255
-7.221295356750488 -23.74349021911621 7.485149383544922 0 0 255
15.139168739318848 5.870250701904297 11.940596580505371 0 255 0
9.348060607910156 -25.74726104736328 -5.21540641784668e-06 255 0 0
9.166017532348633 -37.187808990478516 0.6666633486747742 255 0 0
8.227577209472656 -12.634236335754395 1.666664481163025 255 0 0
7.213010311126709 -3.810147762298584 -5.21540641784668e-06 255 0 0
12.470451354980469 -19.034589767456055 3.029705762863159 255 0 0
-26.06538200378418 -14.405488967895508 1.9999970197677612 244 208 63
-40.57148361206055 -5.281994342803955 3.029705762863159 244 208 63
-8.704931259155273 -22.888290405273438 8.970297813415527 0 0 255
12.704835891723633 5.730198860168457 8.970297813415527 0 255 0
-21.17679786682129 -17.288890838623047 0.9999959468841553 244 208 63
-3.8823280334472656 -48.43693542480469 1.9999970197677612 244 208 63
13.687089920043945 -17.818553924560547 6.000001430511475 255 0 0
-39.7175178527832 0.7416057586669922 -5.21540641784668e-06 244 208 63
