ply
format ascii 1.0
element vertex 749
property float x
property float y
property float z
end_header
0.008309979968098275 -0.039470793016813326 0.0016799442892470146
0.013360086379554789 -0.04029021079367856 0.0021804533954269067
0.009140493610272249 0.016624396282767056 0.0016035840656946996
0.03862234983597769 -0.012024089617515457 0.012765167955409088
0.03850408515730561 0.023924163597369052 0.012765167955409088
-0.003429686931735997 -0.008027635117515532 0.0016035840656946996
-0.019147997823894456 0.00589738459360857 -5.575562194959744e-09
0.029133277819098 0.008768064547869669 -5.575562194959744e-09
0.0062081259323377765 0.007447343708743833 0.001333676261214273
0.03274029349895625 -0.015087948624069798 0.0010690517957490798
-0.029352838347908198 0.039424719035678825 6.350883943613146e-05
0.037544292693324335 -0.01566468157304771 0.0013363142986413741
0.017964773084031174 -0.008438598722617738 0.002138109071479288
0.0009304956449901149 -0.01567705265137462 -5.575562194959744e-09
0.020785127236650228 0.030102025395710368 0.0010690517957490798
-0.033331805131230234 0.03795816233729569 0.0005345194302223937
-0.03321505420652769 -0.027486842229706793 6.350883943613146e-05
0.024375713949196454 0.033424283223550795 0.0016035840656946996
0.028979284416086097 -0.04163701087946798 6.350883943613146e-05
-0.017470980596401068 -0.036373614956676376 0.0016035840656946996
0.008078607410727209 0.003741573731776129 0.004297397632814127
0.01841404962680335 -0.036520779622657984 -5.575562194959744e-09
0.035744294790810184 0.028113924157199783 0.0010690517957490798
0.0018016243151799214 -0.026029086868980207 0.0002672569273300994
-0.005692681023394476 -0.029219762928216056 0.0021804533954269067
0.012485333764211433 0.02441838839280002 0.0010690517957490798
0.006197130487914631 0.007413934915413729 6.350883943613146e-05
0.03995740935566485 0.021593561632241062 0.003238925514120517
0.012729407178927232 0.024699755863205535 -5.575562194959744e-09
-0.007442312642504099 -0.03359662940127547 0.00035634564960782114
0.025860171580105683 -0.01274621453794394 0.0007127005387187082
0.030545937160849006 -0.016600472389594025 0.0005345194302223937
-0.015540001091372496 -0.03642953874411307 6.350883943613146e-05
0.015680303939877745 0.0007262017316560725 0.002138109071479288
0.03139273260402345 -0.042383217492704635 0.002138109071479288
-0.03159774794040571 -0.012689483535661194 0.0005345194302223937
0.003046824563584109 -0.023090981394295374 0.002138109071479288
0.01526148045579943 -0.001770169184555154 -5.575562194959744e-09
0.01739873685138154 -0.008171418341613711 0.003874003585726682
0.0023702146506199865 -0.018879309642311937 0.009801446328926391
0.01726982443747009 0.029088276600150762 0.0095897518542111
-0.018427301544488427 0.001822917419368446 -5.575562194959744e-09
0.018013205008569098 -0.004198159841859243 0.001870846568586994
0.03225918476505476 -0.015486653234613785 0.0016035840656946996
-0.02714851857034886 0.0383389004842843 0.0016035840656946996
0.007159007611833814 -0.038841794198738046 0.00015271847176259536
-0.023490045134232786 -0.004067650516481879 -5.575562194959744e-09
0.009719339086784047 -0.02966665679820228 0.0002672569273300994
0.02382410564128113 0.031165342430221427 0.0095897518542111
0.011625292075864716 -0.030932291592805507 0.012765167955409088
0.029648873897484846 0.000672976918674366 0.008002044823143479
0.03336382385160056 -0.03952267294873344 0.012765167955409088
0.030574081821021122 -0.01591468638123981 0.012765167955409088
0.02673050968693554 0.030426973045271942 0.0016035840656946996
0.005434093726226598 -0.017724733586103682 0.002138109071479288
-0.00043498264732370586 0.017393087737016397 0.012765167955409088
0.03394549970384499 -0.02325876470557274 0.00035634564960782114
-0.032588008288830406 0.0398056806030508 0.003874003585726682
0.0007070909969980697 -0.02032174777978349 0.0007127005387187082
0.020957911627176643 -0.0063624198268758805 0.006414338301841543
-0.037282579359546056 -0.022123291665975556 0.002138109071479288
0.010384208400508072 -0.023737892731216056 0.001870846568586994
-0.02391403317139202 -0.006561925411572666 0.012765167955409088
-0.03376538472103107 -0.025116399763888256 -5.575562194959744e-09
0.017816899257214223 -0.005806752046915398 0.004297397632814127
0.03484679758638283 -0.007904894796823821 -5.575562194959744e-09
0.0007355276185815398 -0.024579761791238684 0.0016035840656946996
0.012506456304579696 -0.04042884733344958 0.012765167955409088
-0.010264779026045875 -0.021926357579124395 -5.575562194959744e-09
-0.006067238430196738 0.02502203588273031 0.0010690517957490798
0.0044475198968973615 -0.02801690425244373 0.0013363142986413741
0.035381335296549944 -0.02996424552891378 0.006414338301841543
0.007684909220209832 0.02150451063263076 0.0010690517957490798
0.030948892238581754 -4.5618923973594754e-05 0.0095897518542111
0.006117971151561392 0.014783445586123767 0.0010690517957490798
0.00731847621325284 0.0014520665049847605 0.006414338301841543
0.016270053531725885 -0.0068554221479947075 0.010648223208256181
0.037340866854862716 -0.014746356192788631 0.0014966739668809178
-0.027900244008272276 0.01523770909598104 0.012765167955409088
0.0111073526845142 0.026989944942818363 0.0005345194302223937
0.03483381417418523 -0.008651613879371004 0.012765167955409088
0.022552480855524845 -0.015063929620468364 6.350883943613146e-05
0.0320072550127739 -0.026176079097237938 0.0005345194302223937
0.006091023741811492 0.0021614736085237853 0.0010690517957490798
0.0008056503230853689 -0.020111132201473775 0.0007127005387187082
0.0034678038810779144 -0.024978716092120316 0.010648223208256181
0.03871720844970018 0.01925694470727214 0.002138109071479288
0.026107879437024587 -0.014840275348779042 -5.575562194959744e-09
0.032485246922587 0.02821884861063434 0.012765167955409088
0.036074589977838876 0.0030943995498718983 -5.575562194959744e-09
0.006064970723109587 0.002214455898907914 -5.575562194959744e-09
0.009160342015025467 -0.02629635202399117 0.003874003585726682
-0.03367918364217199 0.03865330267720311 0.003238925514120517
0.004934975358062063 0.01009561336834189 6.350883943613146e-05
0.004921435828643685 -0.018546931635848037 0.008531279480634646
0.024470335042091736 -0.005938162046410715 0.0021804533954269067
0.033007756818424154 0.0038854523312337906 -5.575562194959744e-09
0.031218220004683495 0.004677594615334508 0.006414338301841543
0.03765328600869309 0.007476046130123221 6.350883943613146e-05
0.0398390751315595 0.006578551663407773 -5.575562194959744e-09
0.012568788087267139 -0.026670108044979584 0.001870846568586994
0.009460090366509867 -0.026088130251519317 0.012765167955409088
-0.03325868137037035 0.038506689766808884 0.0005345194302223937
-0.03287522893988045 0.03977856605383189 0.012765167955409088
-0.010148063384758245 -0.02738909949686568 0.002138109071479288
-0.03336197167184348 0.0368255057959637 0.0005345194302223937
0.011613270656199529 -0.02504720210716841 0.0008017892928567854
0.015387035255675145 -0.03928120247516177 0.012765167955409088
0.04153779804576028 0.013174913517127799 0.012765167955409088
-0.02774871910796382 -0.006408826539933344 0.003238925514120517
0.002029031758723104 -0.018230246287049803 0.008531279480634646
-0.004623431496534443 -0.030171487371940867 -5.575562194959744e-09
0.03200430636540424 -0.04236104316283789 0.0005345194302223937
0.022781804103151504 0.033357144362346436 0.002138109071479288
0.0196763601329627 0.006171978677735045 0.003238925514120517
0.01024169795772519 -0.02431948575847148 0.003238925514120517
-0.009248264268959788 -0.032286169479619396 0.004297397632814127
0.00856533614476089 -0.039586396207091264 0.00045815923853043404
-0.015129519435867825 -0.03575322693348895 0.0016035840656946996
0.012271983329581872 -0.030844739744822644 0.002138109071479288
-0.0287517020022163 0.012690774973120681 -5.575562194959744e-09
0.010249907078925043 0.025134955590290334 0.012765167955409088
-0.007247387156915401 -0.02883703118214899 0.004297397632814127
-0.02843086596293562 -0.033389331387429416 0.0095897518542111
0.0280081022803338 0.006811957587270332 0.010648223208256181
0.01704866234461006 0.028364294461665957 0.0005345194302223937
0.03238844977104836 -0.01222070319916285 6.350883943613146e-05
0.005911215811341712 0.012922117180271017 -5.575562194959744e-09
0.02856789371922344 -0.04215295828074173 0.002138109071479288
0.03779381700852465 -0.019065770683656863 6.350883943613146e-05
0.00519240557798187 0.010897781568562467 0.0005345194302223937
-0.016214859376506713 0.0007474372648377832 6.350883943613146e-05
0.006227540992214367 0.00770255205347234 0.005144174512143918
0.02012357349255538 -0.0041849631271539435 0.0017817578781696274
0.01747344629061895 -0.002312215576291519 6.350883943613146e-05
0.0362795802694303 -0.03769983607698011 0.0016035840656946996
-0.010549511865859854 0.030359674296405827 0.012765167955409088
-0.024613393333435627 -0.006786671277955673 0.012765167955409088
0.03643540955737052 -0.0326085036197402 -5.575562194959744e-09
0.009109248018956937 -0.03977542968188528 0.0010690517957490798
-0.006221597629720194 -0.028528204017656173 -5.575562194959744e-09
0.022123452544230728 -0.012730044967920467 0.00035634564960782114
0.037644591512535644 -0.017008112047548537 0.0002672569273300994
-0.03591286923637227 0.03382599285016519 0.002138109071479288
-0.006164164211058162 -0.029050423667913685 0.010648223208256181
0.02029527612116732 -0.004713559510181893 0.011177457865747349
-0.004271292306471801 -0.004853488175253152 0.0010690517957490798
0.007486917508712633 -0.03960903550995799 0.0095897518542111
-0.02150261377619418 -0.03630092534150804 -5.575562194959744e-09
0.03790723411615126 -0.00952885759052298 0.0014254029890587404
-0.012375103460270556 0.03449766241426611 0.002138109071479288
0.017669404973668687 -0.008054922872582991 6.350883943613146e-05
0.001514041956081924 -0.018094103453862368 6.350883943613146e-05
0.026647880271436518 0.0069406558941342705 0.0017817578781696274
0.034119474382319846 -0.009558406974135248 6.350883943613146e-05
-0.03011606843250691 0.041328395202714134 6.350883943613146e-05
0.01549744005537402 -0.039207849304668085 0.0095897518542111
0.02500261578743453 -0.01396751868235568 0.00171048690034745
-0.01190833571052384 -0.03391835888867188 -5.575562194959744e-09
0.008069544147076814 -0.035677837874593624 0.0016035840656946996
-0.016591172536040186 0.03396877163544009 0.002138109071479288
0.021645087121368367 -0.014104270590523351 0.00035634564960782114
0.006907173573359991 -0.025092466069148046 0.00035634564960782114
0.02953494380916997 0.02998230835851675 0.0095897518542111
0.006233226778268917 0.007910463814897968 0.006414338301841543
0.0042067897319893344 -0.02495642203666519 0.0010690517957490798
0.016447577747532638 -0.008500808618472251 0.0014254029890587404
0.022302482853721533 -0.012563961652937827 0.0010690517957490798
0.0047906868256067025 -0.019662092898121927 0.002138109071479288
0.001172206857630074 -0.015735285627245132 0.002138109071479288
-0.02511650562152279 -0.004550477605998283 0.0010690517957490798
0.009729873897037408 -0.03358887265589764 0.012765167955409088
0.02570398040111606 -0.011901325487676775 0.004297397632814127
0.03720573426672611 0.022973882456941493 0.0095897518542111
0.016501442007325874 -0.037907645947023116 -5.575562194959744e-09
0.0390282862289488 -0.020467845445961145 0.0095897518542111
0.03149541386532282 -0.013150176464921512 0.0095897518542111
-0.023687011465816206 0.010418698323096618 0.002138109071479288
-0.011902559802577945 -0.02045597722843568 0.012765167955409088
0.023214646904449784 -0.01645061918659359 0.00035634564960782114
0.010007665196229363 0.024801633276789872 6.350883943613146e-05
-0.030464031704649702 -0.008540427029154059 0.0095897518542111
0.026233199934613878 -0.010203974851320588 0.006414338301841543
-0.01375048155753505 0.0016078547093838758 -5.575562194959744e-09
0.005878455182195323 0.01261281687840245 0.002138109071479288
-0.008061202996150521 -0.019392058099184633 0.010648223208256181
0.03483381417418523 -0.008651613879371004 6.350883943613146e-05
0.029370582012355952 -0.014113690013360398 0.002138109071479288
0.0025571123466423726 -0.018541842959052677 0.008107892570266811
0.022313964250150017 -0.007019131130098234 0.001870846568586994
0.029197150938020156 0.000840128575394093 0.0005345194302223937
-0.026630842252067584 0.010045332487695104 0.002138109071479288
-0.03313005356938751 0.039734480933663004 0.011495001107117344
0.03362241357210108 -0.04201945093740493 0.002138109071479288
0.005022593095494897 -0.018201630024544904 0.008531279480634646
0.0184330406717334 0.000293583267694129 0.002138109071479288
0.025439796727947845 -0.012335975779995798 0.004297397632814127
-0.0348147205569411 -0.02347965778724907 0.012765167955409088
0.008279825570492628 -0.03198954856321967 0.0010690517957490798
0.010928190217226422 0.022986975007378143 0.012765167955409088
-0.0029745819618892375 -0.00750286190186855 0.003238925514120517
0.009952303538985317 0.01954740378262921 0.002138109071479288
0.008303844405091926 0.0229684691398502 0.002138109071479288
0.01643155289609316 -0.007454031902169134 0.0021804533954269067
0.004920011976833975 -0.03722476169483334 0.00030544251908738566
0.024705664574919836 -0.014982170237340966 0.004297397632814127
0.03501376425048686 -0.007825804417317212 0.0016035840656946996
0.017964773084031174 -0.008438598722617738 -5.575562194959744e-09
0.03219357698288809 -0.01553774393106341 -5.575562194959744e-09
0.022532341543709394 -0.01503539145775349 0.004297397632814127
-0.01471370831814864 -0.03558318278610621 0.0010690517957490798
-0.007217751963648004 -0.01936584780829272 0.002138109071479288
0.03565765895428456 -0.03823492985300599 0.003238925514120517
0.03573842738971349 -0.011374548664348921 0.002138109071479288
0.03921867607435503 0.01049206167529034 0.0095897518542111
0.03297476579948934 -0.029249766550949054 -5.575562194959744e-09
0.004933158265744188 -0.03725000575951614 0.000916327716563934
-0.03712807369787848 -0.022971775718895096 -5.575562194959744e-09
0.002171904299598099 -0.03838522363441127 0.002138109071479288
0.03802349208831505 -0.009720806400489864 0.0017817578781696274
0.005753059048117562 -0.036788698845758895 0.0010690517957490798
0.04165270641857305 0.014701622008853745 6.350883943613146e-05
-0.00966953046459002 -0.027748126243917745 -5.575562194959744e-09
0.002877402782298409 -0.024185407397444562 0.012765167955409088
0.02667351427738992 -0.017661227084070728 0.0005345194302223937
0.021429951015610942 -0.03667795643276962 0.0016035840656946996
-0.029478708602069126 -0.006847663675983597 0.0010690517957490798
0.04051993055024348 0.021770886926850787 -5.575562194959744e-09
-0.0003791458764235596 0.01729017775183885 0.006414338301841543
0.023183178405501884 -0.011669944017136342 0.0005345194302223937
-0.013851586761986232 -0.03823530267373377 0.0017817578781696274
0.010466651804076408 -0.023791729929362408 0.0016035840656946996
0.037641618127963704 -0.017188224095731185 0.0002672569273300994
-0.011121090143345013 -0.019639080543771628 6.350883943613146e-05
0.03947696454982574 0.018373003942430036 6.350883943613146e-05
0.002894845372391583 -0.027257083737629206 0.0002672569273300994
0.03304054202300793 -0.02802434207686598 0.006414338301841543
0.022438841373713096 -0.013135892961651841 0.012765167955409088
0.03185173752719775 0.004254887719548213 -5.575562194959744e-09
0.020286706356012665 -0.036159193560511865 0.002138109071479288
0.032689381997771445 0.0009938499079992153 6.350883943613146e-05
0.025134370984882647 0.03114301479259883 0.006414338301841543
0.0184330406717334 0.000293583267694129 -5.575562194959744e-09
0.024166153613644974 -0.014386129567016712 0.004297397632814127
0.03394549970384499 -0.02325876470557274 0.0007127005387187082
0.026234341678321445 -0.009329462209612754 0.010648223208256181
0.007666481255640017 0.0009342497984485156 0.0016035840656946996
-0.03154700133265958 0.025846581671652314 0.0010690517957490798
-0.008154324377467246 -0.033377401080407085 6.350883943613146e-05
-0.022139149972410135 0.0388000940506555 0.012765167955409088
0.014119899084831099 0.026114656115389778 0.0010690517957490798
0.0237910036662355 0.006477824470558198 0.002138109071479288
0.009790706550207475 -0.02424112238096919 0.008002044823143479
0.018108681412443192 -0.005712637266874702 0.0021804533954269067
0.0017960401255105044 -0.036759466804140745 0.012765167955409088
0.03606091628177478 -0.010637077988231143 6.350883943613146e-05
0.019792348235741067 -0.03598972658801434 -5.575562194959744e-09
0.021793363248303232 -0.0398970480248486 0.0010690517957490798
-0.01068783380094113 -0.0005652673996077318 -5.575562194959744e-09
0.024976774471355885 -0.014246351345884223 0.0019242998338139825
0.032859269448228604 0.00044641668360318403 -5.575562194959744e-09
0.0019896955892096035 -0.019361664035071283 0.005144174512143918
0.026727672330831953 -0.00861366767053756 0.00035634564960782114
0.010227303450649969 0.020269536395087877 0.0010690517957490798
0.006223595921440249 0.01020450489875701 0.006414338301841543
0.0007355276185815398 -0.024579761791238684 0.001870846568586994
0.03237391670375106 -0.02492719299739753 0.0017817578781696274
0.02504416540351513 -0.014421604472703796 0.0019242998338139825
0.029678167441283876 0.0028873182418006848 0.006414338301841543
0.0128165290569716 -0.028397556959686536 0.002138109071479288
0.0025559725598797265 -0.01846200551455791 0.010224833239294228
0.029800214198548242 0.0001745509112803235 0.008002044823143479
0.009494642973967071 -0.026070939625230962 0.008954669449596601
0.028184517656996696 0.0066812192405530865 0.010648223208256181
0.004916122636164563 -0.03721358227235685 0.0008399675567323298
0.013897171437920311 -0.039522340658447154 0.0005345194302223937
0.006536847629354597 -0.028060392906074347 0.0008017892928567854
0.0016041597138067023 -0.0257899716781064 0.002138109071479288
0.029606431479527205 0.004094220793089225 0.006414338301841543
0.03036391782486936 -0.013448943548605236 0.0010690517957490798
0.03879262412342046 0.009444440166806562 0.0095897518542111
0.006218911392838166 0.007545892066649415 0.0026038400509118993
0.018837506724289663 -0.004621141707490952 0.0006414295608965308
-2.89619934823858e-05 -0.017789136519304943 0.012765167955409088
0.0055738084254519996 0.010268844298512351 0.0007127005387187082
0.035763333110737316 -0.010067653949441618 0.012765167955409088
0.031183906907093103 0.00481928461542755 0.003238925514120517
0.026150134465235828 -0.015374523140104858 0.008531279480634646
-0.008571436000757498 -0.007086872896836121 0.002138109071479288
0.0024734877823883467 -0.022536505227094647 0.0021804533954269067
0.019278416127157447 0.005791650074097924 6.350883943613146e-05
0.008022581745796774 -0.039326694731041875 0.0015272202737825796
0.005729845800991115 -0.03851763767936656 0.011706695581832635
0.02622073620352826 -0.009201753872607889 0.0021804533954269067
0.03407708243490129 0.028965988337705282 6.350883943613146e-05
0.009458997346871093 -0.03385175077198626 0.0095897518542111
0.039594460930244074 0.023315943452230137 0.0016035840656946996
-0.010236587237080227 -0.021895565553838123 0.0014254029890587404
-0.03550324082529892 -0.026646837368599945 0.003238925514120517
0.0016041597138067023 -0.0257899716781064 -5.575562194959744e-09
0.011394101527810644 0.026425108851699398 0.012765167955409088
0.010934862118200593 -0.02491464499143039 0.008002044823143479
0.02389372732525526 -0.005470189612658483 0.012765167955409088
0.0031509381562752903 -0.02747673643052144 0.0010690517957490798
0.03762528390646662 -0.016430804539443466 0.001870846568586994
0.005969561715986454 -0.03867595858179728 0.0011219810218504528
0.0004343373898055448 0.01574449644831378 0.012765167955409088
0.010021848564936934 -0.028846481761260874 0.0013363142986413741
0.032394038858708125 -0.04002430629343896 0.003238925514120517
-0.011738992300113224 -0.026246449039716888 0.003238925514120517
0.00013746054843100761 -0.01830947990900907 -5.575562194959744e-09
0.015727188700286242 -0.006595336872275301 0.0010690517957490798
0.04108742733851639 0.01882685309757672 0.003238925514120517
0.002483106402334558 -0.02290242084414747 6.350883943613146e-05
0.031416347047736416 -0.04176882406189478 0.0095897518542111
0.01889964544529225 0.00268449316469399 0.012765167955409088
0.02562266246210731 -0.014756918841898597 0.00171048690034745
0.008502846231860659 0.0017148854104166277 0.0005345194302223937
0.00864197762448881 -0.039617725108576425 0.0005345194302223937
0.010379012251233449 0.02530125653369377 6.350883943613146e-05
-0.0052853974288577165 -0.028763833187055516 0.001870846568586994
-0.012549584140781576 -0.006438033871247824 -5.575562194959744e-09
0.03764905850915527 0.004434894838812591 0.002138109071479288
0.0245944202993688 -0.01334766955790609 0.0021804533954269067
0.0403833049946489 0.02202609861509987 -5.575562194959744e-09
0.03606528000854314 -0.038970240415870314 0.0016035840656946996
0.010134263908765465 0.02140415178476403 0.012765167955409088
0.03351410594378513 0.0009652204009717555 0.0010690517957490798
-0.03590589339670749 0.033768521877287246 0.0010690517957490798
0.007893864984051898 -0.03302683088427333 0.0095897518542111
-0.010345651271744475 -0.021307234247961337 0.008531279480634646
-0.033885521962246326 -0.012016803703663445 6.350883943613146e-05
0.019047765260232486 -0.0045287790479359435 0.0007483360276297969
0.026702064344636754 -0.008477948978948772 -5.575562194959744e-09
0.007817053380707447 -0.03921732666550587 0.0015272202737825796
-0.013199488797161943 -0.03538885564265531 0.010648223208256181
-0.028095199814045114 0.015544649440319983 0.0095897518542111
0.008868767572151354 0.014693091876506281 0.0010690517957490798
0.00377692640717717 -0.016609826567573593 0.0005345194302223937
0.03707665418073147 0.023151131430108506 0.0095897518542111
-0.03462456640399938 -0.024175134920571523 0.0095897518542111
0.03537248065660138 -0.007747822482062446 -5.575562194959744e-09
0.02331114134903678 -0.011505176467867723 -5.575562194959744e-09
0.006168339305382615 -0.03413344852173254 0.012765167955409088
-0.022843680869414792 0.009474464311474378 -5.575562194959744e-09
-0.03615224671465999 -0.024753842916105957 6.350883943613146e-05
-0.02647510635314595 0.014084930446033454 0.002138109071479288
0.007379282620212192 -0.03278544833353837 -5.575562194959744e-09
-0.032742052083532654 0.039792131278169794 0.008954669449596601
0.02186342190842352 0.0058909220305207646 6.350883943613146e-05
0.03654403149105979 -0.01262718175285689 0.0009621489610963292
0.0356800443657353 -0.031327186487730044 0.0095897518542111
0.004172932043179249 0.012970263264972505 0.002138109071479288
-0.03516173497688954 -0.0210033543385443 6.350883943613146e-05
-0.023163235144423488 -0.035900750450692354 -5.575562194959744e-09
-0.026698451998714845 0.013518139116167402 6.350883943613146e-05
-0.026790527306919658 0.03822642852722965 0.0010690517957490798
0.03537090073529208 0.027706117676687174 0.006414338301841543
-0.004394305849598897 -0.02951507280389255 0.0010690517957490798
0.007777715544470428 -0.039767311257075014 0.010648223208256181
0.02809357494194692 -0.03927256523717465 -5.575562194959744e-09
0.011917169773347449 0.023640929833438174 0.002138109071479288
-0.032143097092205364 0.028315798447399 0.0005345194302223937
0.0029035900858640977 -0.02102904100303119 0.012765167955409088
0.0065720383671346375 -0.025228601409917784 -5.575562194959744e-09
0.009472408181259169 -0.02682770004486222 0.0002672569273300994
-0.022567810174765453 0.0085386808938307 0.004297397632814127
0.022119286338718156 -0.015246361518725184 0.0007127005387187082
-0.006068307878710743 0.02576318119705721 0.012765167955409088
0.010142005199422453 -0.026431847712414528 6.350883943613146e-05
-0.01007356444669807 -0.028026369968863343 6.350883943613146e-05
-0.005872241182583271 -0.03125550247759781 6.350883943613146e-05
0.010604086906874977 -0.02390047912982559 0.001870846568586994
0.02535168376800529 0.009793276698252262 -5.575562194959744e-09
0.03324090531592633 0.004056579889028065 0.0017817578781696274
0.035815737984743745 -0.021369206408992654 0.0016035840656946996
0.008580118861447722 0.002942226625984815 0.0005345194302223937
0.025522429244502022 -0.01472818782153795 0.0010690517957490798
0.02626585994565712 0.007484761624418941 6.350883943613146e-05
0.007697802248771932 -0.025274288137377678 0.004297397632814127
0.023179642824768698 -0.007595325274538766 0.0013363142986413741
0.019550499962231783 0.002684068056797265 -5.575562194959744e-09
0.019047765260232486 -0.0045287790479359435 0.0003207138246376034
0.0024580192637355704 -0.018745961757080543 0.0021804533954269067
0.019785546753449477 -0.03643201803075419 6.350883943613146e-05
0.004181321060708269 -0.020314545837151563 0.0007127005387187082
0.01722777187268065 -0.008211793839917427 0.008531279480634646
0.004917082519216789 -0.03718239496550353 0.0014508600502302646
-0.033336695022001976 0.036127857077548245 -5.575562194959744e-09
-0.03507536788048617 -0.019298219603227734 0.0095897518542111
0.036607701030684954 -0.008025414614060646 0.002138109071479288
0.02705990333254288 0.009661417854359216 0.0017817578781696274
0.015680303939877745 0.0007262017316560725 -5.575562194959744e-09
0.009667967012525066 -0.02425583956390855 0.008002044823143479
0.0047220520405349305 -0.018863750880776957 0.012765167955409088
0.035902386290973615 -0.008236291404623012 0.0095897518542111
-0.006210585537107842 -0.004220888092278629 6.350883943613146e-05
0.027925371957848374 0.0068677553465553995 0.012765167955409088
-0.0014642020024735775 -0.015321759440492492 -5.575562194959744e-09
0.006210279704551454 0.009487982257964251 0.012765167955409088
-0.03377325862593804 -0.03051264762942732 0.0005345194302223937
0.02164667149672896 0.03320240932742588 0.0005345194302223937
0.0359791655605085 -0.008260371042976361 0.003238925514120517
0.011855849559264336 0.023545129022704562 0.0016035840656946996
-0.004602987651330716 -0.02906183404045188 0.0013363142986413741
-0.028816041255668796 0.01678014929832222 0.0095897518542111
0.03588411605955711 -0.03672973737531339 0.0095897518542111
0.036236527984893345 -0.011964605781191826 0.00021380369396346632
-0.02115752953225279 -0.03635472245977009 0.002138109071479288
0.012812327259589683 -0.028000406146303898 0.0010690517957490798
-0.012957006881953536 -0.021924224239696675 0.0095897518542111
0.0026446868474199843 -0.02366371611344377 0.0021804533954269067
0.037561767376306045 -0.01803731375027366 0.002138109071479288
0.0013799201600460575 -0.03668239503748294 0.0017817578781696274
0.022300372833223173 -0.013350361114676851 0.0021804533954269067
0.010128020672078833 0.02497031061183502 0.012765167955409088
0.005814153189593303 0.012030518954958502 0.002138109071479288
0.02097366017431466 -0.03645996416059959 0.0008017892928567854
-0.013189794605484096 -0.0347934174097403 0.002138109071479288
-0.037083734047291664 -0.023170311307941907 0.00035634564960782114
0.028948917275596658 0.004878316918327826 0.002138109071479288
-0.010782718256981095 -0.026697818990881445 0.0014254029890587404
0.02247993763569676 -0.013081858128234968 0.008531279480634646
0.027774282838304014 0.030162665436571673 0.002138109071479288
0.0049148542361881755 -0.03718824411899139 -5.575562194959744e-09
0.018203752451240614 -0.005651880476049777 0.012059518686826746
0.015769740639588862 -0.003298664653921485 0.0095897518542111
0.00864197762448881 -0.039617725108576425 0.0015272202737825796
0.02047841316994654 0.004677698927176387 0.006414338301841543
-0.014251837241254563 0.032576765007465036 0.002138109071479288
0.0009093316122317967 -0.021318759183071405 0.0021804533954269067
-0.03135887554711265 -0.009340038507527498 0.012765167955409088
0.025227117991582754 -0.04134544961499142 0.0010690517957490798
0.02913323239361123 0.003903876905997528 0.0005345194302223937
-0.032189402721865434 -0.012641184664244388 6.350883943613146e-05
0.039468662711029626 0.015964372928192277 0.0010690517957490798
-0.026871653151870043 0.01096840347918796 0.012765167955409088
-0.008839707595570628 -0.02064379909258224 0.002138109071479288
0.03583860465975089 -0.011323320686128183 0.0006414295608965308
-0.017705562841700426 0.004671916653126368 0.002138109071479288
0.03759838539395607 0.008342678188735074 0.002138109071479288
0.02432545468343775 -0.017169399044350584 0.00035634564960782114
0.0009669147996070402 -0.023878365556654606 0.010648223208256181
0.004649281311218767 -0.028059605972203392 0.0016035840656946996
0.0368632498313244 -0.008213707179581059 0.002138109071479288
0.03242161965055871 -0.015356859639313028 0.0016035840656946996
0.018169302755484645 -0.03725552688215581 0.008002044823143479
0.0003849595650904931 -0.017860896699256387 0.012765167955409088
0.010021717769329669 -0.027358468173663004 0.0010690517957490798
0.006347449024357708 -0.04144468813383652 0.0010690517957490798
0.00681612219158295 0.016015649182983115 0.0095897518542111
0.02000583422213217 0.004175779814333168 0.0095897518542111
0.01894100530213167 -0.00457688234513286 0.0011759545029604087
-0.009444059233154388 -0.001413554102109111 0.002138109071479288
0.018201758722206467 -0.004811775464763965 0.002138109071479288
0.024711881926275575 -0.017330693693657275 0.00035634564960782114
0.03846041064968495 -0.021557486315869928 6.350883943613146e-05
0.00858058915294399 0.0034644778989128657 0.0013363142986413741
0.03211550299506786 0.0033764635545566824 0.00045815923853043404
0.027852654897650115 0.00636559848338891 0.002138109071479288
0.029806703456961483 0.03230029310906728 -5.575562194959744e-09
0.00808896538517188 0.0030306055543187155 0.004297397632814127
0.017552885061279642 -0.004707506759940692 0.006414338301841543
0.018062304590002076 -0.005737853049842828 0.011353873496369895
0.026872325170001134 0.0068739996885873005 -5.575562194959744e-09
0.02863700409683465 0.005562998957810967 0.0010690517957490798
-0.03693593429958572 -0.02377222735502573 -5.575562194959744e-09
0.024969444941082164 -0.040715469089618456 6.350883943613146e-05
0.023016912435128916 -0.004961596262585593 0.0021804533954269067
-0.0009228231729875604 0.018271995808995235 6.350883943613146e-05
0.0390356865376099 0.01971695030502612 0.0095897518542111
0.03725434405980425 -0.014469116095375299 0.0019242998338139825
-0.02770507110030467 0.040767603170508336 0.006414338301841543
-0.024526608116085622 0.03745253634327247 0.002138109071479288
0.012037664176164786 -0.03136562089583533 0.002138109071479288
0.012190427200251472 -0.02730886801365816 6.350883943613146e-05
0.010494358893730509 0.026359987770335984 -5.575562194959744e-09
0.017554595482153993 0.031191999621732296 0.012765167955409088
0.004285381527782376 -0.02743417600641409 0.012765167955409088
0.03757064557095696 -0.023651553316476892 0.0014254029890587404
0.02679579166951536 -0.009076892099699136 0.0017817578781696274
0.028033072337629337 -0.015120245194570173 0.012765167955409088
0.01906252128526888 -0.03862985702689362 6.350883943613146e-05
0.008841934512856931 -0.03969090413140715 0.002138109071479288
0.018610827943596527 -0.008096268295081446 0.00035634564960782114
0.009094267052226284 -0.027007364053008888 -5.575562194959744e-09
0.03882103974829648 -0.022219100998097537 0.002138109071479288
0.0161802438949976 -0.006428229487504342 0.004297397632814127
0.017589478862071437 -0.0008921407148204962 6.350883943613146e-05
0.017579993698080765 -0.03983076136439833 0.012765167955409088
0.007968148747873821 -0.032965856927207354 0.012765167955409088
0.00960450583771145 -0.024268241716365803 0.008002044823143479
-0.014639969409162037 -0.03853494025559212 0.0010690517957490798
0.006605459912289612 0.014571136890785753 0.003238925514120517
0.02502340508135978 -0.015155795940363086 0.010648223208256181
0.023997373858735623 0.007180556199529549 0.0095897518542111
-0.03700764732207355 -0.023489178301487938 0.00035634564960782114
0.02966599032476339 0.0005915861099161536 0.0048266282121798045
0.004553807206881246 -0.019926291047633913 -5.575562194959744e-09
0.03974615644197101 -0.01342615886500449 -5.575562194959744e-09
0.003940747948842853 -0.02473218648517422 0.0017817578781696274
-0.0350574218728927 0.0318536853862711 6.350883943613146e-05
0.037212476308245444 -0.009482470875978507 6.350883943613146e-05
0.03952380703423642 0.022372943070427982 0.0095897518542111
0.008237610250834382 0.0012702254549370091 0.002138109071479288
0.03901610857901898 0.011613058616224678 -5.575562194959744e-09
0.025065510349505923 0.009772666611360035 0.0014254029890587404
0.008275367910553265 -0.024288421366507322 0.00035634564960782114
-0.03527229763818764 0.033230513905112814 0.012765167955409088
0.022123452544230728 -0.012730044967920467 0.0017817578781696274
0.01950340361620787 -0.006822828514723869 0.012765167955409088
0.012319628048498366 0.024215062139839667 0.0007127005387187082
0.03139672064607545 -0.0417693749602083 6.350883943613146e-05
0.03966954760904082 -0.018339418531806567 0.012765167955409088
0.012679054520806806 -0.027053485399407065 -5.575562194959744e-09
0.006222820619587342 -0.03410523731635224 0.003238925514120517
0.008575777127929998 0.0038428832900197665 0.0005345194302223937
0.003619244639823214 -0.02439540842383804 0.0014254029890587404
0.0336387797916548 -0.03633675509363558 0.0010690517957490798
0.004547071885195136 -0.028039533740984734 0.0005345194302223937
-0.027124633712315754 0.04059869877813433 6.350883943613146e-05
0.032100454446232225 0.003396722952853745 0.0006108833177155798
0.025276804309581166 -0.016939737214631316 0.012765167955409088
0.031685410794723645 -0.04175782868422564 0.003238925514120517
0.01875601074971367 -0.008008135951916257 0.00035634564960782114
0.026815922854985488 -0.010242723560578806 0.0010690517957490798
0.026120835539362036 -0.010844204451249178 0.010648223208256181
-0.009843643400949051 -0.02763519987656877 0.0014254029890587404
0.002563787039323872 -0.01850645394059103 0.012765167955409088
0.02695707594707398 -0.03950805081939184 6.350883943613146e-05
0.007089279347909442 -0.025568252315281138 0.008531279480634646
0.005638345368148074 -0.0378530410842874 0.000687243477547184
-0.015384031484618609 0.033811967967908564 0.012765167955409088
0.032210871047836466 -0.026981655755399903 0.0010690517957490798
0.01011056711620959 -0.023652118123727077 0.0017817578781696274
-0.004277350455140398 -0.004849369198394454 -5.575562194959744e-09
-0.02968594265939828 -0.03434653890102473 0.012765167955409088
0.027830413270233726 -0.01698791456878623 0.0095897518542111
0.027204615286585968 -0.039569124635664074 6.350883943613146e-05
0.039861116227045586 0.01640049353493877 0.012765167955409088
0.0062124364959335945 0.00974057087506352 0.0095897518542111
0.024744694777503896 0.007423906756164651 0.006414338301841543
0.008279772340763405 -0.03999657065883891 0.004297397632814127
0.01975142904921545 -0.03641926572639635 0.0048266282121798045
0.00501856481168525 0.011248074736081205 0.0016035840656946996
-0.027337333813449865 -0.008189935593723522 0.003238925514120517
0.03566807378317575 -0.040143895218331435 0.0016035840656946996
-0.029656763736806552 -0.010677367061725607 0.0005345194302223937
-0.0352552516839855 0.029872962023928768 0.002138109071479288
-0.01903726145804715 0.03518801985382773 0.002138109071479288
0.024651919758242945 -0.014944293633808062 0.012765167955409088
0.017980657181697182 -0.0033742420157275737 -5.575562194959744e-09
-0.004504254184410991 -0.029863963245189678 0.001870846568586994
0.024893254704484363 0.009191750262671692 0.006414338301841543
0.005002669548363836 -0.01805325991060696 0.012765167955409088
0.0319026089361053 -0.00021518244883004126 0.0010690517957490798
0.020568748276621657 -0.006958666297288691 0.0007127005387187082
0.01638934794122241 -0.04065841138511682 0.003238925514120517
0.008022581745796774 -0.039326694731041875 0.0013744962583181449
0.0013595979391588565 -0.01578325255553892 0.0010690517957490798
0.03219734436619594 -0.04171773042058332 0.0095897518542111
-0.02885607272138644 0.03930272522346348 0.012765167955409088
0.0026426257068290935 -0.03888847635814889 0.0016035840656946996
-0.029699252458728786 -0.0343336397519328 0.0095897518542111
-0.00657133462703911 -0.028462143205062723 0.0008017892928567854
0.03774702709035938 -0.009276846052583615 -5.575562194959744e-09
0.036284859168888635 -0.020818568274013835 0.002138109071479288
-0.01148678728159809 -0.029679803098445735 0.0016035840656946996
0.03949934793221642 -0.01911813347529133 6.350883943613146e-05
0.01681076010609091 -0.008670128997315112 0.00035634564960782114
-0.03320953997247772 0.031190395922038854 0.003238925514120517
-0.03417931775673031 0.04170390780334501 -5.575562194959744e-09
0.007451656233748644 -0.025402771666630446 0.010648223208256181
0.008565640487654673 -0.026742563583440265 6.350883943613146e-05
-0.033786381271840714 0.03770709234319368 0.0095897518542111
0.03139088844145918 -0.01535593707117848 0.008531279480634646
0.024156213538393707 -0.013916407014766425 0.012765167955409088
-0.03292218431954664 -0.01459822855623111 0.0010690517957490798
0.026681847027559113 0.030927453358225988 0.003238925514120517
-0.03386578632490518 -0.024855931012653043 -5.575562194959744e-09
-0.03321505420652769 -0.027486842229706793 0.012765167955409088
0.012255661729706662 -0.026019367878756784 0.0005345194302223937
0.01825459334273213 -0.004807274570578194 0.0019242998338139825
0.008535336663159093 0.0019175286179770167 0.0016035840656946996
-0.035080222164315535 0.029034625114147786 0.0010690517957490798
-0.011709322832898966 -0.023390955500186154 0.012765167955409088
-0.022375062172660835 -0.004387454273467735 6.350883943613146e-05
0.0007355276185815398 -0.024579761791238684 0.0008017892928567854
0.004091839065517903 -0.035023347383889264 6.350883943613146e-05
0.024449406004990862 -0.008775913827434435 0.003238925514120517
0.029800214198548242 0.0001745509112803235 0.008002044823143479
0.009325377509858051 -0.030496587536798344 0.0005345194302223937
0.003019745842504397 -0.02278243854997645 0.0007127005387187082
0.003819250821242029 -0.027830281028329816 0.002138109071479288
0.01712179012900951 0.028998842903443206 0.012765167955409088
0.008515162037716968 -0.024148583495410297 0.0010690517957490798
0.02937378843507293 0.008565318130961046 -5.575562194959744e-09
0.008483789237141855 0.007581158587336078 -5.575562194959744e-09
0.005400883285562826 -0.017671634928893495 -5.575562194959744e-09
0.010565006786880186 -0.02868194091845768 0.008531279480634646
0.021798982506556566 -0.014661146010775316 -5.575562194959744e-09
0.0241151121396646 -0.014020552020385487 0.0021804533954269067
0.0025229158776223404 0.016337868660217403 0.002138109071479288
0.034243587032688254 -0.03455257889116191 6.350883943613146e-05
0.009168064500024463 -0.034897491677241946 0.0016035840656946996
0.022527140695434884 -0.007093291585832876 -5.575562194959744e-09
0.021913202293860207 -0.036919939782925626 0.0016035840656946996
0.027243007666881078 0.006722165573041061 0.0014254029890587404
0.036513480546030555 -0.03444620252341159 -5.575562194959744e-09
0.0057246392621097 -0.037914725779645046 0.0020617452795671683
-0.007433185155402088 -0.007328132159909926 -5.575562194959744e-09
-0.003989296430860764 0.026364443317334754 0.002138109071479288
0.030599600876867784 -0.04005997153788783 6.350883943613146e-05
-0.0065943587260873255 -0.018978270054956163 0.0010690517957490798
0.026096097482977868 -0.015373031051286025 6.350883943613146e-05
0.008902386630175712 -0.02455342459166389 6.350883943613146e-05
-0.03231431071189198 -0.0314587689112946 0.012765167955409088
0.01735378170917168 -0.008185628440349133 0.008954669449596601
0.01783880847324151 -0.007964737600270212 0.010224833239294228
-0.012074210582282198 -0.03404275543062989 0.0016035840656946996
0.002683865148237162 -0.03507554592834147 0.002138109071479288
-0.03094660936932926 0.039737153273815704 0.003238925514120517
0.03185173752719775 0.004254887719548213 0.0016799442892470146
0.006309180756253692 -0.040846541597681044 6.350883943613146e-05
0.007916385058311113 0.00869581590779842 0.012765167955409088
0.015501716226646747 1.7969536899910896e-05 0.0016035840656946996
-0.00992720769312996 -0.01782534315404538 0.0005345194302223937
0.03228003240706792 -0.0400434580738759 0.003238925514120517
-0.011121369833444932 -0.02621518124524703 0.0007127005387187082
0.03277212592105142 0.027981198633411277 0.012765167955409088
0.03710036230756858 -0.014020965460777987 0.0013897675638683625
0.008514064580489908 0.005574446537932308 0.0010690517957490798
0.010561579727224999 -0.040444601675984904 0.010648223208256181
0.04145041001440143 0.017332455869530545 0.0095897518542111
0.04139294918150475 0.012222592858934192 6.350883943613146e-05
0.025402149262808232 -0.03852369877055995 0.0016035840656946996
0.019714103677101635 0.0321190457676669 6.350883943613146e-05
0.0027035366459452906 -0.035647453395797356 0.003238925514120517
0.020785127236650228 0.030102025395710368 0.0016035840656946996
0.03477262935991159 -0.008713649176480327 6.350883943613146e-05
-0.03330766710778755 0.038193149868136864 0.0005345194302223937
-0.0301476891282999 -0.008268326909777161 0.0095897518542111
0.036437692481517056 -0.023923937405178 0.006414338301841543
-0.029928345946104228 -0.008082821448767005 0.012765167955409088
-0.009951878674327232 -0.027554982960078127 0.0017817578781696274
-0.028136948763461126 -0.03569660061259892 6.350883943613146e-05
0.009107290700703138 -0.026338897624817604 0.008954669449596601
0.03534769713284854 0.00577749506511122 0.00035634564960782114
0.007449601092874464 -0.025403788093819168 6.350883943613146e-05
-0.01472298875173657 -0.036145139656600225 0.012765167955409088
0.017775652444845524 0.004939698935938036 0.0016035840656946996
0.005097313051424785 -0.03742824136885075 0.0018326610405504185
0.006927060376054577 -0.027993271662518127 0.001870846568586994
-0.03177753267689372 -0.032931557740376906 0.0010690517957490798
0.03202960894545256 -0.03956555369154252 0.0005345194302223937
0.03234766603350937 0.0034517749561575224 0.002138109071479288
0.019267533231418325 -0.004430100654382996 -5.575562194959744e-09
0.022939238333395978 -0.0073579568505815094 0.0010690517957490798
0.00860020596607348 -0.027377888263410033 0.0016035840656946996
-0.012925908253596949 0.03223197473078024 6.350883943613146e-05
-0.006808401844842505 0.025927641360293362 -5.575562194959744e-09
-0.0195670162135189 -0.039249788470087595 0.002138109071479288
0.03214842218725648 0.0033698392229391813 -5.575562194959744e-09
-0.016145654149842915 0.003419286395192295 -5.575562194959744e-09
0.042237838819131845 0.01490314282412477 0.0010690517957490798
0.038796462993366455 0.01905179508343024 0.002138109071479288
0.0051750001871881295 0.004168375832203584 -5.575562194959744e-09
0.005413138402973435 -0.025415502645400795 -5.575562194959744e-09
0.02994763925228342 -5.748202666737128e-05 0.008002044823143479
0.025780672432028282 -0.011753980740788312 0.008531279480634646
0.008808177077124052 0.014118843925626987 0.002138109071479288
0.009618728531397143 -0.02603276841919307 6.350883943613146e-05
0.03044682516038289 0.006376768560048788 0.006414338301841543
0.03581304750487411 -0.01131390735250151 0.002138109071479288
0.0024580192637355704 -0.018745961757080543 0.011071610118624018
0.03237930846601726 0.03095869831159527 0.0016035840656946996
0.011903874235155562 -0.03162793539113719 0.0016035840656946996
0.033971469329771756 -0.04123516212103185 0.0095897518542111
0.005528853956138378 -0.017943139109477715 -5.575562194959744e-09
0.023905515814021106 -0.040285575515683555 0.0095897518542111
0.022160294475419853 -0.03704758263498503 0.0002672569273300994
0.022583375999684387 -0.007118881038121967 0.0010690517957490798
0.025389145575950726 -0.013323240418741378 0.0014966739668809178
0.009520310672506027 -0.039879122851678155 0.0010690517957490798
0.024266472096136606 -0.013738178902268151 0.010648223208256181
0.01801719467443459 -0.0057594238185702095 0.0014748038719617214
0.019308787267289414 0.0058216688754384295 0.0095897518542111
0.002102453441519803 -0.03749999824471771 6.350883943613146e-05
0.029804272604952196 -0.039515564686103885 0.0005345194302223937
-0.03275993459848223 0.03929427953289702 0.0005345194302223937
0.012056773490330555 -0.025691049621862864 0.0013363142986413741
0.0046320711802071346 -0.01898296864995305 0.004297397632814127
0.005650582824009753 0.00849933495611852 6.350883943613146e-05
0.024266472096136606 -0.013738178902268151 0.0021804533954269067
0.03729941841723656 -0.01461036464778811 0.00010690089117107117
0.03139802515603909 0.005745759813425676 0.0010690517957490798
0.006741589636581384 0.0011200792300018875 0.0010690517957490798
-0.011060205358554011 -0.01958072274737764 0.0095897518542111
-0.0033766775916860233 -0.01753716356203408 0.010648223208256181
0.01757174651600037 -0.004910222490862743 0.006414338301841543
0.031966132144204594 -0.025585129755778216 0.0007127005387187082
-0.011325284372239354 -0.02914603975688285 0.012765167955409088
0.03190420534872379 0.004032847169807072 0.00030544251908738566
0.01486619382609405 -0.03961160299970836 0.003238925514120517
0.02500862931256778 -0.012898077189343826 0.006414338301841543
0.01801966356312324 -0.00427414519505361 0.001870846568586994
0.008574097814554735 0.010910021106035644 0.002138109071479288
-0.008595218950539038 -0.03164621265464645 0.004297397632814127
-0.016973252729582958 0.03648291860599177 0.012765167955409088
0.03281611688526228 -0.027289590243274212 0.0021804533954269067
0.007299951491334822 -0.02731536522036437 0.011177457865747349
0.01870306887084048 -0.0046749069114293395 -5.575562194959744e-09
0.0039771373278463884 -0.036866721412284253 0.012765167955409088
0.0067869554898680766 -0.03919538474891442 0.012765167955409088
0.027148711188355466 -0.015301352376055495 0.006414338301841543
0.03594628032606104 -0.03398365062298019 6.350883943613146e-05
-0.02000059035204085 -0.03696500088649381 0.012765167955409088
0.01825459334273213 -0.004807274570578194 0.00021380369396346632
0.003671494706764141 -0.02777373402994301 -5.575562194959744e-09
-0.03549170116943459 0.035265694378946714 0.012765167955409088
0.03368827891626537 -0.041991924707835006 0.0005345194302223937
-0.030815734010309296 -0.011157100817445365 0.0095897518542111
0.03602547649683637 -0.011570331407459408 0.0016035840656946996
0.002542839821439426 -0.018583932056480137 0.009801446328926391
0.0025212915571722746 -0.02208238356416468 0.0021804533954269067
-0.033990958898985124 -0.030226936577753178 0.0016035840656946996
-0.033140460254831056 0.030777715879054857 0.003238925514120517
0.02988524532116355 2.0911226829978015e-05 0.003238925514120517
0.018023174046794644 -0.004311434098823479 0.002138109071479288
-0.03329302125728602 0.03830289861099082 0.0016035840656946996
0.03554125261446264 -0.02248046810239889 0.003238925514120517
0.021102088422016656 -0.036520176081305526 -5.575562194959744e-09
-0.00969654498828882 -0.034681885492964006 0.004297397632814127
0.010703563291956007 -0.023989959465756 0.0002672569273300994
0.04150474630919854 0.01936849575070931 0.002138109071479288
0.042050773268738746 0.012426317902269873 -5.575562194959744e-09
-0.022510943196495242 -0.03608768938294009 -5.575562194959744e-09
0.03610247253993988 -0.038800538338953985 0.002138109071479288
0.01814879054333597 0.001159983998796777 0.003238925514120517
0.0064508677228739975 -0.03898580263764556 0.011706695581832635
-0.03570901653545512 0.03979381255043217 -5.575562194959744e-09
0.007329950917431269 -0.025461562990464138 0.0021804533954269067
0.01791775157527171 -0.036863512364920796 0.0007127005387187082
-0.011445763788044275 -0.026806670541636483 0.012765167955409088
0.0007543037165159368 -0.022631050173741517 6.350883943613146e-05
0.03197085323276366 -0.025568753622528903 -5.575562194959744e-09
-0.0025127970791790108 -0.01751667449642269 0.012765167955409088
0.0017960401255105044 -0.036759466804140745 6.350883943613146e-05
0.023899434758944883 0.03285666151468786 6.350883943613146e-05
