ply
format ascii 1.0
element vertex 688
property float x
property float y
property float z
property uchar red
property uchar green
property uchar blue
end_header
0.08248329401034801 0.036729487780755785 0.20261704711904316 255 0 0
0.051267376671771524 -3.4485006135863416e-05 0.18590204404724517 0 255 0
0.049307479780711434 0.03188747779238372 0.1985544700041038 255 0 0
0.039846506860324794 0.06222625043265424 0.20659368099903397 244 208 63
0.0188353619940592 0.06939337126527764 0.20714419748284849 244 208 63
0.05642886345095536 0.0686144575178847 0.2075065069266062 244 208 63
0.04407916928247743 0.024573919118458735 0.20070758741404546 255 0 0
0.05509119799984301 0.05726626460801301 0.2063357197774833 244 208 63
0.04946393565821464 0.0017260835450413313 0.19881553527618248 255 0 0
0.06052662934199574 0.03307427148735579 0.20299260337578207 255 0 0
0.059525810821612735 -0.0014630599008271794 0.1970721031106119 255 0 0
0.07110097894599646 0.021618417882728422 0.20044936694702675 255 0 0
0.05990029633655723 0.037319094912172585 0.19314306185654215 0 255 0
0.08705641488101243 0.052043288586077964 0.20527440339790934 255 0 0
0.06496867194354464 0.018736203590600835 0.19504035544523796 255 0 0
0.04782631126198843 0.0029733120028614113 0.18622394985103513 0 255 0
0.06254271590358326 0.07069113912081593 0.19866732644428461 0 0 255
0.07598590960925405 0.06365634624397791 0.19962246405332734 0 0 255
0.047059090995554914 0.000978708761356143 0.19872787492284927 255 0 0
0.06936344880915266 0.04214995501644129 0.20458823646231583 255 0 0
0.0510156665348521 0.05650919126725045 0.2018428740662588 244 208 63
0.0710552376892133 0.036329551213892815 0.20320655083740968 255 0 0
0.06318156083069797 0.0354960758930887 0.20039436508287256 255 0 0
0.06459738538697445 0.020228309117858122 0.19734932864007523 255 0 0
0.08382350458306917 0.040646685541321934 0.20262826348369162 255 0 0
0.07089023710965377 0.021344697460615934 0.2005615667998976 255 0 0
0.04500657036111483 0.06895914889074072 0.2075955254069821 244 208 63
0.0636294099744568 0.05798246783587742 0.19807307422879974 0 0 255
0.08069144196341418 0.03250035540510782 0.19720157561143759 255 0 0
0.04705307087398116 0.0657537481228405 0.19873672892562422 0 0 255
0.030128719624401015 0.015270373373074199 0.18746067107745706 0 255 0
0.06855504688505856 0.042353998170713385 0.20359047006616748 255 0 0
0.06821851924596711 0.037866716412184934 0.20406125035347164 255 0 0
-0.0008943643948650378 0.010783739780397318 0.19817097868590886 255 0 0
0.040416696896027164 0.06612546865366808 0.20394088493839505 244 208 63
0.00329500581703571 0.009538485109914093 0.1988375350878111 255 0 0
0.036479441979705235 0.07915457855431966 0.20881888088684428 244 208 63
0.07629869876341637 0.00936807045445806 0.18769090371739022 0 255 0
0.06347392010843056 0.017796133010093345 0.19987986367986008 255 0 0
0.04135837152107959 0.05800147662573491 0.20613250920979817 244 208 63
0.0802765600046622 0.062329217341748955 0.20755494642165132 244 208 63
0.06398437272141758 -0.001229000782560323 0.18602239553418964 0 255 0
0.04909490047466493 0.002863805214742266 0.19902129904043994 255 0 0
0.06678501715783783 0.07166272606497834 0.2079570151065901 244 208 63
0.05558345396867854 0.06017988888327225 0.20566055891242396 244 208 63
0.04784060263987976 0.004742459482085119 0.19763596627982552 255 0 0
0.05779043929274677 0.05950804080266569 0.20344702133615516 244 208 63
0.04565491582926947 0.07233483691834901 0.2070483970119404 244 208 63
0.025014509757397177 0.011808620344002662 0.19325198185978637 255 0 0
0.06827083247187782 0.03265686006124588 0.20266072351703815 255 0 0
0.04609909160449206 0.02967491192173133 0.2024323226207555 255 0 0
0.061843722072597605 0.05960319684670809 0.20679194205714113 244 208 63
0.06074244775618419 0.06874659111530004 0.20667509212176416 244 208 63
0.06395753305935034 0.07091231413233676 0.19872746741342015 0 0 255
0.0867983171840292 0.05715587879940761 0.20483077962032156 255 0 0
0.048280275126430315 0.06430859009532082 0.20551069479118766 244 208 63
0.05771102686166264 0.05668989298035903 0.20417562241574513 244 208 63
0.08703371992756542 0.057971355020951215 0.20494360255499694 255 0 0
0.07407554770096925 0.06210665300906725 0.20631932514492848 244 208 63
0.06649639273569516 0.03466453776164809 0.20306546154861654 255 0 0
0.08382365935823566 0.05137406295629593 0.20400230323858093 255 0 0
0.062076307525349206 0.03564150962144424 0.19084905672027647 0 255 0
0.07352187402044132 0.06260572072709344 0.20579008995875417 244 208 63
0.07088631216557881 0.03869779179280574 0.20387244200242566 255 0 0
0.06542011420651339 0.03454327667580713 0.20302591585228424 255 0 0
0.04189558446171569 0.0238388323872547 0.19520958054140727 255 0 0
0.06469905912638046 0.017610025778234704 0.19952519712208253 255 0 0
-0.003958963050474689 0.009599500314553118 0.19767994168733807 255 0 0
0.06244944104856215 0.017974627896804533 0.20130854894420222 255 0 0
0.04405694437098061 0.02443050371503415 0.20175880468213883 255 0 0
0.041305463838595055 0.06395000444654103 0.20548927767644873 244 208 63
0.05211727964344459 0.0590092967745009 0.195836850191221 0 0 255
0.0613597477407375 0.03570526716260531 0.19649534679158331 0 255 0
-0.0034667397294492 0.014120022431023754 0.19929462618471097 244 208 63
0.04662575477183492 0.006671282116427892 0.19839940720947585 255 0 0
0.06595557202260202 0.020290822988837175 0.20062040621407468 255 0 0
0.06786974236439958 0.07129277142647536 0.20846720158291948 244 208 63
0.04682951420896188 0.06633972731327807 0.19456905764513685 0 0 255
0.05951783270913576 0.028551424105871352 0.20049972618640946 255 0 0
0.07044714343781117 0.038968183286284354 0.19995165579855137 255 0 0
0.06933008958284745 0.02438296688983158 0.19164117094389926 0 255 0
0.08874637147822212 0.05585977863721312 0.20527996273701227 255 0 0
0.06439422041430222 0.03491660010173459 0.2025174532536087 255 0 0
0.08012209687611926 0.033991997168256266 0.2037028563834256 255 0 0
0.05912640719416477 0.029359887905766817 0.1931352437601739 0 255 0
0.042727787835091305 0.042663320873142355 0.20360188649642755 244 208 63
0.0631931488714772 0.020875870845938428 0.20063725160460097 255 0 0
0.06048806408681427 0.06799857033055834 0.2062648607958864 244 208 63
0.029596719002000463 0.07702300725003824 0.20832331905649557 244 208 63
0.06183132781298041 0.05872386813075926 0.20614024821091845 244 208 63
0.06236829537498766 0.036511493972761655 0.20114668324801205 255 0 0
0.08098682304010005 0.03489433075099758 0.1975241351506596 255 0 0
0.07117037481793954 0.03741893791413149 0.2019253926754374 255 0 0
0.022714126850641475 0.05047627728848561 0.20148747289526622 244 208 63
0.07394291935357226 0.06241823763754972 0.20736459807585822 244 208 63
0.06144283059320375 0.05608156414125788 0.19671422696396282 0 0 255
0.054898703696805044 0.059358496484226725 0.2065441605684175 244 208 63
0.025514743689585756 0.012803083507074771 0.18703399880063165 0 255 0
0.06143248837893919 0.022915184177358026 0.19979738352340395 255 0 0
0.059626450574491195 0.0674433374307176 0.19499460178358335 0 0 255
0.04520788465558361 0.017582556356671285 0.20087976838328142 255 0 0
0.0577197792241079 0.02394215381675951 0.20038711714191804 255 0 0
0.06016832533957428 0.0685023049360023 0.207012656035063 244 208 63
0.07386938917284293 0.06220602689807514 0.2055249569101407 244 208 63
0.04905254941647412 0.003160825125025562 0.19745362817013154 255 0 0
0.01647705705923763 0.036197619124060554 0.189925392275396 0 0 255
-0.0003842986050009861 0.0158127663646639 0.19804318327878145 244 208 63
0.07946818939859171 0.0304338526499394 0.2033258049146227 255 0 0
0.08328998616970115 0.03809411372461043 0.20442083519621873 255 0 0
0.05959524741095247 0.03689824948039038 0.20160353415052076 255 0 0
0.08604461618333223 0.06114332703586969 0.20645384843188358 244 208 63
0.042077643180589486 0.052989679829900965 0.20334519970308915 244 208 63
0.08364033503000114 0.03872155736492094 0.191727274819427 0 255 0
0.04889480947187347 0.028895432778533823 0.20084817765752724 255 0 0
0.062238991699376536 -0.002125585776378641 0.189045961600128 0 255 0
0.038663374163135054 0.05901696060130071 0.20296393830812154 244 208 63
0.07336070618192421 0.023011849190155385 0.20221225435855109 255 0 0
0.020240634316823318 0.05442281110562085 0.19241414343359542 0 0 255
0.05085934131857962 -0.0022669021133778916 0.19838242226054217 255 0 0
0.052529439849522186 0.050061082614579894 0.20318705116144944 244 208 63
0.05796264111343691 0.058095414896046804 0.1979640757154604 0 0 255
0.05153365277665096 0.05331728951363681 0.19507251546792848 0 0 255
0.05825265322971397 -0.004220633353237323 0.19721547707407505 255 0 0
0.001454661496298653 0.019080270461122234 0.19851483616619311 244 208 63
0.0705798469248934 0.037232323648443526 0.2018454323750854 255 0 0
0.006388052408105544 0.03008804364678285 0.200611502195912 244 208 63
-0.0020368933086635896 0.010846461316475856 0.19762160311873408 255 0 0
0.022155809453559 0.05110923589638039 0.20480256582208334 244 208 63
0.012607067619664309 0.03353156313571043 0.19266885969783792 0 0 255
0.028066995567030475 0.07936206232716378 0.19905837432689155 0 0 255
0.07366751652464579 0.06363874871231895 0.19797938827155226 0 0 255
0.04510187390481544 0.009952526685967595 0.19344614226938228 255 0 0
0.07112897557677976 0.0019352334533780657 0.1929566585232341 255 0 0
0.057238073597461414 0.06738266550361946 0.20557715475515312 244 208 63
0.04655095861145088 0.030129021976201695 0.20250216405355606 255 0 0
0.06011644408679676 -0.004203106015216104 0.19779386944831262 255 0 0
0.03284213933289565 0.07717082734547497 0.20633613188882247 244 208 63
0.046655475517103966 0.03023289918976743 0.20251816541769088 255 0 0
0.051025625196544244 0.053390207533525635 0.2035513388857925 244 208 63
0.0482113914272969 0.03236200146721351 0.19647308435145214 255 0 0
0.07275689078953507 0.06266493434915438 0.20565044525542558 244 208 63
0.06913091414059323 0.04254154818674366 0.20469846616751994 255 0 0
0.07726368479246166 0.03158705860804227 0.20289455338969034 255 0 0
0.04755732071955904 0.0006394446509345834 0.19708800965913495 255 0 0
0.042546013620638014 0.04465090529896718 0.19161159975779662 0 0 255
0.06681131958968237 0.0010114789013069073 0.19702283321685984 255 0 0
0.073326716074417 0.061994722571484175 0.20735881138882684 244 208 63
0.07251760155982966 0.0655109249118247 0.19502132950105527 0 0 255
0.04683488555894662 0.006280687011977884 0.19835240596045392 255 0 0
0.04315825258346609 0.01855698286528282 0.1913596610581365 0 255 0
0.04658350877119781 0.030897461060812537 0.20266794897031604 255 0 0
0.0788359658733339 0.031239531783366362 0.2001746368880034 255 0 0
0.03711421875353767 0.0411547370189143 0.20274462066408697 244 208 63
0.021196853001984872 0.010320853165238801 0.19297205846427537 255 0 0
0.06308287382997695 0.017869458025955416 0.2002378734046166 255 0 0
0.06898622506002805 -0.0006936566396617966 0.1973805607083468 255 0 0
0.05682381563687833 0.030023226701809937 0.20117047073449262 255 0 0
0.08588893727309656 0.062055304104836236 0.20439777614609814 244 208 63
0.06013130925270333 0.05572241983217618 0.19822818443946078 0 0 255
0.04851863053383887 0.0012414859633711889 0.19237064837465664 255 0 0
0.039410440046702064 0.04568526393401289 0.19485972914452332 0 0 255
0.04293252163375459 0.05203942148131045 0.20537970024817664 244 208 63
0.05812888735637092 0.03346957259815987 0.19683618839750563 255 0 0
0.043785657768791786 0.07510623403376432 0.20665969733861092 244 208 63
0.08377488440158591 0.06399142414821345 0.1950668512285012 0 0 255
0.06138405661821921 0.05755919288682804 0.20624434232735273 244 208 63
0.06522330149345523 0.017349136194051745 0.201286613439433 255 0 0
0.047150930709585245 0.0008651845888301112 0.1987148933936222 255 0 0
0.057427786701311226 0.03268298196385355 0.2013564340779962 255 0 0
0.05485600202077514 -0.0008200542518695328 0.19651957729450756 255 0 0
0.05041349843291664 0.05242664706739063 0.2012906474837922 244 208 63
0.04787443041468416 0.03209527198776893 0.20285433583410842 255 0 0
0.061891523545266156 0.03796680324606287 0.196240234448536 255 0 0
0.08634302619156582 0.042764436449582124 0.20331986304218655 255 0 0
0.06346086352768 0.06449396112131854 0.20533180035269946 244 208 63
-0.0006572277025781422 0.016128158496452452 0.1996212145764761 244 208 63
0.08749408857211231 0.06161678423095948 0.19801474587039672 0 255 0
0.014854210246180716 0.036415178306425974 0.20056142231219365 244 208 63
-0.002703532277744589 0.009135922151744413 0.19865321399827934 255 0 0
0.06415409113657158 0.03499046989793608 0.20287883499218706 255 0 0
0.05334697794155301 0.053390659434519316 0.20471520500127588 244 208 63
0.015141787759140265 0.06832981734068296 0.20656612175881295 244 208 63
0.04917474064066514 0.032306092095594 0.20273216449424566 255 0 0
0.060331126871350414 0.06853141440874502 0.20732595606791887 244 208 63
0.0783435743944152 0.06529749461431913 0.20576333081888182 244 208 63
0.07567450466059608 0.005767947401382013 0.19784468380534717 255 0 0
0.07253954883613416 0.04306631304035612 0.20412852975500123 255 0 0
0.01881672278217636 0.07354786499479504 0.2066217096161198 244 208 63
0.01658948070790264 0.07094008523556461 0.20515803668689947 244 208 63
0.07189455161225276 0.06647182537945714 0.1951345829571696 0 0 255
0.007528622892385267 0.010218883109807217 0.1926597188322321 255 0 0
0.08900887379291597 0.0600386734703648 0.20737983907465574 255 0 0
0.08499267300924641 0.062361471907489835 0.20441860444924062 244 208 63
0.06469139270652305 0.017563732256507043 0.19987579926305468 255 0 0
0.06886006027271364 0.03796689332417557 0.20084478047644627 255 0 0
0.06192232733118552 0.037583381823174444 0.2028155237304654 255 0 0
0.08378697699351943 0.04031324571287276 0.20418940067141056 255 0 0
0.04450690343637895 0.015471117104104915 0.19416180730017343 255 0 0
0.06138212088197175 0.038040103723356575 0.20215025586666263 255 0 0
0.04092814982706952 0.059017622886497784 0.2048297552904523 244 208 63
0.04015974679399681 0.061556054963973254 0.19379157728965687 0 0 255
0.06655248284483496 0.02046616328615585 0.20065661046773137 255 0 0
0.07388101083887784 0.06384417003146292 0.196421124287398 0 0 255
0.04956598862456163 -0.0006607024951659317 0.19850261547991513 255 0 0
0.062799978151998 0.034985269670245914 0.1907782308676216 0 255 0
0.08039520508920267 0.031052237206248837 0.20200020846941938 255 0 0
0.060592138092292545 0.03544131533494667 0.19079016955972503 0 255 0
0.06022850485503615 0.05727089514056566 0.2025689222014216 244 208 63
0.039794989274408235 0.06563058589662721 0.20386194606698696 244 208 63
0.07820625531787621 0.062473186767181894 0.20645804613864466 244 208 63
0.032431334390131156 0.0785993644156043 0.19905310020472752 0 0 255
0.04824605323131243 0.031662328652521034 0.20274168761367015 255 0 0
0.08605546582188194 0.05170844792371121 0.20303521819840273 255 0 0
0.05658691597081884 0.06913261055109055 0.2079352586283944 244 208 63
0.06477525240902383 0.03487625639981293 0.20180669702939025 255 0 0
0.05805711557727332 0.05597086234072099 0.20622952885836168 244 208 63
0.04021850066984881 0.07509122328431209 0.2083005067454565 244 208 63
0.037709340185134374 0.059710655342820704 0.20627839792468097 244 208 63
0.061838778851936525 0.06754443276090583 0.19505632615366844 0 0 255
0.04970788040841649 0.030980655058296638 0.20274725278692882 255 0 0
0.07199921138708218 0.06362364510039563 0.2061173480915701 244 208 63
0.0632497152668691 0.05574941757838267 0.2060461748265501 244 208 63
0.05952939775571172 0.029648612538736335 0.20225081520572666 255 0 0
0.0811522617282316 0.04790833101819541 0.2045993206265172 255 0 0
0.06904958314023812 0.024402719621430605 0.20096333810968883 255 0 0
0.060861403875364165 0.03382711311533104 0.2022963472326104 255 0 0
0.04216505371486984 0.012070089953347084 0.1990147263862 255 0 0
0.08232187041061512 0.03455424458384053 0.19114819253671955 0 255 0
0.031979067556757806 0.0798475250751883 0.2066706908666446 244 208 63
0.059982405836281165 0.03352908242626743 0.19688457592404487 255 0 0
0.05729910361363445 0.07002374472495201 0.2075331808030549 244 208 63
0.05891039156870654 0.03565639559709827 0.20285210282037455 255 0 0
0.07050415627696442 0.03688108173120609 0.1954371725141397 0 255 0
0.045558982716340006 0.027335665276840726 0.19066322461301716 0 255 0
0.06553605644264468 0.020184670828628955 0.19736409203061198 255 0 0
0.053966459722728316 0.05877081655391315 0.19372571791804508 0 0 255
0.06119158925355979 0.03805304801089769 0.20250468115982853 255 0 0
0.055290800328516014 -0.0008878751834355408 0.19223757066613334 255 0 0
0.08438471950337194 0.049227451691236664 0.2058512111058769 255 0 0
0.06096564406960027 0.0630175231449075 0.20722356941005132 244 208 63
0.015715399880190575 0.0571486813334381 0.2053955772111114 244 208 63
0.055390348197287824 0.05755736568736858 0.20459629724942885 244 208 63
0.07092122827760712 0.043160268143870306 0.20410554868529848 255 0 0
0.05016208220233775 0.00295994944331043 0.18627326044774356 0 255 0
0.057853686550193885 0.06649248638487297 0.20725747757268348 244 208 63
0.053076099216893366 0.059815621022956365 0.1959642832479876 0 0 255
0.02141517345211252 0.07479708883739497 0.20785050743815184 244 208 63
0.06008568554820477 0.06844048042147365 0.2071556321305803 244 208 63
0.056314729137853216 0.06028260102971418 0.2046194716835099 244 208 63
0.05954061324483994 0.036677245379820575 0.20300067657244916 255 0 0
0.07150723666588278 0.002225837593281439 0.19300330112885028 255 0 0
0.04111576347580985 0.07654459066592353 0.20851202937805144 244 208 63
0.05762783608192858 0.058660970182518896 0.19591135337188842 0 0 255
0.057268737242159626 0.07039628675536674 0.19851307099971144 0 0 255
0.032453258966475 0.014862556929618452 0.19810044176306849 255 0 0
0.06115033467336271 0.05479792655901661 0.2060786836189308 244 208 63
0.014098801220331064 0.06437366043509789 0.20637782293872822 244 208 63
0.05845211651999555 0.034889710614295535 0.20202709144460113 255 0 0
0.07639530506782943 0.041771031524045286 0.1919715045221786 0 255 0
0.037542719618846684 0.018452149163007053 0.20082697960132342 255 0 0
0.04042798512018217 0.060899854362823344 0.19371079795077972 0 0 255
0.07833364938428572 0.03141386371321879 0.20018667181130534 255 0 0
0.04088794649322412 0.06604242687554351 0.20712034167499402 244 208 63
0.05733841717958647 0.06061565595488007 0.19722315974143276 0 0 255
0.05245595261641183 0.05471344687765145 0.2058774137549801 244 208 63
0.04345413536631505 0.010179022311665432 0.19025990468981738 0 255 0
0.05076583670001406 0.05495049139582133 0.20375167818491147 244 208 63
0.0656822066057229 0.020108404727183973 0.2016609819948914 255 0 0
0.0835180313821541 0.03879519479626408 0.2037154107969291 255 0 0
0.0018633646885328247 0.01958884437691485 0.20019688849593914 244 208 63
0.061206205170512507 0.03398299176685296 0.20178914553099328 255 0 0
0.061161428799917816 0.033980800925547484 0.2020020101522539 255 0 0
0.06046872216069113 0.07154577510566117 0.20619749470091386 244 208 63
0.0424970780146336 0.02373668425303007 0.20156947557915442 255 0 0
0.06037741903167543 0.06810610622195377 0.2062766404263973 244 208 63
0.07673927278492734 0.040670210665577765 0.19607382904750636 0 255 0
0.018159302640605852 0.008173292289104427 0.19904591262003563 255 0 0
-0.0036366117713730376 0.009411625243416514 0.19659154360100656 255 0 0
0.0849706520817306 0.04993672747958801 0.20595767616957927 255 0 0
0.05780013852298814 0.03248245681359141 0.1966986610211146 255 0 0
0.04193637201392617 0.05819585963594568 0.19338674541906878 0 0 255
0.06395481231017108 0.06372949394598786 0.19459887158265476 0 0 255
0.06677486341141214 0.03457468690319601 0.2003512775679966 255 0 0
0.0600431997603036 0.06848255828995094 0.20647198907110642 244 208 63
0.08197880007406355 0.04593186781244139 0.20364266073684426 255 0 0
0.07975575111333384 0.03379541166999362 0.2030265039400432 255 0 0
0.051340672669831056 0.05225796330211414 0.20383274346952876 244 208 63
0.002359647808996543 0.010348425502725567 0.19684635558369534 255 0 0
0.041719271547764204 0.02592855008306772 0.19548165162022801 255 0 0
0.0731051748691736 0.002405347421161788 0.1973445038700714 255 0 0
0.046332093875003755 0.007135607065376543 0.19916805649421188 255 0 0
0.051525350132128916 0.049724204257457806 0.20526189341530698 244 208 63
0.06385415543617942 0.06919850075901951 0.20794991729869422 244 208 63
0.08149341846808664 0.04907279491003863 0.2044928782580316 255 0 0
0.07317564241469009 0.0643454053800701 0.19647188352964925 0 0 255
0.06307580969409854 0.03605057873065749 0.20370899471833148 255 0 0
0.06901072164895258 0.03860402698898183 0.19457197502689935 0 255 0
0.08232923325611134 0.03652099959196041 0.20258614956977702 255 0 0
0.06117522827615179 0.034064128784541355 0.20137092993464278 255 0 0
0.050820178426234736 0.05485654822954536 0.201620384380156 244 208 63
0.08168551518495744 0.04923724488714715 0.20558943253469664 255 0 0
0.07266762593858855 0.0025562512552148725 0.19943253270312283 255 0 0
0.06164713080409534 0.06149136056569011 0.2059663167010902 244 208 63
0.06561988284165382 0.032586061320924745 0.20112348295273036 255 0 0
0.048271738380331435 0.06654780113511588 0.19462806802642285 0 0 255
0.06190426456041977 0.033121040475478765 0.203296560842874 255 0 0
0.07385122031632524 0.06302412793874572 0.2026724248336487 244 208 63
0.04191055819733817 0.053050066274717825 0.20388483580504096 244 208 63
0.05881160744630709 0.055108698864803254 0.2054184257210964 244 208 63
0.07637615044344971 0.06498052936986876 0.20674909788927787 244 208 63
0.02437934205192096 0.037636839097535096 0.2030722907080091 244 208 63
-0.0006066909466845075 0.015323044219736228 0.19850898091896357 244 208 63
0.06033040159734328 0.05411665207293372 0.20496376769837324 244 208 63
0.08550682324011422 0.05467810046092132 0.19599506921765572 0 255 0
0.06979162261950686 0.025297096415068117 0.19760217703359695 255 0 0
0.0588816685646948 0.06849645019388541 0.20783782962104055 244 208 63
0.039094394971677354 0.021912728402117478 0.1885337753013338 0 255 0
0.04391852914504734 0.07088841297019546 0.20782647393334178 244 208 63
0.06824750745191333 0.03995133254184871 0.2000333726652629 255 0 0
0.0854157378072706 0.0541280829112911 0.20016060519927883 255 0 0
0.051725086480811026 0.05816025399387642 0.20611249919337538 244 208 63
0.06418207421720007 0.06943930206559872 0.20630645385635432 244 208 63
0.06050741922892271 0.037757268454131014 0.20387818455261958 255 0 0
0.04278321263076837 0.07624118062630951 0.20643075715565695 244 208 63
0.016052890524928712 0.010615306966128177 0.19771633328827373 255 0 0
0.07599800892086657 0.06426952132341389 0.20765397914102168 244 208 63
0.07126079769436901 0.026403629780593334 0.1930102352039221 0 255 0
0.049702345915534955 0.031897857458684155 0.20144072071222283 255 0 0
0.03956119038588672 0.02233442915283875 0.18859966383936408 0 255 0
0.04481915528729799 0.06476293828977832 0.20567344941097157 244 208 63
0.06413979399246035 0.01745109421187525 0.20127638353125865 255 0 0
0.06059580441127293 0.03742196480217322 0.20165215715798232 255 0 0
0.05200174873527888 -0.0009121716555079741 0.18898232881764054 0 255 0
0.06055301613663175 0.03737990451658913 0.20164566788893043 255 0 0
0.04300380843948225 0.023601731513088323 0.20055570541011486 255 0 0
0.07328302137132203 0.06631780338979829 0.2079286757179481 244 208 63
0.06807708328362767 0.03578922042744645 0.19736000640237772 255 0 0
0.08159014470566446 0.04675075682919569 0.2040991707462056 255 0 0
0.0824872180262433 0.06554298998332972 0.19842367982365391 0 0 255
0.05743198636195521 0.06961852014601765 0.19523382788769217 0 0 255
0.07306638420935928 0.06423524484899201 0.19804500502472125 0 0 255
0.07137410897556944 0.026311070839411112 0.19300049143142553 0 255 0
0.08331716042911887 0.04464129740368092 0.20204219435654863 255 0 0
0.061042233301654994 0.033904703102367886 0.20295293095408956 255 0 0
0.044580413221523604 0.024505474885410328 0.1921761977864715 0 255 0
0.06759110910551985 0.035377315878475035 0.19729499198400147 255 0 0
0.059244615130671106 0.03126254109030914 0.1965691688543895 255 0 0
0.020399157548851493 0.03626733000741351 0.20173378838897912 244 208 63
0.012566788220634763 0.03176535891358824 0.20203872174085052 244 208 63
0.07865213196065518 0.030416305193813848 0.20294876497117992 255 0 0
0.01746820042280869 0.03523586600013206 0.2025405356386755 244 208 63
0.05794643555052342 0.060773224531172954 0.19407714384653363 0 0 255
0.07615962591583413 0.041203296040830936 0.20253417663283815 255 0 0
0.08735705445852981 0.059557802206433065 0.19879992050545894 0 255 0
0.058931364662835016 0.057720220383025475 0.1936955619389299 0 0 255
0.019512885332644683 0.0525710012873967 0.1921537171080008 0 0 255
-0.002573358737031762 0.01620765093758203 0.19958981180200694 244 208 63
0.0652422465743995 0.01874217124483053 0.19504712551716802 255 0 0
0.06571372672529514 0.0001254511317896334 0.1957793957203782 255 0 0
0.0416248583512503 0.06582370089235223 0.19756723066383095 0 0 255
0.063459341485583 0.056027267431743896 0.20555212231454997 244 208 63
0.06434420626805545 0.017702472847228087 0.19917276579354695 255 0 0
0.047070832539956954 0.005779578745855399 0.1988267225206525 255 0 0
0.05963184061703499 0.03688249154924918 0.2023160146881207 255 0 0
0.06431726531359847 0.06923710181014338 0.20788866752394572 244 208 63
0.058325426263854216 0.02253296057180599 0.20074961405013644 255 0 0
0.05903819999275865 0.06873068610900782 0.2068121419597048 244 208 63
0.06542375119988984 0.017946782682670474 0.20130630139738712 255 0 0
0.04483775497898934 0.0059955944280165804 0.1960980065582345 255 0 0
0.06142422702830158 0.055136380380980614 0.2045393054954397 244 208 63
0.06024931226119645 0.03786204523652988 0.19322238477560866 0 255 0
0.06390954557084859 0.033415417165704564 0.19695544011433633 255 0 0
0.04924089991424566 0.04988239973102123 0.20469751253759508 244 208 63
0.04078668110323164 0.05929690798653538 0.20486353869000692 244 208 63
0.04900613770232421 0.03245980048094433 0.2022134535144759 255 0 0
0.047804654416315207 0.0004586737113951543 0.19653423273682868 255 0 0
0.0716625326499944 0.04206491786241383 0.19614697602392778 0 255 0
0.08003828216579344 0.062480808711321 0.2064991124413287 244 208 63
0.06020195191955079 0.06842531578239366 0.20776796524072533 244 208 63
0.04564449969669078 0.008712721904954396 0.19936126357002357 255 0 0
0.06430245567891855 0.057614575052286024 0.20497716477002342 244 208 63
0.039774556423312055 0.07720139304323137 0.19584896565928264 0 0 255
0.0254445701217529 0.07785662069258822 0.20680024181238296 244 208 63
0.07116555477227164 0.07025730204873701 0.19561847689494877 0 0 255
0.020822607623086554 0.0516876130225572 0.2047861739568774 244 208 63
0.06023078634254188 0.06821149090516138 0.2065550144781245 244 208 63
0.0644855961164683 0.06155202435517108 0.20550107037377266 244 208 63
0.07356606742708452 0.06221255569960848 0.20551918640733194 244 208 63
0.00122676461329724 0.010414661972595003 0.19736564555680575 255 0 0
0.08180071782734988 0.06564055743039778 0.1984215513197489 0 0 255
0.0452476727250373 0.0540754861517518 0.20355788686978488 244 208 63
0.0835237811182232 0.038829914461582835 0.2034524627959927 255 0 0
0.08239791268863751 0.036558142087170405 0.20312787914243874 255 0 0
0.023952092940041084 0.03970496011201863 0.20327241464833476 244 208 63
0.031268073050983725 0.043479256726851746 0.19121028684574662 0 0 255
0.04224658365344096 0.04509987825094251 0.19484445115118817 0 0 255
0.0688939146823361 0.0019504802897289536 0.19608991203034432 255 0 0
-0.002041289759548079 0.013611538390847232 0.18653819493070473 0 0 255
0.06770272410014552 0.04154963751580044 0.20417938610402264 255 0 0
0.0571141446571191 0.057193237024663356 0.20422903229742498 244 208 63
-0.0012920804124566109 0.011048130989392817 0.19739421066522733 255 0 0
0.0624194608678365 0.03809023454071307 0.19117989000478694 0 255 0
0.0840401580632839 0.04405771323163002 0.195620720226581 0 255 0
0.06462935321058497 0.00036025677938863326 0.1894264610487423 0 255 0
0.07122587622279242 0.04182001060299496 0.1982251650802494 255 0 0
0.04290430396346996 0.0151179484104943 0.18771990139732406 0 255 0
0.0759861103132173 0.04092782876757793 0.20033152494578685 255 0 0
0.040359752061915895 0.060715687294767715 0.20504153895343744 244 208 63
0.05979082845690167 0.03693944063204044 0.19521061591104863 0 255 0
0.06325803173321645 0.017714475397432223 0.20093500068733097 255 0 0
0.08562318883158099 0.054881102485850715 0.19602441811468307 0 255 0
0.05964815069667978 0.030456680111326268 0.20289542541299946 255 0 0
0.06351045619634597 0.06403216294734869 0.2074131884687873 244 208 63
0.060498883116827565 0.0660529295561336 0.19801020571226946 0 0 255
0.06448999054162415 0.061656569214510994 0.20497965434534818 244 208 63
0.01465286326138663 0.06694528986268433 0.20601573527734365 244 208 63
0.07969371357086624 0.03374069753794691 0.20333911708281915 255 0 0
0.020907331128899153 0.07192304718496795 0.20538224303188393 244 208 63
0.04319554850536192 0.023661611268854896 0.2016384444315833 255 0 0
0.06809144091646116 0.038557050827498496 0.20307898356514864 255 0 0
0.05906038559201514 0.029708562192970106 0.19635995297042946 255 0 0
-0.000879019931408399 0.010172526537945722 0.1861095223589198 0 255 0
0.061955361339956556 0.06906674595025712 0.20651446414242783 244 208 63
0.005428711046949906 0.028092783677416827 0.20133410199865087 244 208 63
0.052194768118082054 0.05193294030175723 0.19278410386048705 0 0 255
0.0709118917698563 0.00042447692050446434 0.1986409536812984 255 0 0
0.07417273451207111 0.06243716685391235 0.20737212272923403 244 208 63
0.08584738111233547 0.039851104296817354 0.20464514099274672 255 0 0
0.08141117227220869 0.0354289213201557 0.20252894513518588 255 0 0
0.08952812422500626 0.058825433985915956 0.20568864214412075 255 0 0
0.08156714560374012 0.04661187721596668 0.20515096995953663 255 0 0
0.07996239233781846 0.031272433072928596 0.2033837291363532 255 0 0
0.07255779737406759 0.005791104182479481 0.1977795901421451 255 0 0
0.04811990359278598 0.032457971646603856 0.2013016310113337 255 0 0
0.027704363902501916 0.07806595625690385 0.20841965102327828 244 208 63
0.06997554474000087 -1.7331065746077623e-05 0.19695617943667237 255 0 0
0.042966498271840514 0.043636351506238236 0.2037355852498276 244 208 63
0.014004499793830904 0.03581299383195924 0.20153396943576238 244 208 63
0.031556519713357115 0.01711959592890663 0.20052013234812704 255 0 0
0.07401071040962354 0.06283070845753055 0.20424042606290974 244 208 63
0.000306835985646865 0.017012007097322347 0.19928729082664903 244 208 63
0.06186567545722721 0.0353945955804998 0.19399196485900755 0 255 0
0.061442998067054486 0.03806292901774917 0.20179772221109907 255 0 0
0.0015312006893150763 0.024211114196679182 0.18801588101428754 0 0 255
0.05324866856649298 0.05800962574040418 0.19360951471482235 0 0 255
0.06856010418126779 0.0009854922421199397 0.1864148522348199 0 255 0
0.06183434843808276 0.06235841296017971 0.20709192751187308 244 208 63
0.04965788301507465 0.032083044235603625 0.20092888060911698 255 0 0
0.06153140327926127 0.0715718828867741 0.20783014234910305 244 208 63
0.06120456880159868 0.03541595725097797 0.1992805175384729 255 0 0
0.07337271427758026 0.06227248179380326 0.20525521299351077 244 208 63
0.06003977927001282 0.06849320336049115 0.20616742326164236 244 208 63
0.05721801860597298 0.02833200566828505 0.2024981365455403 255 0 0
0.03343081255382543 0.07959494325945017 0.20881036399611688 244 208 63
0.05312704636911415 0.053967683159384335 0.20478658611863243 244 208 63
0.046355092976928094 0.00727448667860555 0.19811625728088086 255 0 0
0.05536071365960729 0.06105315110194062 0.19405756483641892 0 0 255
0.06150685000390712 0.03360180536937231 0.20270896641047534 255 0 0
0.07102173955239865 0.021482608359114058 0.20088854864191164 255 0 0
0.06087989730687125 0.056047926310228424 0.19510741989364722 0 0 255
0.07491393889202175 0.016769919513527947 0.19499819477108318 255 0 0
0.06332760950560201 0.055942124428767205 0.20500268329310029 244 208 63
0.06073368724797707 0.0335458630207681 0.20279174184758858 255 0 0
0.04132312656752949 0.04450744826121777 0.2011062609867038 244 208 63
0.06561336326940286 0.07250499159262448 0.1989739717216261 0 0 255
0.06917270992678314 0.0673566038381047 0.20744064487818117 244 208 63
0.07089229837915201 0.06860724882867396 0.20811508916556937 244 208 63
0.07253629123619924 0.005497901226344568 0.19345784630887072 255 0 0
0.04822732269994059 0.05337628293105992 0.19712808459530431 0 0 255
0.061757246665313514 0.05831218135175043 0.20635192729344737 244 208 63
0.051050608074689086 0.054562828478071736 0.19734649131384083 0 0 255
0.062266084824592526 0.059012075658939636 0.19605913533101216 0 0 255
0.045650706083256394 0.004574892932513407 0.19592819341648746 255 0 0
0.04514072603352423 0.06724972474784952 0.2074363549075409 244 208 63
0.018663454495103923 0.05170828018803589 0.20474168986303184 244 208 63
0.053356842324855616 0.05772513877456171 0.19781447202843822 0 0 255
0.0600425002812999 0.06844188985308006 0.2068489773329467 244 208 63
0.039113461809017744 0.0785511497155377 0.20665552119569452 244 208 63
0.059041711415283554 0.05632085622038349 0.20146349334543 244 208 63
-0.002279742643097028 0.017950527696648063 0.19988997009305942 244 208 63
0.044027574197080574 0.0242331562966124 0.2010183436151201 255 0 0
0.044585708270553324 0.028984622528012365 0.20130105308457513 255 0 0
0.042702731160386524 0.055837599378330646 0.20587618712150402 244 208 63
0.05318387350763183 0.05749822145509767 0.1977807276439879 0 0 255
0.07355456779866923 0.062143115425294854 0.20604508955609813 244 208 63
0.07277577735575884 0.024329555384306315 0.20023217447943634 255 0 0
0.08596516375550955 0.055033888577825145 0.20241229603795086 255 0 0
0.06217441473488239 0.021860630227464945 0.20038812451349244 255 0 0
0.07799451292167807 0.06568653307971152 0.19834439380418203 0 0 255
0.044299587363140644 0.07444774401499811 0.2065839880977313 244 208 63
0.05980148644085128 0.026761484406808644 0.18962679557674222 0 255 0
0.07717034694636232 0.016033384822462308 0.20030348107271922 255 0 0
0.020767907192390515 0.05286839511061843 0.20286321725011477 244 208 63
0.04933851310051954 -4.813915921060563e-07 0.1954046999967704 255 0 0
-0.0016175639285172757 0.011134341301418956 0.19793380021498402 255 0 0
-0.003800605571228207 0.012622593801184382 0.1901852836010603 0 0 255
0.06175825907742036 0.02277707996952817 0.19232359874312804 0 255 0
0.023496805568370575 0.05005577410945365 0.20469278949050618 244 208 63
0.08647271493902838 0.05677316125851038 0.19629282174582105 0 255 0
0.05982262082110069 0.05833813699615241 0.20551006939196448 244 208 63
0.07469650178051848 0.013083391458449948 0.20093050946510502 255 0 0
0.06139412805288997 0.03566968761556834 0.19649140064161916 0 255 0
0.028279727907489137 0.013469099660220644 0.19354263030901095 255 0 0
0.08718034750478917 0.052246442849787605 0.20530393786059203 255 0 0
0.06890619684357271 0.020289465872711424 0.19533154790631435 255 0 0
0.02229440197183008 0.0476899865400366 0.203283478691363 244 208 63
0.054006893877664074 0.05150083226159602 0.20501542574819728 244 208 63
0.07276881821933756 0.02008542762416994 0.20174929861722274 255 0 0
0.05580689429866035 0.060248498542571596 0.20513918047735313 244 208 63
0.06808342486996964 0.021912908265907437 0.1934078414755601 0 255 0
0.04138968888714259 0.07362074443082822 0.20712492297601112 244 208 63
0.015139675827552747 0.06150135471629076 0.19323725484468512 0 0 255
0.05301491240105234 0.05682998794862866 0.20192894845891476 244 208 63
0.02462068074615144 0.04963133475965081 0.20252004209528282 244 208 63
0.0703188631978657 0.02594980374244795 0.19769988941032815 255 0 0
0.044334826341768524 0.05178234647447974 0.20531281103068436 244 208 63
0.0017406770030975694 0.019443482283511934 0.1996396959097102 244 208 63
0.03234958692494689 0.0798698308674475 0.2066817380630756 244 208 63
0.023564210302407886 0.010040728699620197 0.1972693955283923 255 0 0
0.061694248481960035 0.05810687527895965 0.20632344112494394 244 208 63
0.056870107892860004 0.06973273350637182 0.2064147279624259 244 208 63
0.049347097783205215 -0.0009941746122855248 0.19691144255014972 255 0 0
0.02494450642897041 0.07619317790800509 0.19857167697823802 0 0 255
0.05796905657625628 0.03392168748979456 0.20188871082958995 255 0 0
0.07344971506992004 0.06261772306829216 0.20579009688920785 244 208 63
0.06499768311203384 0.07130296399376794 0.19562167676188294 0 0 255
0.06218971199782124 0.06904704025562604 0.20705230654354362 244 208 63
0.018274729536010753 0.07292759865074995 0.20706328175712285 244 208 63
0.043480255991153474 0.022011834028868024 0.20035619348880887 255 0 0
0.06140444828918323 0.03499123388142297 0.2006421917110319 255 0 0
0.07276871428837851 0.06362422896144174 0.20431804451351857 244 208 63
0.048640286799326374 0.06451537819873786 0.20501055504747218 244 208 63
0.05809135970845055 0.06740564164533468 0.20449640094757673 244 208 63
0.07871884471644798 0.03698750784439864 0.204174764328743 255 0 0
0.06382616899483515 -0.003372582391644209 0.19798465029160203 255 0 0
0.05857462991077226 0.06014286869610884 0.19559770827607265 0 0 255
0.056227187665789186 0.057539243159582296 0.20461220304814848 244 208 63
0.019620105062196976 0.07488320690205279 0.19510216620763116 0 0 255
0.013939078068885447 0.03436758527374064 0.19280837442023604 0 0 255
-0.000332817907627444 0.011320861234616366 0.18945320846627947 0 255 0
0.05102969203770022 0.04986088904314406 0.20419846317969698 244 208 63
0.08377830134174899 0.041149287273608046 0.2032289548306742 255 0 0
0.06483031437799719 0.00045254233173666614 0.1894430407418699 0 255 0
0.06990587683098205 0.02563841737909359 0.19605968313269825 255 0 0
-4.057487372431299e-05 0.007650466930333226 0.1985789122502413 255 0 0
-0.0014201187614520886 0.013501245961061354 0.19825064383017127 244 208 63
0.06204064085041755 0.018437856175476445 0.19957637374573797 255 0 0
0.05883772144193466 0.0590726979903761 0.20612084821346258 244 208 63
0.00575995774194293 0.029531687582768765 0.19945366699647366 244 208 63
0.06387565529642886 0.06335179456558628 0.19772738571063572 0 0 255
0.0678307533790249 0.04032016342647343 0.20431311611324804 255 0 0
0.05596574318696634 -0.00019740125824586896 0.18598326911681765 0 255 0
0.07396628660895159 0.004983209638964009 0.19024104141459955 0 255 0
0.057255101215392054 0.06994598924873532 0.19527319907402726 0 0 255
0.07075199652526172 0.002934451598761989 0.1994405823015645 255 0 0
0.05486985444619752 0.060177789391552015 0.20457403808794772 244 208 63
0.06880429169924658 0.03456249466147392 0.1950938561952207 0 255 0
0.04961193777211861 0.030714254521237033 0.20190699761444356 255 0 0
0.0578260129915885 0.05727038873715869 0.20421237843405413 244 208 63
0.04070236939017476 0.05928696052612787 0.20593102142193623 244 208 63
0.027141173908694118 0.07556210876825183 0.20814033636566356 244 208 63
0.04888330984345818 0.028825992504220195 0.20137408080629346 255 0 0
0.058749148012486395 0.05628683827594532 0.2041026960633632 244 208 63
0.060791229235464435 0.05421123913552581 0.20525399175027179 244 208 63
0.0398430449537369 0.07498622058831571 0.20673607741177996 244 208 63
0.046250605218471026 0.031201539681996036 0.1899167511662406 0 255 0
0.03282160272636629 0.07967458557010809 0.2082722424949617 244 208 63
-0.0017775963427403812 0.010536713279804107 0.19885842143928947 255 0 0
0.005263113051828843 0.02475665212189284 0.19881230688602697 244 208 63
0.05296214858693908 0.05910119411237737 0.20519315128463617 244 208 63
0.05442863950060541 -0.0008878192048002442 0.198107248036538 255 0 0
0.012118470639965774 0.03156633246789067 0.2009319993482461 244 208 63
0.040893046144877765 0.021512401328702153 0.20130431513461114 255 0 0
0.04201122842904492 0.06724075754842752 0.2057607765886588 244 208 63
0.060542200566782584 0.06853621555793407 0.20786652170013134 244 208 63
0.08323510797070532 0.061984477526689875 0.20703880363978036 244 208 63
0.06101764556505276 0.06871690751417285 0.20751841044991298 244 208 63
0.018065879053707365 0.010341785636642795 0.19926658930255156 255 0 0
0.08921274134766209 0.05746478684386875 0.20550208593711575 255 0 0
0.021151398774652327 0.07531627167298297 0.207441584753966 244 208 63
0.04302393520079501 0.024259027232642585 0.20164996625839485 255 0 0
0.05644419621253167 0.06870704408950196 0.20680530621810855 244 208 63
0.06604155352418611 0.01998637528735733 0.19946904030427878 255 0 0
0.060841638602823316 0.05641403982208432 0.20628532520010373 244 208 63
0.05859510074614906 0.06591735940690979 0.2064839887528855 244 208 63
0.07051258130052664 0.03668111804157578 0.1996511024985169 255 0 0
0.07304784933252653 0.02363721389288432 0.1958641478843884 255 0 0
0.05132727621013378 0.05300828008223307 0.2009634137757815 244 208 63
0.07863517637806267 0.036280534946769166 0.19977582170836503 255 0 0
0.06299540176989686 0.06493850905064111 0.20752160004162476 244 208 63
0.054419453433386916 0.058817444542734486 0.19586185835396172 0 0 255
0.08642431133321123 0.05768038006046961 0.20546957984361275 255 0 0
0.009522751688514918 0.03150908714726624 0.18915425242731176 0 0 255
0.029813890750362518 0.07924123803232117 0.20868457154764003 244 208 63
0.054077519052474265 0.05686764904691702 0.2055471599298468 244 208 63
0.0027116486456329383 0.025792845990264057 0.19889333453147018 244 208 63
0.029328072377458082 0.044880890157889104 0.20407339819273873 244 208 63
0.04091575615667742 0.07738381719420692 0.2081467596417378 244 208 63
0.07101826599151817 0.004225294057063338 0.19007650349962818 0 255 0
0.0591415433725956 0.07002663969220468 0.1963851370896327 0 0 255
0.014080939668026093 0.0640477476065982 0.2041931192745752 244 208 63
0.05798246297878799 0.07019394145982263 0.204862186991093 244 208 63
0.05385310706245455 0.056759919330619336 0.20481427078771128 244 208 63
-0.0015743796223497432 0.010796107665999597 0.19635302402104962 255 0 0
0.05404763361195588 0.050895330210878865 0.2038657189656504 244 208 63
0.03976085022211104 0.02111802364078232 0.20116387596518973 255 0 0
0.06424334526520392 0.06928459473832588 0.20751095231053648 244 208 63
0.08433316999369246 0.04053308756260057 0.19198161917694545 0 255 0
0.08618429343251764 0.05684277013853229 0.20588905695861398 255 0 0
0.02012451018329233 0.05339685984401923 0.20506020650736925 244 208 63
0.045010054432902444 0.027161673850860386 0.19359635629229963 0 255 0
0.08386128647806303 0.05251395960273382 0.19355325562338505 0 255 0
0.016547335124969264 0.0697618811297083 0.20707921611322375 244 208 63
0.05607093979721908 0.05782823566387269 0.20636773749168807 244 208 63
0.07127145071851941 0.04098857343980043 0.20447660879393417 255 0 0
0.06006845117792463 0.06849029674504134 0.2066265130979669 244 208 63
0.049331171653028055 0.05008496799402366 0.20312027025585142 244 208 63
0.08100782070610778 0.031360096633360215 0.20312489375441511 255 0 0
0.06192110343252156 0.03754022889981127 0.19872864421273206 255 0 0
0.08249360821454695 0.05054814236573334 0.19538386109517697 0 255 0
0.08175683063767936 0.03201049552864586 0.20287026825455154 255 0 0
0.05657209521303024 0.06922344301409698 0.20651940957418957 244 208 63
0.0717032346467892 0.025004768384225242 0.19919543103875817 255 0 0
0.0403005939404177 0.061714602305773136 0.20659966065628707 244 208 63
0.060024051668592066 0.06839015461520241 0.20691821605884314 244 208 63
0.04755912095688495 0.027459740563342872 0.1958115267799221 255 0 0
0.062342838205410624 0.05987605683728112 0.20677527596275871 244 208 63
0.04650119279913733 0.007038648203952648 0.1977314294643708 255 0 0
0.020318999744531684 0.03610427566897814 0.20278114574526243 244 208 63
0.06946686211612847 0.02521690599246473 0.20161528394430173 255 0 0
0.06727960762153025 0.021251969261406232 0.19330299444131555 0 255 0
0.04205706113655693 0.04517099315617615 0.19484969698402488 0 0 255
0.08803552591731753 0.05393991803578875 0.2050109206007371 255 0 0
0.04035107152502588 0.06217463892598683 0.20594774659195147 244 208 63
-0.003924264991735231 0.00938963047043208 0.19872362901081217 255 0 0
0.0257345233939058 0.04814611745224358 0.20442596082988648 244 208 63
0.06318548252975832 0.020829577796048826 0.20098785017212642 255 0 0
0.07739928138978805 0.04037844629110421 0.1918095808939591 0 255 0
0.06456711436294299 0.06994746249442584 0.20603366366941778 244 208 63
0.06406751574185618 0.06969044491689699 0.20810888073945508 244 208 63
0.04053169888759363 0.05442489144896433 0.20403621703886837 244 208 63
0.051313453663679454 0.05208917957019361 0.20380986207562754 244 208 63
0.052898558196352884 0.05944949639701054 0.19803213524152183 0 0 255
0.0750325028149431 0.010441082294653847 0.20052535756444873 255 0 0
0.05879634699513134 -0.0041493816741105805 0.1967014502931954 255 0 0
0.08238871306294715 0.036502590332935264 0.20354859813815862 255 0 0
0.07012196996280094 0.03642812275142421 0.19112885112777392 0 255 0
0.04030703343043447 0.06153058162726147 0.205861742282361 244 208 63
0.045822607704962326 0.027978289884289444 0.19202588934348336 0 255 0
0.04275319148994937 0.00882926921527568 0.19806434525349942 255 0 0
0.08761168116116667 0.06436564807509165 0.19520016084899272 0 0 255
0.061891523545266156 0.03796680324606287 0.196240234448536 0 255 0
0.06390607774898993 0.03490709486376199 0.2003324386065291 255 0 0
0.042489140088360536 0.04423155594524602 0.203803737946518 244 208 63
0.05191688244077914 0.05849379438881815 0.20455477045060202 244 208 63
0.07488336208837035 0.010426047552114848 0.18779965068756418 0 255 0
0.060872697192627445 0.06343845609793226 0.20567115367290284 244 208 63
0.06064924882965609 0.0573213874285046 0.20512623503198857 244 208 63
0.016781007358229395 0.06289796005538226 0.20624162169060645 244 208 63
0.05674943266130979 0.029087594051417198 0.20211595036718374 255 0 0
0.06375813723828434 0.06924719622958204 0.20749540443876777 244 208 63
0.0664501420013335 0.03480634141626239 0.20174486875850725 255 0 0
0.06054515585532938 0.034624188720122656 0.1991615533756292 255 0 0
0.06407397517637366 0.03499043742069006 0.2032339612300992 255 0 0
0.05530004040158271 0.060223248836467735 0.2051247634159356 244 208 63
0.07182805219350538 0.025352799238078278 0.20141719999662003 255 0 0
0.056697846951735485 -0.0024099440034415776 0.18888724983146937 0 255 0
0.0613717143422401 0.03809374610007716 0.20180023257884658 255 0 0
0.028157749059257393 0.07813610158145443 0.19571836642076829 0 0 255
0.05351096529066439 -0.0004952997221454453 0.19813901005995918 255 0 0
0.05119395599915304 0.057596504831139435 0.19351003696799496 0 0 255
0.07744766776440123 0.011324967768165474 0.1986172057733226 255 0 0
0.059161794912014044 0.03070156832654488 0.20285351716395508 255 0 0
0.06990369476086171 0.03547558027085228 0.19735853482863988 255 0 0
0.08164141495125213 0.046758445477924626 0.20338754600089803 255 0 0
0.05699052030336172 0.06015462313251775 0.20461735062186515 244 208 63
0.01748487370165129 0.0524816935115955 0.20381100863528243 244 208 63
0.08162085573124445 0.0355933226850649 0.20319762230581484 255 0 0
0.019095767070322997 0.03556506610409825 0.20268320075018592 244 208 63
0.0457036569336342 0.027286163656754445 0.19702007921554993 255 0 0
0.0643509393005192 0.06116078482016066 0.1942683610056733 0 0 255
0.05528325100453118 0.057447183967232904 0.2052931680687332 244 208 63
0.044978249285852215 0.009084384586947797 0.19968903967987403 255 0 0
0.0502166318755608 0.05407891318229907 0.20580827236230562 244 208 63
0.08163465520747841 0.035676650544058774 0.20256654208820368 255 0 0
0.06102638284542675 0.036285298311769854 0.19091110449399606 0 255 0
0.05646788542328286 0.06851691499875537 0.20642384088787757 244 208 63
0.02220210737318976 0.0767692694607045 0.1954076611813087 0 0 255
