ply
format ascii 1.0
element vertex 740
property float x
property float y
property float z
end_header
0.024102616975891358 -0.014213036378215634 -0.0010428080808670649
0.012331964546946657 -0.013169387283334754 -0.0002606961464315659
-0.051032653195619185 0.01075728710575607 5.438690001389206e-09
0.026682891005575173 0.004571278374817037 -0.0025399194474703926
-0.007936617816357143 0.021546708591456007 -0.00208562150718944
0.019889093990502944 -0.016160076786602785 -0.012451801073116855
-0.009262930120976296 -0.04007376798400812 -0.0020856215071894477
0.02592332605237285 -0.016049993412908633 -0.0010428080808670649
0.0107772177354128 -0.013455871114991951 -0.012451801073116855
-0.021704905102667017 0.017249039287288038 -6.194978693626315e-05
0.02204868893865406 -0.017415811563445665 -0.0020856215071894443
0.016595037415583495 0.0227353913888091 -0.009354336961825216
0.02771281103095288 -0.02319169017273228 5.438689998969401e-09
-0.02385628528813253 0.015417083342876035 5.438690002529124e-09
0.004238210064360092 -0.025117184324635073 -0.012451801073116857
0.012665787074620996 0.017652229198745897 -0.0021269263376635225
0.013653736644998096 -0.013884486802092833 -0.0016106802886706538
-0.006158124487208887 -0.009888399033399742 -0.002085621507189444
0.03483882248528156 0.01418536613793591 -0.0021269263376635225
0.02778077473315514 -0.024775930167494912 -0.0008342439535727841
0.020445071493718093 -0.017710663778975747 -0.010386824335920223
0.025403385380531874 0.009650271078734517 -6.194978693626306e-05
0.013001906697542078 0.04276463059840006 -0.002085621507189437
0.019200369309057486 0.0063756895682838665 -0.0013904113546163506
-0.024942425151021186 -0.009364177224278463 -0.0010428080808670653
0.039844391833380385 0.0013159475870598368 -0.0006952047449613175
0.0371735259808683 -0.021560830652514223 -0.003159414457636014
-0.044796592049646956 0.002879689295313798 -0.012451801073116853
0.014504352905673135 -0.02525401842078881 -0.0031594144576360147
0.010359717697436517 -0.02719986655859145 -0.008321848593226908
0.03746885316642896 0.01277286520896968 -0.009354336961825218
0.0382704637193927 0.012101621585101443 -6.194978693626249e-05
0.0020845738642835034 0.04280130920849104 -0.0017380182334401494
0.0255918359383561 0.028884214706399486 -0.0006952047449613145
0.0067258315413457875 -0.04111709632678618 -0.009354336961825225
0.014974037751364225 -0.010215104505330936 -0.010386824335920223
0.018420148576021426 0.038188101262745994 -0.012451801073116848
0.04850015578042652 -0.010283675885829539 -0.010386824335920222
0.049690714148977425 -0.01147420914484684 -0.0031594144576360126
-0.04686163456826331 0.0054263425744342205 -0.0005213977315531307
-0.034850536491221065 -0.003653633341964307 -0.0010428080808670647
0.025331920046016834 0.01038142562877642 -0.0002606961464315628
0.0014113424482002882 -0.008850911460216836 -0.0007821064957454989
0.017289357570799618 0.007658185642164687 -0.002952912557277261
-0.004155362225060454 -0.042210234638885395 -0.0031594144576360173
0.03313843872782962 0.014859353450547357 -0.0031594144576360095
-0.036263921947115835 -0.005800237581029659 -0.001042808080867065
0.02521674210408529 0.03197741312287576 -0.000521397731553126
0.02219356959377553 -0.011553499823002838 -0.0013904113546163526
0.016660399896657015 0.006943751522599765 -0.01038682433592022
0.004157991006461533 -0.02483735736511528 -0.012451801073116857
0.02758085117423536 -0.014422463431163029 -0.0031594144576360134
0.00480666450655671 0.006391296403801621 -6.19497869362639e-05
0.049944174968144385 -0.011947327417787474 -0.0015642183369463116
0.017267950251420756 -0.01573715110533544 -0.0007821064957454993
0.01304405546857408 -0.013367559020000508 -0.0007299654328437001
0.034166818692070576 0.013927735659648777 -0.0012662686246834242
0.013864057871783705 0.011191375774243591 5.438690002821638e-09
-0.014221957781764225 -0.03616080227916162 -6.194978693626943e-05
0.003733046805067162 -0.04230977191390135 -0.012451801073116858
-0.048694553606379455 0.007597460095949793 -0.0010428080808670638
-0.04328408934105869 -0.0004452161914851321 -0.012451801073116855
0.00400670402672014 -0.021980408636577523 -0.009354336961825221
0.006818396115411005 -0.02620725254056763 -0.008321848593226908
-0.03558033469520219 -0.006163778560035615 -0.001042808080867065
0.021545577975824206 0.008846773474402703 -0.0013904113546163502
0.026714557477032348 -0.018775060793382033 -0.006256875336791875
0.012976827364707866 -0.025825180674995424 -0.006256875336791876
-0.003952817315722529 -0.009304778376408123 -0.0013009363886623596
0.02467887303995858 -0.014217022121588745 -0.0006256833691965591
0.05168898254144143 -0.007073659183196819 -0.001564218336946311
0.028075839839473742 0.0043570771651490975 -0.01038682433592022
0.02726149799579613 0.005600338459278225 -0.0007821064957454965
0.03240754085138118 0.006286488886760866 -0.003159414457636011
0.015159662695579624 -0.027333493831635143 -0.006256875336791876
0.023921301210610982 0.008724064015296849 -0.0021269263376635233
0.0022148121197571764 -0.042617645585546704 -0.012451801073116858
0.002047076357703967 0.04227185484118913 -6.194978693625963e-05
0.02593043279713997 0.003019284938464246 -0.009354336961825218
-0.004071117521528568 -0.009371409820773974 -0.003778902257652602
0.032785204346693554 -0.025818753971431012 -6.194978693626718e-05
0.016647253452875866 0.024259434174928405 -0.0031594144576360087
0.010754357547379887 0.01418463084116235 -0.012451801073116851
0.04852960864519536 -0.006828565451799455 -0.0020856215071894425
-0.04974777049837524 0.011886469322734263 5.438690001552715e-09
0.00833216740417512 -0.026689015813051335 5.438689998135465e-09
0.03325134798533905 -0.023763113607920307 -0.0031594144576360143
-0.01392204867490933 -0.035700933461427206 5.438689996575337e-09
0.0006379983347567701 -0.042744679850706124 -0.009354336961825225
-0.0075635982665098345 0.030301407281638104 -0.009354336961825216
0.024432834027208816 0.00711382688005384 5.438690002554622e-09
0.026912337460099404 0.008113817949365469 5.4386900027279535e-09
0.028361042433062183 -0.017596264886575442 -0.002126926337663527
0.01725271492069486 -0.015730443502156195 5.438689999646817e-09
0.009066916221639278 -0.029351588612677473 5.438689997829973e-09
0.02178009264196327 -0.013533649740703918 -0.012451801073116855
-0.04756962711081 0.003154314100418159 -0.006256875336791874
0.023580933261897925 -0.015112730510821192 5.43868999985589e-09
0.011170751740697342 -0.029210816596829028 -0.001390411354616355
0.011791043811899219 -0.0260454064625814 -0.0010428080808670664
0.0016669913277347552 0.04214548874432031 -0.012451801073116848
0.05129520288264431 -0.009226806608268358 -0.00935433696182522
0.023313770518881127 0.02675835368552889 -0.004191902577608496
0.05077261188618467 -0.010267630845639064 -0.003159414457636012
0.024378414754947647 -0.024943504801833046 -0.0031594144576360147
0.00574851422265506 -0.020931882291219384 -0.012451801073116855
0.013026220733871614 -0.013284457767129398 -0.00010427662495714107
0.03381702490570241 0.013989545021736705 -0.0009683223931821405
0.004090818338382657 -0.021275410531560023 -0.012451801073116855
0.022758865739913217 0.0111916796348329 -0.000782106495745496
0.015586508383952364 0.021932078955078236 5.438690004153641e-09
-0.049079144287149774 0.008277696913899107 -0.0007821064957454978
0.033113461053218995 0.014857153301338823 -0.011419312704518536
0.023724915678681437 -0.011704496602493784 -0.012451801073116855
-0.017355004397327144 -0.025170125706522824 -6.194978693626817e-05
0.025452284379620962 0.0032813069415910494 -0.009354336961825218
0.013198741409201173 0.020001575264898194 -6.194978693626207e-05
0.05133084210698069 -0.007980358314145862 -0.00935433696182522
0.014679916059081964 -0.017090600762645115 -0.0013904113546163535
0.0373965629552825 0.012230934288447588 -0.001787671794926556
0.004965208327057181 -0.016458347702868633 -0.0015642183369463131
-0.018301218269316955 -0.031076604392778297 -0.002085621507189447
-0.014707783622556219 -0.035325925893941276 -0.006256875336791878
0.033441820886814196 0.009903338586116793 -0.0031594144576360104
0.012785584417464598 -0.03005927495556543 -0.0017380182334401579
0.035017365983506014 0.013564150702897706 -0.00022345510512635942
-0.0013224608228921938 -0.010327249738122444 -0.0010428080808670649
0.01271645125056127 -0.030593037486233716 -0.0003475978661375188
-0.011324872894133238 -0.013851953004270202 -0.0010428080808670655
0.011227469437231082 -0.03695417713664559 -0.012451801073116857
0.00291556569443732 0.043026931055819055 -0.001564218336946306
-0.018724092240160327 0.014579438347389539 -0.0010428080808670623
0.028361042433062183 -0.017596264886575442 -0.004191902577608501
0.0037638679400105114 0.00520107885806241 5.438690001884395e-09
0.02804728658255295 -0.024756162535601745 -0.00020855511460799657
-0.03976850482469714 -0.0036827862252369267 -0.002085621507189444
0.036737750122294514 0.012646780387571005 -0.0020111323387429192
-0.02728260949894106 -0.008937080621320696 5.438689999519047e-09
0.035868588299006396 0.013133916104260743 -0.0005958869932343353
-0.007124410741385258 0.032207969006738814 -6.194978693626104e-05
-0.01758763766315939 -0.02339444067172795 -0.0015642183369463144
0.02881622709328842 -0.01969821395935305 -0.001564218336946313
0.024911681611016413 0.002994685665114531 -0.0006952047449613176
-0.018367162928467216 -0.030428745861846518 -0.0020856215071894464
0.0029887740292215484 -0.007150888767814678 -0.0017380182334401555
0.018656369706578288 -0.015982228465709226 -0.0020856215071894443
0.037018100877563284 -0.014801996308548119 -0.0020856215071894434
-0.003390532109065885 -0.00896673015687466 -6.194978693626592e-05
0.035868588299006396 0.013133916104260743 -0.000521397731553128
0.037111916753858984 0.012993653641043814 -0.007289360224628586
0.014323566569604077 -0.025266765968342045 -0.0016106802886706553
-0.006390604659016773 0.02733614651057954 -0.003159414457636009
0.02230544520038842 0.01806264957552187 -0.0013035096659886269
0.04870281764000833 -0.0071104749963201135 -0.0010428080808670634
0.007272680271604856 -0.02839853732540112 -6.194978693626803e-05
0.02786954425104052 -0.0138172643591216 5.438690000103329e-09
-0.035088248463223136 0.01672934273740144 -0.012451801073116851
0.012234516386868765 -0.03326357126425062 -0.0013904113546163554
-0.005917582177118961 -0.04183293468496858 -0.009354336961825225
0.011449694920834965 -0.028595869076308192 -0.009354336961825223
0.03134450525412835 0.01072645928045389 -0.0010428080808670616
0.017069211889347787 0.007132513975008494 -0.007082865534418868
0.029619731742193955 -0.024557573879299823 -0.0011470864772832347
0.039901030028088556 0.001086049800518405 -0.0013904113546163506
-0.0036401745019787506 -0.008854033919796054 -0.008321848593226907
-0.008587485304573527 0.028293405784031438 -0.0020856215071894395
0.034046681202597955 0.013966266260100321 -0.000521397731553128
0.014092985431529502 -0.016382583446651177 -0.0013904113546163535
0.013708118223118695 0.019849061144444465 -0.001738018233440152
0.011753295827145127 -0.03605528314889122 -0.003159414457636016
0.022171045123593306 -0.011568704605301575 5.438690000253332e-09
-0.03709469594175232 -0.005345084487496644 5.438689999743595e-09
0.030947784291015714 0.015566323471156824 5.438690003712574e-09
0.016166889411997093 -0.01807621098189176 -0.0013904113546163535
0.03183754200211147 -0.023953772617118535 -0.0020856215071894447
0.013241654788882092 0.04059855932475696 -0.003159414457636007
0.012861656143601498 -0.029060625702291575 -0.0020856215071894456
-0.01673284439940432 -0.03490493792336758 -0.012451801073116858
0.012791396925841018 0.012251302277068388 -0.008321848593226903
0.015915185504940234 -0.011845612443927898 5.4386900000869e-09
0.015931407881795617 -0.015188884054517005 -0.009354336961825221
0.013559887064857274 0.04263723681338954 5.438690006607671e-09
0.020963183969495574 0.034823557645988816 -0.0005213977315531257
0.026739206522187652 0.008519234452333067 -0.0007821064957454962
0.010734622281294955 -0.02878614272009791 -0.003159414457636015
0.002451125734870667 -0.008210934651078682 5.438690000238934e-09
0.012873964787350176 0.01875951077020423 -6.194978693626223e-05
-0.04858209301038245 0.007428763307446863 -0.0015642183369463114
0.012942618259088714 0.016411233623788955 -0.0020856215071894404
0.040127237299322285 0.007764657458779119 -0.0005213977315531286
0.00016420779558458658 0.007488473259970786 -6.194978693626386e-05
0.0006691398231572794 0.006638136052922122 -0.0005213977315531295
0.012346543936286078 -0.028864072795888658 -0.0010428080808670668
0.020502890186541056 0.008438381570351114 5.438690002630795e-09
0.0061140779121029295 -0.022871383098245993 -0.0017380182334401572
0.0373965629552825 0.012230934288447588 -0.0018621609633730776
-0.003251574289060405 -0.008866258785516237 -6.19497869362659e-05
0.05103855170479648 -0.00707096565842242 -0.0031594144576360117
0.023032758559972954 -0.015001512573629038 -0.004191902577608501
0.04198197334166327 0.0019401225527841221 -6.194978693626364e-05
0.02505509186628286 0.024128524550238176 -0.000695204744961315
-0.014680821443188866 -0.02287265894337671 -0.0017380182334401576
0.027910639638962596 -0.024767036909816974 -0.00031284075225142396
0.016848148622408958 0.006845321494812047 -6.194978693626359e-05
0.017891232934999453 0.022013057212063366 -0.0010428080808670605
0.02836132035364685 -0.01783169970293856 -0.012451801073116855
0.00531109860338664 -0.02711632712713595 -0.003159414457636015
0.019638112613871588 -0.018564643929346154 -0.0010428080808670653
0.009191721120141827 -0.03935662513602625 -0.009354336961825225
-0.006904773443951988 -0.010464396682398855 -0.0003475978661375168
0.01661698227918615 0.0050268494182725216 -0.008321848593226903
0.001022306405193684 -0.006208084360655667 -0.0010428080808670642
-0.01309217140435536 0.015048061918542912 -0.012451801073116851
0.040216431500091174 0.006385640197449626 -0.002085621507189441
-0.01721204524695137 -0.008123596346504777 -6.194978693626611e-05
0.0198808057706987 0.02129044513941813 -6.194978693626177e-05
0.010164825174151923 0.014497546537862725 -0.0010428080808670616
0.027250025708481153 0.005240043037836491 -0.0020856215071894412
0.01725202751056852 0.007557868762926456 -0.005017892277983837
0.0173556897718343 -0.015772452278899216 -0.0020856215071894443
0.02684807010545091 -0.012558167234023365 -0.0003475978661375163
0.026710004894204116 -0.017371918431609748 -0.006256875336791875
0.03722489171657986 0.015390575262457074 -0.0005213977315531278
0.03730061506103697 0.012879538896145012 -0.00315941445763601
0.017214699203961573 0.007461920164514341 -0.012038804731174212
0.023037409898513824 0.010762275285173078 -0.008321848593226903
-0.047406040134202014 0.0102080375696089 5.438690001400088e-09
-0.048892283499162574 0.007920594339772526 -0.0002606961464315647
0.026105169229537168 -0.026806821602085817 -0.0031594144576360147
-0.006208995066319959 0.034865185762478615 -6.194978693626069e-05
0.0008955196756592132 -0.006217548659525579 -0.0020856215071894434
0.013638189667848343 -0.01232429664935543 -0.0041919025776085
0.010735309693673678 0.014400482114037653 -0.012451801073116851
0.025595403643284283 0.029282747108752217 -0.0020856215071894386
0.025103440938560248 0.0041451020447243175 -0.0016106802886706514
0.019638112613871588 -0.018564643929346154 -0.00034759786613751723
0.05002883291214837 -0.005197482116287118 -0.00935433696182522
-0.0017734807188967059 0.03752693956357632 -0.002085621507189438
0.012598151385929885 -0.01079450251297493 -0.010386824335920223
0.031784265701783394 0.009678415073795613 -0.009354336961825218
0.01566202262722212 0.007940963088201084 -6.194978693626348e-05
0.02553295634014767 0.002644700606202208 5.438690002039021e-09
0.021544081839399546 -0.012480363737323306 -0.0010428080808670647
0.027137930512946114 0.0074378676702158445 -0.001303509665988628
0.03313843872782962 0.014859353450547357 -0.01038682433592022
0.02459061773725878 -0.01417138209330079 -0.0008342439535727829
0.002387787007762835 -0.008254174255619529 5.438690000232372e-09
0.03931164714098036 0.010011984505692647 -0.0006952047449613164
0.04021140535378055 0.0070484213551062595 -0.0010428080808670618
0.027275234986002858 0.004323873423215736 -6.194978693626367e-05
0.025872718695786997 0.0025595038039447305 5.4386900020359714e-09
0.0248156983539386 0.0031435362709674344 -0.0010428080808670627
0.019368502799934857 0.008087778536663011 -0.0021269263376635238
0.026557946525740967 0.00751118829469962 -0.010903067028464407
0.015425436587607871 -0.011058673911679327 -0.00749585839559991
0.011940527925371779 -0.02898247348153994 -0.0017876717949265614
0.014912999502412287 0.023928593271762694 -0.009354336961825216
0.003805448337172214 0.04273873279042982 -0.012451801073116848
0.01480207177160937 -0.01649521663138391 -0.006256875336791875
0.012433722785550593 -0.02884097573873497 -0.0004469120749464415
0.014189302840134447 -0.024814374018016644 -0.0007821064957455005
0.018989406435139262 -0.018617126336955055 -0.00034759786613751723
0.041943602353915255 0.0028331809922470903 -0.008321848593226903
-0.030937156185718243 0.01541757342004814 -0.0020856215071894412
0.033516986568265725 0.007488253030997526 -0.0005213977315531288
0.012803897998767612 -0.012410976754784262 -0.006256875336791874
-9.237037781934093e-05 0.009397898115317129 -0.012451801073116851
0.01441911471271136 0.02431650327135787 5.438690004416387e-09
0.04967742527622781 -0.00467927951735354 -6.194978693626428e-05
0.035264180288903296 -0.024926629404716436 5.438689998920746e-09
-0.02461164981945603 -0.008954009437316102 -0.012451801073116855
0.023437086305362148 0.028036391551983137 -0.004191902577608496
0.02830889078894899 -0.016793857000857174 -0.006256875336791875
0.007430707564602206 -0.016491205790660646 -0.012451801073116855
0.0270449616463177 -0.02475254941581089 -0.0008342439535727841
0.022960286154372386 -0.016400291218109733 -0.0013904113546163532
0.001653855207687252 0.04267823625029586 -0.0006952047449613133
0.018278420184854503 -0.018027638485374652 -0.008321848593226907
0.026105865693014766 -0.012005446390435038 5.438690000284336e-09
0.002738037273670835 -0.0065231855664402765 5.4386900004485846e-09
-0.01426009586886447 0.013867089328081611 -0.012451801073116851
0.03387355530740507 0.014000422409883497 -0.0006703726187627988
0.020337123809254325 0.008332244954710548 -0.001042808080867062
0.005593391365360271 -0.02332513276490762 -6.194978693626746e-05
0.03632511086521937 -0.01905972902097479 -0.009354336961825221
0.022317669678730886 -0.016306592797498472 -0.006256875336791875
-0.018349481699480186 -0.028569959559315693 -0.0020856215071894464
0.04091031460373604 0.012493462771688134 5.438690003553835e-09
0.025111281339439576 0.004076697159000239 -6.194978693626374e-05
-0.05065326420104258 0.010275580923377154 -0.011212815030798875
-0.004398941484742097 0.034773409288009864 -0.01245180107311685
0.02025034128907367 0.011238788196599951 -0.0018249199220678751
0.038859451625590284 0.010744832074803864 -0.0003475978661375133
0.01541664718739047 -0.011599025682788297 -0.011212815030798877
0.02111175995816475 -0.017382735861828025 -0.006256875336791875
-0.050549696466976456 0.010403398916130577 -0.005017892277983838
0.009738186859282516 -0.02688129251166126 -0.0010428080808670666
-0.04312478366642474 0.0020567351702815624 -0.0010428080808670642
0.03164594481836537 -0.02455652454571591 -0.006256875336791876
0.017152936460814262 0.008743456317567894 -0.000347597866137514
0.01247060258122562 -0.034225299824435805 -0.010386824335920225
-0.017216319258549117 -0.033542682541536015 -0.009354336961825225
0.051389133610560384 -0.008335810580945966 -0.012451801073116853
-0.006028137477777637 -0.009780845239668866 -0.0010428080808670649
0.013436853120717336 -0.028886857571578845 -6.194978693626797e-05
-0.017864377237495527 -0.024760727882285626 -0.0005213977315531338
0.007525097901240057 -0.026774357072292698 -0.006256875336791877
0.02754706305205235 0.00485310463809085 -0.0007821064957454966
0.011973086389026541 -0.03882421909721609 -6.19497869362692e-05
0.03583350103659154 0.013693082010981404 -0.0021269263376635225
-0.017796942157655 -0.02978158971545395 -0.012451801073116857
0.03335740693047444 0.009265458141545507 -6.194978693626294e-05
0.040715412232569095 0.007117955651185816 -0.009354336961825218
0.042130628367862404 0.0039524809877250185 -0.009354336961825218
0.0018331952072283195 -0.008603420980874086 -0.0007821064957454988
0.03701071311158482 0.013053118330958052 -0.011419312704518536
0.029739767403520526 0.0027525206350446016 -0.0005213977315531294
0.017294392906167452 0.02213008312468408 -0.0006952047449613154
0.04201607440842331 0.0032884725008952057 -0.004191902577608498
0.004063510686917422 -0.018550880548606076 -0.0020856215071894447
0.023466507080754324 -0.013744491625307588 -6.194978693626592e-05
0.02970259135560782 0.003326918256568321 -6.194978693626374e-05
0.014312498430255081 -0.033419832851205214 -0.006256875336791877
0.025098552148223225 -0.022344340872758838 -0.0020856215071894447
0.01791261213260757 -0.017989803636381464 -0.006256875336791875
-0.008859290204895714 -0.04028061126538414 -0.0020856215071894477
0.01297265449205922 0.042223732974013384 -0.012451801073116848
0.03684722899647506 -0.015190741657463876 -0.0006952047449613196
0.024591596266943884 0.00588406863503266 -0.0017380182334401533
0.015194255762547751 0.04001921153781495 -0.012451801073116848
0.022146060783035 0.008869696890673292 -0.002085621507189441
0.022481769746164587 0.00882054727232746 -0.00034759786613751387
0.011339343323389373 -0.026301470374968113 -0.0015642183369463142
0.014927447188411217 0.023933884172820285 -0.01245180107311685
0.013356482597803379 0.023030505898050925 -0.01245180107311685
-0.048694553606379455 0.007597460095949793 -0.001824919922067877
0.01762381879298145 0.038167699871591826 -0.0010428080808670586
0.015407073633560725 -0.01082774473094658 -6.194978693626574e-05
0.028428678574488966 0.002358169570582933 5.4386900020660444e-09
0.04209541616286087 -5.758238895818492e-05 -0.010903067028464407
0.015172979977645492 -0.026704155622573285 -0.003159414457636015
0.03903191518692279 0.011203265907150083 -0.008321848593226903
-0.015796148661794386 -0.00813142647326837 -0.006256875336791875
0.0018404978370056598 -0.00802687827702369 -6.19497869362657e-05
0.009335239040942432 0.04129790456277187 -0.009354336961825215
0.029939231062500928 -0.024502728300538294 -0.0017727753784044795
0.03123973737737876 0.0093631050395526 5.438690002970648e-09
0.023408639402290366 -0.013874677672261427 -0.006256875336791874
0.006220278595931767 0.043074994512991446 -6.194978693625944e-05
-0.005976628989935937 -0.009735707980874125 -0.001390411354616353
0.025587177304031972 0.0031765341196825247 -0.009354336961825218
0.04511430774228235 -0.0001299963107623784 -0.009354336961825218
0.030392914205966928 -0.024414232219291128 -0.00020855511460799649
-0.01710341264350179 0.014654505659833332 -0.01038682433592022
0.012860080238649017 0.01576646143728731 -0.0010428080808670614
0.012685291165749877 -0.013018672577112006 -0.0007821064957454991
-0.03038478889027412 0.017524569119084187 -6.19497869362633e-05
0.02446466823799781 0.008148337977347514 -0.008321848593226903
0.006446680786737863 -0.028729047447338178 -0.0010428080808670668
-0.006756244068717496 0.013072461255711886 -0.001042808080867062
-0.0026597662408761563 0.04034421408562767 -0.0020856215071894378
0.03148837661014032 0.014292624274640457 -6.194978693626237e-05
0.049075273231074024 -0.007832455521868637 5.438690001276079e-09
0.02702454470356861 -0.024735550732740516 -0.002085621507189445
0.025605414961401476 -0.02729959465568233 -0.00034759786613751815
0.0015608219449016161 0.01097738728110989 5.438690002534192e-09
-0.014488047037619321 -0.01793503121483353 -0.012451801073116855
0.004059876029776146 0.04279411966944416 -0.012451801073116848
-0.018332390544864397 -0.030804379504748066 -0.0005213977315531345
0.004401262375638784 0.005063691820253709 -0.001042808080867063
0.04401056030809021 0.0006168034201072878 -0.0031594144576360113
-0.017453045727133413 -0.025748378383428736 -0.009354336961825223
-0.04134152743017804 0.0006361984427956985 -0.0005213977315531312
0.02543399973143712 0.010294067032911618 -0.002085621507189441
0.04766438683200587 -0.004792499060458609 -0.012451801073116853
-0.008088898484375133 0.013656116443121136 -0.001042808080867062
0.022568873422108948 0.011223293006039007 5.438690003010602e-09
0.027924415477929537 -0.01522473596222941 -0.0031594144576360134
0.01833719852964837 0.010200918773584599 -0.001738018233440153
-0.0051474001744446435 -0.04160566691240249 -0.0010428080808670688
0.027011849684563834 0.0023856596530108633 -0.0015642183369463103
0.036987518943561615 -0.014863046143943013 -0.0020856215071894434
0.022226927126924236 0.018891451569328775 -0.01245180107311685
0.014009911276890524 0.020355995862583 5.4386900039300314e-09
0.027482467117438396 -0.02737365489517204 -0.0013904113546163545
0.024821542962333125 -0.026545367303440943 -0.0031594144576360147
-0.04033767437055965 -0.002607626811982463 -0.012451801073116855
0.034726916742531526 0.013698820361936533 -0.002011132338742919
-0.043501445091937846 0.012472038597020335 -6.194978693626418e-05
0.02209211586306467 -0.016577925573594162 -0.012451801073116855
-0.0032926168644903794 0.016716349244356117 -6.194978693626282e-05
0.017400808849078648 0.007984085611282924 -0.0041919025776084974
0.037544468590097864 0.012722731393349677 -0.008321848593226903
0.01277439717471651 -0.030152284336484918 5.438689997812248e-09
0.01703478469625103 0.007066437042471429 -0.004604895936041196
0.013843329390925505 -0.02494108361667155 -0.001564218336946314
0.05130769495369528 -0.007880119393106677 -6.194978693626463e-05
-0.006425580402400503 0.025208369537364106 -0.01245180107311685
0.013791381643669623 -0.014542199855001055 -6.194978693626623e-05
0.026330090815087775 -0.027367203948660556 -0.0010428080808670664
-0.043442514348392094 0.012002737029996869 -0.0005213977315531299
0.03992653417328585 0.001024125363604381 -0.0010428080808670627
0.007522750704052586 -0.026232126950501543 -0.0010428080808670666
0.02459061773725878 -0.01417138209330079 -0.0012513722081613466
0.03983840857450826 0.009967530385674574 -0.002126926337663523
-0.015243284067445009 -0.034156962867690974 -0.009354336961825225
0.0371594994807119 -0.014575705989582854 -0.00034759786613751636
0.033161808302344456 0.013935625374109424 -0.009973827993977578
0.010508206530324039 -0.011178234603076093 -0.0013904113546163528
0.006418194412865781 -0.025751214158290563 -0.006256875336791876
0.025235336111304855 0.0035903810419857293 -0.012451801073116851
0.02404749602787541 -0.014256766150979852 -0.0006256833691965591
0.012898066370562703 -0.012978875833460085 -0.0004171192419022773
0.03381094814570227 0.01398414139149907 -0.0005958869932343353
0.026363840057458867 0.009215497389933493 5.438690002849156e-09
0.03485145126659905 -0.02143098810970073 -0.0015642183369463131
0.002593316836645242 -0.04255778795443764 -0.0062568753367918785
0.01214800371226837 -0.01272041213462479 -0.008321848593226907
0.032138309835700374 0.005792901705274211 -0.009354336961825218
-0.011661359307204303 -0.014815803526803941 -0.012451801073116855
-0.04441746153654017 0.011613234231665244 -0.0015642183369463107
-0.040180348255242554 0.013157201971312186 -0.0015642183369463105
0.005662698140312467 -0.02393572301391036 -6.194978693626753e-05
0.01380308360756628 -0.010377498817818047 -0.012451801073116855
-0.023420519157679034 -0.00764324345806453 -6.194978693626619e-05
0.005668829473494207 -0.02819843541383404 -0.0003475978661375187
0.04895247478528461 -0.009887856095361313 -6.194978693626492e-05
0.022843375540966143 0.018965082620147886 -0.01245180107311685
-0.016149841070127093 -0.028776055544667258 -0.009354336961825223
0.027628552671046778 -0.023353818608216437 -0.0001737980007219026
0.007181107203511919 -0.016876680637040023 -0.012451801073116855
0.02112287541829401 0.011366833136700494 -0.0015642183369463094
0.014044398010286795 -0.025326951680058524 -0.00780560590068272
-0.037762809399519946 -0.0024506452503697744 -0.006256875336791874
0.02834868089196962 -0.02168237354751593 -0.0005213977315531325
0.0270449616463177 -0.02475254941581089 -0.002085621507189445
0.013949720505655221 0.02118772227444286 -6.194978693626192e-05
0.017152936460814262 0.008743456317567894 -0.0013904113546163502
0.012811235729298133 -0.028776863456932637 -0.0013407543123683506
0.003217412732883838 0.006047183074000594 -6.194978693626397e-05
0.0003230640796868106 -0.04485257602328144 5.438689995774544e-09
0.012097072736578717 0.021457228748696097 -0.009354336961825216
-0.004779251276308565 -0.043697712297294 -0.0062568753367918785
0.023526798141406454 0.008408081826972719 5.438690002691447e-09
0.02730958114744192 0.006536174363227651 -0.0020856215071894412
0.0197278206599196 0.007733641247007468 5.4386900025293185e-09
-0.005182663556558602 0.03131860397305023 -0.0005213977315531267
-0.015630804955309503 -0.027904795326701357 5.438689997479246e-09
-0.008121426558713314 0.026542088369993055 -6.194978693626175e-05
0.012924982231168914 -0.013002405955178523 5.438689999883797e-09
0.0401795923302906 0.000714374592877561 -0.0015642183369463103
0.0373132948051129 0.012287149620510225 -0.0010428080808670614
0.023335917214692442 0.026946024325664557 -0.01245180107311685
0.026709262763130227 0.004523586703251383 -0.012451801073116851
0.027398900124165335 -0.023813303031827122 -0.001042808080867066
-0.04233251688992426 -0.0011633540325977896 -0.006256875336791874
0.0098557768416749 -0.012053452830786161 -0.006256875336791874
-0.01772278198227628 -0.027865942742375846 -0.009354336961825223
0.012685586805466038 -0.013018565150839812 -0.002085621507189444
0.021049036945628253 0.01990726587604686 -0.008321848593226901
0.025136042780522123 0.0039196025761431726 -0.004708141292139427
0.04228983647640092 -0.000177526068773399 -0.007805605900682717
-0.004282640516883843 0.03499286168955849 -0.01245180107311685
-0.04596097305093231 0.0017128851180072562 -6.194978693626554e-05
0.023753690186342626 0.00823346228175968 -0.00034759786613751387
0.025150520966542134 0.0038508831135552974 -0.0016106802886706514
0.007413109702807369 0.04145467600011956 -0.009354336961825215
0.023344980876631217 0.008517339737207317 5.4386900027007575e-09
0.050385467817441756 -0.011574110607817822 -0.002085621507189443
0.027307100821428395 0.006562117370102316 -0.0018249199220678755
-0.035599439884390835 0.017178487600145897 -0.0020856215071894412
-0.04588626932340142 0.010973216609948103 5.43869000152469e-09
0.02593994421705263 -0.02183547964666147 -0.0031594144576360143
0.012965149373001835 -0.012341728413046791 -0.0021269263376635264
0.051310375407178706 -0.010549033943522516 5.438690000995979e-09
0.017511981957087454 0.009314112534933859 -0.001042808080867062
0.013580821624793089 -0.0122012137800928 -0.001438599515468839
0.041930459865670774 0.0027374100902390966 -0.01038682433592022
-0.03606637840872049 -0.0034950637677219234 -6.194978693626596e-05
0.015259130150245444 -0.030396483180320632 -0.0010428080808670668
0.021870119479054075 -0.013083514707778295 -6.194978693626588e-05
0.03981586601707575 0.0017085545046898426 -0.00034759786613751436
0.012796934940976916 -0.029960574602627257 -0.002085621507189446
-0.009083319947699842 -0.04245016115916554 -0.012451801073116858
-0.003399525741200733 -0.008972620220380645 -0.006256875336791874
0.05119213778752161 -0.00748276394136424 -0.012451801073116853
0.033834477280312046 0.013997048854499814 -0.0006703726187627988
0.02315329730075674 0.018521129655477427 -0.001824919922067874
0.039909120346279116 0.0010647646546347726 -0.0020856215071894417
0.02279010524076911 0.01810741854235471 -0.00026069614643156196
0.01362466132032326 -0.012819740650057561 -0.007805605900682719
0.037519702473834335 -0.01434690013061004 -0.0005213977315531314
0.01365656873229233 0.02082882798841489 -0.010386824335920218
0.025065892263874602 0.002837861356662007 -0.0020856215071894417
0.024159038897802847 -0.011311187535734632 -0.0020856215071894434
0.032931142261450136 -0.023968602487061928 -6.194978693626696e-05
-0.049698105289394265 0.008521840109572161 -0.00997382799397758
0.03668981105996392 -0.0156356426416456 -0.00034759786613751647
0.009066916221639278 -0.029351588612677473 -0.002085621507189446
0.025680403126933007 -0.026762350511507958 -0.009354336961825223
0.03610584649684907 0.015977836745962065 -0.001042808080867061
0.03380527785558376 0.013973964250723808 -0.0011917829369985035
0.017292895526672042 0.008988408427770487 -0.0020856215071894412
0.027067859754739822 0.0076742278922837665 5.438690002678244e-09
0.002988910167829218 -0.007338727809596658 -0.001564218336946312
0.013595104707249839 -0.0122190031509709 -0.0076335250031679906
0.03982120606012014 0.0020374283308574907 5.438690002269633e-09
-0.023936756773828803 -0.009535624374469205 -0.0010428080808670653
0.01306097382076402 -0.013458251270981873 -0.00010427662495714108
0.019901688036289774 -0.016153689536773333 -0.003159414457636014
0.013629603357265995 -0.01229329921268588 -0.0041919025776085
0.01517243426433633 -0.026962874626946572 -0.012451801073116857
0.0251234139264351 0.00399147941239489 -0.010903067028464407
0.024150437750545362 0.010400864332450667 -0.01038682433592022
-0.040341728497116605 -0.00260477815732514 -0.006256875336791874
0.004664658697848324 0.007460204692605881 -0.0020856215071894417
-0.003019270221548883 -0.007157906943301143 -6.194978693626569e-05
0.027269609760596274 -0.024086497319395977 -0.0019118181299340006
0.034821113607669776 0.013656007451651348 -0.0017131897123161502
0.011190557488966071 -0.026922497674514736 -0.010386824335920225
0.040272718224930414 0.0018243928055103106 -0.007805605900682717
0.025081352535533504 0.0028274125029989676 -0.0007821064957454969
-0.004360951952795597 -0.041785463885930484 -0.0010428080808670688
0.02799505984929148 -0.015432483391313966 -6.194978693626603e-05
0.021836012367816536 0.011326242032398876 -0.0018249199220678751
0.03381536579212075 0.008557564526228006 -0.002085621507189441
0.025516359278105787 -0.026737692760464712 -0.012451801073116857
0.04070948700688379 0.006623479520935533 -0.009354336961825218
-0.026104549061466954 -0.00672617689967524 5.438689999810743e-09
0.02813831053907252 -0.01998056906671104 -0.006256875336791875
0.03414052746429195 0.01673450997928764 -0.0010428080808670608
0.020358770099598855 0.011268212527272755 5.43869000296902e-09
0.04190579257022934 6.0745997551986526e-05 -6.194978693626387e-05
0.024039054165776556 -0.024348240426165044 -0.001042808080867066
-0.04709458240868233 0.005023836273484341 -0.012451801073116853
-0.04407991488502065 0.01223863452627536 -0.012451801073116853
0.02509375449398024 0.006094681112674143 -0.008321848593226903
0.024187547802756205 -0.013407581474893017 -0.010386824335920223
0.01725202751056852 0.007557868762926458 -0.008734844935169543
0.032878806898922634 -0.02341520920323015 -0.0010428080808670658
-0.036551767759859834 0.014790237200996079 -6.194978693626376e-05
0.021028256758884274 0.011364369285701106 -0.0018249199220678751
0.0024009299738764634 -0.04212918920687945 -0.0020856215071894477
0.04061293809613633 -0.015722695473109647 -0.012451801073116855
-0.018357839816993033 -0.030545142519576997 -0.0020856215071894464
-0.014729105132946207 -0.023023825977662747 -0.0010428080808670666
0.00981486011011092 0.04073385188072881 -0.0020856215071894373
0.012874292543858593 0.012043049758821093 -0.01038682433592022
-0.0006647714959291675 0.0417142447918596 -0.0020856215071894373
0.010801436244093033 -0.011550623313317621 -0.009354336961825221
-0.04527070436968438 0.003907602855047322 -0.002085621507189443
0.010159457290355306 0.014560710608980836 5.438690003149213e-09
-0.04822163447881852 0.009713426659422819 -0.001564218336946311
0.023384816088646426 0.008495363947534943 -0.00034759786613751387
-0.017741352211456323 -0.030757874104046044 -0.003159414457636016
-0.017298018699914184 -0.024858140269237366 -6.194978693626813e-05
-0.0011190987190003463 -0.0064181843134683446 -0.0005213977315531312
0.047468491127021124 -0.011059464194430655 -0.0021269263376635255
0.025844277115307485 -0.014769995954059263 -0.012451801073116855
0.03953680905117308 -0.014300593509942925 -0.0041919025776085
0.03270413287916318 0.016513632515159186 -0.01245180107311685
0.023490038724168657 -0.013698719194883404 -6.194978693626592e-05
-0.017221074275213636 -0.021959358722268126 -0.0015642183369463142
0.01391133529561046 0.010144977265037027 -0.0021269263376635233
0.025049766899883787 0.0028496468720436907 -0.0010428080808670627
0.021404083149458072 0.011361611123124001 -0.002085621507189441
0.02707905163257585 -0.024765368776034417 -0.0008342439535727841
0.03146142215302026 0.015595545106919623 -6.194978693626222e-05
0.02185915833420399 0.010920981618467369 -0.008321848593226903
0.039838278813070956 0.002344621161419692 -0.0017380182334401535
0.01221202529559883 -0.03504541358827458 -0.012451801073116857
-0.00653239650418404 0.018109100643364535 -0.0020856215071894404
0.038390331057774243 0.011975938492501073 -0.012451801073116851
0.009218845452015912 -0.03862345749890862 5.4386899967149775e-09
-0.05085009358195051 0.010013700156880223 -0.008734844935169545
0.04831422740277893 -0.010433335366990646 -0.010386824335920222
-0.008859290204895714 -0.04028061126538414 5.438689996130673e-09
0.0026983802949965365 -0.008019306550119816 -0.0010428080808670644
0.023798649124753078 -0.02493068412727405 5.438689998676434e-09
0.024497882247414976 0.006853747390326432 -0.0017380182334401533
0.02423268110969339 -0.025579906929347303 -6.194978693626734e-05
0.013842511334530645 0.010245241970890337 -0.0041919025776084974
0.026739206522187652 0.008519234452333067 -0.0015642183369463096
0.013066503090781872 0.01958520183883456 -0.0021269263376635225
0.018210241463095026 0.005149256575799029 -0.008321848593226903
0.040278279971133334 0.0014284172556152314 -0.0031594144576360113
0.0256573799671772 0.00941843944527266 -6.194978693626309e-05
0.02674093364432554 0.0064478870071861035 -0.004708141292139426
0.01775983705877469 0.004062780544930995 -0.0015642183369463103
0.01903753800604132 -0.018616322656322362 5.438689999336723e-09
0.023518219393685782 -0.015289414691813686 -0.0006952047449613198
0.018846828784271397 0.022126761103084366 -0.009354336961825216
0.017326495368348165 0.007762354646942128 -0.010799817694352917
0.01498182667530199 -0.009695494760229576 -0.0010428080808670644
0.011873764183785355 -0.013403776960623115 -0.0013035096659886308
0.028273707966421865 0.0028425474419037796 -0.004191902577608498
0.02374984220528613 0.011011340116107781 -0.0018249199220678751
0.005584685593640225 -0.023163581682363526 -0.012451801073116857
0.025881096851769297 -0.02196463558988006 -0.0031594144576360143
0.018295340993172413 0.005345466905774744 -0.008321848593226903
0.03709413647385999 -0.014668220527494221 -0.0010428080808670647
0.03523443291361524 -0.02062282383279074 -0.0005213977315531321
-0.010945913091727237 -0.03900398026967486 -0.0015642183369463161
0.04924608693699475 -0.012480237119253817 -0.0005213977315531308
-0.04486722405355374 0.013752187817703801 -0.012451801073116853
0.031188036115157247 0.009094679570553411 -0.0010428080808670618
-0.01929542581269895 0.016791447939236946 -0.012451801073116851
-0.0160768765054192 0.014409249255392631 -0.0021269263376635238
0.004629830288124084 -0.018682269378377987 -0.009354336961825221
0.03679625694321516 0.013176014211610873 -0.01038682433592022
-0.011658981996113406 -0.01794113595729646 -0.002085621507189445
0.0249791870195245 0.027602748871662128 -0.002126926337663521
-0.004885384859989359 0.03231761627170894 -0.0015642183369463075
-0.03712898587261569 0.016797644582770537 5.438690002413371e-09
-0.0024490886640865846 -0.006570245977354768 -0.001564218336946312
0.010981160359730107 -0.027007354555003527 -0.002126926337663528
0.021316849913512955 0.008797507913462068 -0.0020856215071894412
0.01347599887732032 -0.025546046666646553 -0.012451801073116857
0.03508588707955349 -0.020967513986156924 -0.0010428080808670653
0.02270231008663892 0.008766897133994882 -0.001738018233440153
0.023822286656078537 0.008169935460834271 -0.00034759786613751387
-0.007040878159135944 0.010937912594631024 -0.012451801073116851
-0.022828121823202225 0.01782359326054899 -0.0010428080808670618
0.012320730930939749 0.042906136863295696 -0.0015642183369463057
0.023294861801179102 0.01869937107152329 5.438690003927687e-09
0.003008644091113744 0.040396235787015955 -0.0010428080808670586
0.021590757187344385 -0.017050658106854456 -0.012451801073116855
0.040968702384528 -0.01565193185850316 -0.003159414457636013
-0.00803530538257172 -0.04343178280236055 -0.0015642183369463166
0.016837630918443626 0.022748445906831206 -6.194978693626166e-05
0.0146000061093808 0.021116607938775584 5.438690004034313e-09
0.01204932585334544 -0.028949398006149714 -0.00044691207494644157
-0.015898902693347414 -0.03186247332672822 -6.194978693626894e-05
0.025317638321381366 0.0034400089221350892 -6.194978693626382e-05
0.03272810461442381 -0.02350556629215479 -0.0005213977315531326
-0.0407537090840743 0.01296873947697752 -0.0005213977315531298
0.012275532657140133 -0.03486191552799192 -0.002126926337663529
0.024265242124578458 0.007551481517862981 -0.001042808080867062
0.01499703976484518 -0.025613889900476687 -0.009354336961825223
-0.01808790161343846 -0.03237352706823597 -0.002085621507189447
-0.0038925786736042902 -0.008872588033509942 -0.010386824335920223
-0.015174128040093908 -0.02466479550063009 -0.0010428080808670668
0.03381702490570241 0.013989545021736705 -0.001340754312368345
0.018245938425922793 0.022448532328068 -0.009354336961825216
0.024113094988312468 -0.024193178823107904 -0.0015642183369463135
0.011353663820211381 -0.013696626338552793 -0.001303509665988631
-0.035942393680778846 0.014390628804770768 5.438690002148309e-09
0.02849047355235478 -0.024712543249652084 -0.0014599327303811147
0.019300284102843884 0.023693050189299125 -6.19497869362615e-05
0.021449545421515465 -0.014509508362194298 -0.0031594144576360134
-0.030656411759755843 -0.0075759773505077906 -6.194978693626634e-05
-0.006642992814792167 -0.010266373097943548 5.438689999797646e-09
0.021116377648047 0.019112297387906787 -0.0010428080808670608
0.014851659843265497 -0.03270480783044556 5.438689997548578e-09
0.019110300364086858 0.02143971879441752 -0.0003475978661375124
0.02184414519785625 0.010921538460049044 -0.012451801073116851
0.002840067678780217 -0.007824320847936071 -0.0019118181299339991
0.01283536967406845 -0.028807946468300778 -0.001390411354616355
-0.04961220919564568 0.00831331969769557 -0.006256875336791873
0.024272544623396678 0.02089138616828663 -0.0020856215071894395
-0.03737306044379092 -0.005187649981968716 5.438689999756663e-09
0.023342156014123566 -0.014051916068254894 -0.008321848593226907
0.006307012981560256 -0.015201135705265535 -0.003159414457636014
0.046268105708281645 -0.011847324584851077 -0.010386824335920222
-0.04788938574411967 0.009926301237507188 -0.0010428080808670634
0.011000765901489467 0.042609145831440313 -6.19497869362594e-05
0.021420679997909777 0.009331205453144965 -0.0041919025776084974
0.036268199186921146 -0.019265337295724924 -0.006256875336791875
0.013652812666780019 -0.012411289042964152 -0.0014385995154688393
0.03065301676659542 0.006597122137470497 -0.012451801073116851
0.04528372330285708 -0.00025006013339707466 -0.009354336961825218
-0.0008871912097809932 -0.006392546257287133 -0.0005213977315531312
0.02765508482884165 -0.021873602485432585 -0.006256875336791875
0.05096495657856184 -0.010995813669862398 5.43869000093475e-09
0.013568415174611763 0.011799037522573705 -0.002085621507189441
0.03454788848297745 0.013777551681410555 -0.00014896944851966725
0.023908834524939814 0.010978777334859323 -0.0018249199220678751
0.03252402045175743 0.005369772417476981 -0.0005213977315531291
0.002000074573283748 -0.007914191542815955 -0.006256875336791874
0.023295284697570584 0.011097109647311363 -0.0015642183369463094
0.011547219860821339 -0.011210135590557897 -6.194978693626588e-05
0.042894147060268006 -0.01572956161606137 -0.0015642183369463122
0.031242944287758256 -0.024681946206717938 -0.006256875336791876
0.02199964271290737 0.011306810432925248 -0.0005213977315531286
-0.017467071142201068 -0.032563444533289236 -0.012451801073116857
0.015412005382573233 -0.010870654184169458 -0.011212815030798877
-0.003952817315722528 -0.009304778376408121 -0.011212815030798877
0.01700963882243385 0.024256853653224927 -0.01245180107311685
0.003995746829863807 -0.02395970790746968 -0.012451801073116857
-0.04664476917966013 0.010608782284601988 -0.0010428080808670634
0.03711727590204594 -0.02168127012439599 -6.19497869362666e-05
0.014002703708248822 -0.015192887012298525 -0.003159414457636014
0.01913737940237139 0.010189239979369318 -6.194978693626313e-05
-0.0059747969548629605 -0.009661924542982576 -0.002085621507189444
-0.008170843987401644 0.022378780333089997 -0.001042808080867061
0.03463577617295548 0.013739379647820384 -0.000521397731553128
0.022110220204945602 -0.011612837348104204 -0.0017380182334401555
0.018790772566006822 0.005136997215964913 -0.00156421833694631
0.0014867939462898559 0.042627822986998264 -0.0013904113546163465
0.02262466312207231 0.009290103730050995 -6.194978693626317e-05
0.012432516910194065 -0.013122562018095195 -0.002085621507189444
0.0359685415049684 -0.023434267205323867 -0.0031594144576360143
0.02676337284050418 -0.017863959884598803 -0.006256875336791875
0.015896544971188708 -0.012290682715292725 -0.0010428080808670647
0.03797660591674444 0.012383596507111865 -0.01038682433592022
-0.005818230792116342 -0.041856972574882016 -0.012451801073116858
-0.017046713051988134 -0.023641038524526033 -6.194978693626798e-05
0.034166818692070576 0.013927735659648777 -0.00029794433572933807
0.019200369309057486 0.0063756895682838665 -0.0017380182334401535
0.025028915067949607 0.006669847979221498 -0.012451801073116851
0.04750751398893685 -0.013673512392743436 -0.0015642183369463118
-0.028471415387124794 -0.008176153276578018 -0.006256875336791875
-0.043554098908883766 0.011959367262181608 5.43869000169322e-09
-0.014990859734631828 -0.03475048449215583 -0.0031594144576360165
0.02845380460554991 0.002360707104793724 -0.0013035096659886286
0.028826814976176583 -0.01665808501624299 5.438689999781071e-09
0.028526155958665474 0.002369114448329952 -0.0013035096659886286
0.024072895837085048 0.00859628464931537 -0.0041919025776084974
-0.0030699805222274643 0.03595531270160267 -0.0010428080808670592
0.014108902629416591 -0.036157388244078714 -0.0010428080808670677
0.00287078961676556 -0.007766663532533298 -0.0012166079773609081
-0.04961220919564568 0.008313319697695571 -0.011212815030798875
0.025691493634957638 0.0031165215886216156 -0.009354336961825218
0.015481883468238413 0.024103108992757836 -0.003159414457636009
-0.012112925561467721 -0.03800255154498159 -0.0020856215071894473
0.003969480141178569 -0.02594086412312323 -0.0017380182334401576
0.021381507030713363 -0.017882213323637416 -0.0010428080808670653
-0.04502583378410755 0.0030812447168657485 -0.012451801073116853
0.01995970592482708 0.036126745859543015 5.438690005958576e-09
0.01964084421726499 0.02092802100550646 5.438690004118766e-09
0.01684796620792427 0.02477040163183893 -0.002085621507189439
0.04597502844110641 -0.014561015646048349 -0.0005213977315531312
0.03297797805460974 0.01695344880726305 -0.0005213977315531277
0.04568090018812063 -0.012198195025464464 -0.010386824335920222
0.03446352987621356 0.013813184756353986 -0.0006703726187627988
-0.0021976801489704983 0.015898912282017078 5.438690003047822e-09
0.0042832667885764324 -0.025255588913580127 -0.012451801073116857
-0.01212592635756049 -0.04067864715893329 -0.009354336961825225
0.017549978159036313 -0.01792877892530323 -0.004191902577608501
-0.016040290122661068 -0.009696649023720968 -6.194978693626627e-05
