ply
format ascii 1.0
element vertex 742
property float x
property float y
property float z
end_header
0.02174521455724513 0.022662085825893526 -0.0015917646065992939
0.006042516201523482 -0.003292715605233148 -0.0005305796738501736
0.01865933869321283 -0.0017133558707779894 -0.0001061129619707961
0.017211914824969143 0.03300546725954941 -0.001743359404530798
0.027837647943235705 -0.01018915235779473 -0.012671080352693006
-0.027550557281068738 0.0327109911879578 -0.0007074474715145154
0.02860698912744378 -0.014281484376883672 -0.0012127705276531971
0.028063563637648392 0.004540064293000075 -0.0006367018072228788
-0.010247569673479211 0.004032770095445299 5.534466670867853e-09
0.019729719632827138 0.03646964170804857 -0.0015917646065992924
0.008249678137758612 0.0178765710655624 -0.012671080352693001
-0.003666896054182924 0.020767625384698625 -0.0015917646065992926
0.026043393960704674 -0.013085761375033863 -0.001591764606599298
0.019168161089920845 0.0015641580264671696 -0.005106258595213447
0.017252794407363662 0.019342766569294807 -0.00794306454048161
0.02075576393874565 0.03445308625018278 -0.0074177276510949885
0.002699657997403179 -0.009531340646624803 -0.010569738867247096
0.0004012309257218853 -0.021999129739405442 -0.012671080352693005
0.006635553362631488 -0.036707434260294734 -0.0005305796738501771
0.01061645644035973 0.0149916372226175 -0.012671080352693001
-0.025524850475398642 0.016936639956700156 -0.002122349814916134
0.021065442841954433 -0.01745526597684957 -0.009519069136540903
0.01655857833799447 -0.007752326679279411 -0.003215052523333082
-0.04390731667468377 -0.023846317493287424 -0.0005305796738501727
0.041725619939323624 0.004952939844200524 -6.304073792155103e-05
0.0049194688426570194 0.02862147581366627 -0.0018570572107577134
0.04386892077599282 0.006777911951563434 -0.0007074474715145226
-0.02180291668874381 0.016554199562799753 -0.0005305796738501697
-0.038899339979619044 -0.026972576449417678 -0.012671080352693003
0.02225721588751978 -0.038461742054943925 -6.304073792155445e-05
0.03152909914272405 0.007135266282033453 -0.0010611721876630207
0.032932633560725566 -0.02153176329516444 -0.009519069136540903
0.03084169847271558 -0.012126817679394405 -0.0021223498149161406
0.021402313258495845 -0.03939456477776793 -0.0015917646065993004
0.026814440552269867 -0.01582074693905892 -0.003215052523333084
0.000566737153932535 -0.019436880715812517 -0.0063670604504307065
0.017461461925341915 0.03318127486598848 -0.001743359404530798
0.017789549312345346 0.03242409564929035 5.5344666721621886e-09
0.030088242258843337 -0.03356683758789149 -0.012671080352693008
0.0028908760749412304 -0.025035484242413326 5.534466666980448e-09
-0.0007859001879311258 0.03807311079443088 -0.012671080352693
0.0022328549934210683 -0.02393608514072029 -0.012671080352693006
0.022059540317389183 -0.000758430739545985 5.53446666838147e-09
-0.007331884741218891 0.004770969018294839 5.53446667076761e-09
-0.015512078377681052 0.009274891467555871 -0.0010611721876630177
0.022869302192137134 -0.015986106032311435 -0.012671080352693006
0.016441066047203145 0.03282346169828819 -0.011410275461425456
-0.006807423919447592 -0.016510080718895634 -0.0063670604504307065
-0.026817079169785766 0.03405735979202236 -0.001768625162018681
0.004062925169887849 0.014724104444369205 -0.0021223498149161362
0.02753126922091558 -0.014961665155226678 -0.003215052523333084
0.018500320263127333 0.027214341309642672 5.534466671566132e-09
0.019077017073316598 0.002206464374029668 -0.0007074474715145216
0.031808710002632405 -0.028426546937996178 -0.00636706045043071
0.0035708489855668067 -0.027564543445756977 5.534466666670586e-09
-0.039523485014473884 -0.015387414945540218 5.534466670600829e-09
0.01891211090099975 -0.001888264414782185 -0.0016978794977270445
0.004775495765190065 0.028627167054624092 -0.002122349814916135
-0.04233896589430033 -0.028285119912865458 -6.30407379215494e-05
0.017970937638590978 -0.0015681865170310558 -0.008468398393817947
0.03863232054271688 0.013358003572118521 -0.0013264647918214418
0.016608763291864538 -0.014315671080984079 5.534466667277387e-09
0.04328506877177182 0.02103011724257034 -0.002122349814916138
0.007610279969604905 0.018258633635825975 -0.0007074474715145191
0.007479503526330199 0.016372493295227535 -0.004265723013051843
0.03212234922978673 0.006149102282963462 -0.0032150525233330817
0.017461461925341915 0.03318127486598848 -0.0006063807097511632
-0.0035910841378323844 -0.01579340997984828 -0.0063670604504307065
0.03134794533268128 0.029023276044701354 -0.010569738867247092
0.02696244192036334 -0.0163809063323836 -0.0014148968405604744
0.025591399429732608 0.003000177812713962 -0.002122349814916139
0.019304633849962588 -0.002242408414384285 -0.0013795240716656986
0.037329089623054694 -0.00158251802751019 -0.00063670180722288
0.018640698927946845 0.0023772843620313458 -0.0021223498149161384
0.017523986900073462 0.033205916954930866 -0.0008337764487070902
0.011857241276422523 0.021633851595752845 -0.0010611721876630181
0.020524594064015578 0.020341062642754714 -0.0005305796738501719
0.009433568777620027 0.014227594595419267 -0.0021223498149161367
0.018934503217821783 -0.0400203952781135 5.534466664408796e-09
0.032787586387972086 0.006348681140419921 -0.001061172187663021
-0.022215625043040872 0.017073627156583702 5.534466672983766e-09
0.016141083222817786 0.019634098108151043 -0.0017686251620186852
0.004396611610532936 -0.029331032644255548 -0.002122349814916141
0.017209055844341226 0.035325371070824445 -0.012671080352693
0.02809148222949194 0.007698319417972692 -0.0010611721876630205
0.027630199699627586 -0.01480214293834718 -0.003215052523333084
0.017791034554960478 0.01862610328999545 -0.0018570572107577154
0.01612977497357144 0.023656032751048692 -0.0010611721876630181
-0.03616160946651847 -0.029325433256956326 -0.0021223498149161384
0.028079609546793602 0.004277297863127266 -0.0019101164906019737
0.02039885870049521 -0.00013010745552672872 -0.006367060450430706
0.028573902532238484 0.0025824787671093782 -0.0010611721876630212
0.03627623663876449 -0.0001637865437497631 -0.006367060450430707
0.001397990279469112 -0.010860418341873552 -0.012671080352693005
-0.002256017161717889 0.030286344278674004 -0.012671080352693
0.018461834923700966 0.02192228205806881 -0.0007958795835045971
0.04027466102163598 0.008671443046383084 -0.0021223498149161393
0.027465823918457505 0.0052505305717186505 -0.010569738867247096
-0.0023216687313969623 0.024543658834863143 -0.0007074474715145179
0.002048930696678816 0.029091303573460025 5.534466672772555e-09
0.014914613410058404 -0.008275431893907254 -0.012671080352693005
0.002019691261063157 0.03385195473545405 -0.004265723013051841
0.00918691122539339 0.022805831752782387 -0.001591764606599293
0.03884810871976687 -0.0007742499382663308 -0.003215052523333083
-0.029537520292433814 -0.0010880167389031436 5.534466671505924e-09
0.025458259816792263 0.005686728473745028 -0.004265723013051845
0.03689460733895728 -0.00047917119398587307 -0.00035371915005630766
0.019124445301217614 0.03364685727534314 -0.0004547823065099415
0.00865614157659002 0.016356661752075265 -0.012671080352693001
0.028079609546793602 0.004277297863127266 -0.0014856425048521153
0.0005849840208017142 0.029612769258158377 -0.0032150525233330773
0.034689572723542075 -0.000798711295946325 -0.0032150525233330825
0.04408363211004254 0.023979716380896438 -0.0015917646065992952
0.02531026158985585 0.006274119845571474 -0.0014148968405604718
0.00430223945766851 -0.013059735085412492 -0.0010611721876630214
0.01075098144729852 0.014489092531192025 -0.0005305796738501719
0.0044520833514077535 -0.01258059622755483 -0.0015917646065992965
0.021516769141162097 -0.015254524082036036 -0.00035371915005630826
0.021878509528588663 -0.0030999264803778744 -0.0021643820336143178
0.043357840510901614 0.005746166785957487 -6.304073792155105e-05
0.02216743413664088 -0.03849940040530469 -0.003215052523333086
-0.0013853278600916737 0.006227812654542297 -0.0021223498149161367
-0.0019916817399563626 0.02260467564652231 -0.012671080352693001
0.0031636068679150435 -0.009391415374721603 -0.006367060450430706
0.014913890917307068 -0.010677467306453293 -0.0021223498149161397
0.005640783666245834 0.031139896730274466 5.534466672769887e-09
0.01677886640199093 0.01899489627541247 -0.0007074474715145196
0.024363779930972468 0.03340730987283551 -0.00035371915005630327
-0.0008604370927739022 0.029293323690802488 -0.012671080352693
-0.02787713464116088 0.02988934477497801 -0.012671080352692998
-0.003931145300015325 0.040392403905232056 -0.012671080352692998
0.017276368239335017 0.03309092295967295 -0.0015917646065992926
-0.025545789551905392 0.022218647812584057 -0.009519069136540896
0.044018549899805866 0.016233492320443934 -0.0010611721876630205
0.01230727905833401 -0.03740675051637003 -0.012671080352693008
0.026504721097749335 -0.013297424838295045 -0.012671080352693006
0.0024689035655216006 -0.009761812193985753 -0.012671080352693005
0.019221382772731114 -0.0021612943476734398 -0.002016231381729722
-0.016606974962787808 0.002165267586974872 -0.0021223498149161362
0.029595939235209822 0.028582242116837877 -0.003215052523333079
0.017471837479770467 0.01924626795655685 -0.001639044764721408
0.007465029052032521 -0.034353277452445874 -0.006367060450430709
0.03529284940879447 0.002294430318480539 -6.304073792155092e-05
0.03918398633320457 0.02935162569020025 -0.012671080352693003
0.03647398494455983 -0.0010267566371061788 -0.006367060450430707
0.01731436785277963 0.0014310798807333717 -0.0021223498149161384
0.023880364103877613 -0.003075519359228206 -0.0063670604504307065
0.04022338677080952 0.0016605745468344392 -0.001061172187663022
0.044056340215371574 0.023839618497628782 -0.0015917646065992952
-0.02558247644439603 -0.001198326039817361 -0.008468398393817944
-0.025673588775941284 0.03572337127207725 -0.0015917646065992895
0.01413580793901576 0.022216608205327934 -0.0021643820336143147
0.0003799110199432192 0.01912341105975707 -0.002164382033614314
0.019053626417474392 -0.016303748533498398 -0.0032150525233330834
0.013396863725454544 -0.03941040613161149 -0.0032150525233330856
-0.020201785678344703 -0.027092895900478503 -0.0010611721876630214
0.017928044203410865 0.019222005210570235 -0.00794306454048161
0.007318111032474178 -0.0041765792029497435 -0.0015917646065992958
0.03555993329495791 0.003138822818103183 -0.001591764606599297
0.006131824888584854 -0.006560997848629075 -0.004265723013051845
0.016857661321928393 0.01965159368039676 -0.00794306454048161
0.04408128036788878 0.021873499980133302 -0.008468398393817946
0.01409769239212902 0.03216863345539172 -0.0014148968405604684
0.005373585769616758 0.031873201047388375 -0.0010611721876630166
0.005911557088373154 0.0289657361223728 -0.002122349814916135
0.005528323698032558 0.03146517659845866 5.534466672811271e-09
-0.005194534820142896 0.02524414468351368 -0.0021223498149161345
0.03998861214070324 0.0012900196454584427 -0.0014856425048521164
0.041191634347119095 0.004235302526501134 5.5344666677395905e-09
0.010209145605244253 0.014327683488925139 -0.0010611721876630188
0.03310845344427748 0.0018615415792177432 -0.0021223498149161393
0.03851194531269966 0.013071437178544114 5.534466668840813e-09
0.03697430721178953 -0.0007951603544684925 -0.0001768586262624402
-0.01598366704220808 0.04272752715627501 -0.0015917646065992895
-0.016804559223716573 -0.025559811709478124 -0.0010611721876630214
-0.02114097187511757 0.0392905884789813 -0.009519069136540895
-0.01870757094920555 0.03835094710958357 5.534466675025579e-09
0.030513098474803498 0.026889972333545537 -0.0017686251620186852
0.03134476784857478 -0.01697100121804597 -0.006367060450430708
0.008447729117048018 -0.03523749040285457 -0.012671080352693006
0.010808800770572455 0.015992341355358135 -0.004265723013051843
-0.02171202098890374 0.012633380905919782 5.534466672482008e-09
0.023894973158830986 -0.0009245983308891474 -0.0007958795835045998
0.04567952333471408 0.02773151472718184 -0.0005305796738501727
0.0182901896290762 -0.002066127881659969 -0.001061172187663021
0.01424806897122127 0.032868759650746336 -6.304073792154638e-05
0.010395705278355557 -0.03595663824878958 -0.0015917646065992995
0.006575405336842865 -0.00391055324801716 -6.304073792154981e-05
0.023686229417714012 -0.0009912440499860462 -0.0005305796738501743
0.018430253594101352 0.021209355666963674 -0.008468398393817944
0.005719663352410816 -0.031496352102708854 -0.0021223498149161414
-0.009822474080658141 -0.020841535702044136 -0.0063670604504307065
-0.014332407494834744 0.041135035995132976 -0.012671080352692998
-0.009909665793415824 0.043549282926563654 -6.304073792154377e-05
0.021315269267891183 0.03612545549667925 -6.304073792154648e-05
0.019364150696458096 0.01999579148015542 -0.010569738867247092
0.028445347558034597 0.03312743163544589 -6.304073792154722e-05
0.024873390917852786 0.03561059260949499 -0.009519069136540898
-0.03144612037359676 -0.02648555794897281 -0.0021223498149161384
0.018504551865867355 -0.012119807628760103 -0.001061172187663022
-0.04229134980944611 -0.028898869806856093 -0.00106117218766302
0.0026812757105035808 -0.010663088104752057 -0.0032150525233330817
0.006624299068268188 0.016495573771364017 -0.012671080352693001
0.03870753182651157 -0.0002710841635926447 -0.0006367018072228799
0.01354250287004986 0.022400621507894628 -0.010569738867247092
0.044183252422214374 0.02798802068404056 -0.012671080352693003
-0.007664028791082481 0.04337742984114177 -0.012671080352692998
0.045230361804767916 0.02809565951947474 -0.0010611721876630194
0.03293084018853171 0.02914100627657647 -0.0032150525233330795
0.008504896834626885 0.017176297166497677 -6.30407379215477e-05
0.008519794265816902 -0.03740900348224928 -0.0032150525233330847
0.04320214657773787 0.020784156722827914 -0.002122349814916138
0.0028221723343427796 -0.03077521080967215 -0.006367060450430708
-0.023609463772996872 0.034915996898013786 -6.304073792154385e-05
0.0390850762688922 0.01120300260971659 -0.0017686251620186875
0.03725931110397976 -0.001606963453952382 -0.0016978794977270456
0.029228212100223715 0.028301985550321047 -0.00035371915005630414
0.014759280980575098 -0.010114705550968741 -0.0010611721876630216
0.018639707077127383 -0.0006525728512722252 -0.006367060450430706
0.005422654960331697 0.029810649000756834 -0.012671080352693
0.018697553091446825 0.022197983816288652 -0.001857057210757715
0.020944114283861268 0.033972849219972234 -0.0011369694601266747
0.01947790650064942 0.02008043324910773 -0.004265723013051843
0.028885445110481182 0.028810188311752343 -0.001768625162018685
0.014364452614110705 0.024026545765500982 -0.004791052818321127
-0.012003702265567991 -0.022842076463366057 5.5344666681251055e-09
0.029428650890047012 0.028015423042410875 -0.0021223498149161362
0.004188790038741166 0.03439428792145475 -0.0007074474715145173
0.0012440094651920998 0.029202327941270444 5.534466672833618e-09
0.026017923044711365 0.032443529896587844 -0.001591764606599293
0.016754299178015963 0.0005581514107982773 -0.0007074474715145216
-0.0005110233099271057 -0.01351493395777215 -0.001061172187663021
0.028987162970897495 -0.014186332098703569 -0.0003537191500563086
0.03427400981798091 -0.019626006612538827 -0.012671080352693006
0.032275596945058056 -0.018907806378179882 -0.00216438203361432
0.00988441103874607 0.02280213183488027 -0.012671080352693001
0.01934346478044467 0.001372978430372355 -0.01014946955814115
0.027788951260570034 0.007118058360661915 -0.0032150525233330812
-0.004180593695794605 0.02318174628851916 -0.0032150525233330778
0.002905390847025001 0.029386737470551053 -0.012671080352693
0.038876244660031534 0.013761911303711153 -0.0015917646065992958
0.003091260421023336 -0.00960152036854684 -0.0013238461984485252
0.005690665443587005 0.030983815531350392 -0.0021223498149161345
-0.021929310288868357 0.036681296879887006 -0.003215052523333075
-0.01360431301413783 0.0430060674846751 -0.012671080352692998
0.03921459542486969 0.010913324952690302 5.5344666685689036e-09
0.022499901976267625 -0.015520946015067911 -0.00035371915005630837
-0.014655742143707134 0.04266947521836339 -0.012671080352692998
0.02554086558360339 -0.00042653535020142355 -6.304073792155061e-05
0.02573076338378088 -0.0023069061178397333 -0.010569738867247096
0.04101830537387537 0.003492411197159585 -0.0018570572107577184
0.027692646150045176 0.005410564132268939 -0.0021643820336143173
0.03138410299730781 0.029002862375681733 -0.008468398393817944
0.011474385483833054 0.021408896138810186 -0.0014148968405604694
0.0008007120254059786 -0.015375632472212944 -0.0010611721876630214
0.01973810548341302 0.029372084533378296 -6.304073792154709e-05
0.016609284096540968 -0.008257758322322124 -0.009519069136540902
0.02955793392174366 -0.013990812003879083 -0.0021643820336143195
0.03301152469858514 0.002982131575535386 -6.304073792155071e-05
-0.018332956525848976 -0.02350394418755758 -0.002122349814916139
0.03528676806686175 -0.023140169899282147 5.5344666651977844e-09
-0.043048831768327946 -0.020640502856470424 -6.304073792154855e-05
-0.016595903144983538 0.012699312377672385 5.534466672175729e-09
0.009271373148825274 0.0228708566062333 -0.0010611721876630177
0.009903870924117368 0.02329947604871854 -0.000530579673850171
0.014436332830029716 0.021497858077852174 -0.0007074474715145192
0.008139818479355826 -0.034278857297480335 5.534466665678714e-09
0.011802612172162335 -0.03666688888821637 5.5344666652011634e-09
-0.03994411831020942 -0.02860018912640942 -0.006367060450430706
0.006374190337667413 -0.0032894144866061417 -0.0014148968405604716
-0.0027573497258607006 0.009134489393165407 -0.0010611721876630186
0.021151574633582887 0.03399580061362464 -0.0006063807097511634
-0.02866006084176717 0.02848576446373342 -0.0021223498149161328
0.02006245489973811 -0.017625337292959935 -0.0010611721876630227
-0.0002880783939472284 0.020702375196850684 -0.0005305796738501706
0.020794415470233543 -0.002651157799242195 -0.012671080352693005
-0.04292864676797003 -0.025928977338779566 -0.0005305796738501729
-0.013832170211371337 -0.021630058678446088 -6.304073792155045e-05
-0.027954585180627194 0.03164032846876559 -0.0010611721876630147
0.018773738184578507 0.021473062454665865 -0.012671080352693001
0.03262682857166703 0.02745817532790136 -0.0047910528183211275
0.01799851273599478 0.01923666954834407 -0.012671080352693001
-0.026713989059451236 0.019098123600261082 5.534466673473924e-09
0.034695512454558285 -0.003365418322947042 5.5344666673312495e-09
-0.021231886040046985 0.012264088469714725 -0.001061172187663017
-0.005422412812591842 0.00522821464615569 -0.0005305796738501719
-0.0029629717773819028 0.026090103533838917 -0.012671080352693
0.016756991864658732 -0.004893739236095698 -0.0063670604504307065
-0.01160876599586789 0.041737397800296096 -0.009519069136540895
0.018810967310489257 0.027705453262961102 -0.0032150525233330786
0.01878042664771359 -0.001788986042995197 -0.00021222782147302055
-0.023569298424229872 0.019164371560419717 -0.002122349814916134
0.03101841505536954 0.02727501496061571 -0.012671080352693001
0.0272545169935516 0.004900830695287986 -0.012671080352693005
0.00158058608602632 -0.012151673155262445 -0.0017686251620186875
0.010895474857705778 0.01552722923945518 -0.012671080352693001
0.026762081299476402 -0.01655700933413313 -0.000707447471514524
0.01797197632492967 0.020991988993393895 -0.007627862305647962
0.017892418947431397 0.01865419910509329 -0.00026528706969175064
0.016212947208515516 0.0356041415102472 5.534466672595995e-09
0.007552734692651743 -0.0337121636468953 -0.001591764606599299
0.006738714725009111 -0.004849109186252524 -6.304073792154992e-05
-0.017837218141582293 0.04184115391341398 -0.002122349814916132
-0.025095837900169216 0.03648458340434891 -0.0015917646065992895
0.018329462848782167 -0.037884845504088424 -0.00636706045043071
0.020457247945763743 -0.015255218427719245 -0.009519069136540903
0.010653344592386007 0.016451388929895994 -0.010569738867247092
0.021843668908458316 -0.015381797153719162 -0.0007074474715145235
0.005014222067891716 0.032719495345032754 5.534466672975781e-09
-0.0035320663274297512 0.04270133087732286 -0.000530579673850168
0.00323896749047943 -0.009149870779083545 -0.008888667702923892
0.037084964563942543 -0.001192822546664904 -0.0015917646065992973
0.0138629084158918 0.024594632291863403 -0.0007958795835045965
0.0270814709873834 -0.0339396161419037 -0.0032150525233330856
0.04333425913300049 0.00442275566183294 -6.304073792155118e-05
0.017371942049272702 0.03370933292987547 -0.010569738867247092
-0.005554132551508836 0.04109038297236126 -0.0032150525233330756
0.016111630301810412 0.02297703662136562 -0.012671080352693001
-0.026176038296032107 0.035012416814626524 -0.0015917646065992895
0.018883548724984666 0.03359176582522921 -0.00022739020448925472
0.020061879131957738 0.0012898201136664592 5.534466668721024e-09
0.023967517946726264 -0.0008952288616713912 -0.0015917646065992965
0.013986104720246471 0.032316052469049124 -0.000707447471514518
0.00574284134658924 0.03080918370077565 -0.0003537191500563024
0.01807640606354769 0.01872141820777658 5.5344666706913514e-09
0.027933691033111042 0.0006117744106930131 -0.010569738867247096
0.027470598165302826 -0.01062339262421005 -0.009519069136540903
0.000806376558980863 0.03877579788836929 -0.008468398393817942
0.0196485988315991 0.023748231715749118 -0.0021643820336143147
-0.0011201952302755803 0.006303480555593478 -0.001061172187663019
0.025389824523861425 0.004634751146446545 -6.304073792155006e-05
0.0009671158134735206 0.016608624507550476 -6.304073792154729e-05
0.010594553593887616 0.02128542045188069 -0.0042657230130518425
0.011155664361117985 0.024032446572119597 -0.000530579673850171
-0.01043034559952483 0.041825113325399975 -0.009519069136540895
0.005477246118974005 -0.031142693442602135 -0.0010611721876630233
-0.03490154846276182 -0.029303531831796882 -0.0010611721876630205
0.018227767100816434 0.0023453292669109375 -0.0017686251620186871
0.019127448978016413 0.023343481477331656 -0.001857057210757715
0.011195497381247276 0.02118407925743095 -0.002122349814916136
0.017188282646529853 -0.0054473887162920015 -0.0021223498149161393
0.012247479803960508 0.023967895086222494 -0.008468398393817944
0.04386377220664013 0.004087230292615542 -0.0010611721876630218
-0.02436913731828099 0.02069160172061746 -0.001061172187663016
0.01722081776305123 -0.014091127455803739 -6.304073792155155e-05
0.013415424160354447 0.02192886505401143 -0.0010611721876630181
0.002970141685164466 0.03522641823188789 -6.304073792154545e-05
0.004112870810248725 0.029189990271371927 -0.004265723013051842
0.025907280312964055 0.006781617737693498 -0.0017686251620186871
0.03247400327888602 -0.030735559325178522 -0.00636706045043071
0.00837627074740039 0.01630806322169296 -0.012671080352693001
0.029874459998164713 0.02819182637621364 -0.0047910528183211275
0.04517790600269219 0.018302698451797998 -0.0015917646065992958
0.04321401078994319 0.0069510519930502754 -0.0063670604504307065
0.02726574084976661 0.004717524651885977 -0.010569738867247096
0.018424841564741036 0.03347883903038853 -0.0008337764487070903
0.003578203498807121 -0.027582285247227837 -0.0003537191500563085
0.02755020828216819 -0.0003803008546577579 -6.304073792155072e-05
0.0148456489887195 -0.007499994770827655 -0.0063670604504307065
-0.03721139324437153 -0.0110426618040997 -6.304073792154789e-05
0.021248910441833146 0.0340046935000761 -0.0018949540759602083
0.02956605828875264 0.007737620294368143 -0.001414896840560472
0.020663701872881836 -0.00042208535628483106 -0.009519069136540902
-0.006079608954849782 -0.01515821040038276 -0.002122349814916139
0.03142050240110149 0.028986231895740244 -0.004265723013051843
0.03815993537096048 -0.0008490563075833072 5.534466667385994e-09
0.02782309803015158 0.003203648708365803 -0.010569738867247096
0.0030049649080131414 -0.009838963874137421 -0.0076278623056479635
-0.0016353925225197174 0.028086384461176263 -0.001414896840560468
0.021429009508449254 0.03401693816792708 -0.00022739020448925482
0.03421460911280076 -0.026633972345319275 -0.009519069136540905
0.005946737275304593 0.01433861424899085 5.53446667096925e-09
0.028371363283733925 0.005014195903057533 -0.001061172187663021
0.014159491609870383 0.032092286514768156 -0.0003537191500563028
0.01856544586511884 0.03351467853775467 5.534466672230343e-09
0.01857249539428119 -0.0016799907475134636 -0.00021222782147302055
0.02649150265163625 -0.011790775609954647 -0.0013264647918214438
0.0182179524357994 -0.0010670964857034193 -0.010569738867247096
0.021843668908458316 -0.015381797153719162 -0.001414896840560474
0.014068627115419228 0.02171521353293839 -0.0007074474715145192
0.0351304599338759 -0.0029025762874052767 -6.304073792155145e-05
0.013042402150574648 0.022449500433280367 -0.0021643820336143143
0.018383166587049065 -0.016413717838873194 -0.0010611721876630225
0.005832813358159289 -0.008634425592239888 -0.0005305796738501741
0.021151574633582887 0.03399580061362464 -0.0012885679266189441
0.016988266682369337 -0.040240961003528405 -0.0015917646065993002
0.02869888355762473 -0.03473550582753536 -0.00636706045043071
0.015101216172202237 0.03509174752834334 -0.0015917646065992921
0.01956717227897251 -0.002488699291901349 5.534466668350576e-09
0.014701799875581513 0.03484549017384935 5.534466672608065e-09
0.003128548573501883 -0.009494791145607438 -0.008888667702923892
0.014868041664268063 0.023809884355160595 -0.011095072720583425
0.02085337073142171 -0.0026841121054792375 -0.003215052523333082
0.02532358181871257 0.005261130167968671 -0.004265723013051845
-0.003505485361212663 0.042079550909078646 -6.304073792154432e-05
0.03998861214070324 0.0012900196454584427 -0.0007428203036603444
0.0432088344094847 0.026079645633833925 -0.0005305796738501727
0.013824629160136395 0.024600937505960818 5.534466671575265e-09
0.02763914211601322 0.0037099907113121717 -0.006367060450430706
-0.000590837904871052 0.028791390924397652 -0.001414896840560468
0.04530567877209919 0.02729825527437422 -0.012671080352693003
0.03991577369388923 0.0011862655199174439 -0.0019101164906019747
0.014422020710675155 -0.037427883603909355 -0.0021223498149161423
0.037464253642854425 -0.001491544904647698 -0.0015917646065992973
0.016629457311553863 0.0326492119512597 -0.008888667702923889
0.043885020934549254 0.006601518271140398 -0.00035371915005630734
-0.04391099958629904 -0.026065800555184957 -0.0025846480536657825
0.018098595796700614 0.02102944652803552 -0.008888667702923889
0.04064974634623303 0.029677420947003524 5.5344666704711e-09
0.036853988298393266 -0.00030930736775317696 -0.001061172187663022
0.03551514627598082 -0.003922005706008594 -0.009519069136540902
-0.008339307743337854 0.044015647413919314 5.53446667499149e-09
0.027713575801388213 0.00761373194124326 5.534466668923191e-09
0.03852149976310789 0.013108282389387103 -0.0005305796738501738
0.03641959281504986 -0.0007446192405375571 -0.006367060450430707
-0.004976029228053663 0.02400419351906522 -0.0010611721876630168
0.04394257991759275 0.017152660018585505 -0.012671080352693005
0.03530414142331993 0.003563391957927448 -0.0021223498149161393
0.028957983370362577 0.007241528341946204 -0.009519069136540902
-0.0023100752893952265 0.026958638489255806 -0.001414896840560468
0.019526189154470894 0.022832419535095023 -6.304073792154778e-05
-0.04183118773277341 -0.026190186876797788 -0.0015917646065992952
0.024085119430508176 -0.01744007873643722 -0.012671080352693006
0.016089303465493837 0.033233020974102495 -0.009519069136540898
-0.022029049134594685 0.01602401221107555 -0.009519069136540896
0.023965338436113384 -0.035847435773901884 -0.009519069136540905
0.03037081556226628 -0.015247755212573988 -0.0021643820336143195
0.025333477484836626 0.004881809812510716 -0.008468398393817947
-0.0013702516428360679 0.022484725490205148 -0.0017686251620186839
0.01852668766387714 -0.0006306920852428791 -0.006367060450430706
0.024088535793505554 -0.001367776068076217 -0.012671080352693005
0.015044367560194127 -0.009068436278835981 -0.009519069136540902
0.01943034817075605 0.0012688990246794859 -0.0025846480536657833
0.017619981557452168 0.033777567425558666 -0.004265723013051842
0.010673949004435758 0.021371591655968004 -0.012671080352693001
0.04263456755248342 0.015190135492521333 -0.012671080352693005
0.001231496142138811 -0.013637600203047223 -0.0010611721876630212
0.04655244601131175 0.022483445297182398 -0.0005305796738501732
0.018241442423589597 -0.037434335538749273 5.534466664725506e-09
-0.0026240085401376843 0.02753474100562349 -0.009519069136540896
-0.012001219500381055 0.04336030635168225 -0.003215052523333075
0.018330772602118767 -0.015589791999032255 -0.006367060450430707
0.0003168441023686431 0.007113854226376597 -0.0021223498149161367
0.024878454556960614 0.005575143104159792 -0.0021223498149161384
-0.023627164065755817 0.01529038772496089 -6.304073792154594e-05
-0.0007307825117465406 0.021398720806863388 -0.0010611721876630173
0.014708224727366472 -0.00397694434065968 -0.0015917646065992963
0.030054053706833905 0.02722803442468156 -0.0007074474715145195
0.003953946981587057 0.029203980025544307 -6.304073792154614e-05
0.007648031859732699 -0.03749879398377153 -0.0015917646065992995
0.010636615877675632 0.017900425834831667 -0.0007074474715145193
0.03128495189620768 0.027297184584001596 -0.012671080352693001
-0.024834656945652123 -0.028314952217187488 -0.002122349814916139
0.03397137181894213 0.0013218661766570222 -0.003215052523333082
0.004961436239824139 0.032835685107309755 -0.00035371915005630213
0.004772158453263489 -0.03478638644995956 5.534466665831096e-09
0.01739546156741196 -0.014357860797898175 -0.006367060450430707
-0.027365031415790126 0.022211818623250636 -0.012671080352693
-0.0011834555791114879 0.029139502274123805 -6.304073792154584e-05
0.01857249539428119 -0.0016799907475134636 -0.001167286952288674
0.03181021432431483 -0.019035908419136067 -0.0010611721876630236
0.019082684283219107 0.0016466578488039704 -0.005106258595213447
0.01608561788937043 0.03322177119913395 -6.304073792154647e-05
0.007348967619387269 -0.004486297383994201 -0.00026528706969175243
0.008165797988458911 0.016311391566723274 -0.010569738867247092
0.023754750724876518 -0.0009725633761876056 -0.0015917646065992965
0.03045422997491473 0.026914577004994264 -0.0007074474715145196
0.008544653143710761 0.01632022986038028 -6.304073792154779e-05
-0.00013793874625130193 0.007928357912442577 -0.0095190691365409
0.016225963971253567 0.03303780667393321 -0.011410275461425456
0.00453570448381641 -0.0334912850614524 -0.006367060450430708
0.012462039386608366 0.024611174070179306 -0.001326464791821439
0.037329089623054694 -0.00158251802751019 -0.0019101164906019747
0.043414183279535896 0.015347066824388038 5.5344666687819845e-09
0.026140336290731883 0.033045618795504404 -0.010569738867247092
-0.02866557780216065 0.02843782744716178 -0.0010611721876630149
0.015491509921986855 0.023437287978914294 -0.004791052818321127
-0.046170546951588474 -0.022048049624139525 -0.002122349814916137
-0.026842058543155984 0.03287902192588469 -0.012671080352692998
0.007775737056028925 -0.033934549316291744 -0.0005305796738501769
0.01837736574334588 -0.001897738970710415 -0.0018570572107577176
0.013064751177404129 0.02466181966809632 -0.0013264647918214392
0.021874153160149304 -0.01818484810809383 -0.002122349814916141
-0.001994966644627905 0.038504033874155144 5.534466674018464e-09
0.01863904438064728 -0.012343940831595445 -0.0005305796738501753
0.02776652724842928 0.03131039835408139 -0.0032150525233330786
0.04437378450237273 0.022963830408976624 -0.006367060450430705
0.028537494605468314 0.00505996825732792 -0.001061172187663021
0.012062651113573842 0.024486836437624296 -0.00026528706969174967
0.029625805249073395 -0.011298876472334117 -0.0032150525233330834
0.015007987776869175 0.021686378108118135 -0.008468398393817944
0.01755867233934951 0.001761882561491403 -0.0007074474715145215
0.03064405020011389 0.004985223894796294 -0.0021643820336143173
-0.00045206404758715233 0.028862726691629953 -0.00035371915005630224
0.032939508979349275 0.005528395881055449 -0.0021643820336143173
0.005132452405746462 0.01678203134150335 -0.010569738867247092
-0.004554277670775215 -0.0173585499521643 5.534466668250529e-09
0.03753147531684112 -0.001438204375355877 -0.0003183499548457264
0.037404281153913234 -0.0015354765789389255 -0.0019101164906019747
0.04690563333427021 0.024450001774664217 -0.002122349814916138
0.024966665884329484 0.004343842243444743 -0.0021223498149161384
0.023888260702220623 -0.015374242215393498 -0.0010611721876630227
0.006798519798568038 -0.0042887944117351185 -0.006367060450430706
0.01088001702437859 0.020825756182526228 -0.0017686251620186847
0.018211771866867513 0.03342207444774477 -0.001364365325584697
0.034272192402333576 -0.026391168166793398 -0.012671080352693008
0.017213332535051383 0.03303202016213629 -0.002122349814916135
0.02782548274899828 -0.010198980519083616 -0.007943064540481616
0.043941199583306126 0.005674586943714114 -0.0010611721876630218
0.010894530819482466 0.015434159832989363 -0.004265723013051843
0.017809559232368148 0.019207352390466087 -0.011095072720583425
0.018206711092190932 0.02176532679357 5.534466671006202e-09
0.04428796682459108 0.016657779499179792 -0.0015917646065992958
0.04367184393651016 0.020603815681201895 -0.012671080352693003
0.01739546156741196 -0.014357860797898175 -0.009519069136540902
0.01954009619310576 0.025474672161367503 -0.003215052523333079
0.03888005231530832 0.01168305405552124 -0.0017686251620186873
0.004685600180947429 0.029195793853335532 -0.004265723013051842
0.018510968356681638 0.01944431134964953 -0.009519069136540898
0.027214517908287134 -0.010191397743536995 5.534466667065382e-09
0.022971226521579725 -0.01769873986446428 -0.003215052523333084
0.02555738456385833 0.0004694476431777435 -0.0015917646065992965
0.030404665976707705 0.027523758476328763 -0.0032150525233330795
-0.04431559377789849 -0.0258648215052729 -0.001323846198448524
0.035722653175893945 0.02728461928262314 -0.001061172187663019
0.03436648703574773 0.027176860817337233 -0.0021223498149161367
0.009653154482183846 0.014246712110783894 -0.0010611721876630188
0.021375503894532567 0.02425162614354281 -0.003215052523333079
-0.03219912855667191 -0.006279953405872993 5.534466671118256e-09
0.004328421217185458 0.034128491261401196 -0.00035371915005630197
0.03330136940537066 -0.030431104345812865 -0.0010611721876630249
0.023725473616905777 -0.003107915394383762 -6.304073792155079e-05
0.019402217872982314 -0.013441002883960385 5.534466667199102e-09
0.029128948734272783 -0.01435696633129728 -0.00035371915005630864
0.01612977497357144 0.023656032751048692 -0.00026528706969175
0.017227000234071022 0.033051669426579965 -0.0016675620055650452
0.045152527503951656 0.018248133445175473 -0.0021223498149161384
-0.01755191153123174 0.04137657872666973 -0.009519069136540895
0.024443294929491776 -0.01798059055984176 -0.0014148968405604744
0.033886215301252375 -0.017420093202480454 -0.0021223498149161414
0.00840713528767125 0.020904440775084625 -0.0021643820336143143
0.03218630159564907 0.026910555859850596 -0.0007958795835045974
0.0293305346326735 -0.013676695850554999 -0.010569738867247097
0.01814732052341025 0.03391491797138685 -0.009519069136540898
-0.04110028292990179 -0.017003475278586807 -6.304073792154828e-05
-6.878575412981678e-05 0.037185707602891825 -0.002164382033614312
0.027322240726414586 0.005095870506528813 -0.012671080352693005
0.011281199075293619 0.014907376111917186 -0.0021223498149161367
0.016053919426174214 0.019737327329731554 -0.0010611721876630186
0.021997852788868764 -0.015428191333407037 -0.0021223498149161406
0.015891133777497034 -0.013098914571287099 5.534466667450375e-09
0.03276180467211582 -0.031294914720937775 5.534466664487522e-09
0.027013153055247367 -0.011627950694373855 -6.304073792155189e-05
-0.02643927634032716 0.027813860401002553 -6.304073792154443e-05
0.03930860890267614 0.027608874561412245 -6.304073792154848e-05
0.041249099805651945 0.02722204154875024 -6.304073792154863e-05
0.037404281153913234 -0.0015354765789389255 -0.0007428203036603446
-0.002969276701419787 0.025017538596364023 -0.008468398393817942
0.003974135187297169 0.017074222584191702 -0.008468398393817944
-0.020529762349104873 0.011769020314804025 -0.002122349814916135
-0.004345068743357907 0.04304212233706604 -0.0005305796738501679
-0.02675920141412413 -0.026015079703285728 5.534466668692098e-09
0.008681106396721665 0.016471176612174347 -0.002584648053665781
0.038931941693271306 -2.179808747286279e-05 -0.001061172187663022
-0.022882597991540576 0.038032988915211875 -0.0032150525233330747
0.0351869358774823 -0.0031026941935554764 -0.006367060450430707
0.03080092445984974 0.02684079473851621 -0.001591764606599294
0.01782492503837413 0.029188911835561698 -0.003215052523333078
-0.027502679378610475 0.00010531062762679864 5.534466671507887e-09
0.018211771866867513 0.03342207444774477 -0.001743359404530798
0.005982471698168366 -0.00691855284164836 -0.010569738867247096
0.01681873819834679 0.033545122796025804 -0.005316390213716128
0.029205815082210946 0.005577286929708425 -6.304073792155019e-05
0.01965357643342979 0.02390385248089492 -0.010569738867247092
0.02957478478103465 0.027813803131387538 5.534466670951595e-09
-0.017391360033829052 0.03910917908601383 -0.0010611721876630145
0.01898462180273634 -0.001947895752147666 -0.0018039943888547927
0.04457424534610803 0.023934616001214257 -0.006367060450430705
0.018172862283388908 -0.01255698316844749 -0.012671080352693005
-0.0007108014242967109 0.0379917422629751 -0.01056973886724709
0.017211914824969143 0.03300546725954941 -0.0015917646065992926
-0.013380539332872572 -0.02365078408372663 -0.0021223498149161393
0.03696467214767916 0.02949953538209544 -6.304073792154813e-05
-0.03617383957439246 -0.027066405758333776 -6.304073792154965e-05
-0.027265099561997325 0.033293271825101424 -0.0021223498149161323
0.018429882599189318 -0.0018092115643250802 -0.0007958795835045996
0.04685047803960013 0.025652882288844877 -0.0005305796738501729
0.01378088447052431 0.021835998767051133 5.534466671284701e-09
-0.03397917927306558 -0.02927311910235463 5.534466668788655e-09
0.009326490251122853 -0.03589995241690612 -0.006367060450430709
0.04414254466100838 0.02436412497067493 -0.0010611721876630199
0.04187613491506904 0.0003086856041601647 -6.304073792155153e-05
-0.024895894533225094 0.03309633920530168 -0.003215052523333075
0.013977352478368529 0.024109672627682124 -0.0021643820336143143
0.027692646150045176 0.005410564132268939 -0.006367060450430706
-0.0003173486113735662 0.02892730210994899 -0.001414896840560468
0.02517958711263137 -0.03515406418279266 -0.0032150525233330856
0.03810297387772416 -0.0015159260670334007 -0.006367060450430707
0.03689460733895728 -0.00047917119398587307 -0.00017685862626244013
-0.04398304789216779 -0.026032309333064923 -0.006367060450430705
0.0007143012019409095 0.03966769385622958 -0.0010611721876630155
0.032781090880919204 -0.01625351405182 -0.006367060450430708
0.016912221558482217 0.01889310433268236 5.534466670780846e-09
0.03121676508785835 -0.012754924492473096 -0.001061172187663023
-0.0006111376975919888 0.007110993040405109 -6.304073792154821e-05
-0.007780115974410072 -0.020055241028927487 5.534466668162051e-09
0.026521952625899323 0.007144427753228871 -0.0014148968405604718
0.04264441439657281 0.01824548218781267 -0.002164382033614317
-0.005908456712172082 0.04069834613839303 -0.0015917646065992902
0.02810018599622619 0.004733340679220999 -0.002122349814916139
0.03697430721178953 -0.0007951603544684925 -0.0008843116322436306
-0.014699111842803049 0.04322327362129249 -0.0015917646065992895
0.02262258957761887 -0.003720476261930969 -0.0003537191500563071
-0.02922868634102542 -0.026315805848792347 -0.0005305796738501738
0.021429009508449254 0.03401693816792708 -0.0001515928371490259
0.014109933403897747 0.033518556239617726 -0.009519069136540896
-0.0009242052295217262 0.01735929025346756 -0.001591764606599293
0.016897848913866274 -0.03802398487179072 -0.0032150525233330856
0.01655857833799447 -0.007752326679279411 -0.0063670604504307065
0.03768557390193999 -0.0013055424478921886 -0.00042446481434795083
0.0013377693896828324 -0.027782148620829714 -6.304073792155202e-05
0.031686424735809425 -0.03271447479789014 -0.0021223498149161427
0.019124445301217614 0.03364685727534314 -0.001743359404530798
0.010024490317379517 0.02290807026859997 -0.010569738867247092
-0.013439093672230113 -0.02139024747053984 -0.0063670604504307065
0.014233855803185895 0.02217271159280056 -0.010569738867247092
0.018473973959128403 -0.012067195298498952 5.534466667401643e-09
-0.023595197656830748 0.014390901147049606 5.534466672783717e-09
-0.004711033605769951 0.025440545014795504 -0.012671080352693
0.018424841564741036 0.03347883903038853 -0.0007579790497413376
0.007118057244341967 -0.0053264853553483685 -0.0021223498149161384
0.002796930024343346 0.036789377971663935 -0.0017686251620186826
0.018498698764152867 -0.0017164154831537763 -0.0013264647918214423
0.024776295701158888 -0.03539081698122218 -0.00636706045043071
0.028486504201876626 0.029419387087996535 5.534466671188517e-09
0.019639041940646747 -0.013728732077216133 -0.00212234981491614
0.04368299006330175 0.007831560550563908 -0.0010611721876630216
0.03650265752493936 0.0300132055160567 -0.0021223498149161367
0.0149170684592207 -0.00559690666376434 -0.009519069136540902
-0.001086743241216688 0.017502640663252772 -0.001591764606599293
0.01069406025423042 0.021392475544395037 -0.008468398393817944
0.020946347613161356 0.00012442014176467937 -0.002122349814916139
0.02725093376213181 0.031184331588582782 5.534466671451359e-09
0.03070675798068092 0.026847624284411377 -0.00132646479182144
0.024423360820820278 -0.0012387679965113988 -0.009519069136540902
0.016015999484112062 -0.011947264489741549 -0.012671080352693005
0.03597518564866279 0.02946112996856683 -0.0032150525233330795
0.02800906517020634 0.0009690672800543202 -0.012671080352693005
0.0013513481025904251 0.03133497273102596 -0.0032150525233330773
0.01980427974399869 0.03428958711710992 -0.0074177276510949885
0.025388507955723526 -0.01752435646349122 -0.002122349814916141
0.03998861214070324 0.0012900196454584427 -0.0006367018072228798
0.03855370303160499 0.013195798169613419 -0.0018570572107577171
-0.022203587902538027 -0.02544379323980306 -0.0063670604504307065
-0.0013853278600916737 0.006227812654542297 5.534466670557998e-09
0.018497743773576845 0.02195740973365661 -0.0021223498149161362
-0.04403482025917907 -0.024317362330832648 -0.0015917646065992947
0.028168281631037382 0.004861603065997555 -0.0014856425048521153
0.04247882033542472 0.026360961632736643 -0.0010611721876630194
0.018742924652605675 0.0357548786816244 -0.009519069136540896
0.013064751177404129 0.02466181966809632 -0.0002652870696917497
0.039405523623794514 0.013661190699153256 -0.004265723013051845
0.04335309474654988 0.005841646824263523 -0.009519069136540902
-0.002297461478337112 0.024439611029737254 -0.0007074474715145179
0.00395945613900435 0.028711074390827904 -0.0010611721876630168
0.008300172475691953 0.01772094285764665 -0.008468398393817944
0.04688672236851282 0.024243450996453135 -0.0010611721876630199
0.0013378650919181638 0.029194494494053782 -0.0007074474715145176
-0.028575111111965017 0.029096680395596045 5.534466674648307e-09
-0.043605754965201436 -0.025681134379189646 -0.001591764606599295
0.0002581050388080281 0.03694230091142353 -0.012671080352693
0.015091858806454863 -0.009292301999797884 -0.0063670604504307065
0.015512518001218202 -0.039660123385245154 -0.0032150525233330856
0.010489859553701747 0.018276959974736214 -0.0010611721876630184
0.015499942077556757 0.020452061677337666 -0.0003537191500563041
-0.00375021920384496 0.029691884971373265 5.534466673191348e-09
0.005701309063546563 0.028704283813266503 -0.0002652870696917488
0.015052084224323104 0.024229614306508294 -0.0018570572107577145
0.005774451174552854 -0.035043426830265643 -0.006367060450430709
-0.045313687877099156 -0.02003151803718794 -0.001061172187663019
-0.005177213795628151 0.025084145175790624 -0.0021223498149161345
0.027013265934541963 -0.015624701603757105 -0.006367060450430708
0.007318111032474178 -0.0041765792029497435 -0.0012380327430824118
-0.024335987241059943 0.0013225806839901298 -0.012671080352693001
0.017437010952955762 0.021476122469386426 -0.010149469558141147
-0.025673588775941284 0.03572337127207725 -0.0005305796738501675
0.01273779007922496 0.022432695672181268 -0.0021643820336143143
-0.024255241236306832 0.03745681981309045 -0.0015917646065992895
0.019145095503573222 -0.013982281162324273 -0.003215052523333083
0.019142107625425085 0.031129501211066658 -0.0010611721876630175
-0.04393276385687058 -0.023931310250650057 5.534466669964675e-09
0.0031222313488084644 0.03626548106886452 -0.0017686251620186826
0.03398640971116638 -0.018789547363509698 -0.006367060450430709
-0.01754244995742191 0.010112603620541989 5.534466671959347e-09
0.0005405958318227109 0.01896336917657466 -0.0042657230130518425
-0.046818142249328606 -0.024995150530524323 -0.0021223498149161375
0.020250972836621257 0.03603245382822141 -0.009519069136540898
-0.04542630739418039 -0.0216702863582319 -6.304073792154851e-05
-0.0020950562395172824 0.03099234529495873 5.5344666732279215e-09
0.0012445912269481928 0.03186992754166983 5.534466673116501e-09
0.044238082885380794 0.02864574912329594 -0.002122349814916137
0.018498698764152867 -0.0017164154831537763 -0.0018570572107577176
0.009810895790296294 0.01943885219578366 -0.008468398393817944
-0.040729063474504584 -0.013347536663357336 -6.304073792154792e-05
0.04281065431731045 0.01854917119819468 -0.006367060450430706
-0.013125591561027394 -0.02295851918942452 -0.0063670604504307065
0.005616552536388671 -0.003502798011081919 -0.0021223498149161384
0.032782058336083005 0.02697487528131757 -0.0021223498149161367
-0.04251489532103802 -0.02652527492931093 -6.30407379215492e-05
0.011866290071833777 0.022192579096401672 -0.012671080352693001
0.02608258772178241 -0.01708275953618491 -0.0010611721876630231
0.00814281808364832 0.018314237252160755 -0.008468398393817944
-0.03572303809237456 -0.0266075124875463 -0.0015917646065992956
0.03457552874601544 -0.020875058865749186 -0.012671080352693006
0.00913651174629092 -0.038442042150185214 -0.0015917646065992995
0.014571203886860205 0.023949272660090472 -0.00794306454048161
-0.002494289170764676 0.023540972030069347 -0.012671080352693
0.0003441159577279703 0.007198623935750325 -0.000530579673850172
0.011226139923567607 0.021212152369341753 -0.0010611721876630181
-0.023365487052430897 0.014958012980618721 -0.0032150525233330773
0.017109924364525665 0.018767402489601844 -0.0003537191500563044
-0.025401778851542968 0.036090008833676794 5.534466675195692e-09
0.011446420650278228 0.023700564958998534 -6.304073792154718e-05
0.008576799255947077 0.0163259724820696 -6.304073792154779e-05
-0.022396993974883532 0.0004999926657883257 -6.304073792154758e-05
0.023967517946726264 -0.0008952288616713912 -0.0010611721876630212
0.009771765640513052 0.022712134025532814 -0.008468398393817944
-0.025934863040695765 0.030772415052845902 -0.012671080352692998
0.02064749355674361 -0.01538153064611499 -6.30407379215519e-05
0.0014948299104203828 -0.01253308471577312 -0.000707447471514522
0.019107878971428068 0.023192304145591838 -0.001857057210757715
0.032458432663564914 -0.022129295037686736 5.5344666654781804e-09
0.010033246569543795 0.020385689138861976 -0.012671080352693001
-0.023983594241823638 0.0014929080759936147 -0.012671080352693001
-0.02368665545149442 0.019373282899734747 -0.0010611721876630162
0.018227385765218658 -0.0021995665145125637 -0.0007958795835045996
0.03852149976310789 0.013108282389387103 -0.0018570572107577171
-0.0024053690270810953 0.025176069873245104 -0.0003537191500563025
0.0307877835795587 0.027265075085383953 -0.009519069136540898
0.019643510536977094 -0.014551232440336804 -0.006367060450430707
0.00436545064331185 0.028660508747695792 -0.0007958795835045954
0.02559838475680882 -0.01400467434715647 5.534466666759915e-09
