ply
format ascii 1.0
element vertex 741
property float x
property float y
property float z
end_header
0.042998128743224964 0.0027812553671135365 -6.287928861596653e-05
0.0015745637666111682 0.02374076385060579 -0.0042547983627229105
0.021639267363694807 0.02967551768527088 -0.0025780286889945958
0.009464878136704644 0.03284524185782012 -0.012638629318783996
-0.008605957847598444 0.00632891811820235 -6.287928861596397e-05
0.02806365735156367 -0.004492523235781596 -0.0017640956575480774
0.00814393224028297 0.031957057192529045 -0.00425479836272291
-0.01808948454769985 0.0367849280616559 5.520292732205795e-09
0.004781256718928883 0.03060513222386692 -0.003206818673057497
0.0016294747242772232 -0.009476488044085898 -0.011381053388358018
0.007194926240701267 0.015923880780347194 -0.004254798362722911
0.018005163742288915 -0.0015593858059426214 -6.287928861596598e-05
0.019061632813490836 -0.019507521457778704 -0.008446710560122353
0.000594550797849919 0.00646854322939642 5.520292727934423e-09
0.00631513443445814 0.03665571905947103 -0.004254798362722909
0.02283978265058567 0.02955537900836657 -0.002041307598084558
0.024348168592264442 -0.006909929534704627 -0.004254798362722915
0.0021451053841528285 0.02610476901927265 5.5202927301291975e-09
0.018129946060841992 -0.003832808068290914 -0.004254798362722914
0.049402483731441474 0.018752752239890515 -0.012638629318784
-0.04974007772208488 -0.016674201339373446 -0.0025780286889945984
0.025110016217060407 -0.03432277152330803 -0.0010584544924321024
0.006863855860731592 0.03902444293879542 -0.004254798362722909
0.016998652976722255 0.021981475520177353 -0.0015876880475541185
0.007154670470984733 0.03477112198119486 -0.010542669434740692
-0.04750764244868163 -0.02001487019759996 -0.006350754209066392
0.0495022838911394 0.015132087810301063 -0.009494690502144
0.03235223152555431 0.02661267410085586 -6.287928861596334e-05
0.018210882254293275 0.021143976724471557 -0.0047787827818964795
0.03931766679700228 -0.005841231625958731 -0.0019052246224043668
0.019286377016790472 0.02098307370195113 5.520292728821828e-09
-0.008813282226252642 0.04188519826299868 -0.0010584544924320922
-0.04344709944900285 -0.0064360225101380356 5.5202927282940774e-09
0.004308935374003393 -0.009368883751425213 -0.0021169144105233338
0.021081324327030106 -0.004215783695258434 -0.0010584544924320987
0.022642097992314716 -0.0206766210562714 -0.012638629318784003
0.018289700329588095 -0.003967281657225 -6.287928861596627e-05
-0.016399837799060762 0.04162720827891126 -0.0015876880475541148
0.0017204886720889546 0.00793362418195429 -0.0010584544924320965
0.003064206749977343 0.02841750371470718 -0.012638629318783996
0.021359178940106745 0.018355694756783718 -0.001058454492432096
0.03131117714480877 0.027213940281056 5.520292729035207e-09
0.015054605679821398 -0.01805174870687678 -6.287928861596776e-05
0.022732058883239977 0.0164146622106261 -0.004254798362722912
0.04746026510393243 0.021046171572829644 -0.002116914410523332
0.016317744133314216 -0.0169268824909188 -0.012638629318784003
0.0042503084210584385 -0.00480396537384937 -0.001058454492432098
0.011120845670577023 0.014558879155067699 -0.004254798362722912
-0.016455418469120856 0.007594211172025688 -0.0021169144105233307
-0.017720765384296278 0.0378694135772394 -0.0032068186730574953
-0.04449562649549175 -0.008410856480408992 -0.012638629318783998
0.01957289241727144 -0.001646164743934478 -0.0003528132642270604
0.0397259213203628 -0.005420000945491691 -0.0005292208426764875
0.046018314083900114 0.01868173950164187 5.520292727437315e-09
0.0005196644127809897 0.00831040105763634 -6.287928861596411e-05
0.022623677691842866 0.029439632995860207 -0.0009828512129806683
-0.021422262319748375 0.02730612217865445 -0.012638629318783996
0.002519189763533312 -0.035650397104445175 -0.0015876880475541243
-0.048374977514181045 -0.013418417295418577 -0.012638629318784
0.012884435944716301 0.020761264148745625 -0.0002646076611918771
0.046540107745136436 0.018397997105943795 -0.00158768804755412
0.032578983581759854 -0.0021008342144877294 -0.012638629318784001
0.018196488524550827 -0.003869474679009736 -0.009844015130634641
0.009176510173414023 0.03365301506865234 -0.012638629318783996
0.024618924149812885 -0.015174223020578808 -0.001587688047554123
0.028712207203219424 -0.03269554192923555 -6.287928861597001e-05
0.013551000541710562 -0.01407242785037318 -0.009494690502144002
0.01534585612606995 -0.003877844276751774 -0.0010584544924320985
-0.022921839200135494 0.03382917402626532 -0.0010584544924320926
0.019276506928686387 0.02033892806858413 -0.0047787827818964795
0.02560521738418369 -0.0042260275212385985 -0.009494690502144002
0.03353104544610256 0.027841609114554237 -0.009494690502143998
0.024874619338464285 -0.004306117364407494 5.520292725677503e-09
0.04996710561700227 0.014849845423278815 -0.002116914410523333
-0.02053452993031937 0.03234702122299522 -0.0010584544924320928
0.0410544269433177 0.023159153918574864 5.520292728160486e-09
0.030957485327718637 -0.02711430704735839 5.5202927227979735e-09
-0.002070595596504671 0.00922659133070801 -6.28792886159639e-05
0.027988989171354322 -0.03398489353764933 -0.009494690502144005
-0.00028474301875772064 -0.03089618343167248 -0.0015876880475541237
0.01596109564908109 -0.008265975250484468 -0.0018523012290387279
-0.0013017516794049913 -0.013946261379044504 -0.0017640956575480772
0.04704985428290958 0.01806931992171908 -0.0021169144105233325
0.035392627924278185 0.02387482027191091 -0.002158838983392087
0.02989476655946972 -0.023313878192417956 -6.287928861596898e-05
0.0005047884185431504 -0.01142738844529271 -0.009494690502144002
0.034076004663871624 0.021804739364556187 -0.0017640956575480746
-0.019139434541571188 0.02005483097805964 -6.287928861596195e-05
0.031745579224818465 -0.0018107279753984467 5.520292725676878e-09
0.037336896647664965 -0.007443448620254599 -0.0008467610451476669
0.009990414257581938 0.012618842649493037 -0.0005292208426764841
0.03090092443288035 -0.02756564218383539 5.520292722748403e-09
0.01877440344590372 -0.038843091755524826 -6.287928861597031e-05
0.02417505635192976 -0.03788596258770633 -0.0032068186730575057
-0.0004993614235335313 -0.01908582992957946 -0.0010584544924320996
0.020223517698489516 0.031043302130406767 -6.287928861596233e-05
0.036289059220127456 -0.007992202540537108 -0.0010584544924320998
0.02123763237421838 0.018522605967602225 -0.0013230676739167024
-0.041879332416474076 -0.008696551840053905 -0.0021169144105233316
0.04320850446445234 0.008589195533124629 -0.004254798362722914
0.003125788511560259 0.02777929071036999 -0.0014112732454073511
0.04314613425289526 0.009132758335535675 5.520292726458728e-09
0.035614711180833564 0.021383028960614774 -0.007922722103248956
-0.02564445539955957 -0.02268373535162205 -0.012638629318784001
0.006298329396223597 0.035610742800105226 -0.0010584544924320935
0.021970485438191675 -0.03684920135233638 -0.0021169144105233377
-0.022833478824220082 0.03406081062765879 -0.0010584544924320926
-0.021202229435731555 0.004575167495463418 -6.287928861596364e-05
0.04345672317742454 -0.0026216779600996623 -0.0032068186730575027
-0.0007637442644992768 -0.012714349053114124 -0.0021169144105233338
-0.015717293584794626 0.01598821484700519 -0.012638629318783998
0.02598475145655926 0.0011668725242345145 -0.012638629318784001
0.011352648753994717 0.014585928860054545 -0.010542669434740694
0.022661758054005804 -0.021297743623843127 -0.0007056356763677844
0.0005107755625135615 -0.011416685465785434 -0.012638629318784001
0.024434175578848243 -0.016275753899346095 -0.012638629318784003
0.01978872360133522 -0.0019701748981257117 5.520292726159347e-09
0.02442344144663739 -0.019495911407414256 -0.012638629318784003
0.027037994736697636 -0.005090449633149908 -0.008446710560122351
0.0360688178579978 0.02296292674456221 -0.002158838983392087
0.04329282540464772 0.019846088422415847 -0.0005292208426764847
0.005895551391691674 -0.005609046616757708 -0.012638629318784001
0.0007428127798869396 -0.01101264869308984 -0.012638629318784001
-0.005854845023365613 0.005989389051700941 5.520292728149418e-09
-9.137846169034861e-05 0.023495189535531865 -0.003206818673057498
0.03578125571556892 -0.004064756030847016 -0.0015876880475541222
-0.03129698495523394 -0.02090434271819034 5.520292726120163e-09
0.005139835346170163 -0.008049174479491671 -0.0007938413109474925
0.020476837067044062 0.027626754100784794 -0.0007056356763677788
0.03441281068554726 0.021311310028998012 -0.0007056356763677801
-0.015412438620760015 0.015729574667243097 -6.28792886159626e-05
0.0015784772509694182 -0.014335322709858737 -0.002116914410523334
-0.045114800944232494 -0.018660281114043706 -0.0015876880475541204
0.01810922922051645 -0.018410334173812368 -0.0017640956575480785
-0.0153425020225404 0.0422110891039903 -0.002116914410523327
0.03244657653050073 0.025358075470821854 -0.0005292208426764837
-0.01742050481545152 0.007452616604854399 5.520292728802237e-09
0.012715296727038415 -0.011886911429406666 5.52029272531441e-09
-0.04153440248140331 -0.005244857513190715 -0.012638629318783998
0.019101754765909053 -0.019037370450349186 -0.0010584544924321004
0.02177569617236853 -0.03751403682329354 -0.012638629318784005
0.04106763867989061 -0.0032950618122577656 -0.0010584544924320996
0.011234777050568495 0.018954359409071198 -0.0014112732454073524
0.01679666745264032 0.022008268307438437 -0.0002646076611918771
0.011613798837165446 0.019579066673555617 -0.001764095657548074
-0.013562176281222476 -0.018910007567834747 -6.287928861596666e-05
-0.020984165176299904 0.027962661769110102 5.52029273131178e-09
-0.00012913237237894754 0.02370379417031063 -0.009494690502143997
0.021574744845697116 0.027090235193063698 -6.287928861596284e-05
-0.0011340468123008957 -0.021635706983299217 -0.0010584544924320998
0.02328388987788469 0.029632368964138234 -0.0015120812351153458
0.025859920349125844 0.021125586786583914 5.520292728562893e-09
-0.022605563210425637 0.033078408996655984 -6.287928861596029e-05
0.02304717708626617 -0.021106426965258083 -0.0014112732454073576
-0.004285031909494218 -0.0262003673492579 -0.0021169144105233355
0.03564547202588635 -0.007039428239160205 -0.008446710560122351
0.022140671501458112 -0.00486048536611311 -0.0005292208426764867
-0.008983308523112308 -0.014698205284855229 -0.012638629318784001
0.03464627186956455 -0.01111719947026266 -0.0003528132642270621
0.014237918915458642 -0.040217783321457964 -0.006350754209066397
0.012716803752703298 0.020661384041129414 -0.0002646076611918771
0.0037099714719379755 -0.039676543675226494 -0.0032068186730575053
0.032932924046401094 -0.004176348870324187 -0.002116914410523334
0.022471871329725644 -0.019015405558740914 -6.287928861596818e-05
-0.04704620137656975 -0.014572100300815469 -0.012638629318784
0.03575078320561656 0.02090645497242247 5.520292728123393e-09
0.034612121894053334 0.02113937983938068 -0.0021169144105233316
0.022600256955956275 0.028460686585728635 -6.287928861596272e-05
0.010637927157302045 0.01661706661809437 -0.00035281326422705793
0.03625566192806638 -0.007842621167518393 -0.0019405032675420338
-0.015088489050543143 0.04233566107218412 -0.0005292208426764797
-0.04933710353448296 -0.013955231060185437 5.520292727675479e-09
0.013205155445578912 -0.007944154652117378 -0.001058454492432099
0.04859304374777706 0.01188748150749351 -0.0021169144105233333
0.04179698046779438 -0.00622332543249927 -0.0063507542090663945
0.0013080787241582532 0.029697749604993297 -0.001058454492432094
-0.003507114568159452 -0.02747855711408979 -0.009494690502144004
0.017888638102052882 -0.003989445350462494 -0.010542669434740698
0.028561323414032773 -0.024859950992522792 -0.006350754209066396
0.019078108900422983 -0.040442368248576326 -0.012638629318784005
-0.03847097373690835 -0.004407719470299111 -0.0032068186730574992
0.015098407937648065 -0.019150730354722367 -0.000529220842676488
0.025333071518597025 -0.015007439176542878 -6.287928861596784e-05
-0.005751596843840378 0.04245894629795438 -0.0010584544924320922
-0.045017704903918807 -0.008161405723873347 5.5202927281613075e-09
-0.0007917926558683285 -0.014022913888523102 -0.009494690502144002
0.03265699036317441 -0.002226272893272747 -0.0032068186730575023
0.023980019235559882 -0.016170329341991915 -0.000529220842676488
0.013121211645623437 -0.039865501512172455 5.5202927220776555e-09
0.019947378843609854 0.03138964683297732 -0.0015876880475541174
0.033835314963617386 -0.010540878354361315 5.52029272458469e-09
0.030342277460860972 -0.026179089944866875 -0.012638629318784003
-0.005197412838303587 0.04303208798771285 -0.012638629318783994
-0.01631303116423547 0.03841041671208081 -0.0010584544924320922
0.0257751815779226 -0.018851045603052605 -0.00045361759476959167
0.008872509454610518 -0.04008246331698919 -0.006350754209066397
0.04789894585308035 0.02080032279007971 5.5202927276023485e-09
-0.025380635990852576 0.005439281817451252 -0.0021169144105233307
0.027332854614632654 0.030104181811040617 -6.287928861596273e-05
0.0279050058999506 0.029481012649386542 -0.0007056356763677788
0.0345290651236946 -0.01053026831049501 -0.0063507542090663945
0.0015266477957742747 -0.009687385622409145 -0.0025780286889945997
0.005873830879616269 -0.004417407166970781 -0.0014112732454073548
0.0074406050245178 0.03905812796803465 -0.0017640956575480716
0.03524868990553635 -0.0025009079816834495 -0.0010584544924320991
0.014146398442216993 -0.015990061671017367 -6.287928861596748e-05
0.01012076868665169 0.030880878422916657 -0.012638629318783996
0.046466876861801815 0.012674717615079099 -0.012638629318784
0.019362021059570418 -0.021351644193526302 -0.006350754209066395
0.010702337580037783 0.014642010231370765 -6.287928861596382e-05
0.01727549334502927 -0.002251217743996431 -0.004254798362722914
-0.02367581499679511 0.005514229173937879 -6.287928861596342e-05
0.022566527848824704 -0.03647188475850968 5.520292722072569e-09
0.018196488524550827 -0.0038694746790097377 -0.001460184426929794
0.0012925311012530478 0.00768349552372541 -6.287928861596422e-05
0.002473957358442239 0.022527709092361514 -0.0007056356763677785
0.003560413223949086 0.04279942477071385 -0.0005292208426764804
0.023213730900948852 -0.036612509613873655 -0.012638629318784005
0.01801434551724727 -0.0009584487971395384 5.5202927263500955e-09
0.0017714404496383365 0.007610736523223944 -0.0010584544924320965
0.04290975728790611 0.022241346098177663 -0.012638629318784
0.03721791097436985 -0.007527090210639763 -0.0016935311751199338
0.032953596796213055 0.0009162464462984705 -0.0015876880475541215
0.026941259457884784 0.02970277094668046 -0.0018901010391817047
0.02604389791991731 -0.006783611958864037 -0.002116914410523334
0.013845303285790355 0.01885484592612678 -6.287928861596346e-05
-0.014659163540041754 0.005709373386347068 -0.012638629318783998
0.01700565048774149 -0.017040775296682815 5.520292724541605e-09
0.03721791097436985 -0.007527090210639763 -0.0007409179175818556
-0.0016777302971023084 0.04495342266209541 -0.0021169144105233273
0.040049397735061026 0.0058659855291188796 -0.0010584544924320985
0.018002318517660213 -0.004893365306579725 -0.00031753465063392354
0.02585613647703355 0.022079574361233346 -0.0005292208426764838
0.04491549077660898 0.007923033281056436 -0.0032068186730575014
0.00913168028618879 -0.04179263833879671 -6.287928861597024e-05
0.030609173629608893 -0.02408054423728158 5.520292723161685e-09
0.015184910601121484 -0.04000615359240617 -0.006350754209066397
-0.009197719413563957 0.04233783756038606 -0.0032068186730574953
-0.0005633681235695163 0.0267591707196852 5.520292730317951e-09
0.020752476409403017 0.015218547698540237 -0.0005292208426764843
0.02491066035173764 -0.03513835622507978 -6.287928861597013e-05
0.030936396753827356 -0.025591954399818068 5.520292722974047e-09
0.02209250552753574 0.03216529801489104 5.520292729991134e-09
0.022011688754134555 -0.005383978742272978 -0.006350754209066394
0.02559837607210077 0.0014488989593050797 -0.001411273245407355
0.021721548738744708 -0.0070706911264137254 -0.006350754209066394
-0.008534726748482048 0.041959097341405086 5.520292732401029e-09
0.035264035767524356 0.024213875147387452 -0.004254798362722911
0.016828454137316044 0.0192624080326225 5.5202927287267665e-09
0.04824819591834997 0.019839538355779302 -0.012638629318784
0.006400541143657802 -0.005052373955433394 -0.001587688047554121
0.021475047631226617 0.015869685547883705 -0.007922722103248956
0.024664082751979514 -0.007382951311647877 -0.0017640956575480776
0.04309382350437984 0.00848480782703578 -0.010542669434740696
0.011120845670577023 0.014558879155067699 -0.002158838983392087
-0.049579152492105094 -0.019313238554718858 -0.0021169144105233325
0.0019855760643196583 0.024297263486894875 -0.0007056356763677783
0.02582420328838665 -0.00026215498741721886 -0.004254798362722914
0.03749866614319829 0.021300505941422968 -0.012638629318783998
0.01928043207675136 -0.019102666539060426 -0.0021169144105233355
0.04192189969721618 -0.0060566256298707965 -6.28792886159675e-05
0.0006476629796984998 -0.01117556977931712 -0.003206818673057502
0.018036062556061865 -0.0038512277634662902 -0.012638629318784001
-0.04235831596303265 -0.005288961146867747 5.5202927283804765e-09
0.007637733277156279 0.013294202154997641 5.520292728424907e-09
0.03564724585711445 -0.007098016572925835 -6.287928861596735e-05
0.020186899602963423 0.02887824402698196 -0.009494690502143998
0.04424317431528041 0.009623926314360877 -6.28792886159658e-05
0.011243707774997393 0.01584911201372778 -0.008446710560122347
0.02237105610255391 -0.03659922030698438 5.520292722066103e-09
-0.023745102245790364 0.030147297917549765 -0.0010584544924320928
0.028436780316172108 -0.03322567410925859 -6.287928861597006e-05
0.04139868433814846 0.0024228562103407233 -6.28792886159665e-05
-0.0010440188993332382 -0.011981889357981775 5.5202927258797945e-09
0.02126182978947553 0.018483111361723915 5.5202927284513915e-09
0.009789662168401244 0.027262395365431277 -0.0005292208426764825
0.025931059293864803 -0.014779676835534704 -0.012638629318784003
-0.0030581969450347844 -0.029197635939406077 -0.0032068186730575036
-0.0007805312828749736 -0.020026730365536437 -0.0021169144105233346
0.019524090238707614 -0.01963151194434804 -0.0105426694347407
0.03395279475438275 -0.007327159344814714 -0.0032068186730575027
0.019255847805625344 0.016490600969569814 -0.001411273245407353
0.03726367932605325 0.021306130157622224 -0.011066657891614087
0.02464385642320678 -0.020007693467732925 -0.0007056356763677844
0.04040243276996631 0.023255620935506243 -0.0010584544924320963
0.011461078565488862 0.012372197449961889 -0.0010584544924320965
0.022077512563530372 0.029079370259580874 -0.011381053388358014
0.01827142854060589 -0.00394419153290057 -0.0070494049801851045
0.026027786910866105 0.030256047046041283 -0.0042547983627229105
0.011344662734724129 0.014575455468408464 -0.0076083271112175055
0.018857945250524564 -0.005021321482373346 -6.287928861596642e-05
0.010557240303233977 0.028882932039299432 -0.012638629318783996
0.03609075213550498 0.023434132118795005 -0.002116914410523331
0.026665078069658617 0.02973006051088769 -0.0014364779556639191
0.010825200736656757 0.02743218046475065 -0.0015876880475541176
0.036274478314726986 -0.00793907910784379 -0.002116914410523335
0.0026914695684859416 0.027358269154760154 -0.0021169144105233294
-0.0014990425508852468 -0.025754790734367938 5.5202927243138795e-09
0.023380480000054323 0.03234719161297343 -0.0005292208426764825
0.020249621819616568 -0.039977537268968466 -0.009494690502144005
-0.007177189532482154 0.04496655837859516 -0.002116914410523327
0.025280831020376503 0.020767578168901953 -0.012638629318783998
-0.021958763754269816 0.004356961515101996 -0.010542669434740694
0.03119036508596765 -0.0006052644339430145 -0.008446710560122351
-0.01236199265765793 0.011644243482708583 -6.287928861596319e-05
0.027097470665362867 0.03015862655093909 -0.0042547983627229105
-0.010936154342095435 -0.018260469260294454 -0.0010584544924320991
0.025861893251961487 0.001709636709079014 5.520292726328439e-09
-0.02131826055439153 0.026634135045997105 -0.0032068186730574966
0.022226387413236525 -0.004896582134993809 -0.0018523012290387279
0.013685724086117464 0.02113944519720593 -0.0021169144105233307
-0.04638115290613462 -0.01816956777678725 5.520292727066685e-09
0.006590494484229938 -0.04173816058916198 5.520292722135693e-09
0.02478109355269351 0.018695666522719284 -0.012638629318783998
0.010934398568534868 0.029611269818179176 -0.0021169144105233294
-0.024263844094892295 -0.02306411549100927 5.520292725577032e-09
0.004546102478623508 0.028427094093984206 5.520292730295882e-09
0.04455119258308767 0.02171298487739143 -0.0032068186730575
0.021583151451399916 0.017569528265534224 -0.010123476448507078
0.03679187321486419 -0.007809687348576904 -0.0020110677499701785
0.004028891338730541 0.018255563092776705 -0.012638629318783998
0.0495022838911394 0.015132087810301063 -0.006350754209066392
0.0445283152107955 0.009934412436311466 -0.004254798362722914
0.0009786116738490188 -0.03444197694837 -0.006350754209066396
0.04600096090652768 0.011884395934283169 -0.004254798362722914
0.030737586171556235 0.02847409649831679 -0.012638629318783998
-0.015621602306653616 0.03955698999406941 -0.009494690502143995
-0.017143665538616553 0.03838672278862052 -0.012638629318783994
0.04361572510138738 0.0026920651412080518 -0.001058454492432099
0.013419197981582568 0.01654503225553048 -0.001058454492432096
0.03203018189460105 0.02715979164419049 -6.287928861596326e-05
0.031176363524140032 0.027362418913779253 -0.0015876880475541185
-0.0008477610177432295 -0.011851793779545719 5.520292725886545e-09
0.03931766679700228 -0.005841231625958731 -0.00031753465063392457
0.015765430511425888 -0.01915667387179945 -0.012638629318784003
-0.006134625517461068 -0.014809168879246761 -6.28792886159665e-05
0.015479899311393297 -0.010499946979110523 -0.0015876880475541222
0.03632095423310319 -0.008031938680104073 -0.0010584544924320998
-0.03589631810042076 -0.022587936418652234 -6.287928861596615e-05
-0.04782911862151531 -0.01787072936551141 -0.008865903546355965
-0.0014779406069826808 -0.026296419202154885 -0.0015876880475541233
0.006649759907591858 -0.04175894789325892 -0.0005292208426764903
0.030588805689240814 0.028579148843025138 -6.287928861596304e-05
-0.0035554013968299917 0.006126977249770449 -0.0010584544924320965
0.007811450085236078 0.015652828930333762 -6.287928861596357e-05
0.02289925470801661 0.029569103860192375 -0.0012096645843222937
0.007856665332222566 0.027897085586602702 5.520292730096224e-09
0.018032041090432112 -0.004914866858895644 -0.0005292208426764865
0.032804691459315465 -0.003793232328141573 -0.0010584544924320991
-0.0459474231997854 -0.013703659956821795 -0.0015876880475541198
0.027092390078535738 -0.005949347794402219 -0.002116914410523334
-0.04323273781310765 -0.019671015645250367 -0.009494690502144
0.03491027081498287 0.02146114779071669 -0.007922722103248956
0.022584369419477723 -0.018339108774983372 -0.0005292208426764882
0.014845199989234 0.021576978990500637 -0.0005292208426764833
-0.0035935500421184277 -0.027031324365816175 -0.009494690502144004
-0.03643989279608968 6.0820318187330146e-05 5.520292728748229e-09
0.02451321464545347 -0.016115066893111585 -0.0063507542090663945
0.0318410789279303 0.026490279793133772 -0.0010584544924320957
0.038055472934629776 -0.007467703321405966 -6.28792886159675e-05
0.04642843972141851 0.01901921688321882 -0.012638629318784
0.01746189382905066 0.0195329862008292 -0.002158838983392087
0.04428604941260862 -0.00016365261832595565 -0.0014112732454073561
-0.006695889910377521 0.042929492497193376 -6.287928861595983e-05
0.013587509974785089 0.018569941083095915 -0.008446710560122347
0.017744300518668914 0.01876365583059219 -0.0014112732454073526
-0.04515335194913158 -0.008315394826060257 -0.0010584544924320965
-0.003165604439060163 -0.02883193971672133 -0.006350754209066395
-0.0184415088917201 0.018897649279191322 -6.287928861596211e-05
0.01575269245122275 -0.015680944120249857 -6.287928861596752e-05
0.016170852189863274 -0.015353622653858714 -0.0010584544924320998
0.019814042713029428 0.028523648231383508 -0.0014112732454073518
0.043509982711166524 -0.002345065471411076 -0.0032068186730575027
-0.04398482044163915 -0.019001848158110297 -0.002116914410523333
0.034940913064968764 0.025081188641036242 -0.0032068186730574992
0.005584485412977905 0.016844285079647314 -0.0021588389833920867
0.04150896008914887 -0.001407909492036901 -0.002116914410523334
0.004377888113470496 0.017858125005195003 -0.0021588389833920867
0.0027875365779947998 0.01723660396786014 -0.012638629318783998
0.02488766127124666 -0.015507066980013253 -0.0063507542090663945
0.016554181069901745 -0.002353638464893321 -0.0010584544924320983
0.013030928937298989 -0.008611818284363788 -0.002116914410523334
0.035648863632235114 -0.009071993194754647 -6.287928861596758e-05
0.0013544524643968713 -0.009589836162785864 -0.010542669434740698
0.02194735151426954 0.025604872585425847 -0.0015876880475541183
0.021913115513061233 0.029971980796018382 -6.287928861596252e-05
0.04128855888195898 0.0005924747276837059 -0.001587688047554122
0.036692696542028794 -0.010246604318970919 -0.009494690502144004
-0.026975842565534095 0.0026568675644087296 -0.0032068186730574992
0.020091054672090734 -0.019710439672962203 -0.0021588389833920914
0.017790047128963146 -0.004969281939942982 -0.0005292208426764865
0.026985516258958116 0.02969695237938378 5.5202927295021325e-09
0.0031788753195015344 0.020672420478902127 -0.0005292208426764829
0.022819299534298475 -0.005068861974020679 -0.001058454492432099
-0.008282908572972784 0.042595628428428664 -0.0032068186730574953
0.024863693654676413 0.02974834871648153 -0.001058454492432095
0.011344662734724129 0.014575455468408464 -0.011381053388358014
0.01322265571271849 -0.01060901926556048 -0.006350754209066394
0.042596353544200764 0.008033698520278494 -0.004254798362722914
0.006791875507525408 0.03563383032333562 -0.00425479836272291
-0.028885416785636584 0.0019180310537861365 -6.287928861596361e-05
0.011934681235182976 -0.04039577357036549 -0.0032068186730575057
0.025488676111120455 -0.0043774782214042384 -6.287928861596662e-05
0.026087621785374344 -0.019076643067719553 -0.0010584544924321006
0.01497921883780423 0.019042247761963692 -0.0003528132642270578
0.0111434709609982 0.014556366640274826 -6.287928861596384e-05
0.03829590859718193 -0.009332892919289017 -0.0063507542090663945
0.04941218335545158 0.014863266854716601 -0.003206818673057501
0.028472339925850937 -0.028190785154226728 -0.003206818673057505
0.035922078915200946 -0.011149896725279242 -0.001411273245407357
0.03721791097436985 -0.007527090210639763 -0.0003175346506339247
0.01030459955856388 0.030245900141951183 -0.012638629318783996
-0.013772518047227709 0.011880767146133795 5.520292729159027e-09
0.02156035746461238 0.029819097581598012 -6.287928861596252e-05
0.027938416018151238 -0.004743189697384739 -0.0007056356763677828
-0.0010944092269435817 -0.030092060134024268 -6.287928861596846e-05
0.04304720019708295 -0.005327790947472583 -0.002116914410523335
0.032169434730053834 0.025911964789606338 -0.0021169144105233307
0.04015630634206998 0.006284408180037834 -0.001587688047554121
0.015305184739000596 -0.014372088296058223 -0.009494690502144002
-0.04403207222055459 -0.01119286663942257 5.520292727771166e-09
0.005373327277977975 -0.03874225227371785 -6.287928861596974e-05
-0.04866177143387795 -0.020059210516601297 -0.0010584544924320976
0.02424748678735891 -0.01670230793436989 -0.0021588389833920914
0.01618184574859456 0.02142201304332527 -0.004254798362722911
0.02636659792103836 -0.015061735690082147 -0.0063507542090663945
-0.022919580038461104 -0.020114928391173258 -0.0021169144105233338
0.01733832949456237 -0.020596489965686315 -6.287928861596814e-05
0.0016442844293682608 -0.00942731949568414 -0.0013204557868434852
0.0338770610244733 0.023268875279753635 -0.00477878278189648
0.03977878358184895 -0.00605054883362789 -0.0063507542090663945
0.012843854687559239 0.012845329494859626 -6.287928861596411e-05
0.01636341703640005 -0.015810777356266573 5.520292724710052e-09
0.004662406531365388 -0.037659505734489764 -0.0015876880475541248
-0.04692144434870903 -0.01789374703643454 5.520292727121057e-09
0.025728394029172184 0.02976236238695353 -0.0021169144105233303
0.013551000541710562 -0.01407242785037318 -0.0032068186730575027
-0.045393857469231934 -0.012937134567998712 -0.0005292208426764847
0.0260520024219213 0.0012473880617723167 -0.0021588389833920893
-0.04742845189770139 -0.020052647528365008 -6.287928861596537e-05
0.0029854123897782485 -0.010520160319741543 -0.006350754209066394
0.025880775208705138 -0.018793650751947156 5.520292723968147e-09
0.022471871329725644 -0.019015405558740914 -0.012638629318784003
0.022180847934140224 0.01565262256543648 -0.0013230676739167029
0.022745832743254757 0.019359611964765325 -0.00026460766119187765
0.021193896735405945 0.015306573640027079 -0.0015876880475541194
0.017642846300228467 -0.0012316663675817584 5.5202927263342144e-09
0.015830323718442403 -0.015874463105786385 -6.287928861596754e-05
0.014721280387262106 -0.017384136754893063 -0.012638629318784003
0.021147676319097215 -0.02119412700102635 -0.012638629318784003
0.027929208526204875 -0.002186008150723294 -0.010542669434740698
-0.000740841995686709 0.025536506672900635 5.5202927301846814e-09
-0.04655799477062974 -0.010857802537033608 -0.012638629318784
-0.04519933038322007 -0.00836776913016817 -0.0021169144105233316
0.034941006257172835 0.02102236244035509 -0.0021169144105233316
0.026772694082312098 -0.035598273080184706 -6.287928861597027e-05
0.043530205442867106 0.019766349937313323 -0.002116914410523332
0.026190376464651027 0.0013818786627918123 -0.006350754209066393
0.0316980346055653 0.02671082509996618 -0.0015876880475541185
0.03375989578967403 0.022421608308772597 -0.0007056356763677798
-0.003233857869373809 0.04292208148398479 -0.009494690502143995
0.007027069410373787 0.035082632895316025 -6.287928861596131e-05
0.040972290904919474 0.007185838479663124 -0.0021169144105233333
0.01989500880407115 0.015619013975244572 -0.0007056356763677801
0.016200341408749225 -0.0027742281559202477 -0.0021169144105233333
0.008399532345583468 0.028181301418404543 -0.010542669434740692
-0.015130604503293066 0.00511728971414396 -0.002116914410523331
0.027137865568740264 -0.021567691121860515 -0.000352813264227063
-0.00029268093115295327 0.027588441856825772 5.520292730402045e-09
-0.016565864447499072 -0.018546949889274477 -0.006350754209066394
-0.023628338244142878 0.026653208634857307 -0.0010584544924320933
0.019294284760816984 0.030692256516392912 5.520292729938821e-09
0.01071432411975555 0.012484900242584994 -0.0005292208426764842
-0.0202997783075339 0.018636338263793926 -0.009494690502143997
0.00037768717238832674 0.021727114688302282 -0.003206818673057498
0.01342750194389032 -0.041937545563750414 -6.287928861597044e-05
-0.033988215214025085 0.0010849997777753306 -6.28792886159635e-05
0.016730993642224506 -0.041801005994934595 -0.0010584544924321028
-0.022148199040243743 0.006456603678810563 -0.0010584544924320957
0.03877572164962836 -0.00692290872390799 -0.009494690502144002
0.02001906889427864 -0.006248440696686895 -0.0032068186730575023
-0.01981079297512949 0.03425232757874798 -0.0021169144105233277
0.021082881382603808 0.018851861586057717 -0.00079384131094749
0.01367843854377107 0.018678654145514662 -0.008446710560122347
0.024618924149812885 -0.015174223020578808 -0.0018523012290387292
0.0014211672529775743 0.02908666664691149 -0.012638629318783996
0.034761863049482915 0.025520779174579258 -0.0032068186730574992
-0.02729068434572484 -0.021261405370832313 -0.006350754209066394
0.0019640367003279464 -0.01357355285592409 -0.0005292208426764868
0.0011774186932385104 -0.010303751066199077 -0.006350754209066393
-0.0028393712286718287 0.006720777352308992 -0.012638629318783998
0.014248240120388844 -0.04021584856617288 -6.287928861597028e-05
0.03647573800390225 -0.007986827464215982 -0.000846761045147667
0.03899253787388234 -0.006137180509434741 -0.000635071193939639
0.0025104653349368794 0.022427362932256726 -0.001058454492432095
0.019686135469779403 -0.006656000151203153 -0.0017640956575480772
0.0046897488891114855 0.017551726367747787 -0.010542669434740694
-0.021495059605718583 -0.0223703372689199 5.5202927255409e-09
0.02528544046507394 -0.0071528736672986076 -0.002116914410523334
0.0358844236147351 0.023030619337322002 -0.012638629318783998
0.022646498247572793 0.029482403875545172 -0.0012852678637737204
-0.0424300626891032 -0.008551754703171663 -6.287928861596425e-05
-0.02256182234765532 0.02219166361940348 5.5202927307137395e-09
0.014325682883681114 0.021387874114773237 -0.0013230676739167018
0.02104734468076473 0.017654021515895065 -0.002578028688994597
0.034282132425133935 0.026553514249481207 -0.009494690502143998
-0.012394605728600546 0.005449224676524814 -0.0010584544924320963
0.0010812047117399208 -0.009774668231459066 -0.004254798362722914
-0.04189382742664521 -0.021699783606678277 -0.012638629318784
0.01706651023764821 -0.017138452017141266 -0.0017640956575480783
0.00441137232777623 0.017823230817576703 -6.287928861596318e-05
-0.029875046434174716 -0.02296836305764244 -0.006350754209066394
0.041104888460514716 0.020409667153470475 -0.0010584544924320967
0.002313216647116136 0.02298457254189609 -0.0014112732454073516
0.03052476628526023 -7.202311461069006e-05 -0.006350754209066393
-0.004139521209508823 -0.027380196506394117 -0.0021169144105233355
0.02391647799658798 -0.016285011175457657 -0.0002646076611918818
-0.01030943793275108 0.04142862831618685 -0.0010584544924320922
0.03519275258194808 0.021419381384872364 -0.00477878278189648
-0.022155941603919413 0.023190849893211223 -0.003206818673057497
-0.0013844623348207448 -0.01220848843635869 -0.0021169144105233338
8.372376640914082e-05 -0.01756564265619931 -0.0010584544924320993
-0.03147655901271465 0.002530116464699123 -6.287928861596344e-05
0.014567188996026737 -0.04176935427825769 -0.012638629318784005
0.024789171842524025 -0.015647576395436916 -0.0063507542090663945
0.006932431951531039 0.03530798048871742 -0.012638629318783996
0.021710504893105314 0.029568293696567022 -0.007608327111217504
0.023474622118979993 0.020233026866835913 -0.004254798362722911
0.025623957876393415 0.02976246147322837 -0.0003024147265767276
0.02085253065093265 0.01935258306858959 -0.001058454492432096
0.003125788511560259 0.02777929071036999 -0.000705635676367778
0.03043506837858744 0.028683169405027208 -6.287928861596303e-05
0.028777458431210448 0.0006201526690224231 -0.0021588389833920897
0.018296353093350905 -0.005184216929680015 5.5202927258519855e-09
0.03623281470748193 -0.007687317870795886 -0.0007056356763677834
-0.015096720669897135 0.015472742024554955 -6.287928861596264e-05
-0.04018454893863359 -0.022611268395143456 5.52029272629599e-09
0.02289829939889914 0.029028341647792572 -0.00026460766119187657
0.018374324624030828 -0.005279310257671858 -0.0003175346506339236
0.015742337668623086 -0.007410089654129799 -0.010542669434740698
0.03921480547763346 -0.005937317522649465 -0.0011642974938197916
0.018002318517660213 -0.004893365306579725 -0.0007409179175818545
-0.04157835315341132 -0.008366882559508947 -0.0005292208426764844
0.049295399835984265 0.01976390746973892 -0.00158768804755412
-0.02161777287759752 0.021629596504131758 -0.003206818673057497
0.021494197653975394 0.01825455912894643 -0.001587688047554119
0.007270387228485251 0.015889270024903424 -0.012638629318783998
-0.0319518713071867 0.002889424401082437 5.52029272888576e-09
0.031656831354301494 0.02677070490956992 5.520292728969723e-09
0.04428502772932785 -0.0006156030945520227 -0.002116914410523334
0.024813817010068986 0.018773467707202784 -0.009494690502143998
0.043243402646882596 0.022145471954175395 -0.012638629318784
0.022650851657678234 -0.02067292580823549 -0.009494690502144004
-0.005293453010254847 0.04464942679369227 -0.0032068186730574953
0.02306024915764401 0.02258985270566036 -0.0021169144105233307
0.030587309561404902 0.002412678505473225 -0.0003528132642270604
0.02295697611880987 -0.005545299357698552 -0.0032068186730575023
-0.030615178645453815 0.0034867968183212627 -0.0010584544924320957
0.00631513443445814 0.03665571905947103 -0.0021588389833920845
0.04017127477166468 -0.004858781562930542 -0.0010584544924320996
0.0257649932124294 0.02018825058238619 5.520292728459001e-09
0.0068409043962157495 -0.03945974309869969 -6.287928861596987e-05
0.0401436774986533 0.005088883880660623 -0.0021169144105233338
0.015578954829777556 -0.01976123892252066 -0.001587688047554123
0.02666834222098884 -0.018986371389169112 -0.0105426694347407
0.035851549460121215 0.023053259721431473 -0.004254798362722912
0.004499079045236934 -0.040163350145383 -0.0032068186730575053
0.02349363646390822 0.023073969280455277 -0.012638629318783998
-0.0003264123803741519 0.044040684160568125 -6.287928861595997e-05
-0.00020013892208509812 0.02419365763327361 -0.012638629318783996
0.03222955156859825 0.025796259945673496 5.520292728833595e-09
0.020212806239356774 0.02017591085737982 -0.0018523012290387248
-0.0006924252381193017 -0.01808149435360962 -0.012638629318784001
0.02354927444618429 -0.004988335072721774 -0.001058454492432099
0.028163323964095148 -0.004264245837285928 5.520292725544574e-09
-0.0012257237778249771 -0.027875401466436838 -0.00035281326422706254
0.014117719117897175 -0.04184871287185761 -0.012638629318784005
0.021414167169064253 -0.005112063795262186 -0.006350754209066394
0.002034002992700686 0.023974864070178525 5.5202927298887435e-09
-0.03986401034181013 -0.0065642911507543845 -0.0021169144105233316
0.026133185248652418 0.031886623042477275 -0.003206818673057498
-0.003892526049615648 -0.028437248411488966 -0.0015876880475541233
0.01826185867534138 0.02111804339079548 -6.287928861596338e-05
0.018299375346221804 -0.018569125058787505 -0.0010584544924321002
0.0004076847713968759 -0.007595302476571089 -0.0010584544924320983
0.027448440883080256 -0.022452510321891377 -0.001058454492432101
0.023096991794432215 0.0220066035107419 5.5202927287800055e-09
0.028908374858472398 2.7541321102190907e-05 -0.0019052246224043657
0.01382176135954187 0.014586875577233678 -0.0010584544924320963
0.013167378017796204 0.020909197932638915 -0.0013230676739167018
0.02323682891136288 0.031747497144355714 -0.003206818673057498
0.021548825712534747 -0.01950788303256155 -0.012638629318784003
-0.00031568429081731814 -0.03660484244669973 5.520292723015699e-09
0.016337672961713085 -0.007396542282212727 -0.001058454492432099
0.02583182122413585 -0.014759664895040442 -0.007922722103248962
0.01962126690339873 0.030180674047010417 -0.009494690502143997
0.017386954055693665 -0.005522762789892473 -0.0021169144105233338
-0.049579152492105094 -0.019313238554718858 5.520292727069022e-09
0.021931810226528344 0.018336288958573973 -0.0013230676739167026
0.017277103169586992 -0.018342958302093395 -0.0032068186730575036
0.01376397993525671 0.021171355793404567 -0.0002646076611918771
0.016151038027039922 -0.01659660499192658 -0.012638629318784001
-0.0496594859966688 -0.018261231884288073 -0.012638629318784
-0.02013924751681997 0.03842391270906983 5.520292732480262e-09
0.004813665651453161 -0.0076216237483616965 -0.012638629318784001
0.01777835889435249 -0.0011206692617497173 -0.0017640956575480766
0.030382496779040397 0.00247960964987105 -0.00035281326422706037
0.0021164680263329083 0.02738092002030221 -0.012638629318783996
0.006791875507525408 0.03563383032333562 -0.008446710560122346
0.023064025764612694 -0.018499831303247408 -0.008446710560122353
-0.015088489050543143 0.04233566107218412 -0.001058454492432092
0.03802583616073571 -0.007489161403251225 -0.009494690502144002
0.025874205000237765 -0.018792398400079676 -0.0015120812351153514
0.002788204012938246 0.027472971124056837 -0.0014112732454073511
0.011358653591859356 0.015196780878958881 -0.002578028688994597
0.013222401646618642 -0.011885463725391471 -0.012638629318784001
0.025212298459453483 0.0004443054787967492 -0.0021169144105233333
0.022924647894287335 -0.007157200140534097 -0.010542669434740698
0.023014056238640158 -0.03863563258225243 -0.009494690502144005
-0.007683707239444493 0.0443226549984326 -0.009494690502143995
0.021908829310624357 0.029295818372497517 -0.0038356013387894706
0.0045862603791630464 0.03831677839059921 -0.001587688047554116
0.027420983769314088 -0.02084830287410361 -0.0105426694347407
-0.01756501125265812 0.040822141356280886 -0.0015876880475541148
0.0002771970744058779 0.008416638672466387 -0.0032068186730574997
0.022646498247572793 0.029482403875545172 -0.0006804309661112112
-0.034314544752704255 -0.020694173332881656 -0.0021169144105233333
0.004555068088580369 0.028429740713977584 -0.0014112732454073511
-0.0006965440523810202 0.009304698440240906 5.520292728314883e-09
0.010798944758846622 0.030377863710922683 -0.000705635676367778
-1.6104953842348222e-05 -0.010552872375366612 -0.006350754209066393
0.012437430311405982 -0.04257441609474967 -0.0010584544924321028
0.0035601243222994038 0.028700890553703885 -6.287928861596189e-05
0.04089658961530508 -0.0036739670517374288 -0.001323067673916706
0.008811338034557213 0.01576108945300154 -0.0010584544924320959
-0.046285468797733875 -0.014196404494050746 -0.0005292208426764849
0.04324846991762752 0.02214398087529447 -0.0032068186730574997
0.031769514973834664 0.026603069679592903 -0.0010584544924320957
0.02372240867480994 -0.038877569130736075 -0.002116914410523338
0.005260079666137405 0.03742905320391733 -0.0005292208426764811
-0.038425345358467276 -0.022276748146397907 -0.006350754209066393
0.018762894363354564 -0.0009090552839829864 -0.001411273245407355
0.048183950427855296 0.01678341374181924 -0.012638629318784
0.007224074373559838 0.028155216902478162 -0.00035281326422705647
0.032264987361038146 0.000795416058532031 -6.287928861596631e-05
0.013455309395841938 0.016224819039041043 -0.0017640956575480744
-0.000604053434280371 -0.011691102376712979 -0.0010584544924320987
-0.008155659392693417 0.04477213138977286 -0.002116914410523327
0.02792113864949335 -0.024069387588160303 -0.0021169144105233364
0.023643712171068046 -0.016799965190147405 5.520292724291279e-09
0.001340281355868699 0.006711338248524247 -0.0010584544924320967
0.00495171961966373 -0.007404204803723317 -0.004254798362722914
0.04808934240440364 0.01629703055891852 -6.287928861596518e-05
0.01981476755686903 -0.021977197593601977 5.520292723855865e-09
0.029077768998435293 0.029450403608542387 -0.0042547983627229105
0.019276506928686387 0.020338928068584134 -0.007922722103248956
0.015741586927382447 -0.014035916401718317 5.520292724940347e-09
0.02116133724204061 0.026746250779811957 -0.0010584544924320952
-0.0021470586837182472 0.009777054259684458 -0.000529220842676484
0.017472097780252892 -0.0013841631993011493 -0.001411273245407355
0.023273699192661083 0.01941063280375981 -6.287928861596379e-05
0.022894519230794986 0.032293341057651824 -0.0005292208426764825
0.02274991563475256 -0.005058630274301917 -0.0007938413109474928
-0.003746439687156612 -0.025161233234214105 -6.287928861596779e-05
0.02303654207378991 0.029595508556939557 -0.0016632913270055443
0.013576938752163537 0.015616829649039652 -0.001058454492432096
-0.041150921065139345 -0.007905810731526833 -0.0015876880475541194
0.01329554074972134 -0.012680204958970537 -6.287928861596707e-05
0.004645856560702554 0.028992545532774555 -0.009494690502143997
0.025992243813323233 0.001176532992041631 -0.0021588389833920893
0.019240352395526406 -0.021899946172061344 5.520292723888814e-09
0.02638695248046222 -0.018407146148916063 -0.012638629318784003
-0.04524554080225138 -0.01273853974031301 -0.001058454492432097
-0.00044463788715325993 -0.011944879360940073 -0.001764095657548077
0.011935518746149495 -0.04258919831670372 5.520292721813878e-09
0.020688028518340004 0.03123843481555713 -0.003206818673057498
-0.046953805482351084 -0.014424263878934212 -0.009494690502144
0.027842804072525488 0.0003719528484210986 -0.0021588389833920897
0.03578639460151161 0.02137127275711681 -0.012638629318783998
0.015273892202879879 -0.03951971657235591 5.520292722027283e-09
0.018036382024435797 -0.01901657674293268 -6.287928861596799e-05
-0.016703309782216912 0.016904358567377424 -0.012638629318783996
0.01731648163694923 0.01960272962819886 -0.012638629318783998
0.024509385601728145 -0.019402309064973575 -6.287928861596832e-05
0.016982203999815527 -0.039067649541058846 -0.0010584544924321026
-0.018999058587749282 0.019793288415083356 -0.0032068186730574975
0.021833024607324572 0.015515494233475924 -0.0002646076611918781
0.03597006866779305 0.021359958322653142 -0.012638629318783998
0.02296614464544653 -0.0077281412570843686 5.520292725363637e-09
-0.014577811413687388 0.04257208903783757 -0.002116914410523327
0.00847038285563223 -0.03950769697639451 -0.0010584544924321024
0.03592288816909403 -0.004672211986814951 -0.0015876880475541222
0.012638345480055806 0.020610515199173816 -0.0018523012290387246
0.040246335339104065 0.004600982246171264 -0.00035281326422706053
0.017215679792914107 -0.0016332217385522727 -0.0007056356763677819
-0.020983001332196216 0.01870953239134853 -0.0021169144105233294
0.046222506985067476 0.0085077513445331 -0.001587688047554121
0.010989694013319977 0.02914166232046922 5.520292730108221e-09
0.017380978461394924 -0.004653035644861354 -0.010542669434740698
0.043403123925226564 0.0012349971053908935 -6.287928861596673e-05
0.015984525783723627 -0.008200483224017339 -0.0005292208426764868
-0.04782911862151531 -0.01787072936551141 -6.28792886159651e-05
-0.01926130643517756 0.021460838261424413 -0.001587688047554117
0.031521876662954106 -0.0009128799160402448 -0.012638629318784001
0.0020772090948978014 -0.006354333335784019 5.520292726396675e-09
0.005743035807319795 -0.004946192695754834 -6.287928861596586e-05
0.02846866704383782 -0.00014919134711067233 -0.0014818377278354997
0.011352648753994719 0.014585928860054543 -0.005512371264874026
0.005501475111104124 -0.007455918395083287 5.520292726126479e-09
0.019916934892134953 -0.02137391720942533 -0.009494690502144004
0.01271000206739721 -0.011412554213378662 5.5202927253692206e-09
0.00459139760833663 0.028986125909153868 -6.28792886159619e-05
0.02424748678735891 -0.01670230793436989 -0.004254798362722916
-0.041990818191391735 -0.008055515617240626 -0.009494690502144
0.01766291543361865 0.01883083737429064 -0.0010584544924320959
0.014508988509963227 -0.005099956414091885 -0.0014112732454073555
0.004864346291896722 0.03797191364018942 -0.001587688047554116
0.0404557659652082 0.006659371000189507 -0.0005292208426764862
0.02406591375724024 0.017494451573939397 -0.012638629318783998
0.008862174268981202 0.027516684281388575 -0.001323067673916701
-0.01024768257807049 0.04200064425477637 -0.012638629318783994
0.0037407997605824507 0.019537235497723307 -0.001587688047554118
0.01194973474752023 0.012322380825021646 -0.0015876880475541194
0.01366101496722772 -0.04030746941948687 -6.287928861597025e-05
0.025538931172911415 -0.0033040840559939787 -0.0015876880475541217
-0.020105645763690668 0.022341640453213896 -0.003206818673057497
0.037713585337015486 -0.007168790718025494 -0.002116914410523335
0.001004247102758858 0.029435726447819235 -0.002116914410523329
0.019221227831126182 0.02039156957434754 -6.28792886159635e-05
0.00502591251836169 -0.007285909264033995 -6.287928861596609e-05
0.016248435207753167 -0.03970995314571673 -0.006350754209066397
0.0012788042120496221 0.007450363431180441 -6.287928861596425e-05
0.020295761733896425 -0.006458682539079676 -0.012638629318784001
0.03721791097436985 -0.007527090210639763 -0.00021168429937077314
0.033591266396660026 -0.0006522443579832599 -0.004254798362722915
0.041370896302570834 0.02310505174693897 -0.0021169144105233316
0.04008242246382337 0.020578628948656048 -0.0021169144105233316
0.036137362120950825 -0.006490379781038198 -0.0021169144105233346
0.018724662762640537 -0.005753577295019828 -0.0014112732454073557
-0.013853474393070097 0.04288202020369118 -0.001058454492432092
0.026251569841568907 0.030251502756465057 -0.007398730618100696
