ply
format ascii 1.0
element vertex 689
property float x
property float y
property float z
property uchar red
property uchar green
property uchar blue
end_header
0.026705305561507672 0.04828030876177143 0.2045157318740707 244 208 63
0.04477898262748674 0.07082326260563535 0.20554748410160234 244 208 63
0.06916521551119217 0.024890687054262044 0.20104737088715813 255 0 0
0.0630166087391343 0.07198569498058935 0.20697563560407373 244 208 63
0.04256719242207918 0.015262568784849091 0.18755610768312464 0 255 0
0.042097161782535766 0.05790783806664142 0.19745084860146864 0 0 255
0.045668342202702966 0.02836239089673054 0.19186558737358683 0 255 0
-0.0005398043448039923 0.016666923934674324 0.19800233912670753 244 208 63
0.0191545641378457 0.0390715019147171 0.2022200887670343 244 208 63
0.04080463084529081 0.04586411546970566 0.19478124565507018 0 0 255
0.04447957365499134 0.06517771964803178 0.20590841030320664 244 208 63
0.06688589838711335 0.03512808787375785 0.20158307451695917 255 0 0
0.059463257021418824 0.029025515449206635 0.20231325025540378 255 0 0
0.040597201865817986 0.06639825310413588 0.20386347492645332 244 208 63
0.06679509598878366 0.07203334098036429 0.2064801177197325 244 208 63
0.06837361673961814 0.022813120488607386 0.20156747084318846 255 0 0
0.07337671052588202 0.06693210606653713 0.2074668647846833 244 208 63
0.06057612345545521 0.06877220056015731 0.20622177400649827 244 208 63
0.03873494373243729 0.05797582848981345 0.20597229930545702 244 208 63
0.05990086200435636 0.022472333132110254 0.19184547778243072 0 255 0
0.07886480629151077 0.03212571824240364 0.1932940991873675 0 255 0
0.060901774250450944 0.03417997668152757 0.2008691936121927 255 0 0
0.04137033064542945 0.0646702904524242 0.2068204279354965 244 208 63
0.05905048058548333 0.02751385610966816 0.19886594132723176 255 0 0
0.0384243731328395 0.06311696088709239 0.19704991897335986 0 0 255
0.07462384609895915 0.04249772228047817 0.19781260214364677 255 0 0
0.04495080324699601 0.05193303229589502 0.20516163623308173 244 208 63
0.08236985068821101 0.03634887400804101 0.20338042202014442 255 0 0
0.014843262013292353 0.06680750014589139 0.20693338467669062 244 208 63
0.04308225454557743 0.010144687556814573 0.19324033802976703 255 0 0
0.06458515579669484 0.06964443078785218 0.2056848153769839 244 208 63
0.06896720792235704 0.024406520091413395 0.2015165777200275 255 0 0
0.07380933140013939 0.06291478549099376 0.2036944856367428 244 208 63
0.07005570320542512 0.021248058326608713 0.20131102552731714 255 0 0
0.08055312059767185 0.03444578645204609 0.20257660337485534 255 0 0
0.05164335111412478 0.053992728642709174 0.1932002281697605 0 0 255
0.013787459789459642 0.03334814040452236 0.2014131183141703 244 208 63
0.04245605887907791 0.07332581632397074 0.20697190626449286 244 208 63
0.05365488607126146 0.051964965665385734 0.19676421904267408 0 0 255
0.01603624177360917 0.06859790183866518 0.20711793692783365 244 208 63
0.04365518513250333 0.02328951115534012 0.2014123916304867 255 0 0
0.04672744189535754 0.001580999434871496 0.19695287384413315 255 0 0
0.03989774420574893 0.0787386666024503 0.20713246229235716 244 208 63
0.05917588786439106 0.07122613229104226 0.20577049617098866 244 208 63
0.062167816388656406 0.05994079337722894 0.20590482320910836 244 208 63
0.002666047496118031 0.024143436825633562 0.18838233316259595 0 0 255
0.020812907353964696 0.05357862488783471 0.2036248222137056 244 208 63
0.06801708017281445 0.036180297496948406 0.2011975036955839 255 0 0
0.07549428228837707 0.04097009055385209 0.20397644732103698 255 0 0
0.049088596326544956 0.06567705244092659 0.20521257057276135 244 208 63
0.03666398223777827 0.07735729335518637 0.20846260679188916 244 208 63
0.01572545395582282 0.05996605464835708 0.1964312820410103 0 0 255
0.018926336935888594 0.056717660782389975 0.20402475493215227 244 208 63
0.05424714869263063 0.05198235593069688 0.20317304833890687 244 208 63
0.006439866510211695 0.010095621898324025 0.1992691119660108 255 0 0
0.04976164609545947 0.03197749931862884 0.20154892410313743 255 0 0
0.06791309374625312 0.03658932073162123 0.19061031152711175 0 255 0
0.046108997936055024 0.07182249954217307 0.20357220992225988 244 208 63
0.01581626107413312 0.058721225876667615 0.20262577065321424 244 208 63
0.07774767838613547 0.038169907636788514 0.2015050913914355 255 0 0
0.060113585337447255 0.03698225533742958 0.20119173626016348 255 0 0
0.04372750894858187 0.06773484503908316 0.20677634611973592 244 208 63
0.06119037841850143 0.03420535974734934 0.20151736096226358 255 0 0
0.044990651116291455 0.06519312246452721 0.2052013567656651 244 208 63
0.05313455552306885 0.05175576912065202 0.1967318603809567 0 0 255
0.06670487137072881 0.021495367204195186 0.19071609510026688 0 255 0
0.060324700010830686 0.05486068110153402 0.2056859522086719 244 208 63
0.06843112088130272 0.018945923980955962 0.19962752837616704 255 0 0
-0.004052877955139984 0.01337096271463351 0.18689333586883528 0 0 255
0.0151808583504091 0.06815195804815752 0.204973964233034 244 208 63
0.06285600862649067 0.07102559499472566 0.197255460031158 0 0 255
0.05154382870999635 0.05380129179149368 0.19698928131288707 0 0 255
0.08009008504385988 0.033993935535597125 0.20283367017340476 255 0 0
0.07503700869017291 0.04215104894239793 0.20312231847084153 255 0 0
0.0683921949979804 0.023092299768450536 0.1994638555374298 255 0 0
0.0721978120796738 0.02525404682530555 0.19232325180242946 0 255 0
0.06827888057415872 0.04213379098797677 0.20377395450756805 255 0 0
0.045553245196107296 0.028160114608310898 0.1905659447999261 0 255 0
0.062125023594948925 0.058946538815783926 0.20443446925906214 244 208 63
0.06360679817135659 0.06953415206466124 0.20573799660653613 244 208 63
0.042220594979892376 0.056493088337972605 0.20574270761241442 244 208 63
0.048262287624129416 0.06445883155593635 0.20638162243006783 244 208 63
0.06087551866809461 0.05753000749909126 0.20503825373863369 244 208 63
0.04084422043373556 0.05889010060914014 0.20604866921858647 244 208 63
0.01689241225861671 0.06618684725155621 0.2036260675268892 244 208 63
0.0633343006463861 -0.002288172496051337 0.1949486267186233 255 0 0
0.059636128124961815 0.05585603983662656 0.20263251914765432 244 208 63
0.0459433720008886 0.0730242651017719 0.2062490733564898 244 208 63
0.06188293577218355 0.06921139902296686 0.20575639552236238 244 208 63
0.05899312424280673 0.055484736623385114 0.20475019305639885 244 208 63
0.05155889984592475 0.052455171800106545 0.2035935862859375 244 208 63
0.05715332758298847 0.03190691629921798 0.20267525225560565 255 0 0
0.04551907195029826 0.019777563718645648 0.20042756404660864 255 0 0
0.0522255048652873 0.058472262789025675 0.20185446455951153 244 208 63
0.07729317686102534 0.06511396757423496 0.2061897456493069 244 208 63
0.053079445363152816 0.057292061554748246 0.1974661173906554 0 0 255
0.045753129353756625 0.07246151595232053 0.20365387348605773 244 208 63
0.06618804114187109 0.03474187786511352 0.20232846902053392 255 0 0
0.04302575239719643 0.0239360853615162 0.20149264221470947 255 0 0
0.055835822255023086 0.057880666281168745 0.20396986742424195 244 208 63
-0.001585618583420152 0.011883446114878867 0.1976258702442913 255 0 0
-0.0024831004218054988 0.013133526962570922 0.19641403071078825 244 208 63
0.05574405388969228 0.05837326623075005 0.2039920337841593 244 208 63
0.05898870186460402 0.05773491141815057 0.1954574453069992 0 0 255
0.06227149841127214 0.037564063691892816 0.202044017629188 255 0 0
0.017455476062505297 0.060573596261298525 0.20505871287345118 244 208 63
0.08098452170839252 0.034802752122443145 0.2031629952914918 255 0 0
0.06266583366418259 0.06643959522313468 0.20516607726733194 244 208 63
0.07484181380883415 0.06580322198230071 0.19454859788647444 0 0 255
0.04531144271459714 0.019035425936351737 0.19979202694394763 255 0 0
0.009359034193540988 0.032186202762631275 0.18950883078401504 0 0 255
0.04288204006906508 0.06753096013350912 0.20727702483715238 244 208 63
0.07068649173515108 0.039818079157649455 0.20341652856219497 255 0 0
0.07479342760171306 0.016465317651937577 0.19435923430213936 255 0 0
0.07902203977343308 0.032545250920978396 0.19017171630230065 0 255 0
0.0617124431838087 0.07038591292169263 0.20033991512629942 0 0 255
0.029568075473924645 0.04352679707705135 0.1911923647144627 0 0 255
0.04555391003122671 0.02737589633492253 0.19978825255776692 255 0 0
0.05356491270028024 0.05240788392980998 0.2031810985441844 244 208 63
0.06089373751178599 0.06894700359303449 0.20578903113446745 244 208 63
0.05641276751013077 0.060324674459524996 0.20213728575869228 244 208 63
0.01597886384561594 0.038507898670867395 0.19040627216099643 0 0 255
0.044074677869260996 0.07556994109360998 0.20728402809449586 244 208 63
0.07856472758416903 0.03691694737360685 0.19710675920696769 255 0 0
0.06908765487145099 0.023979320465254323 0.19530605693114836 255 0 0
0.0447806629773626 0.029560987709923575 0.20118422911360354 255 0 0
0.06837205602495611 0.03790279374417403 0.2019644420631289 255 0 0
0.019800712590536555 0.053977556356367015 0.20521085810006998 244 208 63
0.04723399078979766 0.06498240640586317 0.20691363551945088 244 208 63
0.04659629907508128 0.0650781013651053 0.206920703754947 244 208 63
0.0410120997098001 0.05962212002425124 0.20621089619895785 244 208 63
0.060994202723240507 0.034241184151073197 0.2014133369295557 255 0 0
-0.0017183767652987222 0.01399203384957142 0.1987073501489387 244 208 63
0.06290032342109678 0.03689463648106326 0.20124711743149515 255 0 0
0.06915802025651721 0.02080468015911927 0.19488535903752607 255 0 0
0.05165644605310159 0.05393621433026456 0.1927689158351364 0 0 255
0.07300032948918111 0.06521174320961659 0.19445383712450653 0 0 255
0.05035016922861526 0.001819166291385628 0.1921996117009218 255 0 0
0.06784376755424745 0.035812434885634965 0.20221756768554067 255 0 0
0.061445786512731276 0.0562182640877087 0.19633768064985532 0 0 255
0.045776740902241805 0.0731869425353783 0.20698280265045002 244 208 63
0.0407579510258452 0.06293834284680691 0.2055783457388855 244 208 63
0.08598917176033945 0.04072492304552092 0.20403659666456492 255 0 0
0.047872486629149294 0.06450783885814064 0.20611707448859157 244 208 63
0.04482626623671218 0.02947661565749114 0.2022438497501124 255 0 0
0.08830588748115747 0.05525965254750069 0.20598601956858392 255 0 0
0.0638352939982012 0.06938679729566477 0.20709670611340678 244 208 63
0.06596093191435662 -0.0020464176483705257 0.19717653809991564 255 0 0
0.05130363403529671 -0.002189879325778757 0.1964928403321912 255 0 0
0.04265694404580965 0.04294326834221761 0.2029414897973721 244 208 63
0.06891879797772203 0.023504276793523123 0.1952415206935605 255 0 0
0.048468825566408046 0.05255543018820054 0.20527530688487317 244 208 63
0.07027008573741986 0.04113928755531734 0.20183313078969944 255 0 0
0.04027621531406404 0.06326027443547519 0.20344418628867122 244 208 63
0.06277389837004406 0.060941237290744174 0.19379676544287916 0 0 255
0.0760709152465592 0.03941247772754067 0.1910570305873593 0 255 0
0.06335733558790928 0.0694874844165077 0.20580605721752301 244 208 63
0.06417318498659667 0.0694051782054883 0.20725504769420083 244 208 63
0.058072271352577566 0.025422600138684234 0.19540031710235198 255 0 0
0.06211108986941015 0.058737153878531144 0.2060121843353663 244 208 63
0.03355402266928736 0.07947530925865878 0.19599843912903409 0 0 255
0.06057760823168985 0.05804536685905412 0.19720838450388098 0 0 255
0.06057479645461948 0.06875225944778572 0.20637203024765732 244 208 63
0.040705433009810055 0.06502103841697515 0.19732276216466066 0 0 255
0.060844117675622846 0.035647873460144835 0.1967818342035344 255 0 0
0.06854478639266848 0.07114383054120194 0.20474010114808844 244 208 63
0.060284702053428715 -0.0012456053673270198 0.19776789832769662 255 0 0
0.0455237281439152 0.02839526469047405 0.19144474527491573 0 255 0
0.06703175023187284 0.020887909064553043 0.200764913516963 255 0 0
0.0662781234944133 0.019161043379275298 0.1946417913104702 255 0 0
0.0681425479491475 0.04252634975152468 0.19351989866298405 0 255 0
0.07495373407487274 0.005961022099565762 0.19932547861177183 255 0 0
0.04844416670956793 0.06464370589670432 0.2050697396458602 244 208 63
0.04200556225862963 0.07390354930194357 0.20650938973058341 244 208 63
0.06094366482708598 0.056253040697349085 0.1947481388144444 0 0 255
0.06203411179196623 0.07158225374564316 0.20474078648234798 244 208 63
0.07034767006369275 0.07134838725359002 0.1952448287417197 0 0 255
0.05131977592487579 0.053228392396434274 0.1969112707799656 0 0 255
0.04439603948951776 0.07477875578569698 0.20394941848427356 244 208 63
0.08229702817131719 0.045584305295485635 0.20292846593279662 255 0 0
0.07715630937363513 0.015454467640346376 0.2006684394163183 255 0 0
0.0736936709995996 0.0632108571229887 0.20214303770219108 244 208 63
0.07867909432846558 0.03742546624331716 0.20306254400964935 255 0 0
0.04247926615494602 0.05363992207852254 0.20536633687604566 244 208 63
0.05429237473835854 0.0515941913744907 0.20312193287126137 244 208 63
0.04545015097837237 0.027289605608303527 0.1997758842101252 255 0 0
0.06546892657729259 0.03475028199554679 0.20232323344487493 255 0 0
0.04173124021104446 0.02275479283165155 0.20132443551900306 255 0 0
0.05494091454677969 0.05745644956707887 0.20533288348444706 244 208 63
0.07265844260718743 0.021753885929718452 0.19080298363721862 0 255 0
0.04891974696187646 0.06684441593462861 0.2050984029187306 244 208 63
0.08350704488482814 0.04449157206289074 0.20133511279084942 255 0 0
0.0683390647812356 0.06831036215594642 0.20760528831559313 244 208 63
0.01763438466774887 0.011485982902710004 0.198545677577087 255 0 0
0.08129379454023632 0.04830933367288008 0.20363806282269845 255 0 0
0.07266792036372534 0.020195970378564212 0.2011944687073842 255 0 0
0.0710628526738126 0.036279318955622655 0.2019511555650664 255 0 0
0.06986031148698414 0.026468894155105335 0.19087411261073475 0 255 0
0.07920002136775173 0.03069696824328628 0.20056855203422796 255 0 0
0.08128760180858081 0.04821627423048596 0.20433926553185228 255 0 0
0.07134617153912344 0.02131989998928215 0.2010387480465869 255 0 0
0.07774729128803248 0.06529451016391938 0.20514730158821068 244 208 63
0.07989124084521695 0.03392405519567131 0.20218039010138572 255 0 0
-0.0012506445228954916 0.011841082378131388 0.19307394364799055 255 0 0
0.013837356190675795 0.010406912938364897 0.18665796398858694 0 255 0
0.025870525550612165 0.04851221620832381 0.1918213445861056 0 0 255
0.04734290109582494 0.0008483621741417341 0.19686107807602363 255 0 0
0.05622584905981551 0.060493753500532 0.204855309270635 244 208 63
0.040675752467322815 0.06090490490858295 0.2056645579166546 244 208 63
0.053732001209136945 0.05217890409990984 0.20103255227184613 244 208 63
0.07380550989855425 0.06514007678307682 0.2071692292337443 244 208 63
0.040849800234452095 0.06319227336238878 0.2059696609363453 244 208 63
0.0699972064908834 0.02665354647841792 0.19089982756595808 0 255 0
0.07479325719354565 0.010935798950269977 0.1936253880467562 255 0 0
0.04670440797484773 0.05355983058257928 0.20545661739971288 244 208 63
0.06105719913922229 0.06897651411055325 0.20594730194543212 244 208 63
0.06384657365922645 0.06955629906383377 0.20581951063502535 244 208 63
0.08189125826662512 0.046237449077238806 0.20479559026423036 255 0 0
0.07575817128433404 0.008050990293849057 0.1964305012286171 255 0 0
0.05723506426281322 0.05743150751476096 0.20463622660819203 244 208 63
0.07313485732865756 0.06246296629637223 0.2068716112560039 244 208 63
0.04681705992877025 0.054119041431701695 0.19698970628796922 0 0 255
0.08655799930439777 0.04186045069707656 0.2021150854703632 255 0 0
0.044237354450283095 0.07532038676343387 0.2076091493034229 244 208 63
0.04026356618032213 0.06652428437333037 0.2060498843138467 244 208 63
0.06293810169216314 0.034781418516589405 0.19191616719025362 0 255 0
0.027489608747635893 0.07988847574349484 0.19599971373139716 0 0 255
0.06970103604633343 0.01998378325812177 0.2001332860507948 255 0 0
0.049538862825975485 0.03234712604657859 0.2023096226245416 255 0 0
0.004537894344448622 0.028768842126827156 0.2007236928246524 244 208 63
0.05356483276635157 0.056342453183611 0.2037456685163005 244 208 63
0.04205963402140575 0.06670545344712331 0.19437881804403354 0 0 255
0.06654537993481974 0.07122652381125012 0.19519507550206242 0 0 255
0.06270445635930989 0.033645997037858075 0.20130175976554263 255 0 0
0.06147487886256369 0.07181387854110054 0.20640400602116182 244 208 63
0.0646439164960321 0.0339280330653387 0.19234788288014876 0 255 0
0.0819360713377225 0.0495401059636077 0.20309346457286492 255 0 0
0.06648644544754498 0.021137461197461776 0.19278629948270246 0 255 0
0.053104376477060705 0.05686530413101398 0.20164896041822333 244 208 63
0.06815774491496568 0.0368230924717665 0.19064349697622468 0 255 0
0.042200154391786655 0.04593816273535973 0.1916239480706154 0 0 255
0.05913766786826631 0.03629600973123353 0.20149124486032366 255 0 0
0.013078647257944314 0.03493393168553853 0.18990634306305695 0 0 255
0.06130727286492173 0.05514964403612288 0.20414325622674223 244 208 63
0.07638195705505406 0.040016515124303695 0.20385773405162086 255 0 0
0.05307782654544726 0.05917397940396882 0.20572277720877857 244 208 63
0.0522783555505982 0.058738017799482234 0.20512264708167552 244 208 63
0.03867507927560432 0.05844249130456632 0.20389287292297234 244 208 63
0.057489702187974244 0.03298566285708959 0.20175097254431051 255 0 0
0.06043256343543421 0.06859450605905508 0.20688504928970722 244 208 63
0.040660053099139865 0.0613703566491039 0.20465577603470025 244 208 63
0.08780675185540628 0.05408844896229609 0.20582617625352548 255 0 0
0.05016143379583854 0.002085769534470927 0.1965149875778279 255 0 0
0.039696544268295664 0.045573968426804376 0.20219406045505886 244 208 63
0.07328838686491275 0.06413295524080762 0.19908238387267876 0 0 255
0.07897361194748287 0.03671963729506325 0.20243626035180248 255 0 0
0.07627752683450655 0.03904135488959252 0.19100960208515308 0 255 0
0.06719312375312048 0.002485221709460139 0.18607786038590218 0 255 0
0.045596379075937034 0.027405941560228873 0.19979261504991253 255 0 0
0.062033152171006675 0.05844024840186224 0.20570449052895096 244 208 63
0.06604015651997706 0.03488983495784121 0.20100878183202328 255 0 0
0.07978457842710228 0.034001774404467666 0.20111935095855488 255 0 0
0.05173121697735399 -0.0019943620274338776 0.1980645958226753 255 0 0
0.06773884565638283 0.0727266987694163 0.1954047099717176 0 0 255
0.08590039275647514 0.06215392668824006 0.20370029223508015 244 208 63
0.08325126908779425 0.046006442404463464 0.19517500555059822 0 255 0
0.06741052050841553 0.0711338932446865 0.20790821491895714 244 208 63
0.042637624200711356 0.044603571503310645 0.20369687601402353 244 208 63
0.07507831419855619 0.01294594236297017 0.19707412586342013 255 0 0
0.06288810846539614 0.020855278397219717 0.19801614693593023 255 0 0
0.017152561317421954 0.0626823389104201 0.20640631264939902 244 208 63
0.0590156052174409 0.03061348528737342 0.1929181047310552 0 255 0
0.05381667299236525 0.056512993620196544 0.20591135616517015 244 208 63
0.06856734521871571 0.03432743923118758 0.19667480239034213 255 0 0
0.015088043292034805 0.06767766484439522 0.20669422570605658 244 208 63
0.06591815053348679 0.03202212305536549 0.20205433772862802 255 0 0
0.061976893048736034 0.056317407661390116 0.19794525257646062 0 0 255
0.06795916137144305 0.041848011288682 0.20373320390247418 255 0 0
0.0611388450932832 0.0688820762215015 0.206852990623957 244 208 63
0.06070129769493547 0.03359383130865943 0.20266286178961015 255 0 0
0.05603100447606442 0.05976574071434327 0.19358121010284715 0 0 255
0.06362082432927027 0.032865005392173824 0.202795927289012 255 0 0
0.051539944447149245 0.05229585747507843 0.20442012817985752 244 208 63
0.08808144228390774 0.05349712808921374 0.20420809426001177 255 0 0
0.07016405160569822 0.0008683985185537479 0.1986073154865516 255 0 0
0.02959964152297668 0.047026975321492644 0.1916571662782961 0 0 255
0.052881004053637506 0.05852523564365532 0.20610655039928708 244 208 63
0.05958681069487607 0.06872407698533835 0.20497574487890646 244 208 63
0.07378543038516062 0.01720059371455896 0.19908637807620977 255 0 0
0.04270773173586676 0.04513315412368789 0.19470104422200493 0 0 255
0.07473144802231636 0.0641447327849524 0.20704531061507472 244 208 63
0.042247813635784906 0.010191963320655553 0.19859131861576249 255 0 0
0.06541231849871047 0.020915614057973164 0.19274737100923925 0 255 0
0.06026410100805163 0.032596423958664085 0.20225902872509122 255 0 0
0.06347479638859665 0.05598543130324681 0.20485622253933422 244 208 63
0.042559618710116306 0.023577703519017303 0.20090575927703416 255 0 0
0.019587035771966983 0.0368636431462912 0.20293771448139683 244 208 63
0.07286397454125051 0.06541080851686142 0.19447905165471155 0 0 255
0.08649368795704435 0.03963114564124742 0.20181865742519883 255 0 0
0.07220911278797612 0.019933028026998683 0.2012191156563947 255 0 0
0.049727886434335636 0.03212632107641648 0.2013899765667215 255 0 0
0.07391142595230377 0.06206011436173703 0.20682500548155439 244 208 63
0.06122704774163965 0.035517280816913646 0.19959405967914953 255 0 0
0.06325056105806051 0.06415355812708773 0.20694508742739823 244 208 63
0.060725867915701955 0.07083458530564349 0.1950916642428954 0 0 255
0.0861077016551138 0.050408769922323765 0.20378079452045808 255 0 0
0.06247016101824928 0.0556591754705905 0.20581087144228585 244 208 63
0.08712298278513414 0.059139434155699264 0.20601886527648064 255 0 0
0.02200779580273121 0.05130141759522185 0.204875188965119 244 208 63
0.07287021954601472 0.06293178059016205 0.2058610770792849 244 208 63
0.06868315103093074 0.042095611076926165 0.2019460331955854 255 0 0
0.08190186736979073 0.035992894076935074 0.20161638401668053 255 0 0
0.05506076699882879 0.057640843851309374 0.20428799847028212 244 208 63
0.01000969375297615 0.03058495462241321 0.20101304110999893 244 208 63
0.07054449873211194 0.02553143630658325 0.2018838067511597 255 0 0
0.06494898712932942 -0.0012402039060960476 0.1919225210388755 255 0 0
0.06630015299444883 0.019992014255230277 0.20111116338509955 255 0 0
0.049335754692772495 0.03318402857647059 0.18999431409991957 0 255 0
0.05517737469288177 -0.001958230596383337 0.18856148315821644 0 255 0
0.06037007491090051 0.05426302169132928 0.20531382638860865 244 208 63
0.038867768381143905 0.07654673704593432 0.20837449751742473 244 208 63
0.0021016455338646093 0.010805594995937187 0.19938861708108113 255 0 0
0.04967630921755836 0.032199336237147255 0.2017560114376283 255 0 0
0.07051820232023151 0.06990091086988652 0.20459257665207783 244 208 63
0.05865347552771734 0.05970814555521449 0.20504009710112273 244 208 63
0.08228488262188158 0.04893794143610612 0.20509386474626734 255 0 0
0.0691244434542224 0.024532150006339584 0.19114048746354362 0 255 0
0.03954706184782268 0.05664612864218324 0.20366217137046955 244 208 63
0.04017476132915409 0.06076100330433183 0.2041714184729458 244 208 63
0.07100465826755364 0.040709461082473 0.20225313765009684 255 0 0
0.044984201843314336 0.006471342263023143 0.18959018392666016 0 255 0
0.07369882325816991 0.022903535892077796 0.19202456231561926 0 255 0
0.08056811196749097 0.035355640536316985 0.19055834872284366 0 255 0
0.041063840931337026 0.06378193738797149 0.20462258892158205 244 208 63
0.06691065187273675 0.0340775643782363 0.19238774665157432 0 255 0
0.04819377440098328 0.0503888880580033 0.2045137383455629 244 208 63
0.05579073246360405 0.060821580135844606 0.19795847901451055 0 0 255
0.05938669558726169 0.0676637296373286 0.19783846955254353 0 0 255
0.048643976021985155 0.052426131347739505 0.19254190173954389 0 0 255
0.07560892406136731 0.039715039362158824 0.19427255403023175 0 255 0
0.06062177432124254 0.06872416838565504 0.20675101026974385 244 208 63
0.06963000412499178 0.00012487489064796908 0.1964266876759954 255 0 0
0.05008410156269047 -0.001680152733641041 0.19815534425435022 255 0 0
0.08857808089387108 0.05450633621464973 0.20541683896751078 255 0 0
0.03984205615366987 0.04644884508720824 0.19167089704110252 0 0 255
0.05944978738760165 0.06958197320862133 0.2000012743327364 0 0 255
0.04107533882774532 0.06592889808153131 0.19426706535926586 0 0 255
0.04431498131905235 0.054203777352194726 0.20545738066114913 244 208 63
0.08374644354971926 0.05205323671209319 0.19492205743063004 0 255 0
0.06011091348757294 0.058484212636023214 0.20569334878473627 244 208 63
0.009944259788644865 0.010557405030287029 0.19942494150683387 255 0 0
0.04885062321626075 0.06473988023307406 0.20481849101717842 244 208 63
0.07034020859651283 0.026151412878378445 0.1971951128520358 255 0 0
0.054052845719399764 0.05700378683971085 0.20419455051945337 244 208 63
0.07230904623890687 0.0638869523551774 0.2049124705829457 244 208 63
0.08514741947470686 0.05317783119723718 0.20144257187114395 255 0 0
0.0387940955602879 0.06505016916929172 0.20584127077851883 244 208 63
0.08144528345904291 0.035320921022411814 0.20291470973898412 255 0 0
0.045698580552791385 0.028723412014896994 0.18937020565356838 0 255 0
0.051419900188765015 0.05293655620227766 0.2049280222006664 244 208 63
0.057287172205262436 0.02877248891304418 0.19583796069538983 255 0 0
0.06065807765210052 0.058288503233928486 0.1946978045061312 0 0 255
0.057090399894587224 0.06830023234533014 0.20536377001164324 244 208 63
0.07038430571679317 0.036346773892503584 0.19907847260577627 255 0 0
0.019967739941937245 0.0731519735337716 0.1950392552996294 0 0 255
0.04717378846254079 0.005587687427020732 0.19802377074144423 255 0 0
0.07050280810134135 0.03833057032524021 0.2035820633044635 255 0 0
0.044778158784090284 0.012509631857087145 0.19945646402956058 255 0 0
0.06095967347325138 0.06876217388083763 0.20737070313640127 244 208 63
0.06691807450742801 0.0014301390929737715 0.19657596391963905 255 0 0
0.08077361290955302 0.034762445177307755 0.20176424502783805 255 0 0
0.045647641620571514 0.05331331391882923 0.19263318093689114 0 0 255
0.052826739347389656 0.05552583827625239 0.1972294829740772 0 0 255
0.06116849383020693 0.03545980246916838 0.20029245635348078 255 0 0
0.0030228402106349844 0.02223208791181855 0.20091320869596238 244 208 63
0.040162350339494765 0.045425640260248965 0.20271369296839936 244 208 63
0.04116962035192672 0.0259157417389375 0.19531648670808022 255 0 0
0.02141714341717686 0.0754329138944076 0.20489311090878515 244 208 63
0.04886418227250269 0.06447409985379596 0.20692416836856506 244 208 63
0.06236613262465006 0.06252081422082137 0.20354113853095576 244 208 63
0.04960938185354678 0.03221895725973507 0.20247163571169635 255 0 0
0.06010721912832317 0.055629848174577314 0.2010169414880648 244 208 63
0.05162206422854793 0.050292952317400746 0.20292565710720387 244 208 63
0.04202940498738471 0.06454095500315905 0.2058022638224733 244 208 63
0.07048281732790164 0.03622211751430583 0.20330206546955454 255 0 0
0.06267715315520715 0.03519124371649504 0.19037852542535477 0 255 0
0.0447342496233362 0.014923678807424984 0.1987060316421946 255 0 0
0.0710464696441456 0.021821206660270764 0.19962444109103805 255 0 0
0.05339141017420758 0.05576770804150265 0.20509507919858294 244 208 63
0.04433343173832595 0.0547696374973154 0.20129337469065378 244 208 63
0.05559360925969639 0.060304540073494284 0.20616263879804353 244 208 63
0.06122085097334232 0.037600561642731144 0.20340320650737537 255 0 0
0.05916591536735673 0.03521426733244274 0.2030683634161896 255 0 0
0.06460806352399512 0.00012631848645562604 0.19745294271122074 255 0 0
0.06915060867261945 0.019547650686831966 0.19935693265834908 255 0 0
0.041745173936583245 0.02296417776890433 0.19974672044269892 255 0 0
0.07344862421714186 0.06218844024012648 0.20683794885386828 244 208 63
0.06306142233584319 0.05561168432143853 0.20507057228873754 244 208 63
0.06391060943527607 0.017799446729259764 0.19979225528404443 255 0 0
0.029659755376229526 0.07955585240871568 0.20875612309998734 244 208 63
0.08366917183658111 0.03893969240830325 0.19106138999141095 0 255 0
0.043919406067500714 0.022666312473926524 0.19808897286324786 255 0 0
0.08121761198563607 0.035106703031588915 0.20267018479483231 255 0 0
0.05735319967396696 0.06865634804198212 0.20749058780436094 244 208 63
0.01922434384272912 0.05589978686295149 0.20552446990942316 244 208 63
0.06739501940442699 0.021112158379924043 0.19703022513908217 255 0 0
0.05986654728634161 0.06923952664679442 0.20547054722549277 244 208 63
0.06113549932695509 0.06384481399927389 0.20480819809709358 244 208 63
0.016740180809220132 0.06462058996436586 0.19387851647930654 0 0 255
0.05430372350202864 -0.0005451741449126746 0.19673761134320342 255 0 0
0.043534032190488174 0.056030763334441125 0.19721442427953395 0 0 255
0.055323968932243506 -0.0015688548851119088 0.18543500405889052 0 255 0
0.05090494072680358 0.05710238197659586 0.20382303067048604 244 208 63
0.0663267968935963 0.07202446533308497 0.20701001518367285 244 208 63
0.04528635131699668 0.07019976617405704 0.20334958515182974 244 208 63
0.06864098168571084 -0.0005430190265604193 0.19686451807867053 255 0 0
0.08340173974429313 0.038268563456689775 0.20268093198505896 255 0 0
0.05663225133088883 0.059707605123374655 0.19357880465685254 0 0 255
0.059469048264298566 0.06936547877279596 0.20336411920290398 244 208 63
0.05155494882916719 0.05276935397520474 0.2006677617557167 244 208 63
0.06799990762043236 0.02118224713898111 0.20128413552450594 255 0 0
0.025297542118038113 0.07785547880728459 0.20849193439545927 244 208 63
0.0541120763558201 0.050662998921121555 0.2051375886313864 244 208 63
0.0034002806048054916 0.024842737296999234 0.19166107397527737 0 0 255
0.08854300920735915 0.06282065602547786 0.20705516011420508 244 208 63
0.07686356646454431 0.015437557163502869 0.187882222455871 0 255 0
0.0807606081348729 0.03456701977418758 0.20323677504284718 255 0 0
0.045556684411633026 0.030208757242912544 0.20234746596621933 255 0 0
0.05674363283381354 0.02833638235595611 0.2011273587838849 255 0 0
0.07431535299379778 0.03923586689082552 0.20272905952778247 255 0 0
0.06042833716383596 0.06860584962865442 0.20673359935304333 244 208 63
0.056107735421922794 0.06043000205068863 0.20538101663807046 244 208 63
0.061969268109035205 0.06162052174197858 0.2061259932456132 244 208 63
0.05161034676852558 0.05372806693972593 0.19570837064618082 0 0 255
0.020876521968162597 0.0762384555371684 0.1954569007730343 0 0 255
0.06952338212131004 0.025139797565178933 0.1970536434269484 255 0 0
0.082341279611407 0.06478958002665955 0.20401864781822943 244 208 63
0.060313259489476606 0.05827634765075058 0.2053999398817683 244 208 63
0.06053640574725917 0.058481040934939964 0.19472228240590997 0 0 255
0.06662925541490902 0.03496658443360661 0.2018269834209562 255 0 0
0.02535887526792225 0.04968539639796491 0.20368349545782582 244 208 63
0.05483130744652374 0.05736267942360207 0.20567627838180685 244 208 63
0.041579734138770905 0.04303886286199424 0.2039514832154458 244 208 63
0.042896246670147485 0.043012623278975315 0.2040232228357325 244 208 63
0.043550260731460275 0.0675292256108568 0.2040396510454895 244 208 63
0.04308802843239787 0.04417995927526361 0.20310942320241018 244 208 63
0.07308235855631157 0.020070735600167377 0.19694224193939708 255 0 0
0.08426586667739923 0.052189559189445185 0.19918399927607192 255 0 0
0.04021714958878761 0.0637224396482685 0.19396665818116762 0 0 255
0.06335335455550366 0.06942766063010314 0.206256829326398 244 208 63
0.05346827454867302 0.051045717623005464 0.2029994664862399 244 208 63
0.0161182659097863 0.011137346290253432 0.19902123017846862 255 0 0
0.08209968532250689 0.03610681514618612 0.20259662294423897 255 0 0
0.05261167358704052 0.05033349085447479 0.20293977695974758 244 208 63
0.08807395849416873 0.06345246181175429 0.20499403675878378 244 208 63
0.04917693062771841 0.03253962992087323 0.18990739068449486 0 255 0
0.0679927766688167 0.0013587644900583881 0.19865321813413506 255 0 0
0.021320373703734633 0.03899873041356629 0.19263822002551223 0 0 255
-0.004102003015223221 0.013584629029751731 0.18946481987863226 0 0 255
0.05955632835085136 0.027566755087220063 0.20051484779239295 255 0 0
0.04207044324744069 0.011084575182857263 0.1997786295209891 255 0 0
0.06277604703415232 0.07128372449158078 0.1951693776496116 0 0 255
0.06080522173294015 0.06871352373166924 0.20736288252495197 244 208 63
0.05811714732145884 0.05719029737796695 0.20597562879948475 244 208 63
0.006339703344725543 0.028683011184784796 0.19219669198984785 0 0 255
0.06043287678047095 0.06872509817838647 0.2056790502540901 244 208 63
0.03871825107603681 0.07608258147499114 0.2083751721712224 244 208 63
0.07920790811629341 0.03599433007123507 0.2018068598981854 255 0 0
0.05741690520077181 0.02455161060551335 0.2017014277507615 255 0 0
0.06392477262135862 0.07037443675016862 0.20353737319987464 244 208 63
0.060824916504161816 0.05624110656001832 0.19474550625093634 0 0 255
0.0754565182511044 0.03777419895102584 0.20254515397301692 255 0 0
0.08161432860452766 0.049090674206239686 0.2030309771714735 255 0 0
0.06683852379996906 0.03556647259663635 0.19364452444689498 0 255 0
0.08257832804307023 0.04494674685842065 0.20302473742392776 255 0 0
0.06078516078816301 0.02408787384807379 0.19206769247331806 0 255 0
0.060653588866820034 0.05478940038624404 0.2056793968672154 244 208 63
0.056906528810827264 0.06038089610633407 0.20511395223352213 244 208 63
0.06069163131367128 0.037675583301647775 0.20128885567580845 255 0 0
0.05816412151866969 0.03454166205283295 0.20124982033956143 255 0 0
0.06141451323685553 0.03802291738715594 0.2035245644765077 255 0 0
0.08391834667649765 0.03807256595766953 0.20366630297875102 255 0 0
0.06940778713323612 0.025321031240905935 0.20137423523114417 255 0 0
0.06056484382515891 0.06860269925375839 0.20749896600544307 244 208 63
-0.00129413709084566 0.016997748628343398 0.19057847470654754 0 0 255
0.042597419352430506 0.05699885551302143 0.20427112660753585 244 208 63
0.053737085365470484 0.051201758580961265 0.2051421827475748 244 208 63
-0.004132996299824884 0.013050556131506378 0.1995678980760802 244 208 63
0.06193960629710317 -0.003476242423590535 0.19641605439029014 255 0 0
0.044248813010977696 0.02615384386397649 0.19961454296485848 255 0 0
0.052671673177652784 5.616060085978508e-05 0.19787342582958417 255 0 0
0.060575362884644934 0.03822438882382103 0.2014030611456308 255 0 0
0.07317537626154194 0.01845975184743973 0.19924809829030568 255 0 0
0.03919644567108158 0.056980748316145885 0.20584431399213338 244 208 63
0.0630789646013058 0.034469451228316766 0.19346573144388182 0 255 0
0.0694650794172276 0.025186493373694954 0.19546959897850202 255 0 0
0.07077209449511748 0.0212931887825279 0.2013869369315666 255 0 0
0.05944528917137438 0.021805037654534627 0.20129123772415589 255 0 0
0.06218470849761789 0.06255460173497626 0.20672347030138757 244 208 63
0.05944482262769686 0.068695889099908 0.20624252706952986 244 208 63
0.059310743840819045 0.05929192362291731 0.20499066332941798 244 208 63
0.04530155886115045 0.02115417395248049 0.20107994741156487 255 0 0
0.07301206458074222 0.024022596332573514 0.1921670121765403 0 255 0
0.0604298282062903 0.058667208371814245 0.194746048189382 0 0 255
0.018457437029663657 0.07237656423658811 0.20764080146253444 244 208 63
0.022259399022290283 0.07716279984773314 0.19559178723510207 0 0 255
0.06830870717283431 0.03685080848131044 0.20128906544404884 255 0 0
0.05748116164888359 0.06756922267715303 0.20669742484008205 244 208 63
0.061707850639119204 0.06402628190911015 0.20373512155205475 244 208 63
0.07744833776548114 0.033117527807261904 0.2029515594248963 255 0 0
0.014968023281512853 0.03604217923621107 0.19007010925550236 0 0 255
0.04244740441862219 0.07575307928978653 0.19558298962366372 0 0 255
0.04386897429302172 0.07551652580624954 0.20404267610086174 244 208 63
-0.0015883383443615544 0.01904042700070898 0.20038531138537224 244 208 63
0.04304844459475608 0.04337383017494538 0.20407250421012307 244 208 63
0.06356583835834392 0.07005160790090288 0.20561099241249073 244 208 63
0.08056148083925165 0.0345714175084158 0.20162997362064702 255 0 0
-0.004645119326661934 0.013608079123122289 0.19863054619003756 244 208 63
0.06506708147302512 0.03204887995520167 0.20205037245568128 255 0 0
0.05737058128738087 0.026850997354694515 0.20194258444727692 255 0 0
0.07022328899617772 0.025494944168653746 0.20187612694097504 255 0 0
0.06942847337805017 0.002678823894710497 0.19566163806949316 255 0 0
-0.0018298527496202707 0.013792961289274824 0.19760953076866736 244 208 63
0.02549901511786729 0.04069074855867119 0.19078004501172346 0 0 255
0.07012739533224134 0.022107674192666068 0.19506684575493446 255 0 0
0.07314429193806635 0.04011395305388896 0.20283525156164978 255 0 0
0.0640773317717432 0.0696031919249912 0.20567485750972755 244 208 63
0.0594820924537647 0.054984556752180995 0.2043313267152914 244 208 63
0.07016665405834348 0.03561544335888123 0.20109912566007496 255 0 0
0.04022021573151568 0.024921835891668506 0.20159868781034784 255 0 0
0.06214077295140669 0.05899123113438082 0.20524335282779615 244 208 63
0.008444367811169147 0.029023063889563265 0.20186234721854016 244 208 63
0.061619473662458894 0.022458785444079366 0.19503830470922692 255 0 0
0.042634608270312874 0.05294532543006752 0.20426870591302074 244 208 63
0.04641833316125752 0.06511463872717664 0.20692398105459628 244 208 63
0.07128437341776489 0.004630137412661939 0.19810962510495195 255 0 0
0.07294688091747883 0.0628841104953631 0.20549862381436357 244 208 63
0.0435093107920352 0.006838766829943426 0.19762223218165959 255 0 0
0.061622821259017385 0.05472618830153703 0.2046727474401818 244 208 63
0.011065509824664133 0.03553641735758177 0.18996852217362178 0 0 255
0.05843651282627142 0.05907562101963769 0.20622865821506098 244 208 63
0.05057828214888094 0.052453536558015164 0.20316078060580742 244 208 63
0.05454440004851786 0.057345298957360485 0.20460102269153105 244 208 63
0.05294358357558877 0.055327913208193975 0.19508461487831003 0 0 255
0.06071796823144555 0.03383898112188259 0.20082231541625495 255 0 0
0.03962826773764234 0.0563521698660038 0.20469429123870772 244 208 63
0.07084213784977955 0.03566296876012997 0.2015106004643519 255 0 0
0.05112458081485143 0.05240265141907184 0.20315885211694618 244 208 63
0.06640856322236305 0.017816025537091162 0.20017332029637075 255 0 0
0.06286520578214967 0.07116380252976025 0.19621406653579088 0 0 255
-0.000759841494736133 0.015997734282551305 0.2000524153800106 244 208 63
0.06272398539851355 0.0617268182958478 0.19708003164039467 0 0 255
0.0477256048519135 0.026457583092663488 0.20079837226378916 255 0 0
0.08963726573237187 0.05796972662378284 0.20481541125585356 255 0 0
0.06141743653562758 0.0630485965578636 0.20684584920909999 244 208 63
0.0382860838862633 0.02401273107062666 0.18867956806988317 0 255 0
0.06375757541777126 0.07117435988491697 0.19728316548449312 0 0 255
0.0646512343302249 0.019757588636725887 0.18834769701831425 0 255 0
0.08113634231697149 0.062463196244748574 0.20587189232879008 244 208 63
0.07948088676169195 0.034727559180943016 0.20181955984818803 255 0 0
0.06192171015575398 0.05548816306687605 0.20419360890941446 244 208 63
0.07123471134814263 0.02597350278760961 0.19558967483074252 255 0 0
0.06860982300163287 0.0025078322418645924 0.19673392974965503 255 0 0
0.0610988911152856 0.036128920222828306 0.19543483837841896 0 255 0
0.08803234979580243 0.06340577418382151 0.20552267712143865 244 208 63
0.02301535677250502 0.04803074407073457 0.20237278773608464 244 208 63
0.06319535018663498 0.03264218870621732 0.20175577862103486 255 0 0
0.04584061048870152 0.05114074797370891 0.20405752723603165 244 208 63
0.0297959781328198 0.07979601249050497 0.20718357232338797 244 208 63
0.053380751104517274 0.05927765904847138 0.20627441619412318 244 208 63
0.052387351936019094 0.05031575254957444 0.20293544172185893 244 208 63
0.0574364636688454 0.06027980504622537 0.20483760695390854 244 208 63
0.04945792426502949 0.03246664843988973 0.20214637001859478 255 0 0
0.044787447976805575 0.01264922245174956 0.19840464918271097 255 0 0
0.0716735526585047 0.02079685204541298 0.2013290273842117 255 0 0
0.07377614125584107 0.01706100407255734 0.20013818574476225 255 0 0
0.06438351382611178 0.0006466544639123148 0.18898849277546187 0 255 0
0.06067884083696266 0.03369726007156178 0.20133836542360758 255 0 0
0.06109694977915268 0.03548577123117777 0.20029527092532537 255 0 0
0.07471828856687895 0.03938912367155636 0.20375977756860986 255 0 0
0.07453371336979825 0.017963990727525046 0.19031657295856397 0 255 0
0.08501246878388276 0.05124474712008015 0.19270630692139148 0 255 0
0.04469996459878282 0.05452567264957511 0.20126423419707043 244 208 63
0.04537566238002031 0.028263150232783908 0.19142590417642089 0 255 0
0.05720983416550877 0.02522993054189627 0.2017896215624543 255 0 0
0.059941229720178964 0.05576461008787954 0.2010333603359889 244 208 63
-0.0007338189099017787 0.021580521312937105 0.19972314416293058 244 208 63
0.060684267240668534 0.05499633368584751 0.20411740766380296 244 208 63
0.06835311620244917 0.03629756114263853 0.19693437324102686 255 0 0
0.08398560373269778 0.052090265890221324 0.1970487164666672 0 255 0
0.06178887934253438 0.03370234943317919 0.20134884425326785 255 0 0
0.019416769819513565 0.0701797738927196 0.2074213240650899 244 208 63
0.06092347560692932 0.03415072831471193 0.20140070753775563 255 0 0
0.08722053689551637 0.06382990419256465 0.20557179553216448 244 208 63
0.04237244069945845 0.009429145997555871 0.19956159794689587 255 0 0
0.08131442320700999 0.04842512955391117 0.20401041656103258 255 0 0
0.06671107948741893 0.019320409740492612 0.19466676515150927 255 0 0
0.06278002359740037 0.03574535265921267 0.20317076419969793 255 0 0
0.05930609930799556 0.05922212928032694 0.20551656355887252 244 208 63
0.07752382513322331 0.03129346114399645 0.2011681154819282 255 0 0
0.08246417983809427 0.03665014756225969 0.201922654127069 255 0 0
0.0797570026317181 0.03382993715096075 0.20238079828913105 255 0 0
0.049780242595519296 0.03200580486653853 0.20083923355147212 255 0 0
0.061578738506937465 0.0377613690538892 0.20088415078886437 255 0 0
0.07048453168862291 0.021069979668432985 0.19982560864586574 255 0 0
0.06538171560169452 0.03469758076422287 0.2028506803466272 255 0 0
0.08388618220563426 0.04016274950963103 0.202936595458264 255 0 0
0.050902383504049374 0.05270878098818632 0.20431033070877047 244 208 63
0.06338181593417379 0.07098038945301054 0.19831392011333862 0 0 255
0.06937244575842536 0.0022446031585713344 0.19878296602558018 255 0 0
0.043951864240222065 0.0521979166307904 0.2031107325851203 244 208 63
0.07037543196444443 0.04252934438263102 0.1914203823970413 0 255 0
0.06211262124869786 0.037824195236466684 0.20136352626763726 255 0 0
0.04943781764494728 -0.0005001445570245906 0.19824264510334333 255 0 0
0.01611121986948493 0.05750527575644068 0.20564645191329975 244 208 63
0.07457700487169526 0.06588016641332338 0.19455647080979113 0 0 255
0.047066188017954314 0.0713174931687128 0.19503511626450873 0 0 255
0.060193672727118765 0.056653973841129905 0.1932049979188549 0 0 255
0.06458037055535522 0.057791565382524085 0.20457047464697128 244 208 63
0.07243400702997793 0.04083666275659634 0.20393171249689804 255 0 0
0.04453850630290859 0.02772826743004327 0.18922789070327617 0 255 0
0.0824632508872356 0.036636188028127084 0.20202783918836403 255 0 0
0.024591558160440452 0.07688946710131417 0.20829390103602027 244 208 63
0.08993629617864815 0.05950021653574819 0.2066267961173691 255 0 0
0.015254780673837925 0.06833393302801591 0.2053555715342322 244 208 63
0.089267988368394 0.05889579947809862 0.20329763422793026 255 0 0
0.0664027450133762 0.034873159456591724 0.2018125841691154 255 0 0
0.07072518933961743 0.04031428015704983 0.2032686386515825 255 0 0
0.0577337054425814 0.07039800174411509 0.20618305880251822 244 208 63
0.03850652187374451 0.06415405307040487 0.19400883178604114 0 0 255
0.07069206521938691 0.03990183304269261 0.20278544320875286 255 0 0
0.03789273596580301 0.06262617278067192 0.20658202724057428 244 208 63
0.0682194706701353 0.039944897587957724 0.20165650829297024 255 0 0
0.06244491356447161 0.05832403556002761 0.20404467939801543 244 208 63
0.029108925933223263 0.04498150438812392 0.20416275709495343 244 208 63
0.060239470116332086 0.057333551128477975 0.20601338405820357 244 208 63
0.07973228062754417 0.03375901303484546 0.20290637860306515 255 0 0
0.02806714983488596 0.07933809739130253 0.20657232833001024 244 208 63
0.014976742701902732 0.0672743593114767 0.20699652228744675 244 208 63
0.07754004153314606 0.03376210524660127 0.19667901776927746 255 0 0
0.048831236318871915 0.06459668905681756 0.2058697314684766 244 208 63
0.049246235644916106 0.03182476362869627 0.20041128878630848 255 0 0
0.08283410740382546 0.03726212451346474 0.20147193516880238 255 0 0
0.0033469916603105637 0.026282061950082543 0.20138996478383225 244 208 63
0.05620437284795903 0.05920820013638166 0.19774801394172764 0 0 255
0.06042943840068701 0.06863767938711826 0.2062790829100481 244 208 63
0.06405342223596328 0.06400519713819199 0.20592566822393235 244 208 63
0.08137880852713981 0.048665089873085265 0.2032400181092884 255 0 0
0.010126894558401746 0.010771716722546558 0.1978493701777671 255 0 0
0.06828849413612482 0.03846846264883231 0.20150357234617608 255 0 0
0.0735518340746396 0.04081193064227392 0.19969903588196838 255 0 0
0.02277562420092154 0.01153773651209484 0.1932458754391401 255 0 0
-0.0010571697609402212 0.011707312863768235 0.19733955996189081 255 0 0
0.05985948894249089 0.031582258932597376 0.20078283693908053 255 0 0
0.07078669172107412 0.021512544275966477 0.1997340937346829 255 0 0
0.08591906846714736 0.04421753129336077 0.2038494794067633 255 0 0
0.0431040143516609 0.04364076028960913 0.20410842035233517 244 208 63
0.07130008258511117 0.004237747733974735 0.19588505842248807 255 0 0
0.056818800614826824 0.057968900550538584 0.20606749390995127 244 208 63
0.07119785329791367 0.0009839886594050912 0.19816017718012421 255 0 0
0.04076920150150332 0.05474271745781875 0.2044907705660602 244 208 63
0.03070611195847616 0.014405543534888076 0.19797817318463792 255 0 0
0.060548095465669735 0.05778307655036368 0.2061393631312379 244 208 63
0.05954703915813607 0.02742716449255765 0.20156666263924258 255 0 0
0.0647416525549496 0.06944963623748743 0.20718951118782292 244 208 63
0.06529862193184509 0.020910757327173575 0.19274572233193993 0 255 0
0.04251405078716774 0.012193431246385795 0.19986611295535867 255 0 0
0.07111887179838211 0.04079726170023986 0.20183763339223323 255 0 0
0.07032625191945448 0.026548932415676806 0.1940682961231865 0 255 0
0.07107078100377807 0.07028640873106405 0.19828972488218716 0 0 255
0.06598533624369768 0.03474601567241393 0.20205962599150362 255 0 0
0.0750234426218802 0.021059773941197076 0.1886121183311995 0 255 0
0.04463838867600282 0.07137860218563655 0.203500310700624 244 208 63
0.08499174646110275 0.053320160432828986 0.2057629477086956 255 0 0
0.060677486938176914 0.057704378743367146 0.2053272482847863 244 208 63
0.0682330592665727 0.02266001961984224 0.199940284409933 255 0 0
0.08601801650122928 0.04218810830331083 0.19787214061250996 255 0 0
0.07463688297249177 0.009697591363388984 0.199818575506283 255 0 0
0.04914107963060215 0.0313361040060529 0.20034550810066626 255 0 0
0.04640104409970503 0.02270028595400212 0.20082323952635525 255 0 0
0.06561689788422054 0.01940164839468 0.19148843647350847 0 255 0
0.08588433696312596 0.05536457974966243 0.20390132344861825 255 0 0
0.06821760811071535 0.033308810961500394 0.20289542340666675 255 0 0
0.08268540024535069 0.05047287110721589 0.19682258261712218 0 255 0
0.01840138267135221 0.07383088597786064 0.1951155230928507 0 0 255
0.06573050752743717 0.02030419657701907 0.20121115857706728 255 0 0
0.04065504181017893 0.06148749442662992 0.20467127760443204 244 208 63
0.05048499949472686 0.054918523303341314 0.20352949322250566 244 208 63
0.010227901762119462 0.00793940221232926 0.19908000079191665 255 0 0
