ply
format ascii 1.0
element vertex 689
property float x
property float y
property float z
property uchar red
property uchar green
property uchar blue
end_header
0.056969201211965984 0.057835294596035036 0.2050957934149579 244 208 63
0.06315649129836443 0.021142793225237207 0.2018208132419784 255 0 0
0.0814214363752859 0.03230170042209002 0.20070925954423927 255 0 0
0.03719443286747766 0.07628526881174127 0.20630172285879583 244 208 63
0.004110500727857926 0.023644230354604875 0.1988091753632596 244 208 63
0.07162948253778059 0.0010195012105109133 0.1989256293212604 255 0 0
0.04338252925337216 0.05193995750836048 0.20408719968632505 244 208 63
0.05631342977900281 0.0684962496914893 0.20541899829097726 244 208 63
0.021722490998250642 0.051387329376019614 0.2045653439232427 244 208 63
0.059192686513173845 0.026966807492739504 0.20228680213654582 255 0 0
0.08812499858772142 0.05498665948599944 0.20490592320095832 255 0 0
0.009370667441673433 0.008584829231925878 0.1879462620716138 0 255 0
0.047426438873745085 0.06865005196848087 0.19342041125335876 0 0 255
0.04121832637080068 0.05820359181010217 0.20518952595552903 244 208 63
0.0818556748896644 0.03320205343318537 0.20285872403001023 255 0 0
0.05118570712624994 0.05237809173151071 0.20206642798267677 244 208 63
0.04387047033261552 0.02300001125566791 0.20198606971561872 255 0 0
0.05989454096956498 0.026443752544888253 0.20123726434959163 255 0 0
0.07152175410842593 0.06849863522288864 0.20290469050498192 244 208 63
0.05610279585965938 -0.0012724332905065597 0.19977936114184358 255 0 0
0.06823382685393409 0.041847854059829506 0.20364293660302324 255 0 0
0.040396236265891006 0.022737033852362584 0.1892403647434984 0 255 0
0.05787412844835285 0.02605564293992929 0.19587471873612738 255 0 0
0.045156974546176426 0.02612012072941183 0.19271365071343705 0 255 0
0.053332578534410285 0.05337427473257516 0.20404212220151197 244 208 63
0.05998522247945155 -0.0008228904166383624 0.18709994423389098 0 255 0
0.07502054118191094 0.04165822259752541 0.20362700580943371 255 0 0
0.05291707070606779 0.05386600840572643 0.19418558319337612 0 0 255
0.06661143899592162 0.03505273585215868 0.20255479259346112 255 0 0
0.0509655346368555 0.05351983093334244 0.20090452053625327 244 208 63
0.06095375993581091 -0.001240634218281557 0.19818515267727638 255 0 0
0.04062051126078198 0.06350860928118464 0.20567223328265385 244 208 63
0.05382115322565195 0.05839793478605312 0.19670785642811311 0 0 255
0.05333250961115401 0.05334221941650956 0.20439432901266133 244 208 63
0.061179473389187486 -0.001343851108191109 0.19977385466238093 255 0 0
0.08548032616990434 0.045325748136757445 0.20331589451838544 255 0 0
0.02092176146054132 0.052296330408376 0.20358255239487177 244 208 63
0.035199470546580985 0.07700623955249053 0.2047688981364906 244 208 63
0.025698038005470172 0.07658165827949977 0.1973024869053894 0 0 255
0.05726488624872115 0.057846341945459366 0.2029872227416405 244 208 63
0.05066011453074917 0.05441501429600426 0.2026736356354137 244 208 63
0.039601183120158215 0.06278298417264619 0.19604935211135358 0 0 255
0.07633957806520292 0.038233847923413264 0.19382225664651284 0 255 0
0.021980523884552853 0.040041878807711026 0.19081172278123745 0 0 255
0.007775994670585502 0.031082065421227593 0.20164921096943542 244 208 63
0.05734942374771332 0.0708818468632145 0.19678992515423174 0 0 255
0.043268284271179715 0.06758733159283571 0.20604396722372756 244 208 63
0.03783318673748861 0.06165307174248396 0.20543951515126582 244 208 63
0.05100537918620658 0.053833638966282495 0.196291896222922 0 0 255
0.053150498943181065 0.056221866112202576 0.20394613309005488 244 208 63
0.062110355392907275 0.03770731481624145 0.20226282591837402 255 0 0
0.06976721341793536 0.06697775568784714 0.20546099450404487 244 208 63
0.022327096306408823 0.05106414475296589 0.19497940776075304 0 0 255
0.06108495073831893 0.03578614459184585 0.19676094693040336 255 0 0
0.0575043884060836 0.05688097052368506 0.20436209266512428 244 208 63
0.06880002878249025 0.03817935054859509 0.19065137102907231 0 255 0
0.08604795816352925 0.044077165682807486 0.2032023686554997 255 0 0
0.05820464231131428 0.02487521773653871 0.19893179659776403 255 0 0
0.0607387623643347 -0.004053890889552915 0.19899444110460293 255 0 0
0.017604912322831467 0.057935443279720264 0.20409513458142364 244 208 63
0.0715346588465154 0.06563557612378812 0.20106189831257948 244 208 63
0.058936559432107204 0.03595512847657406 0.20210273351387953 255 0 0
0.05785584186866648 0.07102822639735958 0.20476193534248213 244 208 63
0.0509807806575795 0.05794224301681635 0.20330325887166908 244 208 63
0.07087573344400987 0.04092493027610774 0.20234431073501516 255 0 0
0.08946028279745229 0.060279368992436515 0.20538788863386434 255 0 0
0.08841891366961421 0.06339379205787944 0.203540406137324 244 208 63
0.05785670691027773 0.06678882336667363 0.20455366146935006 244 208 63
0.049311045002158105 0.029915444830855745 0.2007521356982013 255 0 0
0.058623666643220516 0.03544593103519015 0.20134608396423181 255 0 0
0.04780309591001314 0.03233009299421057 0.20070526486674392 255 0 0
0.027519140178125664 0.038682405824732286 0.20234480250248535 244 208 63
0.07001481702530883 0.03558402106241017 0.20096356237236004 255 0 0
0.05939101411546013 0.0702014873498249 0.19567358719927974 0 0 255
0.07185417962934466 0.06572031616242831 0.19474077530834902 0 0 255
0.040273471913433674 0.04526351396503862 0.1944549882299696 0 0 255
0.017687558761757167 0.07269944177170218 0.20437349765680318 244 208 63
0.0813941943312537 0.047433329837495895 0.2042171566283144 255 0 0
0.06230479040246935 0.021155859063915646 0.20175854065407822 255 0 0
0.013811564213415804 0.06279074010310508 0.20560165178752662 244 208 63
0.06192567042532325 0.037908481492181866 0.20192597792843778 255 0 0
0.03464203679513582 0.07987153241218889 0.2050295672808187 244 208 63
0.04880046882126474 0.02860571014377967 0.20089917275659067 255 0 0
0.06988540870524476 0.04013343443488229 0.2034872257285839 255 0 0
0.06891544524416535 0.02402957752733448 0.20128564845153885 255 0 0
0.05033580677132122 0.05647652021473472 0.20467900397362185 244 208 63
0.04900178127779867 0.03255974818829235 0.20285713196037608 255 0 0
0.06658163693768017 0.035612927902998574 0.19041735968902126 0 255 0
0.04729474370699935 0.06923054368331016 0.20441869805366142 244 208 63
0.018554351769189265 0.03640044959253294 0.1946989031060223 0 0 255
0.05245254148695175 0.05910572443636118 0.2047411508627815 244 208 63
0.06673701222892323 0.07218128695701914 0.20540130286507755 244 208 63
0.06331147149019246 0.036221401713415396 0.20212782390302583 255 0 0
0.05865977347563511 0.06925781959375622 0.20233838409810131 244 208 63
0.0679279539162255 0.041486665127428025 0.19095220822062914 0 255 0
0.020390269435290466 0.03903126208354955 0.20130979239194602 244 208 63
0.05384931063996064 0.05714039947284181 0.2040298681020881 244 208 63
0.042763811430515566 0.0649060917974019 0.2054447208373149 244 208 63
0.06709153364332983 0.0331720741080264 0.2007434723522012 255 0 0
0.06191188801162183 0.03525090521757557 0.19196572433731982 0 255 0
0.06035748487112695 0.0683175886307299 0.20398304314888027 244 208 63
0.07549903053181478 0.019142565807972845 0.20157788724351364 255 0 0
0.06830491238524976 0.037123038919404855 0.20327622709614473 255 0 0
0.04570126197616145 0.07204720322487992 0.20574010370150847 244 208 63
0.06002419578981079 -0.004181742713188538 0.19951534422200912 255 0 0
0.07995210766161366 0.03432096035297193 0.20291694413166336 255 0 0
0.05491680104550298 0.060479258947650924 0.20380126949696406 244 208 63
0.05497840915532492 0.0583332892159069 0.20303109371950256 244 208 63
0.040751837250081566 0.06367105608852035 0.20568704371505517 244 208 63
0.05294435350868834 0.05576237789011494 0.20283890801873233 244 208 63
0.03435668616893126 0.018389212160747213 0.20150127131003062 255 0 0
0.04983794846430376 0.031439489775244904 0.20275533777296925 255 0 0
0.07499389927970378 0.06270047334405775 0.20480638313223318 244 208 63
0.014664778340079102 0.009899038967328157 0.20078799873713216 255 0 0
0.060234293967751915 0.068265163683464 0.2058426391215958 244 208 63
0.036547528736730464 0.07949241896767062 0.20499543600283435 244 208 63
0.06053217529738761 0.02467292109682543 0.1894204955926657 0 255 0
0.06865803601423157 0.04219468110374047 0.203674585304969 255 0 0
0.07170259167860261 0.02533136792239184 0.1989759534979489 255 0 0
0.04396491514608729 0.02349437478294399 0.20096571605747632 255 0 0
0.033641177451544615 0.08038648888326733 0.19448587920514834 0 0 255
0.032632809791308844 0.07784691395029275 0.2037478930416725 244 208 63
0.051161547411912006 0.05213751246660796 0.20457608600542307 244 208 63
0.048360647416261775 0.06651583548595853 0.20417183353831106 244 208 63
0.06058266038187685 0.06920669100924465 0.2045966859789347 244 208 63
0.0424225725995724 0.06527408359991393 0.2057699715515987 244 208 63
0.05973073996606292 0.03073797588008465 0.20269342697073728 255 0 0
0.07823773179880056 0.03108185029893079 0.20166298002897368 255 0 0
0.028693718903081068 0.015062986273704195 0.2001953636522447 255 0 0
0.04378315345767626 0.022735311438178297 0.20089659603404955 255 0 0
-4.0173453784902785e-05 0.009850520523411925 0.19755295943463344 255 0 0
0.07085784954933552 0.036023002992256484 0.20140099898315778 255 0 0
0.04803448835045129 0.06755856889627976 0.2039115511795656 244 208 63
0.05956990831986808 0.05554699193196355 0.20172358677211463 244 208 63
0.019083484996981277 0.07395593506095963 0.2066188587236622 244 208 63
0.017011949253653316 0.06872679397768194 0.19342144395257513 0 0 255
0.04849504272709412 0.06555369465818019 0.20452819804290204 244 208 63
0.06014123129368511 0.05743942431229314 0.1999972645909003 244 208 63
0.058073681338588104 0.07068215401042663 0.20310078693956932 244 208 63
0.07056560711151874 0.040391369287370096 0.20208261830756297 255 0 0
0.05962603507274341 0.05550295635299596 0.20171958995570222 244 208 63
0.04418836262354621 0.02451716233185129 0.202124212039668 255 0 0
0.08778311727233526 0.06380182734150765 0.20517547000820374 244 208 63
0.07473880950898185 0.06262711513525668 0.2053323431134701 244 208 63
0.08205991807071646 0.036661758459612864 0.2016388845290513 255 0 0
0.07183727744467773 0.04300876972277834 0.2037492999068095 255 0 0
0.0054602318472928785 0.025229303384498546 0.20211815219220103 244 208 63
0.06558710948904085 0.034322504116363776 0.2029575157545919 255 0 0
0.04494215727613276 0.010812983685647586 0.19448491150314925 255 0 0
0.06118658773770373 0.03541487179836102 0.2002432276280961 255 0 0
0.03727371894982615 0.04596013573232682 0.19135335243472493 0 0 255
0.06413690230655592 0.0624200306319448 0.20557776064509087 244 208 63
0.07135459518227907 0.0695613039815872 0.19350802931402114 0 0 255
0.04250804548514544 0.05628454184151924 0.20341706842475651 244 208 63
0.07938509173428657 0.03544886157561632 0.20170553774613664 255 0 0
0.024525016839403144 0.04049455423013071 0.20250914522196242 244 208 63
0.0695303416386967 0.07089418848551554 0.20635007263105062 244 208 63
0.0149265854597657 0.010124302395513173 0.1986778208489727 255 0 0
0.016101183291195583 0.06314200044770905 0.2024063231213446 244 208 63
0.07300923462605423 0.005408971069452526 0.20032746757257014 255 0 0
0.06730574127077905 0.04104047776495412 0.20327744789702468 255 0 0
0.06903140234088605 0.04303091944449264 0.20274869627818037 255 0 0
0.070760563003085 0.04078385288849962 0.2031837429768234 255 0 0
0.06029474610317982 0.06828020266793258 0.20504499370843493 244 208 63
-0.0025698507190251223 0.009860741034683627 0.18806004969708645 0 255 0
0.047918594737443865 0.0005688614051908569 0.19781460993210154 255 0 0
0.039661181241071784 0.06631216882490554 0.2048618397281516 244 208 63
0.06984331951000222 0.02622585084546563 0.18956365411971005 0 255 0
0.03190750157897392 0.014668083064646866 0.20116212177830023 255 0 0
0.06154124846852377 0.03786189811018864 0.1994815183197149 255 0 0
0.04189669735004992 0.06470159182213255 0.20365032869114805 244 208 63
0.07174144143714647 0.025850926045946545 0.201185627886971 255 0 0
0.07989211009087474 0.03430620206956425 0.2025959810089957 255 0 0
0.048876061579481295 -0.0005336392067423271 0.19984518663717676 255 0 0
0.05924234777934366 0.03154734801489399 0.19637480175119992 255 0 0
0.07720197193978309 0.016875289427822845 0.199304433505262 255 0 0
0.07718072188111309 0.03558442662193388 0.19674573779715368 255 0 0
0.023685277193813095 0.037310840379008225 0.20328458782200445 244 208 63
0.08318915650707485 0.04348222495202385 0.20385790689983474 255 0 0
0.049191554106153376 0.03148030220947483 0.19636673288988965 255 0 0
0.04326888142996308 0.06768351798549076 0.20498735599820692 244 208 63
0.03878043659554529 0.056942599101925506 0.20294355148254378 244 208 63
0.0278637111319777 0.04503821003411322 0.20185796381558266 244 208 63
0.061035084475878666 0.034184716654333876 0.20279430871962548 255 0 0
0.07340670576524659 0.06255850719004111 0.20532583823558676 244 208 63
0.03970923255392377 0.05534731597616212 0.20386390754541114 244 208 63
0.02088648463389696 0.05261769032921601 0.19195606807950236 0 0 255
0.04357433855793973 0.020500309800718132 0.19220186647114545 0 255 0
0.04117558756394462 0.06409148280743607 0.20537027022087667 244 208 63
0.0754588773890369 0.013153850536497973 0.20103282984467202 255 0 0
0.056427857355208215 0.05758562218256767 0.2047811385631663 244 208 63
0.03667045822357365 0.04550937420064415 0.20296793459633225 244 208 63
0.07725296146712478 0.03552920348785499 0.19357627821530113 0 255 0
0.05684895750115291 0.059940222376768035 0.20370512164731946 244 208 63
0.01750865048466792 0.06945025160530074 0.19665183527988334 0 0 255
0.037746268913385984 0.0593840666158897 0.2031655538179463 244 208 63
0.0023851382091545437 0.024763224836013932 0.18941733560767374 0 0 255
0.07474940348385928 0.06395345827893086 0.1961627583430303 0 0 255
0.0398674839380828 0.060886945817664656 0.1927123902804262 0 0 255
0.06806212947639176 0.021901017005684864 0.19338895780545537 0 255 0
0.07693716292358638 0.03348578675873822 0.20294687995937064 255 0 0
0.07663440982505575 0.010373714174900454 0.18812223626190308 0 255 0
0.05216176105006551 0.05896808282605663 0.2041958803832006 244 208 63
0.051190999975100925 0.05248449134800154 0.2041857430444567 244 208 63
0.05591122449217807 0.05769255013153975 0.2051458898881395 244 208 63
0.08349368790014934 0.03838955625619448 0.19700227578661264 255 0 0
0.07769416420808317 0.012147552593542818 0.20100497638509932 255 0 0
0.06085459499552868 0.034117488769282354 0.2008704947444132 255 0 0
0.031752223409378166 0.07753662926147452 0.20688393167195548 244 208 63
-7.714916496383186e-05 0.010071055743949823 0.20053443006650323 255 0 0
0.04568086060754911 0.028003517943595846 0.18972071617413847 0 255 0
0.05977921300250589 0.06890555388850414 0.20403644233140025 244 208 63
0.06664557518701932 0.0007146779304400414 0.1999622767439472 255 0 0
0.04835254894541923 0.003402843925694697 0.2001400593321911 255 0 0
0.04312047296736163 0.023726029631782018 0.19992126892058049 255 0 0
0.06068468912079635 0.03364971220889827 0.20215959284316795 255 0 0
0.05410788952967956 0.05894904312712845 0.1925388030975834 0 0 255
0.06537602178463543 0.034946469897997774 0.2020121928434124 255 0 0
0.06729105301486017 0.03245935370971017 0.20285157380386917 255 0 0
0.05818875848562093 0.05922809021842552 0.2036405707151687 244 208 63
0.08642112467646744 0.0419180731740247 0.2037161815831521 255 0 0
0.06110860804889962 0.035587434612979335 0.19885249652722956 255 0 0
0.01621522385403001 0.05429238632413924 0.20376329794365614 244 208 63
0.06780334189491266 0.03609472957782841 0.20105180869774275 255 0 0
0.05948216620585355 -0.0024858886229572955 0.18694849172443362 0 255 0
0.05795577513809586 0.06727636577739413 0.2059552444789962 244 208 63
0.08232995125270039 0.03692190633128721 0.2026214459886492 255 0 0
0.039062705621155394 0.07850237240926877 0.20597118675820264 244 208 63
0.08382033849997958 0.06521909900128436 0.20583636344578154 244 208 63
0.04160812378182324 0.07427425885969761 0.20342449219691203 244 208 63
0.0483943220204067 0.05030014364642197 0.20287356367640869 244 208 63
0.06072017441049117 0.07056670340113713 0.19570708662529648 0 0 255
0.04537733348404851 0.07263368681744087 0.20508317657331188 244 208 63
0.04619712353205129 0.004809116101393576 0.18760983053550934 0 255 0
0.05853649166781569 0.07144146124383777 0.19684108950387452 0 0 255
0.049618938176312834 0.0322113285579353 0.2017601765653574 255 0 0
0.0712060319629182 0.043744270508810384 0.20174868044754798 255 0 0
0.07467392651135313 0.01768326979394299 0.1951160134466003 255 0 0
0.05181920273446864 0.058680372010266185 0.20470231442409295 244 208 63
-0.0002824547869149395 0.010149808533222069 0.20027521785005498 255 0 0
0.08174941992945771 0.06587961008026073 0.1963394325774277 0 0 255
0.060714614801718296 0.05590970371859474 0.19542792752792415 0 0 255
0.01437775156384918 0.06669364053273888 0.20524673146392414 244 208 63
0.08851331517694581 0.0562497380390391 0.20342290359329712 255 0 0
0.08580964161792451 0.04107462782548839 0.1909182068287727 0 255 0
0.018071196978003176 0.010588706875467044 0.19978606839016044 255 0 0
0.06075764857336596 0.06785430427056241 0.19651504708347411 0 0 255
0.045053210045678055 0.006164928020682348 0.19406190083272445 255 0 0
0.06111968119015263 0.023445251059721457 0.19247332716404536 0 255 0
0.015682435911368083 0.057698342206330855 0.19558190412896773 0 0 255
0.059817053506530916 0.06883904005602358 0.20540015121837174 244 208 63
0.0582714947832326 0.03460524442159815 0.19032402141870078 0 255 0
0.0720179563982729 0.020979716157313005 0.20109746036074827 255 0 0
0.08240914384626799 0.036972116513007545 0.20326525128376258 255 0 0
0.05953780984982085 0.0692057706063604 0.19347335881460992 0 0 255
0.05815523651791718 0.0715733219479159 0.19368856565530582 0 0 255
0.016122464432801013 0.06384259429760188 0.20247009026992477 244 208 63
0.056588188812933746 -0.00265880579428749 0.19009663798098136 0 255 0
-0.0019414322648792465 0.011310296191650799 0.18945788120204643 0 255 0
0.07107129285229268 0.025907479155747485 0.19902826343608793 255 0 0
0.07989204806065275 0.03427735261468896 0.20291296351773863 255 0 0
0.05292585196572436 0.05443963681077415 0.20413900415876346 244 208 63
0.016705171606394828 0.05350728188570135 0.20262657385813737 244 208 63
0.05977987328748738 0.06873204218670759 0.20607528150570006 244 208 63
0.04017580922506899 0.04188559698279351 0.20317149700295442 244 208 63
0.026676754000846133 0.038324241258484534 0.2033774056403445 244 208 63
0.08449401855961443 0.06239531551192349 0.20344876396348044 244 208 63
0.061062568153968794 0.05781949106938926 0.20409308566704198 244 208 63
0.07660751174643646 0.036827178083921476 0.20318762963971498 255 0 0
0.056378744454938304 0.06843016059674295 0.204702754888423 244 208 63
0.05327996159813998 0.050427520744955226 0.20288611268796036 244 208 63
0.041725294531698105 0.07313840120355283 0.20601620437682983 244 208 63
0.020549388288321924 0.05273730057651517 0.20362261343996507 244 208 63
0.01450298964343067 0.008406625766542053 0.19425994558055143 255 0 0
0.08317063764811629 0.04357696907129447 0.2033338471013888 255 0 0
0.08025986043278822 0.03465060042907607 0.20220125211964518 255 0 0
0.015284017338759042 0.06919773151744393 0.2044094475572441 244 208 63
0.0618325230591719 0.07241245435264981 0.19693010727191387 0 0 255
0.04299048304473825 0.012519295138801793 0.1883109277489806 0 255 0
0.040473006950243764 0.0667443841284018 0.20596670123637917 244 208 63
0.07061054353819576 0.04072060709181524 0.20168644282325662 255 0 0
0.06328280587214263 0.03319992035806906 0.20285489537319432 255 0 0
0.053418839410941985 0.05161423894114889 0.20241926917772265 244 208 63
0.043783084535122474 0.022703256448830506 0.2012487992553969 255 0 0
0.08215455961703402 0.0366555938004326 0.20302332294740774 255 0 0
0.042976157186537384 0.07597225592403509 0.19619558858987454 0 0 255
0.04790478698005944 0.004907821243367201 0.19980755983618195 255 0 0
0.02153117925039285 0.05199776016693059 0.19189977268085948 0 0 255
0.061856508026831125 0.05891127709879955 0.19464651640813135 0 0 255
0.05119677839731016 0.05216242496991955 0.20457836025559803 244 208 63
0.08886657519986728 0.06113817596407723 0.19590929429819495 0 255 0
0.05132260125939084 0.058199430195594294 0.20519112449832097 244 208 63
0.08107449280828426 0.04905323098657563 0.20303282066869316 255 0 0
0.07728139232149302 0.032216459113583 0.20176605676963957 255 0 0
0.07423689566022239 0.021334938533323165 0.20177717416238514 255 0 0
0.015427772512170427 0.05603003996410233 0.20285592707476444 244 208 63
0.07337991372996362 0.06410771170382364 0.1930120791305556 0 0 255
-0.0021285203581037576 0.011909024286099695 0.1907781180124634 0 0 255
0.048486248173453775 0.0658516384761273 0.20375628712551885 244 208 63
0.060665617374991314 0.05464670779180262 0.20327155786810733 244 208 63
0.042426521279550565 0.011394621170243795 0.2009295484981295 255 0 0
0.0637223678600819 0.06986123097992347 0.20427638938630524 244 208 63
0.04619812064295096 0.008140508850170657 0.1988585104142549 255 0 0
0.07060049834798918 0.040054570458820896 0.202691192141137 255 0 0
0.04034921716802908 0.06667621843666208 0.20596047306384252 244 208 63
0.050980677272707414 0.05789416004844984 0.20383156902541413 244 208 63
0.021294239933748963 0.0755863500290691 0.20676767992157957 244 208 63
0.07727061102740175 0.035729756580272456 0.1904300843125498 0 255 0
0.0767048583516711 0.009531776609012686 0.20070341870377242 255 0 0
0.05292598981081961 0.054503746783737844 0.20343459777904774 244 208 63
0.05985173155336077 0.03735363579314791 0.20294043953842744 255 0 0
0.05910693197410455 0.07145903846096424 0.20586676233657292 244 208 63
0.01775648303636554 0.07180234683770273 0.20635929994521252 244 208 63
0.05321813947998271 0.05254052523998936 0.20039390011274988 244 208 63
0.07979592360007304 0.03422043259014594 0.20290776425829773 255 0 0
0.011766936528249904 0.033564455786854096 0.20287799162421577 244 208 63
0.08283317152925412 0.03771933428740268 0.20253431463543675 255 0 0
0.06914132515682571 0.06925923572447908 0.19664455438047002 0 0 255
0.05318807908764021 0.05300476063481809 0.19621688484530517 0 0 255
0.08707837423980933 0.05996334938002571 0.1989664678569364 255 0 0
0.06570287337832068 0.01783772236181221 0.19938977693310714 255 0 0
0.06802684585618554 0.07133387213614073 0.20316204934089493 244 208 63
0.04810532476627866 0.032427965237981846 0.20231228350338384 255 0 0
0.04167981513404195 0.07697477391367288 0.20583266793533034 244 208 63
-0.0032237939128598883 0.009790214034212864 0.1943824008262013 255 0 0
0.045432919258035796 0.02652567447847655 0.19591506298964467 255 0 0
0.05866644655429617 0.06980550760495118 0.19669222226908673 0 0 255
0.059502300679737566 -0.004027242775872471 0.19739857259033927 255 0 0
0.07318625123161879 0.020029993113196747 0.2016582018699727 255 0 0
0.0594521982598665 0.06678816848392359 0.1964177596534433 0 0 255
0.04448033066896059 0.024367577070280637 0.18938956420708258 0 255 0
0.0814227909502703 0.0357714645931848 0.20315578361247508 255 0 0
0.012583628594132734 0.03526647140675043 0.19037526086927029 0 0 255
0.05054383875857991 -0.0008272366404225261 0.19659104599288107 255 0 0
0.05996005619169162 0.06870052972154637 0.204017817904036 244 208 63
0.04739401178986118 0.02697770735766432 0.1959565875179462 255 0 0
0.07247426467322465 0.06310339109322399 0.20528646609068096 244 208 63
0.04802959230679956 0.06747483968291304 0.2049692952309305 244 208 63
0.06237745589339281 0.07084082098315034 0.19678717520967212 0 0 255
0.06693247199424406 0.069185622521355 0.20512869740842868 244 208 63
0.07404417754419 0.06259711792429475 0.20506313750256397 244 208 63
0.05282115077740084 0.05351609131330326 0.20048261139282683 244 208 63
0.07509956522888594 0.020761142135013098 0.200723049725543 255 0 0
0.04083295532125191 0.05897756039503578 0.2041945260320175 244 208 63
0.03992870194517563 0.060365780350264873 0.19688423688579498 0 0 255
0.061359308434692825 0.019744104020905383 0.20162986790167178 255 0 0
0.07316619237150285 0.02303071705093372 0.20193130213005547 255 0 0
0.08628966691970007 0.04325084622022234 0.20277208968750388 255 0 0
0.05306660002999754 0.05113204008831286 0.20026568032859618 244 208 63
0.038152577733321945 0.04191580499546404 0.2036432344140626 244 208 63
0.060399978555812375 0.06913159766650555 0.20481811246200102 244 208 63
0.07755623547829013 0.033151273205283896 0.2028532610248702 255 0 0
0.08516544602229467 0.06198572338351794 0.2055423482112155 244 208 63
0.07133915780297602 0.0219240384915028 0.20047303168175262 255 0 0
-0.0021178374005870874 0.012056855426117473 0.19079157462395352 0 0 255
0.07972947029162149 0.03439407902373125 0.20089936160777974 255 0 0
0.07765213046383856 0.015254225969241319 0.20022234956430177 255 0 0
0.06106192189180545 0.03566375037451376 0.1981562242477391 255 0 0
0.043181173660200564 0.07553505560866693 0.1982654710596834 0 0 255
0.046079963383364786 0.0207090403755682 0.19964726352544593 255 0 0
0.05826903813191919 0.03346268763351559 0.20287782940686877 255 0 0
0.06495788190351823 0.07028393698906191 0.20412070810845356 244 208 63
0.07627477907957494 0.040441384549973154 0.2035165034545023 255 0 0
0.07796308628708488 0.038124633947442546 0.1990867123047197 255 0 0
0.02929291744856903 0.04489373494038122 0.20391253031058346 244 208 63
0.05400590762661458 0.05716297245151785 0.20509731870775497 244 208 63
0.04639187248839975 0.007745997234001836 0.19846752215154168 255 0 0
0.044020476906639454 0.06966112264770354 0.20516749034796766 244 208 63
0.08563826185538782 0.043649964415297976 0.19748145975424716 255 0 0
0.06059316582611486 0.03550378862894909 0.1925158889156862 0 255 0
0.055109438051407306 0.06052042096232732 0.20380505346285538 244 208 63
0.015444792358047134 0.03390798385424931 0.20290997678242695 244 208 63
0.04150859361019433 0.06750936812388518 0.19647988664829666 0 0 255
0.043163313156384275 0.06789868390271626 0.19651564316577572 0 0 255
0.07478339369116196 0.04021276583041918 0.19716650661771679 255 0 0
0.07689522200647345 0.01620469836157394 0.1949818792556194 255 0 0
0.049258754318696696 0.03173212142206934 0.20271856256930343 255 0 0
0.03996150359304701 0.06694076631756048 0.19326338362730688 0 0 255
0.07183697758112548 0.004758926915061731 0.19926600540230793 255 0 0
0.0602882598620925 0.05777966138551069 0.20462199556633706 244 208 63
0.07989229618226172 0.034392750769505764 0.20164502979849647 255 0 0
0.05865999410440792 0.06941630382772984 0.20087606278243153 244 208 63
0.07847769004685576 0.037489461727160514 0.19270011033434822 0 255 0
0.05297461176725522 0.050717431870569554 0.2044471953405967 244 208 63
0.07045594989015859 0.038896761756221 0.1991555167227506 255 0 0
0.06294024965187192 0.05607040857067502 0.2039342642739648 244 208 63
0.06446924758557097 0.0185143262158192 0.19835410018554275 255 0 0
0.05219387518413589 0.05023790345891097 0.20233596345948202 244 208 63
0.06031562157656373 0.0691392658977565 0.2044383041277748 244 208 63
0.013047817519644168 0.0350096486830839 0.2020077028271539 244 208 63
0.06879711503309713 0.022599690697297618 0.19767195059200995 255 0 0
0.07012607102410896 0.020396544035518282 0.19997864853011443 255 0 0
0.07623233481014602 0.008192991465571307 0.19741702887710985 255 0 0
0.043058322128365904 0.017932958123165525 0.1888036534664665 0 255 0
0.032334247576152025 0.04647787703769677 0.20198986672968733 244 208 63
0.06019098939169922 0.06966942555586009 0.2040638468913008 244 208 63
0.05528432686711379 -0.000991747912995812 0.19341255408556715 255 0 0
0.021274729561361956 0.037749195258126374 0.194822188529597 0 0 255
0.04768276442634761 0.0018566493021071571 0.1968347539931105 255 0 0
0.06118822550487627 0.03617657615179265 0.19187402419202026 0 255 0
0.055971809057268826 -0.0011928423477059746 0.19925390020207268 255 0 0
0.0620427572840872 0.05959918511894835 0.1925995270906523 0 0 255
0.016425131173785544 0.06581337746089046 0.20581396674521057 244 208 63
0.05023260206080704 0.053098872257884934 0.19411523868776034 0 0 255
0.018231693425082195 0.05660304476029472 0.19231826669414737 0 0 255
0.04836215280296272 0.03272530236191731 0.20074134336611751 255 0 0
0.07343745082068263 0.02073255892942011 0.18906439776290584 0 255 0
0.018427377047915985 0.05538100956455094 0.2017004290868649 244 208 63
0.04555376004284921 0.018416628856902484 0.20156925280865773 255 0 0
0.04886402941030641 0.032671261919015024 0.2019794471590736 255 0 0
0.061181163397136536 0.06756545160460026 0.20391475026319586 244 208 63
0.08600594220582687 0.05613536659074794 0.20072749280350688 255 0 0
0.08936387132379509 0.061517914677436274 0.20496791413681703 255 0 0
0.04263569632318557 0.06493257639084445 0.20473686128691532 244 208 63
0.061475226740730554 0.034042760249236366 0.2013964940452155 255 0 0
0.058355585515520655 0.03480515318438054 0.19034223212383006 0 255 0
0.0725672614413165 0.04107971724051618 0.2035738743551277 255 0 0
0.0637220724765201 0.06972385190142912 0.2057858378364815 244 208 63
0.07190701192978678 0.06401140237419328 0.2035933853508682 244 208 63
0.02656864957643107 0.07899942448213824 0.19435825461638445 0 0 255
0.07057563938743577 0.040122507960524106 0.2035496614278855 255 0 0
0.08215476638610036 0.0367517594219116 0.2019667061037617 255 0 0
0.047325300350387 0.0023132984985969433 0.1968762449474983 255 0 0
0.0401493635992192 0.06233258578587042 0.20378949754856376 244 208 63
0.05796143015768772 -0.0020066617914908935 0.1996496056138855 255 0 0
0.06035309056811293 0.05722988994952396 0.1999782357476697 244 208 63
0.06078438223914377 0.035485231850581916 0.19673350121134547 255 0 0
0.07299711032789322 0.021310339004835543 0.19122653113173388 0 255 0
0.07770851954607312 0.032597325794654325 0.20280287453927184 255 0 0
0.06219382543779406 0.03327944607201183 0.2025700945866658 255 0 0
0.08351986380391503 0.04268892272793336 0.20218771911627414 255 0 0
0.06100042434358525 0.03809780809759861 0.19908095139116694 255 0 0
0.021554038830638972 0.05154655614593085 0.20457980262762457 244 208 63
0.0010194732233595313 0.01762473276346614 0.19989041338228883 244 208 63
0.0615815169037431 0.03771159921248673 0.20073362428510558 255 0 0
0.05912143852368464 0.02766186242111516 0.19918559624580387 255 0 0
0.0433639265467825 0.06515633956199354 0.20369200366244516 244 208 63
0.07342704728767706 0.006600244010088255 0.19410707261356722 255 0 0
0.04663967312716857 0.022445231155556727 0.20193611954877022 255 0 0
0.015747028302854467 0.07001916861830088 0.20412917884175316 244 208 63
0.07773484187989466 0.014535633464839777 0.20015696465866722 255 0 0
0.06104062149693503 0.035664445867926796 0.19815628337824975 255 0 0
0.05153033079559065 -0.0014694877426269064 0.19653278599000323 255 0 0
0.061711258239982456 0.033733581746304045 0.20243377381453023 255 0 0
0.06557777156539649 0.0002891908822595726 0.1935311501897515 255 0 0
0.08198237481637508 0.03657029164933903 0.1936719560260932 0 255 0
0.0709656326454305 0.021605233486301213 0.20019028098379205 255 0 0
0.06210244385630814 0.03722292190506811 0.19942347314809172 255 0 0
0.04849347041837199 0.06504438469950274 0.20368281813981196 244 208 63
0.05893662835464866 0.03598718346018996 0.20175053035551116 255 0 0
0.07011895174232623 0.02591876698515236 0.19744688461921905 255 0 0
0.05712643043106745 -0.0007907021956122876 0.18710231433666913 0 255 0
0.05288068866687537 -0.002974680738676329 0.19855843882796043 255 0 0
0.05121147916314677 0.05250981213690696 0.20250034581363627 244 208 63
0.06436814869925356 0.058867693408535884 0.20418913232936153 244 208 63
0.060854181458831785 0.03392515819408971 0.20298372109465385 255 0 0
0.06939035050642099 0.0674302069719424 0.20550209959866153 244 208 63
0.04676664788117352 0.06512616753799734 0.20364772540693155 244 208 63
0.0496351800620096 0.03070525866157418 0.2021557945899339 255 0 0
0.07378506021692127 0.04004055144981605 0.20141209942107063 255 0 0
0.06001548125440558 0.0574018944796217 0.2025253860624468 244 208 63
0.061877802511831836 0.018780317608244012 0.20018506145874826 255 0 0
0.04854902281275964 0.0031521044324352154 0.20011727728529746 255 0 0
0.0846125233194124 0.05360856683885151 0.19838761897921273 255 0 0
0.05889994585475769 0.06983974207039866 0.19775020082397907 0 0 255
0.05258176981749662 0.05913687965022895 0.20527669077247312 244 208 63
0.07840855298230595 0.03229582401585772 0.19328222554361432 0 255 0
0.040323835192179136 0.05466028817647303 0.20273613407974014 244 208 63
0.06731116952078567 0.04085852027922561 0.2018403987373332 255 0 0
0.0702273718391332 0.04236911735455576 0.19103297261110566 0 255 0
0.07799914282792718 0.03247271801355125 0.19646269274648082 255 0 0
0.07715206735877676 0.06557824174002656 0.2058677451076131 244 208 63
0.04070624355315034 0.06364989840680339 0.20532998855737575 244 208 63
0.08380055759765219 0.06289855296346068 0.2055618651845706 244 208 63
0.06819843050626001 0.021868150692548688 0.1954956238442378 255 0 0
0.05941557657638148 0.058958936235583605 0.2039301278744914 244 208 63
0.013821864405632493 0.06237420138462531 0.20343301249348988 244 208 63
0.063393291559756 0.03608252236425907 0.20247032076875213 255 0 0
0.02729902987611435 0.014135940532931561 0.20117608326092282 255 0 0
0.07426214210884849 0.06268339213466291 0.20427200622790953 244 208 63
0.06985664187928675 0.04059568650995535 0.19931002328528816 255 0 0
0.04110156189562619 0.07379885426234488 0.20607619197841198 244 208 63
0.0458812718840391 0.06459310375468366 0.2055056260517436 244 208 63
0.035826740595427176 0.020408096191890344 0.20068323274925118 255 0 0
0.04399781924735191 0.06980359288022898 0.20411508708725384 244 208 63
0.0643279418723327 0.01791727432233744 0.19939674811709335 255 0 0
0.045367688128499964 0.017509036317441988 0.20148661388893202 255 0 0
0.05633512075482509 0.05771669120256391 0.2037276838693353 244 208 63
0.06112411547914963 0.05624474772032625 0.19387627785220812 0 0 255
0.06419438886102895 0.02068244346128746 0.20035863252596015 255 0 0
0.07164332445324692 0.021610557437724203 0.20008943615865343 255 0 0
0.06599652422798338 0.020436175153872447 0.20175705774212152 255 0 0
0.06139308560568474 0.03576474448225638 0.1939462165178644 0 255 0
0.05284457553540423 0.054976968569898144 0.2041878923034259 244 208 63
0.011743463029063147 0.008155370937720558 0.19423653817260264 255 0 0
0.06052088490858228 0.038200510994872774 0.20195228143911328 255 0 0
0.018805562143738595 0.05527529844127304 0.1953619873776498 0 0 255
0.02102982408622664 0.03636961547336927 0.20213303916304545 244 208 63
0.06646681791377486 0.020699558586086655 0.20018306915849332 255 0 0
0.07066081229376894 0.02119030708739994 0.19969587515976572 255 0 0
0.06101480106808797 0.0343455825104165 0.20089128553737073 255 0 0
0.021275139003352282 0.03793962143819454 0.19272988666291432 0 0 255
0.074350701472615 0.06404847566941885 0.19458910502455873 0 0 255
0.08044664915329452 0.03489391598028317 0.20147767259510016 255 0 0
0.07318246190067788 0.06260223938778162 0.2050634349922187 244 208 63
0.017061033302620356 0.052827233504308846 0.20363011584922244 244 208 63
0.07052535702939301 0.03692634026052241 0.2031954644484611 255 0 0
0.04160049870971935 0.07514040977604974 0.1940099765926998 0 0 255
0.04574453526005907 0.02803893602536657 0.18972395213220036 0 255 0
0.06840872388690722 0.0698673864336692 0.19564494442400046 0 0 255
0.07977753474323374 0.03432832912794541 0.2016391441490765 255 0 0
0.07036102555798972 7.941297322749258e-05 0.19937250749972496 255 0 0
0.016601931662501988 0.06304761662610707 0.2034948459078581 244 208 63
0.007206048394077729 0.030621506619167536 0.20054181726957931 244 208 63
0.04848874077300918 0.06575004599055595 0.2044572862523764 244 208 63
0.08491125168773576 0.053702053250786856 0.20261544967451184 255 0 0
0.06487949834562316 0.018765563445604667 0.19521259931638021 255 0 0
0.04740799641859805 0.0248108578279467 0.20215157212838436 255 0 0
0.04193099785620369 0.0673783791661261 0.2054920090933567 244 208 63
0.05936990128888943 0.031474475072595626 0.20269709211003836 255 0 0
0.08637869004126052 0.04267870317708562 0.2016546693507766 255 0 0
0.017239312875053914 0.05778987574473503 0.20191943416874383 244 208 63
0.07274391894603818 0.005049347131834733 0.20029468528375513 255 0 0
0.05339721891743574 0.05221152635261517 0.1919254639894267 0 0 255
0.08563940712136847 0.05581924118019882 0.1943697557359298 0 255 0
0.06102194266002004 0.03610544466656597 0.19327394361110561 0 255 0
0.005650774207992468 0.02547930890217238 0.20214094317304818 244 208 63
0.031223275308793114 0.078352100974847 0.19746470102423505 0 0 255
0.0837685081925532 0.043542753108288826 0.20380023403103129 255 0 0
0.02045514125035089 0.05290517780229737 0.20310518762952223 244 208 63
0.005529465742375026 0.02777473951186176 0.20234983292303824 244 208 63
0.06104356896798794 0.034272872043792396 0.2018435054892963 255 0 0
0.05333585807285208 0.050308372245722065 0.20447333146179555 244 208 63
0.07052485211645379 0.03786012293661488 0.19273228894752875 0 255 0
0.08563858823788079 0.055438389049338135 0.19855435695013585 255 0 0
0.04751456167701254 0.005438547255626713 0.19083182486318942 0 255 0
0.07282028282858409 0.06288908143347886 0.20384653912009515 244 208 63
0.06737976098502771 0.04041440330091662 0.20322048161326625 255 0 0
0.07972341006251626 0.034223730005068356 0.20283702532147255 255 0 0
0.08029847118318134 0.031443164777872915 0.200986022672421 255 0 0
0.06139157325513474 0.062131790626219395 0.20448562436019072 244 208 63
0.07207717488200648 0.06374080726654066 0.20392391162539017 244 208 63
0.0714623118524651 0.02186724580980965 0.19975764207049745 255 0 0
0.07023348274118649 0.03623102146681464 0.19891285679119744 255 0 0
0.06798709682582087 0.03620895027305367 0.1936363306157979 0 255 0
0.040168940767428836 0.06089266734948135 0.2036584504199908 244 208 63
0.06744540035349868 0.02154060111244331 0.19124640151040467 0 255 0
0.060778213065668475 0.03781706396477558 0.2011649902748189 255 0 0
0.05055690745424509 0.052645869959011306 0.20362016424994037 244 208 63
0.06532080996141196 0.03462358662230937 0.1998204151743974 255 0 0
0.04239211969847821 0.011934136436351262 0.19884791357393997 255 0 0
-0.00198245225667924 0.01790688195387518 0.19938282601567797 244 208 63
0.04850080858622474 0.06530088620581466 0.20370616448737325 244 208 63
0.08353019450743843 0.062474272598423704 0.20558649242463212 244 208 63
0.08145257507791077 0.047356927855754724 0.20349996961320319 255 0 0
0.06806556202802862 0.04203078104905406 0.19944028471274186 255 0 0
0.08691593264394593 0.05903249465023556 0.20099134651726758 255 0 0
0.0632256183696106 0.036368265323470594 0.20178605298124194 255 0 0
0.046902368133207015 0.06988464308439954 0.2058986424333682 244 208 63
0.08861110767059233 0.06307621050381414 0.19292117994152366 0 255 0
0.06350694838879237 0.03365085802211874 0.19656708255368774 255 0 0
0.012102713470845997 0.009699639466131591 0.2002366703683683 255 0 0
0.0726983791662722 0.003436683374623148 0.19065455790882435 0 255 0
0.028995302610906184 0.07988055168117626 0.19443892331099438 0 0 255
0.04827321786476363 0.06464478509870142 0.20364640637371142 244 208 63
0.07663974512993806 0.06288022450739487 0.20508941174167145 244 208 63
-0.0009288484170483197 0.010410288965214006 0.1997661119688749 255 0 0
0.06118137177535474 -0.0006652172882843574 0.18711452857555133 0 255 0
0.0428870680212419 0.043352216775424196 0.20170745682242777 244 208 63
0.05652738849568063 0.06005133130040192 0.2031877606009648 244 208 63
0.0599747388574468 0.06902796469212301 0.20427591466843376 244 208 63
0.06104336220035738 0.03417670709007875 0.2029001149958909 255 0 0
0.043420640094893784 0.024602132174960618 0.20206850006779734 255 0 0
0.06270753906280593 0.019951749853058812 0.1889912344356452 0 255 0
0.020773198099103385 0.04927054813948194 0.20430920896424498 244 208 63
0.08164431052651372 0.036041911816342836 0.20296737020212074 255 0 0
0.059425064810284665 0.026612139030528448 0.1959256704868877 255 0 0
0.05620649282669957 0.06922432171287263 0.20477499998032908 244 208 63
0.06150190410664166 0.037665737145388 0.20199521212979196 255 0 0
0.06597363959253917 0.03492575167538773 0.20174408461891224 255 0 0
0.07626915152751061 0.037791770212884226 0.20011090280400173 255 0 0
0.08185828900718302 0.036417105221000154 0.2016165785043717 255 0 0
0.04250794210027335 0.05623645887315272 0.20394537857850156 244 208 63
0.02266403270818724 0.0511020243679432 0.19181847097603105 0 0 255
0.05072355977574009 0.05634069013048081 0.2007392754668292 244 208 63
0.049819505015945606 0.03176908283141682 0.20136484522285594 255 0 0
0.03219703952938806 0.015431932748248351 0.19490280074440375 255 0 0
0.04940264190636555 0.032410548069587895 0.20213338640526063 255 0 0
0.0678391162574796 0.04126153846660507 0.19726059939239238 255 0 0
0.07073664373516596 0.039682022314786035 0.2018050175871188 255 0 0
0.058666315198514965 0.06924514160015907 0.20233723151898547 244 208 63
0.05394902446463723 0.05108716289416425 0.204544331343165 244 208 63
0.044327451911464415 0.007274763056323855 0.19732721491185434 255 0 0
0.07449431566656807 0.06267742091964991 0.20453784775451975 244 208 63
0.0484037683868795 0.06454488535081107 0.20576807073752446 244 208 63
0.05956305400648077 -0.0030523291197129196 0.1932258521934646 255 0 0
0.08102123950692196 0.0487145130893584 0.20397856705998582 255 0 0
0.048465732175313615 0.029745903479138816 0.19409910780816503 0 255 0
0.04236190438634568 0.0567106901285502 0.19233278583135488 0 0 255
0.06351471797420542 0.06975641763412432 0.20517997823106063 244 208 63
0.06217910374623103 0.036771695648517774 0.20317975653852155 255 0 0
0.06779707509446276 0.07037045782158585 0.19358097647291989 0 0 255
0.042558114996375906 0.06695024559770309 0.20592255021543618 244 208 63
0.06788976030755502 0.04227374154760441 0.20232443943127626 255 0 0
0.04776035657062572 0.06437312446421384 0.20575231239506944 244 208 63
0.02151331832913272 0.0724616395059765 0.20648333424550352 244 208 63
0.0423769180642662 0.022826478610985874 0.20196998375680308 255 0 0
0.08332911094209611 0.04321248141134991 0.20276801864972954 255 0 0
0.08134585022649139 0.04969142900937527 0.19170157221993467 0 255 0
0.0460142508888471 0.008537314216852426 0.19924971305440878 255 0 0
0.04089926144031913 0.06572876005397812 0.19315325909450293 0 0 255
0.08102200484039211 0.04873380051505887 0.20433544322804176 255 0 0
0.07072590778455873 0.021290649299648193 0.1997050203205621 255 0 0
0.051437312256649256 0.05836152610637005 0.2046732206444257 244 208 63
0.02326768373041766 0.07547224688334733 0.19403659046203714 0 0 255
-0.0007570661375845593 0.009751697081505143 0.2007082757710628 255 0 0
0.05467308758092957 0.05900880342325188 0.19465398682705407 0 0 255
0.06624643461824496 0.03490700242195717 0.20254145756327996 255 0 0
0.06039980172381204 -0.003264393198516083 0.1963711623442457 255 0 0
0.06127048721854566 0.07012766652062387 0.20199613024744384 244 208 63
-0.003756913284710333 0.01217093213387769 0.1895358547886227 0 0 255
0.06172305654902102 0.05771842699064711 0.20508608725161684 244 208 63
0.04577176331298809 0.030314269646589394 0.2005214016973002 255 0 0
0.059151196159228994 0.06736361625887338 0.19330562359582748 0 0 255
0.0619473446992795 0.020414978384447138 0.18903324538331834 0 255 0
0.08476616825766156 0.05403830081814414 0.196317129703888 0 255 0
0.07449416058994393 0.06260529678522012 0.2053303094898038 244 208 63
0.06561486401159176 0.03498014034619386 0.20121627813565898 255 0 0
0.08568174361852333 0.04491598488102452 0.20327864024642706 255 0 0
0.05436489126171512 0.05869691744086193 0.19673517407044558 0 0 255
0.04251482963206671 0.07386437838392389 0.19600365454762103 0 0 255
0.06891565201250455 0.024125742810631887 0.20022903532365274 255 0 0
0.046916989506266896 0.06440913790898965 0.20575542504001523 244 208 63
0.06317613929511422 0.06963569333619557 0.20600599692562585 244 208 63
0.006640546086588426 0.025856171546832958 0.20223873124980934 244 208 63
0.08119790627877951 0.03554298890142303 0.2029218744909157 255 0 0
0.052030655732642754 0.05883173770907587 0.20471613201419048 244 208 63
0.04716287288153481 0.050435442951048355 0.20395100942949634 244 208 63
0.053866031278769086 0.05079926459780077 0.20451811268198927 244 208 63
0.04981953947827623 0.03178511081616743 0.20118873822747924 255 0 0
0.06130262188791915 0.023470420334035298 0.18931120344068558 0 255 0
0.01611619641582268 0.062055532432837984 0.20547189441987393 244 208 63
0.04976812719018883 0.031911202059440986 0.20191044893162552 255 0 0
0.017679804776452406 0.07264217254425151 0.20490096300748115 244 208 63
0.07588892581270584 0.041780730801853176 0.20210356876087132 255 0 0
0.021448230934648177 0.07573167109166623 0.20624825702904676 244 208 63
0.04660706018549704 0.0020171485209720605 0.20007689686332844 255 0 0
0.05866060826690043 0.06970194286855645 0.1977376125015668 0 0 255
0.046991184988045685 0.03119457618745613 0.196340297584683 255 0 0
0.07265214839880245 0.04314484228665189 0.20059739288934061 255 0 0
0.057576831498577175 -0.0013250729452035856 0.1976441277461211 255 0 0
0.07234210899064403 0.06472740175083216 0.19781495010438974 0 0 255
0.06467678096118079 0.020915244606987456 0.1911889442947593 0 255 0
0.056440532346624536 0.06973275550598307 0.2058866852455377 244 208 63
0.041047358833707914 0.05849907339568143 0.2052163850953255 244 208 63
0.0655856761352897 0.06997079228751607 0.20620196478158126 244 208 63
0.044183651997379406 0.024719424689857265 0.20001188860570585 255 0 0
0.08001949818943573 0.034402769605428804 0.20260479481607754 255 0 0
0.042510829657337296 0.023146166905331444 0.19986837470904512 255 0 0
0.0598169648920293 0.06879782659614228 0.20585298285639142 244 208 63
0.022094056882870226 0.051243573543076806 0.19499569246780812 0 0 255
0.05726558518279176 0.03233390579165884 0.20070746359196992 255 0 0
0.06866049266554497 0.043337237891823026 0.19112077731680105 0 255 0
0.05957443304527506 0.029338540017365362 0.20256602985445624 255 0 0
0.0751825904047633 0.06415279623276435 0.19459876231969495 0 0 255
-0.00023360176736598104 0.008459177053055638 0.19426184461887563 255 0 0
0.022057098772036623 0.07629068402942812 0.19727529203965238 0 0 255
0.061270486061464464 0.03882973234302538 0.19070909062090766 0 255 0
0.04507900773434344 0.06864731831539764 0.20607749881029763 244 208 63
0.07363961439591238 0.06536184564881854 0.20156480021910148 244 208 63
0.05978351165594073 0.06887784784819634 0.2045666006680877 244 208 63
0.07628594929556996 0.01805395765463659 0.19515006623040806 255 0 0
0.06383610314504595 0.03601187992168546 0.19045313214294884 0 255 0
0.03786566578707866 0.062153909525084296 0.1928273084165277 0 0 255
0.04113076368050599 0.058547272690310785 0.2030900571991295 244 208 63
0.025380515934996215 0.04076829976199726 0.20253422697236956 244 208 63
0.0828586581333739 0.05122571095881206 0.19817040546132683 255 0 0
0.068839590812059 0.038690266813568394 0.1906978786733942 0 255 0
0.04317506928911655 0.05552512028882911 0.20334808189844078 244 208 63
0.040577720553110326 0.0212929498769497 0.19969933001180365 255 0 0
0.015898069158099236 0.008588679345307574 0.19427678778303967 255 0 0
0.05110611344771038 0.05384226568170015 0.19291728639493816 0 0 255
0.05284840288648359 0.055180532675801815 0.20349617875206927 244 208 63
0.061143956281587974 0.03867182075727581 0.1928043280663082 0 255 0
0.02389029273364851 0.07585446007645702 0.19407149858010941 0 0 255
0.045027867044317625 0.027383824936851212 0.18966418841542595 0 255 0
0.05259901366787023 0.054032421892579556 0.20052956059703483 244 208 63
0.07868346371464767 0.037076889491017444 0.19055296708560834 0 255 0
0.05441201985122468 0.05795680957095092 0.20510635241479447 244 208 63
