ply
format ascii 1.0
element vertex 772
property float x
property float y
property float z
end_header
0.03253258390015667 0.028467183257705128 0.24408705201501874
0.014743199269721414 0.01569739857736193 0.23781938686911722
-0.005740332903773676 0.003805662895439557 0.24307719441274409
0.012293441755506583 0.01767804879120082 0.2417605062667725
0.018679737371783238 0.02868269577300636 0.2422683412802504
-0.0242758059890055 0.02211120150657815 0.24147764584343737
-0.009169633419813222 0.01664858457002399 0.23850132919683031
-0.002283564946514993 -0.013774114424020094 0.2438613011419299
-0.029723820332081638 0.03543613757708615 0.22715810058715544
0.027628812941437805 -0.004490464242903987 0.2403381878794397
0.02388541724884888 0.02767218609895422 0.24337053922803925
0.0023875160222413946 0.02461385317390266 0.24277483972243144
0.013960930753056076 0.0172358366250705 0.23763881142905327
-0.03326797561748108 0.06539339430645925 0.23552675164300513
0.03242480120069082 0.028861356764467376 0.24249803043515564
0.03480533140987631 0.04281468639549792 0.23975608851001834
-0.012988216392950162 0.018887929982028043 0.22957434767197848
-0.0021495806516555003 -0.0037561061672708364 0.24070525869109635
-0.03987907119373311 -0.0009658705370168413 0.23618198531315382
-0.03451889616611799 -0.007467221670638326 0.24243498271567737
-0.002231468242064747 -0.013790009876332653 0.24461787740994312
-0.018224519761794906 -0.004772757505967784 0.24384109483534075
0.03162281219598058 0.0013491193508826747 0.23579356480081384
-0.006230008868579422 0.04583247803092077 0.24034412556769494
0.029139187990638468 0.013672078960834607 0.2431166316480137
-0.03582632576902792 0.05959959751602722 0.23744136022817466
-0.01991365953495957 -0.001806199249263958 0.24377695154144785
-0.0027055901584375104 -0.013155752289502642 0.24474971406151524
0.030193339599397278 0.011237681273483352 0.2412214659423556
0.031270784813467546 0.008929607506260838 0.2372311466813218
0.02873989843620747 0.02419580184118883 0.23360932926458808
-0.035535043815902924 0.04521528384391452 0.23879362095220133
-0.008425801315628745 0.01626557411290423 0.2409270968130397
0.038227007952271026 0.03823134443000555 0.2430745789987801
-0.04082124988466167 0.011840458064482577 0.23499602064339517
0.018928124810549046 0.013374453204113158 0.24251886520459123
-0.017929747621986094 0.000696824645524884 0.2340931666406189
0.03334157418350969 0.04520596300408301 0.23307766091566068
0.004992560827073238 -0.007479790342524847 0.24468626660386616
0.0332695166747477 0.028286773177642034 0.23776133324713694
0.019359980141253015 0.013150067951390986 0.23192390274329766
-0.039608695905742994 0.01547664825602059 0.2411910524196013
-0.03150260912988333 0.01785250425050455 0.23929346468719295
0.013560121973698411 0.016405916570913715 0.232156877897795
0.0034309535881727445 -0.003205577028755298 0.2452301543126213
0.019066606058689307 0.01710750061962446 0.2435824701802048
-0.004718249740440036 -0.014430846807157019 0.23937493365375048
-0.0010238027110478498 0.005025784680433863 0.23914174451437661
0.03299551720324515 0.027707205566999172 0.23566909561533933
0.002445514361205234 0.025104041828187686 0.24267095876981232
-0.038399323144858714 0.012869355967879522 0.23823479343712783
-0.0007584102308115792 -0.014886218216254455 0.24533598236669382
-0.0007062573794618205 0.006108743528642365 0.24351844321577631
0.0026859531819654076 -0.016854333486752884 0.24639451997931042
0.03389270582250306 0.00668255249175698 0.2445426290370512
0.012340067824620892 0.0171875545234468 0.24265768171878033
-0.002509341518469776 -0.003745683660833757 0.2385559718284358
0.01783923759580141 0.00859960055052421 0.24500691619176707
0.02508987299691205 0.023845267880529274 0.23768821178451915
0.009247982459496686 0.04919506392041418 0.23135282622091782
-0.018981964299414726 -0.0033133954691486733 0.23438781796758057
0.0034149074935609248 -0.00018642866723119628 0.24395155627171705
0.0004527540283344334 -0.00845332919567079 0.24558838358037574
0.030597170892258427 0.013752610701555241 0.2431925431528208
0.028299675137093125 -0.016512803505619643 0.24734957706461563
-0.01442042259185642 0.01950871240981267 0.2332680793860981
-0.0035582380204703798 -0.000576507491826285 0.24459966410624318
-0.024979102834774475 0.021928385917024465 0.23930459697636208
-0.011771495952007813 -0.005555695383871177 0.23659262180846732
-0.003062334683690252 0.004491361137456306 0.23212183342199919
0.02818725179748312 0.013050444069331339 0.24526654295918543
0.02906962764093525 0.010185526620798604 0.24295280657526322
-0.011797569546979778 -0.006238279080022741 0.23505558020563566
-0.008961253671449612 0.016435588461817342 0.24285163306147967
0.02988340507070227 0.010362659352603661 0.24383540339774085
0.031260193482508206 0.009162125856204396 0.2340181641301617
-0.018002825889871236 0.06025606127243657 0.2256310861247293
0.03236948777813546 0.049139019745845475 0.23586636644340594
-0.03524926459791096 0.05493464980403523 0.2346948671307748
0.025816052730917884 -0.014708495911506131 0.24758588853793106
0.003620710053206983 -0.01799476983282944 0.23378131204560226
-0.0054173286379652795 0.001938474390813686 0.2378877814345024
0.03079114019086767 0.001323269349389625 0.2442600019189935
-0.03145081383424261 0.041159847743464525 0.23932094764415204
0.016979374824086776 0.028784027635079687 0.23040600686725118
-0.033293256141065236 -0.011592044251156211 0.2439440708267147
0.002336786378461483 0.03615083164824282 0.24168803360538552
0.030314620095241922 0.00958105098804156 0.2447733853490605
-0.00362639363711481 0.0011509273411251563 0.24396960274577587
0.018734499032754193 0.029411641812127423 0.24321774581642644
0.03317822540687622 0.008002682557605235 0.24274142665631163
0.025901263077418614 -0.0046225322655224655 0.23865557252773623
0.02017712518076754 0.055707044926398774 0.239964183180928
0.03172939686816534 0.007581353823613447 0.23737647423813135
-0.00822960951778773 0.008691883380614718 0.24351413912278017
0.02766248535818017 -0.018379279023072948 0.24586644494813858
0.03651226573921214 0.029926361021463895 0.24317393939213228
0.026512038213101958 0.007271140966163936 0.2424264694350851
-0.008476241006664484 0.01634388451512196 0.24181278251057442
-0.005157079009559289 -0.014646357643336327 0.2447418981563462
0.01319232631277049 0.022696071630924297 0.23711225740282643
0.013470852788834288 0.0243623224984797 0.24123655074270908
-0.016313637139379073 -0.005865339478978406 0.2444047152555384
0.01605284681958555 0.009684736506630546 0.2434403062704457
0.030927302497060643 0.0097745700772954 0.23820081619866348
0.012997079557637268 0.014856232702925975 0.24370451421135697
-0.039087830410775876 -0.0024104490373055253 0.23316295481811197
-0.005116134937112331 0.007789369380955391 0.24057942825345816
0.013493040989268625 0.023975894417078772 0.23914410091091068
0.023689373212366027 0.05298031288438247 0.23822421348938197
0.017465066993549643 0.015122620914640937 0.24303992612775774
-0.012311439202164702 -0.0069302232319703675 0.2350874955885867
0.0024786014070093104 -0.01640902847013761 0.24506395752472027
-0.017393100546673118 0.022317793589455494 0.24131406223152804
0.030203455338678038 0.0108857891346614 0.2378485529999184
-0.019777298425129392 -0.009127458033490313 0.24270492138084374
0.031224638966036226 0.004871201903052267 0.2461627125783004
-0.03626097746710315 0.06754459314659982 0.234628809822882
0.02052108565364066 0.012418235624791558 0.24482201170295997
0.028437364070442787 0.00845252196010649 0.2435381647352798
0.035997263778517585 0.04498427409756022 0.24181322218434234
0.010249203928567659 0.021477266289311934 0.24188801812342794
0.02929846744788417 0.009582279455964174 0.24348731376667265
-0.03648916220520261 0.06751339028583274 0.23569315374888608
-0.0030217465546223867 -0.0038085538088720415 0.2442634422449562
0.004062736076234792 -0.008717458485210605 0.2458173253490036
0.003945154062007753 -0.0012198538017987254 0.24082810316441122
0.003312127722762203 -0.00014981242558570387 0.2439424654480567
-0.016265511426543484 0.021147605645193576 0.24022806196134625
-0.004731752272505792 0.005307462559136811 0.24278692958468814
-0.02035413248738243 -0.000596784662944317 0.24364493285506966
0.01696558976054998 0.006314786965505456 0.24441708581913085
-0.004558092618509564 -0.001925490008367529 0.2404062351346461
0.020548501217464654 0.0074750455091359335 0.24398125823410516
-0.03526589504316229 0.05882560618784107 0.2365309736288587
0.021645014659142637 -0.0169854495002386 0.24754967171703943
-0.0412424502187992 0.0029744182040367384 0.2421395877543703
0.024681492409283367 0.030783152571752046 0.24242442266826167
0.032909128783180704 0.025789927184740477 0.24333447566710537
-0.01707303478275422 0.018403646658652725 0.24167837029208694
0.024322897063195244 0.05243091776250672 0.24048995241268964
0.034388738927226846 0.02615823828413018 0.23162963458272579
0.0282604716407796 0.024940138382768998 0.24202772848564028
0.0014922147432818713 -0.0022356122266538334 0.2354585246850316
0.013080967719409132 0.019887116831269414 0.23097063855887964
0.03726630412688091 0.03376038256301417 0.24388862363187905
0.03049797637888201 0.010628525149318141 0.23405788823448542
0.009740547487016492 0.049166861982244806 0.2281915506827763
0.03254542835420592 0.025291566688093958 0.23585704864449974
-0.03800629883492333 0.05932448622216444 0.23525621795481988
0.028043288757881757 -0.014749962115244515 0.2476525531693256
0.0005274274925060234 0.028033261047058444 0.24021741095137614
0.025954582036804806 -0.008210651756483101 0.2448700921679659
0.014596858532691045 0.05132489441027762 0.24003384789838003
-0.0018561066185803533 0.007024885810168108 0.24229737594294617
0.019556779390878937 0.007639267901004311 0.24444754602601382
-0.031040371894459396 -0.012692392965758926 0.24309508251962308
0.005382754545075774 -0.0024785959768310406 0.24498268141955418
-0.02007559757021736 -3.20443721788799e-05 0.23722722381142858
-0.0006810188721432311 0.005998028043862302 0.24352966976790863
-0.009994066160453197 0.0171506581515546 0.24266574707515537
0.03061283800931938 0.010586386855612685 0.23385536725742687
-0.017913732300004884 -0.0002446598442372404 0.23098550211163707
0.02478464684725175 0.024930836762472944 0.24395848401961479
0.0014431907495574391 -0.009171631106861944 0.23926081851960002
0.023464476354173994 0.05253877235578773 0.23186681036727266
-0.008522908034432366 0.016299069735685477 0.2414558951161635
0.012941815335205793 0.016279388929913142 0.2325584299525585
0.029980796894923292 0.04940878144141242 0.23889829632962334
-0.03412482851175357 0.05020184748724299 0.2378957450184621
0.02948293967400849 0.012275122822936725 0.23576958539192872
0.03541046725823007 0.04174139133843448 0.23350181400876088
0.014598872357168658 0.018518657941766457 0.24257642649285283
0.018907967101914773 0.017278616582292777 0.2432896628031546
-0.007591154830038226 0.017747164504622034 0.24173911309568558
-0.013157669913807502 0.019114354990537527 0.23209813564064874
0.0001342695607507178 -0.016322895923358942 0.23981857489431269
0.016876051622695943 0.0275706932845916 0.24333852266579983
-0.0033681810284844765 -0.002911066923531873 0.24481690449364987
0.036658113116444374 0.0367694207290206 0.23082065749942093
0.0289579831994234 -0.000805241455271926 0.2432798618601758
0.020076564884210973 0.014926185767927086 0.2445749488054456
-0.03478657438022472 0.06578826943075251 0.23439993022691005
-0.01603960943572661 -0.005712648096986359 0.2379593394579403
-0.000921246667019468 -0.0021807431986508967 0.24169986228248236
-0.0006562736128311293 0.006067475933164115 0.24209216624423813
0.01116134499682024 0.023597920506707875 0.24330049221763242
0.030439898174431934 0.009262807591704909 0.24465514524219917
0.016451899497015778 0.006898222495661816 0.2443362451220137
-0.003610194892921254 0.005241147735801531 0.24124514513336787
-0.016865786106825254 0.006715595198285745 0.243260891570686
-0.004722228740915814 0.0051491195009370945 0.24194180967959053
-0.0002702196205913842 -0.004349424801273963 0.24339338380649136
-0.005164093835436304 0.000122659336509073 0.23167911488408402
0.010499675932579545 0.018660827546226215 0.2436993372631567
0.016339245439672023 0.051998883418010754 0.23899890384631273
0.0069984206000210485 0.04903394393354928 0.2398036786532945
-0.021553334721132883 0.06350730745458104 0.23582337627611205
-0.02389508800261859 0.028510148785036375 0.23448606568908378
0.0008487202809896758 0.028641128294696762 0.24226728005520715
0.0254606705380018 0.006929543042510708 0.2455886187070809
-0.03282156538529372 0.01726308003412832 0.24034504602769866
-0.04116162123706055 -0.0017764757425833798 0.22979697753793638
-0.00777402716977689 0.04820652199908509 0.23579052463957575
0.01617067714280641 0.05382340144573377 0.23452966334212813
0.0026108160908848797 -0.01709592213929602 0.24321978048819107
-0.0010217559617205678 0.0065096402396947715 0.24239044900198006
-0.005021314262787624 -0.013980680829260565 0.2329342328131865
0.03588424578314271 0.028772725654903398 0.24270288194651923
-0.03416664845175405 -0.01083058054095129 0.23418770522883517
0.023034625157809168 -0.017241596061908525 0.24711417137091765
0.019478818922778432 0.007651324054484067 0.24417339700115578
-0.009804453025451805 0.05386496247034763 0.23943034661833512
0.031451539457496194 0.023947751808005797 0.23165780784029114
0.0009968133850221782 -0.016398853333921146 0.24625805111255455
0.001988183241957834 -0.0003494049681621149 0.24352652237355765
-0.016291372660878628 0.02131438524338259 0.23985365073983778
-0.04022286077025474 0.008472523815705249 0.23213606619992183
-0.00025499399105200285 -0.015190773948756928 0.2460363288672877
-0.013289247579922754 0.0553055531234102 0.23910451410808206
0.0026868924154985633 0.02469235195346908 0.22995382882083332
0.025136679581014787 0.02185645825777193 0.23786672363310526
-0.01713426115594786 -0.0032303260786885352 0.2355496401633379
0.011161686919673902 -0.013319352654468129 0.2444793388363222
-0.04256128751841721 0.004263942629273241 0.23237500667663666
-0.007869905484871476 0.01685859948748735 0.24287638349139137
0.018558378037876494 0.007483095351671316 0.23237931298909445
0.013484556771277405 0.01689985857495326 0.2367902365143509
-0.03394554744584659 0.04945477510945847 0.23743471575539285
-0.00866431837465167 0.016249517508936166 0.24100447833044802
0.030344414461387845 0.009496251908689109 0.24493608923635093
-0.0028140989212736695 -0.013163663630446926 0.24571135547415726
-0.038235319959588676 0.012499400299901715 0.2399206338548369
0.027140936971316486 0.010262062287943083 0.24219783438631254
0.0029751062801070594 0.024187028377539804 0.230014922175863
0.002195559579824289 -0.003441518914427552 0.24416992255562264
0.013022363020229247 0.016618427244616603 0.23593764677216056
0.017393598707712236 0.01780388682328857 0.24416771414746977
-0.0019395147739432982 0.004012356849806096 0.24399176316129964
0.018047003679863893 0.008711848178980321 0.24373209452330286
0.018859036000352564 0.009107889983520401 0.24182823055316124
0.026882853834399055 0.025600622140162746 0.23763511721749436
0.023266383894412213 0.005178191389730609 0.23923486659118404
-0.03905348719607775 0.015789452985458252 0.2395831400321642
-0.0029058496698102197 -0.016203903123853714 0.23963491939536496
-0.011055326934127566 0.05263455700159862 0.23308426081305145
0.030267512817923115 0.0009252371088958097 0.24639325544688612
0.0336841871346591 0.04839594002603188 0.2403052605477274
-0.035494982022273525 0.06684380816120843 0.23043607440593616
-0.0348405935957736 -0.007920547593672236 0.24027566068150108
0.00227646321227243 0.024506907637638835 0.24116609722893834
-0.008694582434598664 0.016296504131148252 0.24153589405671394
0.022969597139867383 0.029455793912798796 0.24345503029764984
0.028016811291773268 -0.018486401201368578 0.2352141359725273
-0.004771041568841262 0.005141114013848557 0.24236956893167755
0.025170167001224077 0.0251926660075247 0.23757365050755
0.030327577846408285 0.010955067741091413 0.24338197944473525
0.002360386626585058 -0.00010680222087931703 0.24424265324379724
0.0018572919213825272 -0.0013436231942218178 0.2407201430938562
0.02522882814981665 0.02608827902584468 0.2343059850507851
0.0014443011526406929 0.025538366546498478 0.24156480006573
-0.0034137521764566704 0.00016246081487166983 0.24326317369145
-0.03637269433802237 0.04811702030448142 0.23848935163449803
0.030390201014841085 0.048235251592146894 0.24013187616690496
0.032128526220719676 0.046965436940901814 0.24242846563967474
-0.01435306402894227 0.02013969779446738 0.2421532183037675
-0.008229755256151224 0.0091663656706042 0.24299873425403398
0.020521280012393707 0.013469743058035418 0.24472905077238838
-0.03079216153756472 0.03620179030325423 0.23771152064310905
0.0019484319470254347 0.02475620213978102 0.2427372477527762
-0.03459984584658959 0.0655727844824423 0.23187615902796416
0.029076866238390106 0.00932887049112256 0.24376574268142914
-0.002726373726736092 -0.013040081109369184 0.24581288327147294
-0.015584447874064235 0.02311932101696731 0.2290523622216793
0.01621249947664745 0.00841233679836921 0.24173900992433386
0.025312000257493004 -0.019963026252660335 0.24694719672565213
-0.035108534336995886 0.06813071448082811 0.23571719787329518
0.030322645446488248 0.0009921415231391641 0.24639047970054
0.028751005027579782 -0.014946686125392395 0.24562493361375481
0.03171821427629379 0.007190595491160443 0.24166614188562816
0.02563810693066554 -0.01571449813594934 0.2471274166603753
0.005860686838817403 -0.004624035747041821 0.23272666723219848
-0.03724138316133259 -0.005166810682685135 0.2367036393075548
-0.04199944466686613 0.012116790977886555 0.24135197084290475
0.03541511163457257 0.028220064690967658 0.23788942283422182
0.01414536987926315 0.01465789125864828 0.2314936128772516
-0.0037844666377078572 0.04129401598110129 0.22811740271251993
-0.01770915440561663 -0.007482778136742663 0.24411005895614968
-0.03519335697760114 0.04666433745607999 0.2322374768063163
-0.000815328927666328 -0.00440861411561869 0.24300938115096254
-0.005838600086344257 -0.0008727352602142056 0.24276886390270586
-0.026875961795800807 -0.011717552858358042 0.23787315114298066
0.02290837260779495 0.05312874636820797 0.2381666114357909
0.011434668547687153 0.015036585292716124 0.23343363655847083
-0.015800469519037505 -0.01029248577168209 0.23199425907138937
-0.01314728961027505 0.005493549750871981 0.2419688361448093
0.024368759246870795 0.029793275679123675 0.23073759588102935
0.018195086229553292 0.012273997624374183 0.24369156184429824
0.024326538259367793 0.02480142230484106 0.2436494877032791
-6.370564549452659e-06 -0.015340766463641806 0.2461712087084421
-0.0038635932096153756 -0.01590199632828184 0.24421019486185375
0.00048254465214576416 -0.0029494963997738193 0.23227232357374714
0.004956652363157435 -0.008026781041360006 0.2361678665250299
0.0043388344760336124 -0.0008807400516892818 0.24299098317148196
0.008216658799062446 0.04961794810605614 0.24083215847901773
0.020939244839871574 0.014325560787231132 0.24420374039891438
0.014488280005956582 0.025093637269282806 0.24180968132902933
0.017677347937327677 0.05241018511851059 0.2390387422168037
0.02217185603934097 -0.01715739207069601 0.24652029783083076
0.020028402747643392 0.007449217470702802 0.243416628633835
-0.007207005231706047 0.050299970257621764 0.22712620268136718
-0.0020875974479135327 -0.013941315984541056 0.2438872450649291
0.0032739021175798586 0.024530446293201606 0.24068353360069072
0.005619242929271855 -0.003093434488644538 0.24433412403179683
-0.0010656649065717717 -0.0013945213664820124 0.24487778538061625
-0.000789454070467435 0.004496911706766879 0.23409494653380303
0.031710375121963494 0.006764292888588718 0.24489520931729092
-0.032792359178086 0.02029870045012746 0.2390037262360077
0.030993361077614433 0.0074499316893322665 0.24576802261986594
0.03451185008294824 0.026554997114466183 0.23372944628496048
0.02520397517165157 -0.004915555715771854 0.24561058010719228
0.016118147660687327 0.0073225737660128605 0.24401107457321847
-0.0014739096421497629 -0.015185968529550557 0.23962646464109363
-0.0018157132269784274 -0.012824709879744834 0.24441293025501606
-0.011869197887593302 0.0061228019710379816 0.2435978601396708
0.0050725723115099 0.03675027938346285 0.22902355728954024
0.016033527230633306 0.00988374232763049 0.24485438272445964
-0.004863595522016536 -0.010817866308295626 0.2449573989429585
0.025826399019535817 -0.004870035972346336 0.24186501389010898
0.020963334236720157 0.012444025686447986 0.24490875994062847
-0.03681735407161564 0.06736129113642526 0.2367624917641489
-0.0028230106750708603 0.006679570847863865 0.2376163300893164
-0.016326039138764126 0.021241578256682398 0.24129088625541936
0.01967936891278818 0.0065382749133861915 0.2367824534026353
0.02586473860670009 -0.005304132981190731 0.24350148416244402
0.0209817769798068 0.01177689655657619 0.23692540658931918
0.020578363832101973 0.030753136022211212 0.2336286851771373
0.0352632047483677 0.02700347408379338 0.23160470139292463
0.031252801449722624 0.008588241471790093 0.24258000015478676
0.02541933236807803 -0.01878489961005423 0.2350926024485728
0.022148037493318 0.03209006799944562 0.24323916833109752
0.03038332522243443 0.009435840806131062 0.24425284348619886
0.015662715124507787 0.026489247395601198 0.24229046216888214
0.01896983483378145 0.009211725973805464 0.24182535958070941
-0.0031888888323077912 0.007107248948038501 0.24181343657404644
0.030553833050514352 0.00899089115968478 0.24407162765503956
-0.001974112135079545 0.0070868134566580655 0.24228518003560814
0.010536624473808476 0.015161088673591413 0.24407472331071473
0.03444102568829429 0.0320591952065573 0.2434046957810519
0.031931467967022 0.028358788484751075 0.24251437116221358
0.038060912779880426 0.03297494950191057 0.23123604565645156
-0.010983158843845747 0.05242690059711451 0.22672309264710971
-0.004336128371554698 -0.011142756340071985 0.24548960807899142
0.006505837356315913 0.04861131935097715 0.2408875738700991
-0.01825792985863287 -0.004234341305203396 0.23770229771406992
-0.01615467602177459 -0.006141908595513125 0.24408002954078656
0.02530251432642355 0.02129078433210224 0.24303044112809352
0.019018256571883944 0.028982959476334946 0.2433356514692244
-0.016054985517035186 -0.006300109574392285 0.24230872650404178
-0.014384730948729652 -0.007920008400440676 0.2414405718573498
-0.03587881030087872 0.061805809903027156 0.23724330274179695
-0.02029683994291359 0.027578076911699417 0.24115703570348318
-0.002671166284853945 -0.003786411914793371 0.2364224795287734
-0.020817491426353005 0.0010986973855006115 0.24245789609819565
0.017165826023861727 0.0088935615852959 0.23536711757821766
0.029826709963648234 0.05243788143045029 0.23972819803534146
-0.0007150995782214831 0.005238318881753212 0.24216212837510576
-0.004206546449149939 -0.0024063263316040796 0.23834089315659623
-0.004945856466717042 -0.010971197608652962 0.24389168388491547
0.00094327167916761 -0.015963575046894853 0.24413119774139402
0.02761049456764237 -0.0011639947490223292 0.2443413461021657
0.018342635861600454 0.007818046979101677 0.23616759471642146
-0.04291765572552991 0.009985180437158042 0.24148815120242406
-0.01708725250411923 0.022771843888260958 0.24176477797761137
0.025094918401406246 0.02660815983079972 0.234252392177591
0.025039640159957303 0.02677117772433862 0.23423483040113388
0.01783671900069571 0.02822160634173117 0.2429774880678222
-0.04359418056446983 0.004744847840096659 0.24030108806096212
-0.0012630750981613287 -0.01456051046239022 0.24452623946814017
0.009487026022788357 0.047478440824584814 0.23900835849531515
0.005968819670931696 -0.018915984661231795 0.24038012706606335
0.01687690976337826 0.017998568521066377 0.24412107544382333
-0.0024286526261677356 -0.013084793887113097 0.24422191791657874
0.014582766666942549 -0.01727099552895745 0.23753342587575085
0.003429602278689871 0.028920203943692147 0.24238958570442698
0.004144609196002047 0.02765632783864718 0.2297747773128919
-0.014484999015892557 0.05911956326762406 0.2376884520444662
0.012740709314242187 0.016611058651411267 0.23634783589850267
-0.005525045433366661 -0.011805430472227327 0.24548049160408503
0.02616929737596646 -0.011675378361043667 0.24680053770879892
-0.03335174159860621 0.04717235569331919 0.2371330457678538
0.021961196369816118 -0.01982671062870176 0.24781889635308896
0.027456783994514768 -0.003313091526259967 0.23384065146118968
-0.0046503573461259854 -0.0026664217421797625 0.24263693589756935
-0.035160439735256774 -0.009896898019255904 0.23724037280867058
0.027614907384950343 -0.0010883825593765925 0.24487219836023186
-0.008532996052009545 0.016314731939355374 0.24163303364935268
-0.0031407513365093514 0.0064135730045990985 0.23123811509121506
0.02459866879815753 0.007551530022450721 0.2391008946140583
0.01812349804185541 0.01798703566251377 0.24425693073915147
0.010790220365643977 0.02391606381135476 0.24277778329968716
0.01887925908094945 0.0056918110289270445 0.24532324570929454
0.017847447329649754 -0.016058769135158017 0.24617688543968197
0.011189249147467946 0.014485331502411856 0.24417163918393836
0.011580550923842038 0.049289155633500004 0.23466916436981142
-0.034904020019826 0.06357992166961576 0.22437467670345712
0.03822464736440134 0.03879376627145502 0.24195012892079026
-0.032355894792002085 -0.009742209834724999 0.2405782313829663
0.019603432340186785 0.009288453304800003 0.24349844859814798
0.0244335462251512 0.026021878149642342 0.24283128368808654
-0.014046693703678226 -0.003466427648440745 0.24432171083981094
0.03833810352764827 0.0377465205552413 0.24151189900884984
-0.0053434947412390466 -0.011099823530000583 0.24441770497404283
0.025730780739648077 -0.0168320763249659 0.24770495213139346
-0.025240098083558864 0.029236165249110598 0.2397181755111929
-0.01878312781416231 -0.003603561751768687 0.23442479755218482
0.030724751012876497 0.0028417825517348203 0.24595548869412157
0.025009901489627683 -0.0038831021844527303 0.2463141773589402
-0.008315564081810903 0.016452512748072322 0.24234962218131031
-0.016084756193409547 0.021115598533777903 0.23988299381045422
-0.01788937049244001 0.0008067320119081959 0.23408574834296858
-0.03788021124984184 -0.0077483807235254505 0.24226841570868077
-0.03542659937867425 -0.007402755933203973 0.23700468843360606
0.019571911215211894 0.007615774909166541 0.24418184177378482
0.02766506410401078 -0.01798921092647851 0.24798126319029287
-0.008120814031732235 0.016511792083407417 0.2419972722867587
0.018720603140858473 0.017451203559341932 0.24272643896810572
-0.0061709434770541305 -0.013162666035632091 0.24526936197200908
0.036578369997175404 0.04298336187867796 0.23026669298305716
0.014823465074829444 0.027947657324124 0.2367408167736773
-0.00456956190946753 0.0056269427859045994 0.2376099352951596
-0.03330249634495565 0.019183440534095847 0.23796677947503256
-0.019413883274253068 0.004311278327020003 0.24332836221807247
0.01999448902595842 0.009442184815841038 0.23547970151436745
0.024748298906759926 -0.017163130718207853 0.2472048271442143
-0.035097520708918126 0.05634212887861603 0.23783472641195028
-0.003781464963277509 0.005352963216279255 0.2433533856759407
-0.04124686624460442 0.004228768417593093 0.23883660815964386
0.03015359540943873 0.013631853916218415 0.2452632764546982
0.0025655265890752676 0.024596105411825553 0.24278654662072252
0.001434331922614553 -0.011214611895076604 0.24535114451423995
0.01299889211199113 0.01679142875359392 0.23762331702432943
-0.006166110597702379 0.002641803366703341 0.24315585235278142
-0.020489987556519637 -0.0020139346693279405 0.24167717942705663
0.021583073057128112 0.0077030974803100425 0.24509459333912725
-0.029816650203726425 0.03840513078494162 0.22689030201821195
0.011497291823753225 0.05127248819716948 0.23448906082459117
-0.03517884803262013 0.06399413952039149 0.23581029726729527
0.012431252764417623 0.020380799589933003 0.24152938324197715
0.014956281316430637 0.029564985340013554 0.24197828079423708
0.0005698361930591752 -0.00414428412077997 0.2437812826417988
-0.040717826469243115 0.0035788176499070116 0.22934874820591386
-0.034476959907809704 0.06604789231380473 0.23694806225202517
-0.008975033552685672 0.019108753044359397 0.2404653325478288
0.02411768885817304 0.0552749703270181 0.23986860875314164
0.0056394187623934056 -0.003124758582317256 0.24397985051297325
-0.04270244252814956 0.0037323060165735354 0.23560579211639204
0.034304335191362084 0.043766325694068894 0.23006795902494442
0.028511237009902917 -0.017023974993242437 0.2351129889128436
0.016086651895876426 0.017085207458767022 0.23138955063139366
-0.01647614970982173 0.021193718377507307 0.24057018480281167
-0.03829584808489425 0.012593373552727685 0.24098346540239257
0.027104931964919268 -0.017768650477074106 0.2478660197225203
-0.031446650662993764 -0.010020482683067966 0.2438464381895748
0.003534502781787272 -0.009582878310880127 0.2442518871247774
-0.038947676461844605 0.016038533962494238 0.24064173026974045
0.011931844837276516 0.014324980801179134 0.2426162338355099
0.03475812667030435 0.04300626754325114 0.23335282569109114
-0.019885058466475893 -0.0030546253389476252 0.2425200336599193
-0.022850989635977578 0.026910328148036372 0.2389853002681881
0.012713728180687917 0.016619153603208557 0.2363455835882565
-0.01956546322729566 -0.011806459650438736 0.2447448250799523
-0.014418382376468742 0.023349073518718042 0.24085499472465033
0.005322030139099456 -0.006537054430442115 0.24569625540808604
0.028371341769548357 -0.016405918784317634 0.24680691414427758
0.02461129484438577 0.008948648984895512 0.24542556444886013
-0.014931130491180099 0.05641738107567534 0.22933724715817377
0.010121441113134243 0.01694373411625208 0.24389346103843368
0.024180030213223496 0.0048061273114370865 0.23293615707516518
0.016324754514770355 0.007986813641741263 0.24018712174188944
-0.0012206422915712646 0.004826722598731642 0.24431889058305403
0.02995787222960721 0.01079241106490827 0.23911954893731466
-0.03432766745349819 0.06593892303036757 0.23568947003557691
0.02307058946659722 0.028645747630848935 0.24180527864747609
0.01892206803253376 0.008931241080777206 0.24510310285391315
0.027478411663689264 0.05101450809508254 0.23223017561646558
0.030198992401184826 0.009858482062676272 0.24481902515805656
0.02590855797556659 -0.008333760511087706 0.24649023005287765
0.008581504239268104 -0.016378080367465665 0.2371127051063445
0.0056425410712853345 0.04028072201312128 0.2394258221882026
-0.024646188219735618 0.03252978411356775 0.2405353642167857
0.025230209242668174 0.021230822460985982 0.24249433134504295
0.0175488229630221 0.009053627253070358 0.23377886829331432
-0.04087446849050383 0.008092578847507668 0.23851618645475425
0.025637942912242504 0.021399973842151063 0.24366672485497173
0.0038564534339770654 -0.016636067413424348 0.2443565633941424
-0.0008028182014887288 0.039216452298510444 0.2402274403160487
-0.01159171093979965 -0.005834821530951762 0.23343572273406468
-0.0044517246691844065 0.008179484102608303 0.24240566460008084
-0.015749228618105744 -0.0038713921601651827 0.23994095375647548
0.008287325537840985 0.0483485997073723 0.2313729594518328
0.01939616349324759 0.00905602505656649 0.24323855225592028
-0.01944800867474464 0.0040081516607754775 0.24174134663968716
0.024375836159863593 0.02148815891532671 0.2429602154898295
-0.0016101559258048263 0.006313223427394512 0.2419735512268171
0.027591491342537813 -0.0183936599946504 0.24640095979588553
0.02503383691003391 0.021233969738810567 0.2427515128964819
0.03352154728497717 0.0017007982140097681 0.23693454236965758
-0.027635423615620863 -0.013486220403327916 0.24335918239811932
-0.03522194922238983 0.05898971553129795 0.23544438601726914
-0.005417703767861864 -0.013439783675744124 0.2456311106527474
0.00329089748782625 0.025178637023259027 0.23952068650352443
-0.005591457111375792 -0.012441481201211614 0.2423411265026532
0.019320877330859437 0.006578129509140241 0.2346306334299007
-0.001586670477974771 -0.0020844330084703547 0.2416534509412159
0.014688331019577247 0.0250988939815184 0.23485712485926694
-0.0010002479757578106 0.004946554198852105 0.24324626653710169
-0.0005048110111186442 0.004563568815043913 0.23155180491206603
0.031180072928039846 0.01248664408538921 0.23584753467126307
0.024672728251232297 0.02383584288102962 0.24404892724580707
0.030400618826666424 0.009408991531772068 0.24394917989087173
0.010900775522129891 0.01568938572531861 0.24398490825548205
0.004442410050871708 -0.0009481812829189133 0.24479381297958658
-0.03158960228321829 0.042509008687240585 0.2371084359655063
0.031110097134973865 0.012705789890317383 0.2422078084898781
-0.002814418441757706 -0.013157260677937715 0.24560331606930794
0.01221311026383996 0.05013452112846292 0.2378222604474332
-0.007544836707347272 0.017284795160747036 0.24142444046013678
-0.03586963416119426 0.06074245319346354 0.2373378450083262
-0.04356956762788882 0.004217286224712954 0.24034913561477314
0.036254232051113375 0.043408314980943254 0.2397861158746527
-0.030555766231797933 0.03961909621160622 0.23312451192738798
-0.014753138524193793 0.020848937298311342 0.23993984379954603
-0.0351987352521823 0.05470405076772807 0.2358246372032462
-0.038562796522041566 -0.0032735721454111195 0.23646098894796239
-0.021400283184542988 0.06055822143028312 0.22860270561751683
-0.016405477808308234 0.005008390545953164 0.233798754342758
0.01265672502989926 0.01679507906025309 0.238454659310154
-0.034991092582803994 0.06494635510568546 0.23627408350078113
-0.004070325019475679 -0.003179063984824643 0.24450626356353583
-0.025068586466419938 -0.013644178778878783 0.24244474966287466
-0.027665585582672632 0.02018927006069799 0.22862341165204042
0.01248932553378521 0.01721730371629623 0.2430891291949918
0.027801710191796072 0.0506490839579925 0.2290890768251665
-0.013996158763025353 0.017745254650888553 0.24244909800390466
0.023998564115497743 0.005432565066187911 0.2392540729973216
0.013291062264156647 -0.01448986024440814 0.2382779020840172
-0.0027498423626341646 -0.01326691212980405 0.24497193992703697
-0.028734287888254533 -0.010923456788089652 0.2440807459200358
-0.038066826543536256 0.059418458828052065 0.23631904218554378
-0.03905035803742367 0.011603195949058086 0.2415653319169712
0.033118775339604736 0.009900536721822792 0.24367674021410052
-0.034291141494666735 0.06831271435613234 0.2368222364873669
-0.04196432850842158 0.007664640672125918 0.22891650048749906
-0.015459010884525955 0.01793542483447754 0.24019981396724643
0.009024623406997608 0.04712556246966077 0.24008780558938714
-0.005639924524564953 0.007720716368344808 0.23736385137215832
0.029131919798347637 0.013846463010792138 0.2445335713989747
0.015569894537053923 0.009058143436451359 0.24418458853400893
0.03117045487666118 0.024480645131766256 0.2437094144755128
0.024374709004886606 0.026696294928423854 0.24169372232195377
0.02485642249951455 0.027241253207241467 0.23099101251704296
0.0026368165194242746 -0.007932426251502759 0.23921922756277242
-0.041564112972744593 0.011072851083187025 0.23821340210038391
-0.016197633359570442 -0.0056538473555369055 0.23794514098138866
-0.007549516281945482 0.04788520817572001 0.23795960095321575
0.03363245009389376 0.007787070051139988 0.24604202240747955
-0.020314935313073844 -0.009286823063607313 0.24412116978247336
0.026876422696954082 0.02167666691837737 0.24228001919406456
0.031307672777824556 0.00107371836713579 0.23792784807043246
-0.002128640547346655 -0.011779688331319945 0.23290436325630925
0.017307967019666814 0.018266660118008402 0.24239479434526606
0.01594607076955607 0.018636889863019056 0.2433590798072689
0.0319547911938439 0.049627476530529305 0.23579956123810059
0.02301678611030969 0.05558960304377544 0.24121086570136938
0.026053459706603412 -0.009385099464707204 0.24659143929123237
-0.01743443287537073 0.006288681639312782 0.24326625397544732
0.000795143739893157 0.027245196347188857 0.24083962273855192
-0.03171036947087361 0.01799813069354113 0.24141791714347155
0.011133191930868699 0.01517349822437906 0.24191587709410603
0.003865722014655997 -0.006374865793434059 0.23489573990465112
-0.02073995676902627 -0.013288367087864003 0.2319778451901016
0.025114212923165867 0.009133246348513702 0.24382600993277548
-0.016451806988892103 -0.0057841688816788785 0.24438966957208685
0.018634641006655232 0.012297126457258743 0.24472528712248334
-0.004710728785408134 0.005372295870343562 0.24278239444937413
0.008973497594740362 0.048967360647547566 0.23135732736971507
0.010209146465762221 0.017041214028693248 0.24174067653042466
-0.002584242209598666 0.00657264651887937 0.23763938194043466
0.018627217418684096 0.008380688594914813 0.24513498980074339
0.019333884981661713 0.015992794989593107 0.23592683004234333
0.00526053091300804 -0.0030509228254120323 0.23574521781438196
-0.023253746291249378 0.021556721511457246 0.2415210353949703
-0.007309802884231548 0.04751303990492992 0.23375040134268965
-0.019505126836025014 0.05938853425442607 0.23845335478167942
0.015393304506913893 0.017622455372323216 0.237686200948955
-0.04070337104266112 0.002791184172144058 0.24117575171222266
0.008044217109040058 0.04946465000524711 0.24083589223059162
0.02806025276097844 0.008109563744228013 0.24408429832596046
0.018437415984850755 0.008697901468246415 0.24120211069111538
-0.003276803936144352 -7.458513495661213e-05 0.24302328145524746
-0.023302601716309553 0.06315259378678154 0.22507315944390474
-0.02642746198854089 0.034519871542726115 0.23918338146982351
0.015548270741232887 0.008306845075128822 0.24308565610297647
-0.0015479872673910856 -0.01159523572031539 0.2329211224903392
0.030497628479595237 0.009078151855870095 0.24505854061142276
-0.0021662833926264745 -0.013819151715632534 0.24526891522186728
0.020058296303528466 0.0157985761110692 0.242948742151463
-0.03480036561776775 0.0652284120594878 0.23545406959313037
0.038360777820475214 0.0349722224734707 0.23107652840317006
0.03396651073406731 0.004639885427366545 0.23670001528683937
-0.01553841902908771 -0.003190238581021765 0.24313775700480603
0.025764585132244083 -0.004118981160798414 0.24019917461024565
0.025017628195272923 0.023019210875231528 0.2377571356149885
0.023691448859871053 -0.01793262253118723 0.24555823943625835
0.03157443672677643 0.024582555173220173 0.2358644400467084
-0.03669407998894138 0.01724418574730208 0.24113691508027352
-0.0427538366364084 0.010313427235811978 0.24093117139765063
0.01886140001538277 0.028866426754117963 0.24297882990719263
0.018317091555333252 0.01375410216358397 0.24320945027148833
0.0021404476646783178 -0.003138098538782801 0.24089493238382678
-0.038267130651113736 -0.006574174654529825 0.23038602051766074
-0.019200047766516647 0.059845798833954876 0.23836645612118515
-0.002492277630020236 -0.0009972211015868097 0.24314953759605326
0.03753028927785754 0.03925448413328415 0.24341788104734807
0.010482780056106521 0.019382235752777748 0.2436345897011639
-0.005419563886007499 -0.011711641114965522 0.24547820611428
-0.001579115511962324 -0.011265811944676423 0.23608204341681044
0.013043922555749389 0.0215204255243917 0.23507987639505235
-0.010967323810234252 0.01652192110641859 0.2298986346114512
-0.030789732783901798 0.0647822246468374 0.23679651308497093
-0.011629828360116699 0.006021781174544615 0.24200855030239674
-0.03499610728006116 0.06633590902680078 0.22412575393997974
0.0035731892402543052 0.02528210975114989 0.2363357968714804
0.012936866889987353 0.017373554462570814 0.24310080126892697
0.029415465350745344 0.013911991499220766 0.2438275410562711
-0.0035658149619687335 0.005393552983518281 0.24123419722456643
0.025157864911694222 -0.0034806248606843865 0.24440650054004753
0.023363631124559275 0.02836667307640841 0.24220483835168016
-0.03343582171770273 0.047467654930547595 0.23710214769944465
0.01569990481915468 0.026412187392243918 0.23692649281917708
-0.012345362914564433 0.005865641265002766 0.23714599918858914
0.019664885663230953 0.00901736741951125 0.23549849207341303
-0.0009134524962495704 0.006456312857743397 0.24347591215567208
-0.005203477916960821 0.04715361279375105 0.24028577451746724
0.024773936179978417 0.026368544810779583 0.2438307550311062
-0.014274251354223635 0.05600451858280497 0.23260297879473943
0.011734698923906425 0.04939873988151823 0.2346682538786019
0.037985444568955994 0.03264387736416127 0.23126102042920646
0.03548668397304462 0.028308520501947494 0.24325857857576
0.02491000752796921 0.022544450879880308 0.23992086086745318
-0.0010200589236185834 -0.004676526483023356 0.2323394507279014
0.018317061982617632 0.013083207302830935 0.24470154001501224
-0.016610578981664965 -0.0057054725193198055 0.24422015633098557
0.0285318165509555 -0.003716594697113355 0.24032118996204238
0.018815159065913616 0.055702863003502495 0.24096156936116347
0.03165036037907817 0.024885169747961594 0.24405917370134073
0.01272328625812348 -0.013144331340443592 0.2464333138702081
0.02522929873669092 -0.003156253578785409 0.24545646861419504
-0.03208475079889056 0.020888350343176328 0.24114104924049218
-0.016969029633662584 -0.00492369086830571 0.24422028967610052
0.03569768936521015 0.028530602389086637 0.24289276717130553
0.0009542281648581086 0.026843988337658074 0.2403468701021631
-0.0019736591599275183 -0.014039591121037332 0.24379496441819618
-0.003648483749076251 -0.0004159664185543546 0.24138850874471882
0.014033859623291815 -0.014693601774712892 0.24259397317784184
0.03533476906758902 0.04190791609593725 0.2334827792494393
-0.0027695916355261717 -0.013212600969356024 0.24475109562187924
-0.008536867542763836 0.006464090019040409 0.24348881678748005
-0.04077765472476251 0.006885932395656928 0.2408094725375213
0.007810940005790815 -0.017925450524512443 0.24358927199745178
-0.03091801277883264 -0.012500640278041196 0.23771219572468202
0.02168635382159108 0.02934056234084121 0.24309778864048437
-0.01988478006308905 -0.00017155932082593695 0.2340586084054629
0.02633870226814456 0.010304970313221022 0.243254856752307
-0.04085352591276174 0.00688158429132717 0.2418801163583269
-0.007699423678478243 0.01710661551916368 0.24268506544477308
0.019964180222622845 0.015934141216704667 0.24346868959625825
0.025344900691584238 0.02608562962318734 0.23112100901251054
-0.0007226870265330055 0.006068892481531434 0.2442374191156616
0.017200506935569675 -0.01585292553320936 0.24504726189119871
-0.01161952538193227 -0.005757682169915393 0.23342731821056634
0.024778453839227527 0.007272403830560555 0.23594399503286215
-0.0024002540182356926 0.003979810298484079 0.24107093026107804
0.009578101438759581 -0.014030054731348728 0.24588476490195346
0.02939766474890118 -0.003034236779125084 0.2456830680836001
0.002029668906637235 -0.0007230869799053396 0.24493085495467234
-0.013675275539817983 0.02000223844351401 0.2422039721311872
0.005011001414545607 0.0460091848545961 0.2388833578628722
0.027428681738968987 0.006743162505596095 0.23294989894105594
-0.013216391545676082 0.007655835809770129 0.24012992638830982
0.014372915942932638 0.018402851408668396 0.24185740967329888
0.02056363345307869 0.007451551878761617 0.24371554676006818
-0.030147413771835274 0.06603590814999061 0.22442841186090667
-0.01610482246711682 -0.0030273414113577753 0.2425538036700642
-0.0354242353576858 0.061461402094631516 0.23736348505430946
0.02982287714923336 0.010456632288961955 0.24489823136606712
-0.03551513175657427 0.06711224158001447 0.23296465091456964
-0.01323212648666908 0.019170183274735398 0.2295355008002918
0.03462211795269747 0.041659011302825094 0.2431035005260345
0.012933228490496228 0.01704336189849123 0.24015076044102723
0.01764891516558726 0.027357379654615065 0.23269815930676785
0.016826747663491803 0.018488212289469858 0.24342237999510513
0.03468783692221915 0.04309216698233302 0.2365330457047355
-0.0026753260984905165 -0.013202738911714728 0.2442182983352493
0.019143701131472367 0.007035361631694728 0.24096375035586917
-0.01796250375416159 -0.0050184714189856865 0.2428031619105029
0.03563716165298951 0.02862457500057546 0.24395559146537862
0.01769270424477161 0.02711660080949721 0.23059406114139114
-0.005569814476392293 -0.011373356293161371 0.2433544211352427
0.025110249936831933 -0.004446590561664592 0.24583242079511777
0.018230003206294594 0.029105167820444713 0.24321611260493672
-0.016039358020776308 -0.006146849731864674 0.24291011029486165
0.018286336871357528 0.009864996065328945 0.23428109888953938
0.018140864638341733 0.011367362760333947 0.2447793743023356
0.01885707475521988 0.013776742093669445 0.24247924940444293
0.0014195675854542233 -0.016559820460984392 0.24629635927515947
-0.021858431820717606 -0.010194704551892328 0.24232257256782838
-0.039900916704724725 0.01372021627270411 0.23807404665266568
0.02825689625926254 -0.013152844682507858 0.2475235044418909
0.011019136781718734 -0.013224521475556836 0.24589560818895284
-0.03374173008460173 0.04873330246193462 0.23643553404098872
0.001974844581622821 0.026419331658916224 0.2297605819968469
-0.017514718349999132 0.020628515350751428 0.23873812111008547
0.02575098819680495 -0.01941739178175448 0.24474286972484516
0.03350777241447889 0.027602055886223213 0.23145180443789767
0.002731824144595961 -0.00014080201407651403 0.2431922325586478
-0.005269365890276326 -0.013462490653438694 0.23606610966543604
-0.036293650572928327 -0.006326262495781689 0.24005194604683772
0.02593948829201069 -0.01855881228162495 0.23510223511453057
-0.0016662126930070721 -0.014246536482280364 0.24469043373276103
0.018821802178357844 0.008652323717535597 0.23867457299056455
0.026580624830697813 -0.012601822727117726 0.24737932082883074
0.011879827791019978 0.01426364570544899 0.24208140817290874
0.0022914890111919908 -0.010002459065116634 0.24363834656866667
-0.018170035136872348 0.00014609460859513201 0.2426928954715225
0.017395376798328012 0.005874178666986429 0.2439432333509141
-0.003017874356716019 0.004441095820903895 0.23141951506071198
0.03357413073136217 0.008382263186050272 0.24383691508982613
-0.013945862398666358 0.020021426369638815 0.23580322722327116
0.02631311385721094 0.052202935178349764 0.2416341904262349
-0.03845237855794775 0.012296597844270861 0.24046349746196963
0.008165428683342612 0.04655360181336969 0.23790836257571088
0.019045300406866868 0.00786147789621773 0.24359283311418986
0.024409502134387334 0.026324205057909538 0.24280318329269088
-0.010149606699977227 0.020101919108524022 0.24192250111115804
0.01898221872732567 0.01647892554055738 0.24011957458027988
-0.016488219849630385 0.0036949235924237274 0.240293811410412
0.03041264220428784 0.0019476013931514196 0.24494219549479787
-0.005010513256121542 -0.014799648371863915 0.24476379869056625
-0.01793114275209383 -0.007697302022613381 0.24375818862932946
-0.03495853845212146 0.06533534613670147 0.2318767253102903
0.02930191825263285 0.024819143160724134 0.23571410180534266
0.02858159051619344 -0.01405630455027691 0.24123823923031537
0.030102615253581776 -0.001625488994419503 0.24660939420291753
0.028219778447573673 0.011554200540254406 0.24540068994506248
-0.002412730581250737 -0.01363100427864455 0.24459349561315574
-0.018435062221600945 0.0007035492462387667 0.24044742978866376
0.024404863791253065 -0.01742276344452618 0.24559635077624833
0.026050962632604577 -0.009602653750569014 0.24714781917370754
0.02940714153551078 0.0005916816458446366 0.24536301196790525
0.026019003620541697 -0.004244674448201304 0.23703295919108602
0.018382286646606925 -0.019165031522582032 0.2464819934340938
0.0240020155976585 0.008425730568951328 0.24436252115390333
-0.033453443361724455 0.06555052588290569 0.2371141699871017
0.02599782647934204 -0.013603950707720427 0.24749857904689782
-0.037431730268039046 0.06599660693268504 0.23469900516831188
-0.005661334306912824 0.008688328027635613 0.2437245589719108
0.0028563496896819463 -0.0001663308201125778 0.2428433893363038
0.012333196619663166 0.017243744585167337 0.24350347380470527
0.0023805624633143375 -0.00013812632015323262 0.24388837966162447
0.010427123505660333 -0.013581012133879654 0.24553522103207445
