ply
format ascii 1.0
element vertex 643
property float x
property float y
property float z
property uchar red
property uchar green
property uchar blue
end_header
-0.022626375266633872 -0.0321253244979199 -0.0014148968405604738 255 0 0
-0.013718939712849787 -0.009210901936231631 -0.009519069136540902 0 255 0
0.009257471911590678 -0.027173289667182698 -0.008468398393817944 0 0 255
-0.022918524265626607 -0.017732387693358994 5.534466667005955e-09 255 0 0
-0.03488990128882473 0.012683243782161251 -0.002122349814916142 255 0 0
0.030151679287563727 -0.01821071741614518 -0.0015917646065992913 244 208 63
-0.043483093493657615 -0.012725097759407137 -0.0021223498149161427 255 0 0
0.013533358102979726 0.017195401479019462 -0.001061172187663018 244 208 63
-0.010989113553535006 -0.010565719136666523 -0.0005305796738501741 255 0 0
-0.021589207863572688 0.011835198023605284 -6.304073792155164e-05 255 0 0
0.009921111011737817 -0.027391243669250973 -0.0013264647918214397 244 208 63
0.03501616859624584 0.010213066715528919 -6.304073792154472e-05 244 208 63
0.01998528071301981 -0.03141076982243563 -0.0014401662666091183 244 208 63
-0.009842940812970333 -0.015783513617298038 -0.009168846567650013 0 255 0
0.019267655578678173 -0.0315934165836945 -0.0018570572107577139 244 208 63
-0.007295209865778869 -0.04226683150817386 -0.012671080352693005 0 255 0
-0.013845635103361424 -0.017656796113302307 -0.008468398393817947 0 255 0
0.001190211282494467 0.05265979837146828 -0.012671080352693003 0 0 255
-0.003134992130257474 0.048297334146049066 -0.012671080352693003 0 255 0
-0.013150834995080761 -0.012295212267024107 -0.0013264647918214425 255 0 0
-0.00853827005513309 -0.024345425396019426 -0.010569738867247096 0 255 0
-0.026746878428345264 -0.020182443842719697 -6.304073792155228e-05 255 0 0
-0.015697722932309078 0.005901436598097455 -0.012671080352693005 0 255 0
0.023286819429861865 -0.010005354323096943 -0.002164382033614313 244 208 63
-0.009616767210757198 -0.03947555569104129 -0.0010611721876630207 255 0 0
0.011421084812465506 -0.018493466803448 -0.0010611721876630184 244 208 63
0.008728618263954435 -0.04007399358723213 -0.0047910528183211275 244 208 63
-0.015258294121855863 -0.019395833573746843 -0.0010611721876630216 255 0 0
0.01276484471775354 0.012748535055609413 -0.0010611721876630181 244 208 63
0.020931409112161816 -0.028793906998182395 -0.0032150525233330778 244 208 63
-0.0018029864201593612 -0.050363346126316794 -6.304073792154922e-05 255 0 0
0.011663741131689156 0.019729734336292454 -0.0042657230130518425 244 208 63
-0.007212287236294782 -0.00426625583987729 -0.0010611721876630205 255 0 0
-0.010387957380320143 -0.02581647879372572 -6.304073792155027e-05 255 0 0
-0.026576406228739025 -0.01789882801818351 -0.001061172187663023 255 0 0
-0.03617104974105165 0.00906775216517883 5.5344666653829885e-09 255 0 0
-0.018466943868136923 -0.01003372216496602 -0.0010611721876630218 255 0 0
-0.009079373153662388 -0.029768052069376896 -0.012671080352693005 0 255 0
0.012450323064192659 0.03259627864254114 -6.304073792154747e-05 244 208 63
0.009543116678850952 -0.04162338720252201 -6.304073792154783e-05 244 208 63
0.04293945023305449 -0.012678821268909212 -0.012671080352692998 0 0 255
0.010932542828529134 0.029389201570308974 -0.0021223498149161362 244 208 63
-0.014499251189492966 -0.024123820037472123 -0.0010611721876630214 255 0 0
-0.023587631292341427 -0.017568202141881283 -0.007943064540481616 0 255 0
0.020815476519919156 -0.037198295331773476 -0.0005305796738501702 244 208 63
-0.04111240779494469 0.008645373813139878 -0.0005305796738501778 255 0 0
-0.018451609790151827 -0.02950652872165033 -6.304073792155126e-05 255 0 0
-0.011881093995800517 -0.026093860444120348 -0.0010611721876630212 255 0 0
0.011753020238458381 0.02450305105484274 -0.003215052523333079 244 208 63
-0.026576641016627923 -0.017932346013356845 -0.0013643653255847026 255 0 0
-0.04272386232617689 -0.008192618765958325 -0.0032150525233330856 255 0 0
-0.044488430945505274 -0.006980093146361652 -0.009519069136540905 0 255 0
0.015227225207247726 -0.022020231874813508 -0.001326464791821439 244 208 63
-0.008146747082165394 -0.015312399574028333 -0.002164382033614317 255 0 0
0.010424186568400166 0.03212048098569468 -0.0010611721876630184 244 208 63
-0.009167663520054672 -0.02652940614625593 -0.006367060450430706 255 0 0
0.02222992579606642 -0.03126492808679463 -0.009519069136540896 0 0 255
0.02068219188826701 -0.031144894802630402 -0.005316390213716128 244 208 63
-0.01765567479872948 -0.03708712326638152 -0.0018570572107577184 255 0 0
-0.010039306473461384 -0.02661753661399974 5.534466668583205e-09 255 0 0
0.0450875408208264 -0.0006222796195918223 -0.0015917646065992895 244 208 63
-0.01920868940999551 -0.03448406637480204 -0.0004244648143479507 255 0 0
0.010899053169825144 -0.02898714552687738 -6.304073792154767e-05 244 208 63
-0.012692013919424903 -0.02575751667311011 -0.0014148968405604725 255 0 0
0.018727615097749478 -0.031761544952478835 -0.0018570572107577139 244 208 63
0.009802153501392102 -0.027109496178543007 -0.0013264647918214397 244 208 63
0.03102284153300826 -0.020177323037901547 -0.002164382033614312 244 208 63
-0.02254733675748418 -0.02908697086032841 -0.0014148968405604738 255 0 0
0.010243633669822868 -0.015868108098473742 -0.008888667702923889 0 0 255
0.0041572520203989475 0.045976156307356665 5.534466670321781e-09 244 208 63
0.009837403057246044 -0.015642749169754402 -6.304073792154779e-05 244 208 63
0.007134665550612564 -0.025535868809858784 -0.0007958795835045974 244 208 63
0.02305051958792335 -0.020133433894946314 -0.0014148968405604681 244 208 63
0.02049859787931846 -0.030571000336963226 -0.012671080352693001 0 0 255
0.022219174129981832 -0.01876166946180693 -0.0015917646065992921 244 208 63
-0.008652484242913063 -0.04474666928682083 5.5344666687530414e-09 255 0 0
-0.03885248935491874 -0.01459731966184433 5.534466665054607e-09 255 0 0
0.028952670163846735 0.01363754725271057 -0.002122349814916134 244 208 63
-0.010011970888690037 -0.018156643336492344 -0.0003537191500563066 255 0 0
0.021941618412704058 -0.03277770491158446 -0.0032150525233330778 244 208 63
0.013025744663154417 -0.04198965226113173 -0.0010611721876630181 244 208 63
0.018049515290083258 -0.03721528911724904 -0.012671080352693001 0 0 255
0.011498013266665425 -0.023202249237088458 -0.001768625162018685 244 208 63
0.017576830596798185 -0.03209964963265579 -0.0005305796738501706 244 208 63
0.019717893740171438 -0.032918788144408274 -0.00037898493916971256 244 208 63
0.022040877016768098 -0.009644584515507487 -0.004265723013051842 244 208 63
-0.03385477208752318 0.012999802625465004 5.534466665666651e-09 255 0 0
0.04290901686497319 0.005052110132328571 -0.012671080352692998 0 0 255
-0.009146976885412819 -0.030556235012398642 5.5344666686924835e-09 255 0 0
-0.0021922985160073272 0.04952929858361945 -0.003215052523333081 255 0 0
-0.018884914887175273 -0.009994574320543004 5.53446666749993e-09 255 0 0
-0.019581998105272093 -0.03481831527111394 -0.006367060450430707 255 0 0
0.044933244697151646 -0.007987422753206255 -0.0015917646065992895 244 208 63
0.009749461836636816 -0.011939112916793497 -0.0021223498149161362 244 208 63
-0.016332179517093346 -0.010514452391512809 -0.0021223498149161397 255 0 0
-0.020957778220924997 0.01155483395981163 -6.304073792155156e-05 255 0 0
0.03708505875218606 -0.01670134501574434 -0.009519069136540895 0 0 255
-0.015133284751270517 -0.04172690842118962 5.5344666679593716e-09 255 0 0
0.00974009359746654 -0.026877533840448484 -0.0015917646065992937 244 208 63
-0.004774377312117363 -0.047158046155519544 -0.006367060450430706 255 0 0
-0.0221524093601275 -0.010236794460542025 -0.0010611721876630225 255 0 0
-0.022145964837384027 -0.029353748599085773 -6.304073792155171e-05 255 0 0
-0.019973419876563547 -0.031983893131329794 -0.001061172187663022 255 0 0
-0.009955278721672668 -0.015372306918300101 -0.004265723013051845 255 0 0
-0.04081517037567021 -0.01211674108692723 -0.0021223498149161427 255 0 0
-0.0181082689352458 -0.00731707752398254 -0.0021223498149161397 255 0 0
-0.02366332407407436 -0.010809102083925633 -0.0007074474715145235 255 0 0
0.021512110402573434 -0.03580596266995345 -0.0005305796738501702 244 208 63
-0.009175111963426526 -0.026906716355811357 -6.304073792155012e-05 255 0 0
0.008314356286350575 -0.017321559488630223 -0.008468398393817944 0 0 255
0.010243633669822866 -0.015868108098473742 -0.0009035765098362921 244 208 63
0.02182638613606103 -0.00962407295976554 -0.0021643820336143134 244 208 63
0.013366699182534515 -0.029469213639584168 -0.0005305796738501712 244 208 63
0.017173509532413495 -0.007429618848054131 -0.0010611721876630175 244 208 63
-0.022393073018345824 -0.01854420932391875 -0.0013264647918214438 255 0 0
0.012943927155974956 -0.039244860397933394 -0.0015917646065992934 244 208 63
-0.006434579678781465 -0.003357822282091569 -0.006367060450430706 255 0 0
0.01760454366382194 -0.0073544649652472205 -0.0005305796738501706 244 208 63
0.014004617876663227 -0.01708376186188324 -0.0003537191500563036 244 208 63
-0.023219690333973038 -0.01801912240267246 -0.012671080352693006 0 255 0
-0.025714758964895328 -0.014233844733448766 -6.304073792155214e-05 255 0 0
-0.02022240433660298 -0.03279151084425821 -6.304073792155148e-05 255 0 0
-0.012970981400086335 -0.012458496111566448 -0.0010611721876630212 255 0 0
0.040313610820118057 -0.01364450081988557 -0.009519069136540895 0 0 255
0.016935944669521884 -0.03163074583399534 -0.012671080352693001 0 0 255
0.00131466720641283 0.050555030197264615 -6.304073792154884e-05 244 208 63
0.03282070955188929 -0.018458580561611787 -6.304073792154497e-05 244 208 63
-0.005330377297390366 -0.046366936460020707 -0.012671080352693003 0 255 0
0.041818605236004405 0.0035557006546383363 -0.012671080352692998 0 0 255
0.02074425078017581 -0.03057094366402453 -0.012671080352693001 0 0 255
-0.0006192803814141175 0.05351968472614526 5.534466669736825e-09 255 0 0
-0.016197409244833882 -0.010561892701287585 -0.0005305796738501748 255 0 0
-0.00476914012537153 0.049941723750799416 -0.002122349814916138 255 0 0
-0.019063357730802803 -0.02929308426627567 -6.304073792155133e-05 255 0 0
-0.011375487385215205 -0.015533176090847164 -0.0013795240716656984 255 0 0
0.027799149169569697 0.010826371137960592 -0.002122349814916134 244 208 63
-0.023205289335442948 -0.009987082360450365 -0.006367060450430707 255 0 0
0.002375474056024594 -0.049236987661944724 -0.0010611721876630194 244 208 63
-0.010847332029145078 -0.018295311897320886 -0.001061172187663021 255 0 0
0.02074429530891336 -0.030763350314940756 -0.008468398393817944 0 0 255
0.0008767947512382127 0.05036806212442995 -0.0010611721876630197 244 208 63
-0.007941318305557953 0.044850656033199175 -0.0021223498149161384 255 0 0
0.01888158737606024 -0.036226407057959306 -0.008468398393817944 0 0 255
-0.007711798469919675 -0.016221139013880514 -0.008468398393817947 0 255 0
-0.009886569867617611 -0.012570179245423457 -0.006367060450430706 255 0 0
-0.007119676570343472 -0.016471403675124487 -0.0021223498149161384 255 0 0
0.022280609619564944 -0.018649477283518397 5.534466672541252e-09 244 208 63
0.012502025988571001 -0.009401521365545321 -0.0005305796738501713 244 208 63
-0.015198357429097984 -0.02275902435175918 -0.0010611721876630216 255 0 0
-0.020035219692181153 -0.03156314311426167 -0.002016231381729723 255 0 0
0.009968972320485785 -0.02641673427202198 -0.0007958795835045971 244 208 63
0.019928312265426285 -0.00957376661851942 -0.0021643820336143134 244 208 63
-0.0075777851861985445 -0.003402862088105743 -0.004265723013051845 255 0 0
0.01217592382719706 -0.02270403338491954 5.534466671303785e-09 244 208 63
0.025233757517856194 -0.013720381836736323 -0.001414896840560468 244 208 63
0.00991460779202212 -0.02644360331706582 -0.001857057210757715 244 208 63
-0.007598588202768084 -0.015340475955069816 5.5344666688821064e-09 255 0 0
-0.04138128040840039 0.007427611006797371 -6.304073792155407e-05 255 0 0
-0.008837430306256288 -0.030296383516363695 -0.0010611721876630207 255 0 0
-0.022786676697777182 -0.02974742514372403 -0.001768625162018689 255 0 0
-0.008198740455354566 -0.0034708000383919806 -0.0018570572107577173 255 0 0
-0.011274191591408293 -0.015500283522033038 -0.0013795240716656984 255 0 0
-0.011228816807845737 0.004629643734831282 -0.000707447471514522 255 0 0
-0.015362470115368794 -0.02003580261383634 -0.0017686251620186882 255 0 0
0.012776817888070441 -0.020430962775048394 -0.0007074474715145191 244 208 63
-0.019152346388761197 -0.034630650930746694 -0.0016978794977270456 255 0 0
0.020724059021730808 0.012023271218744573 -0.002122349814916135 244 208 63
-0.043458185737099454 -0.011398635244623413 -6.304073792155433e-05 255 0 0
-0.007156060596988154 -0.027321123051812255 -0.0007074474715145215 255 0 0
0.006720549303422498 -0.004328563687909661 -0.001591764606599294 244 208 63
0.01903116750162184 -0.010063981466164173 -0.0021223498149161354 244 208 63
-0.01252967631055548 -0.019636598433641416 -0.0005305796738501743 255 0 0
-0.008657212385227368 -0.02932347310561942 -0.012671080352693005 0 255 0
0.021033721982815022 -0.010065436746268619 -0.0017686251620186836 244 208 63
-0.007545794324319789 -0.017575488662571137 -0.0010611721876630205 255 0 0
-0.008495514370951836 -0.04369685977036274 -6.304073792155004e-05 255 0 0
-0.010015331796358233 0.040743361714271675 -0.001061172187663021 255 0 0
0.010023599973307694 -0.03110416112794058 -0.0021223498149161362 244 208 63
-0.002117755891324953 0.04961908471078668 -0.012671080352693003 0 255 0
0.005840687761887685 -0.0031413956663220682 -0.0015917646065992943 244 208 63
0.01674021860362472 -0.03166230051664947 -6.304073792154695e-05 244 208 63
-0.012630157430868597 -0.019822503888875475 -0.0010611721876630212 255 0 0
-0.01988831533893955 -0.0323471484520879 -0.0019101164906019747 255 0 0
-0.009966800532513503 -0.01246584234124529 -6.304073792155022e-05 255 0 0
0.02001807208015769 -0.031588803811291116 -0.002122349814916135 244 208 63
-0.01002544285583217 -0.015875323777990225 -0.009168846567650013 0 255 0
0.02283973673663401 -0.030623910597339207 -0.00053057967385017 244 208 63
0.00041902098642942673 0.05298362754319369 -0.011410275461425458 0 0 255
0.0200009791170394 -0.03142482268719943 -0.0016675620055650452 244 208 63
-0.010067776529023473 -0.0275696703206103 -0.0016978794977270445 255 0 0
0.018290150611832236 -0.03943860493500962 -6.304073792154676e-05 244 208 63
-0.026849656826709208 0.012912574876673326 -0.009519069136540903 0 255 0
0.03473267436460583 -0.01738180079843361 -0.0010611721876630153 244 208 63
0.02075065279821526 -0.03061701471511967 -0.0011137112908913584 244 208 63
0.017553380144378 -0.039965570159367074 -0.012671080352693001 0 0 255
-0.00948659453064968 0.0017143348902849684 -0.001323846198448525 255 0 0
-0.0075910668941893324 -0.016811310757155418 -0.008468398393817947 0 255 0
0.0019730834145509097 0.04984565097550366 -0.012671080352693003 0 0 255
0.007582052354877544 -0.025835958092369937 -0.011095072720583425 0 0 255
-0.012823627711402193 0.012939459101968608 -0.0010611721876630212 255 0 0
0.001188698317434558 0.05333684972976857 -0.0010611721876630194 244 208 63
-0.025014939253472764 -0.008382044521500669 -0.0021223498149161406 255 0 0
-0.019920175650655948 -0.032218575770481865 -0.00010611296197079721 255 0 0
-0.01767014866246647 -0.031471521188687304 -0.0063670604504307065 255 0 0
-0.03486163768468219 0.012692875145689774 -0.0015917646065992993 255 0 0
-0.02273545448136102 -0.01915179585164241 -0.0016390447647214117 255 0 0
-0.006460125511908367 0.04290798055980841 -0.0095190691365409 0 255 0
-0.010758895932338999 0.0043712470128924 -0.0015917646065992963 255 0 0
0.020751336921546695 -0.030658141052313334 -0.011620409609970047 0 0 255
0.011620403537869473 -0.016153724529264668 -6.304073792154758e-05 244 208 63
-0.019588531685490667 -0.03338616379775738 5.5344666674137616e-09 255 0 0
-0.019040269580383583 -0.03490858311826011 -0.0020162313817297228 255 0 0
0.007133981933289508 -0.02607465843806905 -0.0007958795835045974 244 208 63
0.01832638890806312 -0.031893623260150106 5.534466672057e-09 244 208 63
0.019628366689295403 -0.031489079679516335 -0.0007958795835045959 244 208 63
-0.019226539361652133 -0.007849364438485492 -6.304073792155136e-05 255 0 0
-0.009450908795571108 0.0017936200785205133 -6.304073792155015e-05 255 0 0
-0.026779305469448646 -0.018010453467085054 -0.0014148968405604742 255 0 0
0.020682046157853212 0.008875169423345932 5.534466672345485e-09 244 208 63
0.004494512172587611 0.04541996808696584 -0.0005305796738501723 244 208 63
0.023671489025314046 -0.016877547254259734 -0.0010611721876630168 244 208 63
-0.01142925583580577 -0.0185363965545124 -0.00035371915005630674 255 0 0
0.03617349882161685 0.01157272742818904 -6.304073792154457e-05 244 208 63
0.019165763706998157 -0.034581989116739605 -0.0018949540759602083 244 208 63
-0.03635039530363131 0.009570522092778911 -0.0032150525233330847 255 0 0
-0.006849495925222271 -0.0037932070735619155 -0.012671080352693003 0 255 0
-0.03640452605622284 -0.017110266580892593 -0.012671080352693008 0 255 0
0.01672373588661421 0.006066786474860399 5.534466671860732e-09 244 208 63
-0.01345075122272553 -0.011393092428815308 -0.009519069136540902 0 255 0
0.014320071597662352 -0.030126480070177975 -6.304073792154725e-05 244 208 63
-0.0017355139975838642 -0.0504216423399027 -0.004265723013051844 255 0 0
0.01511101734644567 -0.023002800973538892 -0.0007958795835045964 244 208 63
-0.010990292553063295 -0.02847984986031549 -0.001061172187663021 255 0 0
0.009500128230814324 -0.04164062387202057 -0.004265723013051843 244 208 63
0.012436706378653491 -0.010051470914946395 -6.304073792154748e-05 244 208 63
0.007142041128777518 -0.02537080887589829 -0.00132646479182144 244 208 63
0.011372378469720869 -0.013508348132728557 -0.012671080352693001 0 0 255
-0.010727952507809408 -0.015220602569554056 -0.002122349814916139 255 0 0
-0.019978046817201604 -0.02900016613454345 -0.009519069136540902 0 255 0
0.01616842002467264 -0.010500137414407529 -0.0010611721876630177 244 208 63
-0.04387943164238119 0.002537940697031232 -6.304073792155438e-05 255 0 0
0.02062033337567718 -0.036536812839347184 -0.009519069136540898 0 0 255
-0.019973419876563547 -0.031983893131329794 -0.0014856425048521164 255 0 0
0.029445459582135236 0.012921128442349807 -0.009519069136540896 0 0 255
-0.04429293764346348 -0.010742051925344281 -0.002122349814916143 255 0 0
0.011735010388153286 -0.026098400351316834 -0.0015917646065992934 244 208 63
-0.014748192132811616 -0.023738931846399244 -0.001768625162018688 255 0 0
0.020003814788007872 -0.03142962369472063 5.5344666722624255e-09 244 208 63
-0.023334224319049954 -0.008246838070016574 -0.009519069136540903 0 255 0
-0.01019405092056192 0.004527925930034414 -0.0021643820336143173 255 0 0
0.02418991282819617 -0.008547700027325881 -6.304073792154603e-05 244 208 63
-0.042232847985289784 0.002373027505501299 -0.00636706045043071 255 0 0
0.013678385165126926 0.02911125116649383 5.534466671487784e-09 244 208 63
0.021243820710772927 -0.02825556872944819 -0.000707447471514518 244 208 63
0.026744961668597127 -0.020164215396793906 -6.304073792154572e-05 244 208 63
0.0016320989141742229 0.050229800394339934 -0.0032150525233330804 244 208 63
0.027039335080433793 -0.011627936990649375 -0.009519069136540896 0 0 255
-0.02364429613490621 -0.019823799270331448 -0.012671080352693006 0 255 0
-0.01803649063435014 -0.02964269557704202 -0.006367060450430707 255 0 0
0.011753457429699774 0.022754237512472648 -0.010569738867247092 0 0 255
-0.018275597810787775 -0.029000107437571226 5.53446666757455e-09 255 0 0
0.0018272859546432693 0.052283651981189706 -6.304073792154877e-05 244 208 63
0.019912004627315683 -0.03218760400948293 -0.0007579790497413376 244 208 63
-0.011220829971556245 0.006280986906756634 -0.0015917646065992963 255 0 0
0.008582718843357977 -0.04355049381003878 -0.0032150525233330795 244 208 63
-0.041000215616656156 0.007902711384094483 -0.00636706045043071 255 0 0
-0.005330377297390367 -0.046366936460020707 -6.304073792154965e-05 255 0 0
0.026754824783964255 -0.0099213407395429 5.534466673089186e-09 244 208 63
-0.009827637095488112 -0.015766056328145255 -0.001463933606778061 255 0 0
-0.024608825022823626 -0.016507699656310833 -0.012671080352693006 0 255 0
0.03423649469016302 0.010500123246172855 -0.009519069136540896 0 0 255
-0.014234336573595331 -0.02447673457095121 -0.0014148968405604727 255 0 0
0.03747534504067001 -0.01643256044774698 -0.012671080352692998 0 0 255
-0.0073321171050897554 -0.028039984870637646 -0.00035371915005630625 255 0 0
0.015156784792512066 -0.022799772194683675 -0.0007958795835045964 244 208 63
0.010027265498021399 -0.015799734221967066 -0.012671080352693001 0 0 255
0.023001916470888485 -0.009871573803231183 -6.304073792154618e-05 244 208 63
0.01239525923214612 -0.018605047723611996 -0.0021643820336143143 244 208 63
0.03295777912623311 -0.01790765887645291 5.534466673848829e-09 244 208 63
0.009886196433432257 -0.015730749087335853 -0.0046859892861075 244 208 63
0.031070936617628362 -0.020786698811261273 -0.0010611721876630158 244 208 63
0.01076204330447031 -0.01825873963555838 5.534466671130635e-09 244 208 63
0.027323060051895644 -0.014279131471552985 -6.304073792154565e-05 244 208 63
-0.03951998322691416 -0.01690750092639562 -0.012671080352693008 0 255 0
-0.011908051086302697 -0.02902316522748757 5.5344666683543495e-09 255 0 0
0.02075065279821526 -0.03061701471511967 -0.0021643820336143134 244 208 63
-0.008583077097291895 -0.024331722689055445 -6.304073792155006e-05 255 0 0
0.02200222404854194 -0.01934577517660753 -0.001061172187663017 244 208 63
0.020566071060906525 -0.031662940111243355 -0.0011137112908913584 244 208 63
0.009291585984637116 0.03716406487679935 -0.012671080352693001 0 0 255
0.04253344934828275 -0.009208473096001679 -0.012671080352692998 0 0 255
-0.018437441555477104 -0.036947509481896824 -0.006367060450430707 255 0 0
0.022053199332868055 0.009573636068357061 -0.002122349814916135 244 208 63
-0.009897087757830067 0.0034949783838685816 -0.006367060450430706 255 0 0
0.023194440515749162 -0.007669670742139538 5.534466672653164e-09 244 208 63
-0.011132700515829198 -0.03166507749064571 -0.001061172187663021 255 0 0
0.04241276432532348 -0.006758982158002821 5.53446667500673e-09 244 208 63
-0.015785329175369924 -0.007830103229453591 5.53446666787952e-09 255 0 0
0.010791138786391612 0.03285793557648035 -6.304073792154767e-05 244 208 63
-0.006452386113717301 -0.04426627302580566 -0.008468398393817946 0 255 0
-0.011197073890073789 -0.02390807830404663 -6.304073792155037e-05 255 0 0
-0.012049833622709387 0.005393341944301588 -0.0010611721876630212 255 0 0
-0.01164655506302872 -0.018692042708548306 -0.0010611721876630212 255 0 0
0.04325388384115703 0.005490608393368687 5.5344666751097375e-09 244 208 63
0.01987214331107512 -0.03235162966231216 -0.002122349814916135 244 208 63
-0.013368847694121258 0.01594394559860371 -0.0021223498149161393 255 0 0
-0.00848269819067179 -0.017438421112260842 -0.003845449655878851 255 0 0
0.01096931951767766 0.03218379275435543 -0.009519069136540898 0 0 255
0.010519910197912864 -0.015933151427815095 -0.005526524868269102 244 208 63
0.01016408712825841 -0.015845559352988925 -0.0009035765098362922 244 208 63
0.019995174188889818 -0.03177917630851476 -0.0005305796738501703 244 208 63
0.01390205604988645 -0.008561490779748196 -0.0015917646065992932 244 208 63
0.018907061862005387 -0.035222320458830066 -0.0012885679266189441 244 208 63
-0.012426256293564121 0.005752293157768867 -0.00035371915005630685 255 0 0
-0.002765566796302717 0.051420591941945586 -0.012671080352693003 0 255 0
-0.0058146860152092856 0.04843824736005679 -0.0021223498149161384 255 0 0
-0.013767252381073822 -0.01755947248528813 -6.304073792155068e-05 255 0 0
0.017286094373205874 -0.03216378923102825 5.534466671929601e-09 244 208 63
-0.005833176067468177 -0.003225452260588516 -0.0015917646065992956 255 0 0
-0.0002001163211148954 0.0513333641931539 -0.00888866770292389 0 255 0
0.008034748705086872 -0.02831249264830417 -0.002164382033614315 244 208 63
-0.016705081381631414 -0.03852532862401124 -0.0063670604504307065 255 0 0
-0.012600101545039703 -0.01976008067093218 -0.0018570572107577178 255 0 0
0.0052615712897261125 -0.04550590045430155 -0.002122349814916137 244 208 63
0.022336167315791574 -0.030028879149570874 -0.012671080352693 0 0 255
-0.009984519934007766 -0.026665979832386135 -0.001061172187663021 255 0 0
0.009848677935996834 -0.015696881946379457 -0.0004833104265337782 244 208 63
-0.0006329989011400108 0.05045374755967561 -0.00026528706969175157 255 0 0
-0.02208796413269277 -0.029237672300462838 -0.006367060450430707 255 0 0
-0.018602543994141622 -0.03672241266551897 -0.012671080352693005 0 255 0
0.010250966743283796 -0.041533159836046336 -0.0021643820336143147 244 208 63
-0.011462308303268368 0.004843146887178169 5.534466668408937e-09 255 0 0
-0.023633631502263195 0.012525197124364744 -6.30407379215519e-05 255 0 0
0.020616202323252737 -0.028325847221501856 -0.0007074474715145181 244 208 63
0.007921785876033706 -0.039983754076555314 -0.0018570572107577154 244 208 63
-0.008859499355795691 -0.02426958890790622 -0.006367060450430706 255 0 0
-0.0195436507661082 -0.03899046367224821 -0.001061172187663022 255 0 0
0.0032892174127588576 -0.04897978562579395 -6.304073792154859e-05 244 208 63
-0.011487199867558327 -0.023194626726833457 -0.001061172187663021 255 0 0
0.008553142653474498 -0.03964159120916082 -0.0010611721876630186 244 208 63
-0.0344502569188011 0.009851118920427936 -0.0010611721876630238 255 0 0
-0.01061616817227615 -0.015932263889114402 -0.011095072720583429 0 255 0
-0.01339830649006029 -0.016542890515192553 -0.0010611721876630214 255 0 0
-0.014648569202713083 -0.032358991072242445 -0.0010611721876630214 255 0 0
0.022061214505626897 -0.03221217577647594 -0.0032150525233330778 244 208 63
-0.006469028729376284 -0.003513483110370529 -0.012671080352693003 0 255 0
0.006826500880345203 0.045726835857752085 -0.012671080352693003 0 0 255
0.011628491575835216 0.02803512719017774 -0.012671080352693001 0 0 255
-0.01540202580254709 -0.02048010630903442 -0.0010611721876630216 255 0 0
-0.008755831394697522 -0.017482049154891356 -0.01014946955814115 0 255 0
0.009759281435283162 -0.041571288579589534 -0.010569738867247092 0 0 255
-0.01807870792561376 0.00991021260322267 -0.006367060450430707 255 0 0
-0.013291119746678981 0.03142431263075114 -0.0021223498149161393 255 0 0
-0.009415047981592626 -0.026032760944102378 -0.012671080352693005 0 255 0
-0.011718959802300354 -0.013799375817148464 5.534466668377506e-09 255 0 0
-0.034718356351450264 -0.020369907803767972 5.534466665560893e-09 255 0 0
-0.017621035488983316 0.010220369428486975 -0.0010611721876630218 255 0 0
0.00974400706628705 0.0360366458188602 -0.003215052523333079 244 208 63
-0.032769716051261444 -0.02010909489180867 -0.012671080352693006 0 255 0
0.01953155109369599 -0.031516240185387775 -0.002122349814916135 244 208 63
0.03982882240635372 -0.014253716694596824 -0.012671080352692998 0 0 255
-0.04059736007998221 0.004843641257366641 -0.0010611721876630246 255 0 0
-0.040913497924312765 -0.01642151934486832 5.534466664802206e-09 255 0 0
-0.04239787553471388 -0.00034825837085701074 -0.0021223498149161427 255 0 0
-0.04474019237954096 -0.009121956794994024 -0.0015917646065993004 255 0 0
-0.0339590239822933 0.012344398305714162 -0.0032150525233330847 255 0 0
0.0195385502016253 -0.03500285450371865 -0.008468398393817944 0 0 255
-0.029261308963967322 0.012933116792918144 -0.012671080352693006 0 255 0
0.04392511812710659 -0.011838310987166673 -0.0021223498149161323 244 208 63
0.008473857718243147 -0.04013209549359963 -0.00794306454048161 0 0 255
-0.007154794564018292 -0.0037235962595672987 -0.002164382033614317 255 0 0
0.00649254293885251 0.04290597271855165 -6.30407379215482e-05 244 208 63
0.010310436896314173 0.03257786196149753 -0.0021223498149161362 244 208 63
0.009759078019913903 -0.026611992786174873 -0.0021223498149161362 244 208 63
0.022170526484209415 -0.03409316882819355 -0.0015917646065992921 244 208 63
-0.023648441355565326 -0.007791348047534418 -0.0021223498149161406 255 0 0
-0.009895385545635573 -0.01754876534794109 -0.012671080352693005 0 255 0
-0.027156949644535695 -0.016664000585192063 -0.0014148968405604742 255 0 0
-0.007809210143392191 -0.024142441145901757 -0.0014148968405604718 255 0 0
-0.010314244103374622 -0.03066976507684718 -6.304073792155026e-05 255 0 0
0.007641989047635422 -0.04679327483365124 -0.0010611721876630188 244 208 63
-0.0009554059363099456 0.053423786017732657 -0.0010611721876630199 255 0 0
0.007786229772758176 -0.040188525548275525 -0.001591764606599294 244 208 63
-0.01129560586610237 -0.016071965719057432 -0.0032150525233330817 255 0 0
-0.03698940292779645 -0.019418484532924673 -0.002122349814916142 255 0 0
-0.0012899603351820236 0.049848533199243206 -0.0018570572107577165 255 0 0
-0.02117878851361596 -0.035314786406384344 -6.304073792155159e-05 255 0 0
0.0040037736062682764 -0.047395521960936056 -0.0015917646065992945 244 208 63
-0.01368133316995603 -0.030059197147741253 -0.0063670604504307065 255 0 0
0.011538892671769043 0.017928635959905594 -6.304073792154759e-05 244 208 63
-0.019453206828045362 -0.03155004964138871 -0.0015917646065992973 255 0 0
-0.007678760676700133 -0.02514793849639789 -0.010569738867247096 0 255 0
0.014857421126019612 -0.02116184128091147 -0.012671080352693001 0 0 255
-0.01337216508506867 -0.008852038768222688 -0.0015917646065992967 255 0 0
0.012291665148271617 -0.029659555776304938 -0.009519069136540898 0 0 255
-0.01003466536458865 -0.028340236075830798 -6.304073792155023e-05 255 0 0
0.007897345671219814 -0.04001664462133592 -0.0005305796738501718 244 208 63
-0.017539699701782794 -0.03208724028311426 -0.0010611721876630218 255 0 0
-0.007872609451502895 -0.015846709004031102 -0.010569738867247096 0 255 0
0.0020044047008391888 -0.04958981718601576 -0.002122349814916137 244 208 63
-0.03867647535152116 -0.015441394266624326 -0.006367060450430709 255 0 0
0.020734796519580722 -0.030548393906522947 -0.012671080352693001 0 0 255
-0.0420318250236578 -0.015101369790648947 5.5344666646652505e-09 255 0 0
-0.007540833418150112 -0.004134162351954585 -0.0005305796738501738 255 0 0
-0.01221618691409233 -0.025974932282260745 -0.0007074474715145221 255 0 0
0.019876610353064705 -0.03142517082096572 -0.0010611721876630173 244 208 63
0.0335268422238762 -0.02004251026093806 -0.002164382033614312 244 208 63
0.012046215662783523 -0.041504151387566614 -0.012671080352693001 0 0 255
-0.01587693693270962 -0.007801808252791412 -0.0010611721876630216 255 0 0
-0.027737709631919537 -0.018117043120576503 -0.000707447471514524 255 0 0
-0.04517720550598213 -0.0029176367361042083 -0.0005305796738501783 255 0 0
-0.027052264606591235 -0.015532535484236514 -6.30407379215523e-05 255 0 0
-0.022740314185854447 -0.019196545208845752 -0.01109507272058343 0 255 0
0.019165763706998157 -0.034581989116739605 -0.00045478230650994154 244 208 63
-0.012618969585559381 -0.04142741218050128 -6.304073792155054e-05 255 0 0
-0.0252183019978596 -0.014509218542586631 -0.0010611721876630227 255 0 0
0.02072669228934678 -0.03089695676792337 -0.0032150525233330778 244 208 63
0.030654667810784502 -0.01819533880942253 -0.001061172187663016 244 208 63
0.011789185669482368 -0.01620900594491514 -0.0021643820336143147 244 208 63
-0.01074116236261006 -0.015244257449360265 -0.00010611296197079609 255 0 0
-0.022626375266633872 -0.0321253244979199 -0.001768625162018689 255 0 0
-0.024996144078159983 -0.012252223818987482 -0.0021223498149161406 255 0 0
0.024309292349531837 -0.020006025032617128 -6.304073792154602e-05 244 208 63
-0.025931972170693467 -0.020646487936886716 -0.001061172187663023 255 0 0
-0.007463395919518665 -0.004176278188537763 -0.0010611721876630205 255 0 0
0.00815683334722865 -0.04454336321537269 -6.3040737921548e-05 244 208 63
0.025117723723937283 -0.014733020989525277 -0.001414896840560468 244 208 63
-0.027851952156168855 -0.013831788690017175 -0.00035371915005630875 255 0 0
-0.01114622915591003 -0.026274224095563063 5.5344666684476455e-09 255 0 0
-0.0072760792069093295 -0.004249380460362936 -0.00017685862626243872 255 0 0
0.019576810507347622 -0.03338568410181196 -0.0001515928371490258 244 208 63
-0.010771188899952842 0.00423816427858437 -0.0007074474715145219 255 0 0
0.0071306356998643685 -0.025739798283632608 -0.0021223498149161367 244 208 63
0.026697550707308462 -0.01638750647349813 -0.009519069136540896 0 0 255
-0.04178441121363373 0.007850833886824614 -0.0015917646065993002 255 0 0
-0.003796332434328644 0.04650921387262425 -0.002122349814916138 255 0 0
0.020714181738129004 -0.03097359477331246 -0.0021643820336143134 244 208 63
-0.025146305101343247 -0.012627569704006936 -0.001591764606599298 255 0 0
0.009612596689679018 -0.01293951678692407 -6.304073792154782e-05 244 208 63
0.009225656128611828 -0.04193272834227575 -0.0021643820336143147 244 208 63
0.03654580359626505 0.008879708318525654 -0.001061172187663015 244 208 63
-0.03579075813011395 0.009855250984869142 -6.304073792155338e-05 255 0 0
0.011767844259995188 -0.009948297830045081 -0.0021223498149161362 244 208 63
0.021262500516174784 -0.03509088376978621 -0.0032150525233330778 244 208 63
-0.043324741206798835 -0.013039241930715614 5.534466664506914e-09 255 0 0
-0.00960629283726553 0.04025016546524465 -6.304073792155018e-05 255 0 0
0.019864739396440817 -0.03238092957161949 -0.0009095737844217954 244 208 63
0.007789255702877991 -0.04121188904269648 -6.304073792154805e-05 244 208 63
0.019932807643885223 -0.032096767408916246 -0.00015159283714902575 244 208 63
-0.005940160407496991 -0.04930952497541224 -0.0021223498149161384 255 0 0
0.02063428503876473 -0.03054347752909082 -0.0013238461984485213 244 208 63
-0.034237943898166895 -0.018089664019084368 -6.304073792155319e-05 255 0 0
0.011580498704908125 0.018405917233325853 -0.012671080352693001 0 0 255
-0.042658222918962437 0.0009512476859350106 -0.012671080352693008 0 255 0
-0.026595727652768294 -0.017949876167716525 5.534466666555628e-09 255 0 0
0.02442417649240857 -0.011403639667513876 -0.0007074474715145176 244 208 63
0.010422105861936506 -0.015911999265462502 -0.0034251836358273825 244 208 63
-0.009867090568973396 -0.01553481960606943 -0.006367060450430706 255 0 0
0.014974894007774768 -0.030151254240523485 -6.304073792154717e-05 244 208 63
-0.0418238515309011 -0.014435490085389673 -0.00636706045043071 255 0 0
0.01874502785816471 -0.03556653569621888 -0.0014401662666091183 244 208 63
-0.005902030651937031 -0.002728356204967281 -0.0021223498149161384 255 0 0
0.010519910197912865 -0.015933151427815095 -0.009308933975979546 0 0 255
0.0430604874378471 -0.002548633160135215 -6.304073792154373e-05 244 208 63
-0.008530269050608925 -0.0023094682987421216 -0.006367060450430706 255 0 0
0.013118660958167995 -0.029402293019148415 -0.0005305796738501712 244 208 63
0.0056449768762419595 -0.044814579659650286 -0.0015917646065992943 244 208 63
0.00969052906450732 -0.025845400208763875 -0.011410275461425456 0 0 255
0.020005909662706205 -0.031433872141089524 -0.0012885679266189441 244 208 63
0.022420209235814965 -0.018424655735699933 -0.0005305796738501701 244 208 63
-0.01041405628060774 -0.018209610269807025 -0.0007074474715145219 255 0 0
-0.01148242719650647 -0.015565558603213 -0.0016978794977270445 255 0 0
0.035257020489581986 -0.01770089170767709 -0.012671080352693 0 0 255
0.013994187019892345 -0.02469953208524471 -0.0002652870696917498 244 208 63
0.022221269004680164 -0.019674931604570636 -0.0018570572107577134 244 208 63
0.007436894742567981 -0.028236131935508002 -0.0018570572107577154 244 208 63
-0.041485032366889836 0.004167404066551766 -0.0032150525233330856 255 0 0
0.027086673176515558 -0.016817551864529632 -0.0010611721876630164 244 208 63
0.01239525923214612 -0.018605047723611996 -0.0042657230130518425 244 208 63
0.018592873161959362 -0.01007489201888047 5.534466672089635e-09 244 208 63
-0.0076549605724885094 -0.004042642640073228 -0.0010611721876630205 255 0 0
-0.026632939509124685 -0.017968483107911482 -0.0014148968405604742 255 0 0
0.014114962112343473 -0.02960773646999891 -0.0005305796738501711 244 208 63
-0.010887221681854992 -0.014042236563758134 -0.0021643820336143173 255 0 0
-0.00755378116060928 -0.0256819716458245 -0.004265723013051845 255 0 0
0.007466063089696181 -0.04198475005193428 -0.009519069136540898 0 0 255
0.023105451857790768 -0.01960148145198336 -6.304073792154617e-05 244 208 63
0.010091784602679787 -0.01582273432692795 -0.005526524868269102 244 208 63
-0.020026767328180917 -0.03147704882424397 -0.0007428203036603446 255 0 0
-0.009843260610267279 -0.02707741929523944 -0.0014856425048521153 255 0 0
-0.04508180470981667 -0.0064910856347145385 5.534466664291736e-09 255 0 0
-0.008016195907788704 -0.017314793144556282 -0.01014946955814115 0 255 0
-0.012399080607441245 -0.019453180515609538 -0.0007958795835045998 255 0 0
0.011771613010418664 -0.02304139524479283 -0.0010611721876630181 244 208 63
0.013292389827715894 -0.01709119613702042 -0.012671080352693001 0 0 255
-0.012349051558788043 -0.018592506811891344 -0.012671080352693005 0 255 0
0.009295688700592209 -0.03998890321784281 -6.304073792154786e-05 244 208 63
-0.0410843020654171 0.008676185675490345 5.534466664781289e-09 255 0 0
0.010435126469602577 -0.017645348179685136 -0.012671080352693001 0 0 255
-0.010073507579949396 -0.015887703779045644 -0.009168846567650013 0 255 0
0.007163164448652383 -0.016819923019804124 5.5344666706899e-09 244 208 63
-0.04489128648217922 -0.008254082592010787 -0.0005305796738501783 255 0 0
-0.007891797795327898 -0.024080758724228598 -0.0017686251620186871 255 0 0
-0.016896442619232 -0.03839466106770687 -0.012671080352693005 0 255 0
-0.019666434711832853 -0.03149916139050416 -0.001061172187663022 255 0 0
-0.016013204989777555 -0.007760958196173905 5.534466667851613e-09 255 0 0
0.013577162236526911 -0.016670358074493963 -0.0014148968405604692 244 208 63
-0.014780327713087406 -0.01987673786717678 -0.0021643820336143178 255 0 0
-0.022829112584661495 -0.00985143871772488 -0.009519069136540903 0 255 0
0.020124052499558124 -0.028962719490298165 -0.012671080352693001 0 0 255
0.008944753671900533 -0.04003694162952422 -0.003215052523333079 244 208 63
-0.005982698002065933 -0.00235941081996213 5.534466669079995e-09 255 0 0
-0.009709916269626147 0.011111943040013969 5.534466668623543e-09 255 0 0
-0.01407172167213299 -0.03170557840148017 -0.004265723013051846 255 0 0
0.007511437367250354 -0.015483233063618774 -0.0005305796738501719 244 208 63
0.01894929332150368 -0.0351245596395745 -0.0009095737844217955 244 208 63
0.0034276974854653844 -0.051242132906049856 -6.304073792154858e-05 244 208 63
-0.03179728533646258 -0.018573363502812273 -0.006367060450430708 255 0 0
-0.015479143503881592 -0.04161923793379584 -0.0010611721876630216 255 0 0
0.014687517679833888 -0.008191774743978416 -0.001061172187663018 244 208 63
0.0269857265284917 -0.015698568978322513 -0.009519069136540896 0 0 255
0.019500360737076356 -0.03362487831169116 -0.0004547823065099415 244 208 63
-0.026437011039875027 -0.02016619490158132 -0.0032150525233330834 255 0 0
0.02209850125122371 -0.028503782032714618 -0.0003537191500563026 244 208 63
-0.042390993820729014 0.0018942322550043718 -0.0032150525233330856 255 0 0
-0.03825530635951337 0.008294103806899822 -0.006367060450430709 255 0 0
0.03486219631793507 -0.01786704057167401 -6.304073792154473e-05 244 208 63
-0.03800084891282244 0.008497103237268929 -0.006367060450430709 255 0 0
-0.02299889863690277 -0.00815496870634378 -0.012671080352693006 0 255 0
-0.010663549785078705 -0.03146750550617378 -0.0005305796738501741 255 0 0
0.03119415573056088 0.013458056971733873 -0.0021223498149161336 244 208 63
0.025033028041085332 -0.020607094172390417 -0.0021223498149161345 244 208 63
-0.0075011183383317265 0.002902798040324345 5.534466668894043e-09 255 0 0
-0.02001187044143721 -0.03145263695589943 5.534466667361917e-09 255 0 0
-0.019666434711832853 -0.03149916139050416 -0.0005305796738501752 255 0 0
0.017343076989034076 -0.02927826024473886 -0.0021223498149161354 244 208 63
0.02689854330843757 -0.015929718666956763 -0.003215052523333077 244 208 63
0.02302229646445131 -0.007623612847262309 5.5344666726320826e-09 244 208 63
-0.0003326316935254604 0.05125594086275713 -0.007627862305647963 0 255 0
-0.02512499405235894 -0.0157771409477447 -0.004265723013051848 255 0 0
0.03650213304893051 -0.019620363660737713 -0.0015917646065992904 244 208 63
0.04305350452218599 -0.005605128210210927 -0.003215052523333075 244 208 63
0.04131443872527211 0.008459423829168273 -0.0021223498149161323 244 208 63
-0.009446107788049902 -0.013177357930391837 -0.012671080352693005 0 255 0
-0.011541433845859629 -0.03124133190396065 -0.008468398393817947 0 255 0
0.014841316903278267 -0.018307925674248434 -0.00026528706969174967 244 208 63
0.01511101734644567 -0.023002800973538892 -0.0018570572107577143 244 208 63
0.033257214645915696 -0.01838029904100043 -0.00426572301305184 244 208 63
-0.02269213206779277 -0.029390830917296565 -0.0007074474715145234 255 0 0
0.022609053587727263 -0.010329580205393245 -0.0014148968405604681 244 208 63
-0.014852847822269961 -0.02131693487379506 -0.008468398393817947 0 255 0
-0.012357445225816055 -0.029207572897913155 5.534466668299314e-09 255 0 0
0.009193607581777612 -0.026060182550298537 -0.011410275461425456 0 0 255
0.01039062505650604 -0.02633286641888173 5.534466671085149e-09 244 208 63
-0.027235200804644175 -0.014386376911906518 -0.012671080352693006 0 255 0
-0.013150763141890625 -0.012295299300465681 -0.0021223498149161393 255 0 0
-0.023259899783979895 -0.010602989689995138 -0.0021223498149161406 255 0 0
0.013705356423863781 -0.017499623837988587 -0.0021643820336143143 244 208 63
-0.010770431911414509 -0.015272494741066983 -0.002122349814916139 255 0 0
0.02521247480534124 -0.013061267463534228 -0.001414896840560468 244 208 63
0.00612473253064648 -0.04385183596930189 -0.000530579673850172 244 208 63
0.01964954820013411 -0.03314951582205257 -0.0006821780454658685 244 208 63
0.030865304931660044 0.013496259592500733 -0.0021223498149161336 244 208 63
-0.01761870785042961 -0.039886385919803584 -0.012671080352693005 0 255 0
0.00773755328450803 -0.027426478044853476 -0.010569738867247092 0 0 255
-0.031689428637984504 0.012774429528510989 -0.006367060450430708 255 0 0
-0.027113436971816104 -0.011974216742233642 -6.304073792155232e-05 255 0 0
-0.016109235260369285 0.008427913675251695 -0.0032150525233330825 255 0 0
0.01271066943642446 -0.02505435325830431 -0.0032150525233330786 244 208 63
0.015675236931863536 -0.0323715319839631 -0.0005305796738501709 244 208 63
-0.022734523425939537 -0.019113519353651888 -6.304073792155178e-05 255 0 0
-0.02301890216022995 -0.01955542254508937 -0.0032150525233330834 255 0 0
-0.027250200917097657 -0.01407824209613365 -0.009519069136540903 0 255 0
0.007818234802871608 -0.02488069522992979 -0.009519069136540898 0 0 255
0.011232749504984735 -0.013672578212943817 -0.0042657230130518425 244 208 63
0.016386403375227027 -0.029498410323181717 5.534466671819421e-09 244 208 63
0.008974227648091002 0.042862561247508306 -0.0021223498149161362 244 208 63
-0.014603659946861268 -0.019143242285965926 -0.0021643820336143178 255 0 0
-0.021486561027387864 -0.02882479172573976 -0.012671080352693006 0 255 0
-0.03152208559420786 0.011126112286705452 -6.304073792155286e-05 255 0 0
0.03160831549447173 0.012777426110144692 -0.009519069136540896 0 0 255
0.009988306900732968 -0.015316035750255924 -0.012671080352693001 0 0 255
0.008864100996014687 0.007780015483828167 5.534466670898204e-09 244 208 63
0.010639899965356308 0.003988728712073057 -0.0021223498149161362 244 208 63
-0.026947781971999273 0.011318491613169094 -0.006367060450430708 255 0 0
-0.010805099557630024 -0.015013050075770553 -0.0015917646065992963 255 0 0
0.02005452897200927 -0.03349090753267406 -0.010569738867247092 0 0 255
0.00723130606731207 0.04033323180110902 5.534466670698244e-09 244 208 63
-0.04215131991490439 -0.008526081325245783 -0.0021223498149161427 255 0 0
0.012436706378653493 -0.010051470914946395 -0.012671080352693001 0 0 255
0.025703576179669924 -0.014387380832534899 -6.304073792154586e-05 244 208 63
0.03016491849085049 0.0112060960195113 -0.012671080352693 0 0 255
-0.008977873944486217 -0.02425243724781571 -0.006367060450430706 255 0 0
-0.022126515899242683 -0.029310788487518495 -0.009519069136540903 0 255 0
0.007215041945922253 -0.016314375106191038 5.5344666706962525e-09 244 208 63
0.021080131047508832 -0.028262784408964674 -0.000707447471514518 244 208 63
-0.04403266312442182 -0.009595020994565027 -6.30407379215544e-05 255 0 0
0.025001313459782733 0.011085349263529519 -6.304073792154594e-05 244 208 63
-0.00989871710481766 -0.011767668169078517 5.534466668600422e-09 255 0 0
0.019881526730496833 -0.03403272309100414 -0.004265723013051842 244 208 63
0.006183577763326025 -0.0015458138589967939 -0.0015917646065992943 244 208 63
0.0446338537062066 -0.002431625806090799 -0.009519069136540895 0 0 255
0.015514789770306427 -0.02962231355944567 5.534466671712679e-09 244 208 63
-0.04282645248942302 1.0939901202409127e-05 -0.0032150525233330856 255 0 0
-0.0422523110916658 0.0072214115794253025 -0.000530579673850178 255 0 0
-0.010880805495580868 -0.028957351753389968 -0.0063670604504307065 255 0 0
-0.010805099557630024 -0.015013050075770553 -0.0005305796738501741 255 0 0
-0.030645802543945177 0.013447757677142114 -0.0005305796738501766 255 0 0
-0.034362968449003675 0.012853511554381466 -0.0010611721876630238 255 0 0
0.01418301720356997 -0.018140479404762013 -0.012671080352693001 0 0 255
-0.010879161980358598 0.03218184361007089 -0.012671080352693005 0 255 0
-0.042783696805241765 0.0052112917669241985 -0.0032150525233330856 255 0 0
-0.04386504481208577 0.002583358744310383 -0.009519069136540905 0 255 0
-0.026276258249255648 -0.010163852340369515 -0.012671080352693006 0 255 0
-0.044476877762144804 -0.0070906271351848646 -6.304073792155445e-05 255 0 0
0.01880534405720852 0.01098089698944043 -0.0010611721876630173 244 208 63
-0.01041405628060774 -0.018209610269807025 -0.0017686251620186875 255 0 0
0.0068353747493270075 0.0007217425245397894 -0.0021223498149161367 244 208 63
-0.030233810519939557 0.01127595351259177 -0.012671080352693006 0 255 0
-0.03663816429407603 0.011335541059566594 -0.012671080352693008 0 255 0
0.020010085243868197 -0.03144485454699596 -0.001515963665574871 244 208 63
0.015178621078196097 -0.032387416599066986 5.53446667167151e-09 244 208 63
0.022112422553808388 -0.03194605382458067 -6.304073792154629e-05 244 208 63
0.011480293865171165 0.017417136375712364 -0.012671080352693001 0 0 255
-0.022790038617462142 -0.018819162134083422 -0.01109507272058343 0 255 0
-0.01664448991402821 -0.03225196422750961 -0.0021223498149161397 255 0 0
-0.009445350799511566 0.001683522774930311 -0.0076278623056479635 0 255 0
0.02680248470137649 -0.016159427243721245 -0.009519069136540896 0 0 255
-0.012095367292903648 -0.018369796331039415 -0.012671080352693005 0 255 0
0.007720459309372979 -0.024188077029789028 -0.0021223498149161367 244 208 63
-0.0120504590490686 -0.026036964861733722 -0.0017686251620186878 255 0 0
0.0070871670498739445 0.001571156023750247 -0.0010611721876630188 244 208 63
-0.006102745960473221 -0.003950700917201917 -0.0010611721876630203 255 0 0
-0.010376042906975465 0.011694957800744615 -6.304073792155027e-05 255 0 0
-0.033311167283557035 -0.01836195522516372 -0.010569738867247097 0 255 0
0.011901742173805397 -0.023532818440451984 -0.0021643820336143147 244 208 63
-0.00043763728777943597 0.05060425874065869 -0.001326464791821441 255 0 0
-0.008747903255380255 -0.0020298172007576338 -0.002164382033614317 255 0 0
0.020681594798377147 -0.030537804163120356 -0.012671080352693001 0 0 255
-0.011160514784529198 0.03087792882875522 -0.0063670604504307065 255 0 0
-0.020030839683633138 -0.0314935608897406 -0.0012734091805379512 255 0 0
0.009015106041177858 -0.018025188431146765 -0.0021223498149161362 244 208 63
0.022209732013587894 -0.010202112646091836 -0.0003537191500563026 244 208 63
