ply
format ascii 1.0
element vertex 735
property float x
property float y
property float z
end_header
0.027159591548101936 -0.008913474792369258 -0.0020784595994355337
0.027684931985991035 -0.008913474792369258 -0.0020784595994355337
0.028350924484388862 -0.00885907065285052 -0.0016784528283478872
0.028948163025038276 -0.008831868583091151 -0.001478449442804064
0.029653487138407264 -0.008763865271337878 -0.0009784558801056997
0.03039737545694593 -0.008682260924704921 -0.00037846062463542385
0.031144393019335304 -0.008600652852781665 0.00022154953199604588
0.03185808413471464 -0.008532649541028392 0.0007215430946944101
-0.03788743506376263 -0.007792052516468417 0.0022215386839506968
-0.037353340193672147 -0.007805914321668994 0.002121551892339979
-0.036822518922431435 -0.007833637932070148 0.0019215485067961557
-0.03628069454063293 -0.007805914321668994 0.002121551892339979
-0.03574109834809419 -0.007792052516468417 0.0022215386839506968
-0.03519037378211137 -0.007736603433020961 0.0026215454550383432
-0.034066422499759164 -0.007570256182678592 0.003821550867140089
-0.033491104498548474 -0.007459358015783679 0.004621549508154188
-0.032893282018644776 -0.007293014490731609 0.00582154001909474
-0.03231339681152817 -0.007195976266392123 0.006521551868498121
-0.03171964514259812 -0.007071216294296634 0.007421552202284132
-0.031137282617433037 -0.006988043600448024 0.008021547457754408
-0.03057428787652966 -0.00696031999004687 0.008221550843298231
-0.0014197105840277335 -0.007805914321668994 0.002121551892339979
-0.0008631261364054343 -0.007792052516468417 0.0022215386839506968
-0.00024444855008837196 -0.007736603433020961 0.0026215454550383432
0.000293181620495353 -0.007736603433020961 0.0026215454550383432
0.0009149996265340188 -0.007681154349573505 0.0030215522261259897
0.0015389037951398232 -0.007625705266126048 0.0034215440960524424
0.007793044082777534 -0.00863764871073569 -0.003878460267007555
0.008313686929600272 -0.00863764871073569 -0.003878460267007555
0.008834329776423011 -0.00863764871073569 -0.003878460267007555
0.009354965172665153 -0.00863764871073569 -0.003878460267007555
0.009875608019487891 -0.00863764871073569 -0.003878460267007555
0.010396247141020332 -0.00863764871073569 -0.003878460267007555
0.010970482014076743 -0.008609923237689387 -0.003678456881463732
0.01159988098587278 -0.008554472291596782 -0.0032784501103760855
0.01523205392803434 -0.008055434265859973 0.0003215512247679575
0.016049930237190757 -0.007916812488563907 0.001321538350164686
0.01675749325002912 -0.007833637932070148 0.0019215485067961557
0.01735159137095693 -0.007805914321668994 0.002121551892339979
0.026778576306955848 -0.008540610486396205 -0.003178448417604174
0.02730104827131513 -0.008540610486396205 -0.003178448417604174
0.027893838815348182 -0.0085128887386402 -0.0029784599332215445
0.02855852001156095 -0.008457437792547595 -0.002578453162133898
0.029189613990442786 -0.008415850514300716 -0.002278448083818163
0.029930097393648658 -0.008332677820452106 -0.0016784528283478872
0.030673717491285835 -0.008249505126603496 -0.0010784575728776113
0.03145694487537626 -0.008152470627554309 -0.00037846062463542385
0.03220711403335813 -0.00806929607106055 0.00022154953199604588
0.03299739711727384 -0.007972261572011363 0.0009215464802382334
-0.036817017134321894 -0.00726958986533488 0.002121551892339979
-0.03628671926636812 -0.0072978368790229675 0.0019215485067961557
-0.03574437148128268 -0.00726958986533488 0.002121551892339979
-0.03520451405276176 -0.007255467289813411 0.0022215386839506968
-0.03466033761580106 -0.0072272202761253235 0.00242154206949452
-0.034106999293012585 -0.007170724386103999 0.0028215488405821665
-0.033542932599825825 -0.007085985207684886 0.0034215440960524424
-0.032957408234519925 -0.0069447482765993 0.004421546122610365
-0.03237634024773356 -0.00683176022184695 0.005221544763624464
-0.03180129605535981 -0.006747019180782687 0.00582154001909474
-0.031217750750524964 -0.006648151838906657 0.006521551868498121
-0.03063617239896771 -0.006563412660487544 0.007121547123968397
-0.030057346105618443 -0.006492794194944751 0.007621540686666761
-0.02946975513551947 -0.006408051291235339 0.008221550843298231
-0.00024444855008837196 -0.007198973262437236 0.0026215454550383432
0.0003347521349358895 -0.007170724386103999 0.0028215488405821665
0.007793044082777534 -0.008117005863912952 -0.003878460267007555
0.008313686929600272 -0.008117005863912952 -0.003878460267007555
0.008834329776423011 -0.008117005863912952 -0.003878460267007555
0.009354965172665153 -0.008117005863912952 -0.003878460267007555
0.009823062799828086 -0.00814525101495589 -0.004078448751390185
0.010396247141020332 -0.008117005863912952 -0.003878460267007555
0.01091688998784307 -0.008117005863912952 -0.003878460267007555
0.011491650126831565 -0.008088758850224864 -0.003678456881463732
0.01212209217991117 -0.00803226296020354 -0.0032784501103760855
0.012671881698029075 -0.008018138522036922 -0.003178448417604174
0.01330571376528028 -0.007961646357305896 -0.002778456547677721
0.013941646896259818 -0.007905150467284572 -0.0023784497765900747
0.014721491716759239 -0.007778037974365604 -0.001478449442804064
0.015506041578905616 -0.007650927344091785 -0.0005784491090180532
0.016295292757408653 -0.0075238148511728165 0.0003215512247679575
0.01706010230626348 -0.007410826796420467 0.0011215498657820566
0.01777026557173017 -0.007326085755356204 0.0017215451212523325
0.018364888958590064 -0.0072978368790229675 0.0019215485067961557
0.026605387560980354 -0.008088758850224864 -0.003678456881463732
0.027126555673735175 -0.008088758850224864 -0.003678456881463732
0.027718042366163764 -0.008060509973891627 -0.0034784534959199087
0.028310572139875922 -0.00803226296020354 -0.0032784501103760855
0.028868464164392982 -0.008018138522036922 -0.003178448417604174
0.029462819330351386 -0.007989893370993983 -0.0029784599332215445
0.030239251784937415 -0.007891027891763103 -0.002278448083818163
0.03098287933315519 -0.00780628685069884 -0.0016784528283478872
0.031766367487566505 -0.00770742137146796 -0.0009784558801056997
0.03259050600971464 -0.00759443331671561 -0.0001784572390916006
0.03345607721056226 -0.0074673208237966415 0.0007215430946944101
0.034138796262400184 -0.007410826796420467 0.0011215498657820566
-0.03574437148128268 -0.0067332691342910644 0.002121551892339979
-0.035208048421932425 -0.0067332691342910644 0.002121551892339979
-0.034667930223090615 -0.006718885788448703 0.0022215386839506968
-0.034115114837927785 -0.00666134495449866 0.0026215454550383432
-0.0335688466504645 -0.006632574537523639 0.0028215488405821665
-0.03301237303022858 -0.006575035566218745 0.003221540710508619
-0.0324441246986818 -0.0064887261779388306 0.003821550867140089
-0.03187273967270371 -0.006402416789658916 0.004421546122610365
-0.03129821888361689 -0.006316107401379001 0.005021541378080641
-0.030720560468776192 -0.006229796150453937 0.00562155153471211
-0.030151541933460202 -0.006172257179149043 0.006021543404638563
-0.029549687758130994 -0.006042794028051746 0.006921543738424574
-0.02895595005903956 -0.00594209943128432 0.007621540686666761
-0.028365223325831856 -0.005855788180359256 0.008221550843298231
0.007793044082777534 -0.0075963667423805115 -0.003878460267007555
0.008313686929600272 -0.0075963667423805115 -0.003878460267007555
0.008834329776423011 -0.0075963667423805115 -0.003878460267007555
0.009302941493647132 -0.007625135296710384 -0.004078448751390185
0.009823062799828086 -0.007625135296710384 -0.004078448751390185
0.010343180380718742 -0.007625135296710384 -0.004078448751390185
0.010863301686899696 -0.007625135296710384 -0.004078448751390185
0.011437532834665809 -0.0075963667423805115 -0.003878460267007555
0.012012814514296088 -0.00756759632540549 -0.003678456881463732
0.012589139275209937 -0.007538825908430469 -0.0034784534959199087
0.013166507117407356 -0.007510055491455447 -0.0032784501103760855
0.013716818176167045 -0.007495670282967937 -0.003178448417604174
0.014352747581856284 -0.007438133174308192 -0.002778456547677721
0.015076645992653404 -0.007337438577540767 -0.0020784595994355337
0.015919753693001304 -0.007179203146823299 -0.0009784558801056997
0.016681165777103935 -0.007064123341568362 -0.0001784572390916006
0.017358527861492667 -0.006992197299130809 0.0003215512247679575
0.01806817331160787 -0.006905889773496043 0.0009215464802382334
0.01878095545615438 -0.0068195803852161285 0.0015215417357085093
0.019436491064684425 -0.006762039551266086 0.0019215485067961557
0.020063658587591682 -0.006718885788448703 0.0022215386839506968
0.02072310947622541 -0.00666134495449866 0.0026215454550383432
0.026466844014780555 -0.007625135296710384 -0.004078448751390185
0.02698696159567121 -0.007625135296710384 -0.004078448751390185
0.027507079176561866 -0.007625135296710384 -0.004078448751390185
0.028098036877768073 -0.0075963667423805115 -0.003878460267007555
0.028690045110838447 -0.00756759632540549 -0.003678456881463732
0.029354994527952705 -0.007510055491455447 -0.0032784501103760855
0.029913400642530952 -0.007495670282967937 -0.003178448417604174
0.03058174007381681 -0.007438133174308192 -0.002778456547677721
0.03128890448059324 -0.007366207131870639 -0.002278448083818163
0.03210964553798917 -0.007251127326615703 -0.001478449442804064
0.0329718192740846 -0.007121662312873256 -0.0005784491090180532
0.03380118065323118 -0.00700658250761832 0.00022154953199604588
-0.03466033761580106 -0.0061530086041768906 0.00242154206949452
-0.034115114837927785 -0.006123714783914935 0.0026215454550383432
-0.033577485598666634 -0.006123714783914935 0.0026215454550383432
-0.03303069400791642 -0.00609442096365298 0.0028215488405821665
-0.03249254229669091 -0.00609442096365298 0.0028215488405821665
-0.031933977857274976 -0.006035837048419368 0.003221540710508619
-0.03138405050341603 -0.006006545090802562 0.0034215440960524424
-0.030821825966281857 -0.005947957450278651 0.003821550867140089
-0.03024573776130196 -0.005860081577428233 0.004421546122610365
-0.029654213815970387 -0.005742910021670711 0.005221544763624464
-0.02907132975016352 -0.005655034148820293 0.00582154001909474
-0.028478635132355656 -0.005552508571871173 0.006521551868498121
-0.02788921690736529 -0.005464630836375606 0.007121547123968397
-0.027289466589732136 -0.005362107122071635 0.007821544072210584
0.007793044082777534 -0.007075725758202922 -0.003878460267007555
0.008313686929600272 -0.007075725758202922 -0.003878460267007555
0.008782831363337074 -0.007105015853174579 -0.004078448751390185
0.009302941493647132 -0.007105015853174579 -0.004078448751390185
0.009823062799828086 -0.007105015853174579 -0.004078448751390185
0.010343180380718742 -0.007105015853174579 -0.004078448751390185
0.010863301686899696 -0.007105015853174579 -0.004078448751390185
0.011383419267790351 -0.007105015853174579 -0.004078448751390185
0.011958171956198249 -0.007075725758202922 -0.003878460267007555
0.012478814803020988 -0.007075725758202922 -0.003878460267007555
0.013055135838644538 -0.007046431937940967 -0.003678456881463732
0.013632507406132255 -0.007017139980324161 -0.0034784534959199087
0.01421092578019384 -0.0069878461600622055 -0.0032784501103760855
0.014819012366192374 -0.0069439082236369964 -0.0029784599332215445
0.01551533245290998 -0.00685602862549628 -0.0023784497765900747
0.016302232973234687 -0.0067242129535755035 -0.001478449442804064
0.017093834809916053 -0.006592395419009578 -0.0005784491090180532
0.01774178572739843 -0.006533811503775966 -0.0001784572390916006
0.018421762965576682 -0.0064605797470888016 0.0003215512247679575
0.019255322746889625 -0.006314118096359622 0.001321538350164686
0.019972292117731605 -0.006226238498218906 0.0019215485067961557
0.02056953065838102 -0.00619694467795695 0.002121551892339979
0.025426608852999244 -0.007105015853174579 -0.004078448751390185
0.02584359549726728 -0.007148955652244937 -0.0043784538297059195
0.02629365526880506 -0.007178249472506892 -0.004578457215249743
0.026742664508478675 -0.007207541430123698 -0.004778460600793566
0.02733127527679685 -0.007178249472506892 -0.004578457215249743
0.027991776697294746 -0.007119663694628131 -0.004178450444162096
0.028547321788923774 -0.007105015853174579 -0.004078448751390185
0.02913932257141355 -0.007075725758202922 -0.003878460267007555
0.029732373885767494 -0.007046431937940967 -0.003678456881463732
0.03039940946544889 -0.0069878461600622055 -0.0032784501103760855
0.03095834457124952 -0.0069732001812538025 -0.003178448417604174
0.03170275443042997 -0.006885322445758235 -0.002578453162133898
0.032413048081057105 -0.00681209255171622 -0.0020784595994355337
0.03316347055877927 -0.0067242129535755035 -0.001478449442804064
0.03410588704790357 -0.006563105324037921 -0.00037846062463542385
0.03486389421667341 -0.006475225725897205 0.00022154953199604588
-0.03465274500851151 -0.00558608461333121 0.0026215454550383432
-0.034115114837927785 -0.00558608461333121 0.0026215454550383432
-0.03358612361554619 -0.00561589997423495 0.00242154206949452
-0.03303985542808291 -0.00558608461333121 0.0026215454550383432
-0.03250222618882176 -0.00558608461333121 0.0026215454550383432
-0.03196459694956061 -0.00558608461333121 0.0026215454550383432
-0.031426966778976884 -0.00558608461333121 0.0026215454550383432
-0.03087808530036923 -0.005556267389782321 0.0028215488405821665
-0.03032815794651028 -0.005526452028878581 0.0030215522261259897
-0.029764889396769967 -0.005466823169716251 0.0034215440960524424
-0.029199529096527066 -0.0054071905852636215 0.003821550867140089
-0.028605390928728547 -0.005287931004293811 0.004621549508154188
-0.02802093851570603 -0.005198484921582591 0.005221544763624464
-0.027418960474474396 -0.0050792234779676315 0.006021543404638563
-0.02683516650651213 -0.005004684144385707 0.006521551868498121
-0.02621789335463759 -0.004870514088996303 0.007421552202284132
0.008782831363337074 -0.006584896409638774 -0.004078448751390185
0.009302941493647132 -0.006584896409638774 -0.004078448751390185
0.009796788327353034 -0.006599805021413219 -0.004178450444162096
0.010263574652330909 -0.006629620382316959 -0.0043784538297059195
0.010782909922258888 -0.006629620382316959 -0.0043784538297059195
0.011821580462114845 -0.006629620382316959 -0.0043784538297059195
0.012396076105492149 -0.006599805021413219 -0.004178450444162096
0.012943772010462318 -0.006584896409638774 -0.004078448751390185
0.013463889591352973 -0.006584896409638774 -0.004078448751390185
0.014097464613573585 -0.0065252675504764435 -0.003678456881463732
0.01467588298763517 -0.0064954521895727035 -0.0034784534959199087
0.015284234069244895 -0.006450728216894519 -0.003178448417604174
0.01598159723724607 -0.006361282134183299 -0.002578453162133898
0.016652678482191596 -0.006286744663246524 -0.0020784595994355337
0.017356057994024787 -0.006197298580535304 -0.001478449442804064
0.01815236859764341 -0.0060631285251459 -0.0005784491090180532
0.018802409402983222 -0.006003499665983569 -0.0001784572390916006
0.01966773473467115 -0.005839514249690425 0.0009215464802382334
0.020385225646154914 -0.0057500700296243545 0.0015215417357085093
0.02104388677324537 -0.0056904374451717255 0.0019215485067961557
0.02164216839517835 -0.0056606220842679855 0.002121551892339979
0.0253242676779199 -0.006629620382316959 -0.0043784538297059195
0.025706087581770454 -0.006689252966769588 -0.004778460600793566
0.026120466522829566 -0.006733975076802623 -0.005078450777948107
0.0266379689499307 -0.006733975076802623 -0.005078450777948107
0.027155478827612434 -0.006733975076802623 -0.005078450777948107
0.027779241435186897 -0.006689252966769588 -0.004778460600793566
0.02836890273536924 -0.006659437605865848 -0.004578457215249743
0.029031490318434272 -0.006599805021413219 -0.004178450444162096
0.029587549500124488 -0.006584896409638774 -0.004078448751390185
0.03025353454794172 -0.0065252675504764435 -0.003678456881463732
0.030848157934801612 -0.0064954521895727035 -0.0034784534959199087
0.031443824402945075 -0.006465636828668964 -0.0032784501103760855
0.032003288499968086 -0.006450728216894519 -0.003178448417604174
0.032825862400190864 -0.006331466773279559 -0.0023784497765900747
0.033614834181921516 -0.006227113941439044 -0.0016784528283478872
0.03455961250509504 -0.0060631285251459 -0.0005784491090180532
-0.033577485598666634 -0.005048454442747485 0.0026215454550383432
-0.03303985542808291 -0.005048454442747485 0.0026215454550383432
-0.03251191008095261 -0.00507879134429301 0.00242154206949452
-0.03198500967775103 -0.005109130108483684 0.0022215386839506968
-0.0314484253824186 -0.005109130108483684 0.0022215386839506968
-0.030911841087086167 -0.005109130108483684 0.0022215386839506968
-0.030363482080442872 -0.00507879134429301 0.00242154206949452
-0.029814078129870858 -0.005048454442747485 0.0026215454550383432
-0.02926362830404755 -0.0050181156785568115 0.0028215488405821665
-0.02871213260297295 -0.0049877750517209885 0.0030215522261259897
-0.02814572735880133 -0.004927101248629939 0.0034215440960524424
-0.02757722943280455 -0.004866423720248592 0.003821550867140089
-0.026976820670111146 -0.004745072388776195 0.004621549508154188
-0.026387664146764245 -0.004654059821494472 0.005221544763624464
-0.025779411785347428 -0.004532704764731776 0.006021543404638563
-0.025208177633626427 -0.004487200343736064 0.006321548482954298
0.008782831363337074 -0.006064778828748119 -0.004078448751390185
0.009276931516783271 -0.0060799482108434555 -0.004178450444162096
0.00974423938240293 -0.006110286975034129 -0.0043784538297059195
0.01021050416673902 -0.006140623876579654 -0.004578457215249743
0.010675722144501243 -0.006170962640770328 -0.004778460600793566
0.011139897040979896 -0.006201299542315852 -0.004978449085176195
0.011712299071209464 -0.006170962640770328 -0.004778460600793566
0.012285751633303199 -0.006140623876579654 -0.004578457215249743
0.012860243551390205 -0.006110286975034129 -0.0043784538297059195
0.013463889591352973 -0.006064778828748119 -0.004078448751390185
0.013984007172243629 -0.006064778828748119 -0.004078448751390185
0.014618629001038108 -0.00600410316301192 -0.003678456881463732
0.015197568915741477 -0.005973764398821246 -0.0034784534959199087
0.01580670603360418 -0.005928256252535236 -0.003178448417604174
0.016446807764427696 -0.005867582449444186 -0.002778456547677721
0.017089014284269843 -0.005806904921062839 -0.0023784497765900747
0.01770337053384069 -0.005761398637421977 -0.0020784595994355337
0.01853066065158132 -0.0056097085417589065 -0.0010784575728776113
0.019271810881750617 -0.005503524729736697 -0.00037846062463542385
0.019985904328482185 -0.005412510299809825 0.00022154953199604588
0.02073410653318647 -0.005306326487787616 0.0009215464802382334
0.021454726688520942 -0.005215313920505893 0.0015215417357085093
0.02211548887933973 -0.005154636392124545 0.0019215485067961557
0.02265128993238691 -0.005154636392124545 0.0019215485067961557
0.02518780284370664 -0.006170962640770328 -0.004778460600793566
0.02560296409572843 -0.006216468924411189 -0.005078450777948107
0.02598191552604917 -0.006277146452792537 -0.0054784575490357534
0.026498374871866737 -0.006277146452792537 -0.0054784575490357534
0.027014834217684303 -0.006277146452792537 -0.0054784575490357534
0.02767298125471357 -0.006216468924411189 -0.005078450777948107
0.02822617196287397 -0.006201299542315852 -0.004978449085176195
0.028887716464655433 -0.006140623876579654 -0.004578457215249743
0.029551347129004035 -0.0060799482108434555 -0.004178450444162096
0.030107667081015144 -0.006064778828748119 -0.004078448751390185
0.03070123993601087 -0.006034441927202594 -0.003878460267007555
0.031295863322870765 -0.00600410316301192 -0.003678456881463732
0.03189152979101423 -0.005973764398821246 -0.0034784534959199087
0.03252576046432737 -0.005928256252535236 -0.003178448417604174
0.03327486418928388 -0.0058372436852535126 -0.002578453162133898
0.033989076845305 -0.005761398637421977 -0.0020784595994355337
0.034935688011305366 -0.00559453915966357 -0.0009784558801056997
0.03592660778011564 -0.005412510299809825 0.00022154953199604588
-0.03250222618882176 -0.00451082613480891 0.0026215454550383432
-0.03198500967775103 -0.004572550469764125 0.0022215386839506968
-0.03145378886912581 -0.004587976896890056 0.002121551892339979
-0.030917466275436845 -0.004587976896890056 0.002121551892339979
-0.030392918393058743 -0.004618837201722514 0.0019215485067961557
-0.029857118271334138 -0.004618837201722514 0.0019215485067961557
-0.02930849849436995 -0.004587976896890056 0.002121551892339979
-0.02876550390575644 -0.004572550469764125 0.0022215386839506968
-0.028215055011255707 -0.004541686439641368 0.00242154206949452
-0.027663558378858533 -0.00451082613480891 0.0026215454550383432
-0.02711101866517779 -0.004479965829976451 0.0028215488405821665
-0.026526565320832696 -0.004387381190188777 0.0034215440960524424
-0.02595493070040461 -0.00432566058052386 0.003821550867140089
-0.02536472923312899 -0.004233079666026485 0.004421546122610365
-0.024754388846499886 -0.004109634721406352 0.005221544763624464
-0.024157388724429574 -0.004017053806908977 0.00582154001909474
-0.02354822925482508 -0.0039090390147050735 0.006521551868498121
-0.022944696836216416 -0.003816458100207698 0.007121547123968397
0.008782831363337074 -0.005544661247857463 -0.004078448751390185
0.009276931516783271 -0.0055600932629188415 -0.004178450444162096
0.009691690437452827 -0.005621815735228908 -0.004578457215249743
0.010157429955856834 -0.005652676040061366 -0.004778460600793566
0.010595334105150733 -0.005698966497310054 -0.005078450777948107
0.011139897040979896 -0.005683536344893825 -0.004978449085176195
0.0116303464099336 -0.005698966497310054 -0.005078450777948107
0.012230591259853874 -0.005652676040061366 -0.004778460600793566
0.012804557912008796 -0.005621815735228908 -0.004578457215249743
0.013379578821318183 -0.0055909535677513 -0.0043784538297059195
0.013984007172243629 -0.005544661247857463 -0.004078448751390185
0.014561375014441047 -0.005513802805670154 -0.003878460267007555
0.015139793388502631 -0.005482942500837695 -0.003678456881463732
0.015719258569138084 -0.005452080333360088 -0.0034784534959199087
0.01629975938047651 -0.005421220028527629 -0.0032784501103760855
0.01685164251174215 -0.005405788013466251 -0.003178448417604174
0.0174938415810037 -0.005344067403801334 -0.002778456547677721
0.018138137988703285 -0.005282344931491267 -0.0023784497765900747
0.018754066310780082 -0.005236056336887729 -0.0020784595994355337
0.019586583010809455 -0.005081751087435138 -0.0010784575728776113
0.020269428722517524 -0.0050045984627088425 -0.0005784491090180532
0.021079858176367317 -0.004865723365672481 0.0003215512247679575
0.02180047833170179 -0.004773142451175105 0.0009215464802382334
0.02239719533170942 -0.004742282146342647 0.0011215498657820566
0.025085461668627296 -0.005698966497310054 -0.005078450777948107
0.025396702222483192 -0.005791551137097728 -0.005678460934579577
0.025808726780073676 -0.0058378397317012665 -0.005978451111734118
0.02632388227428678 -0.0058378397317012665 -0.005978451111734118
0.026944515638010536 -0.005791551137097728 -0.005678460934579577
0.02753129356350187 -0.00576068896962012 -0.0054784575490357534
0.0281904911323953 -0.005698966497310054 -0.005078450777948107
0.028815825812475715 -0.005652676040061366 -0.004778460600793566
0.029478934936182533 -0.0055909535677513 -0.0043784538297059195
0.0300712039395738 -0.0055600932629188415 -0.004178450444162096
0.030627792112486396 -0.005544661247857463 -0.004078448751390185
0.03114790969337705 -0.005544661247857463 -0.004078448751390185
0.03174252562965635 -0.005513802805670154 -0.003878460267007555
0.032413219444410835 -0.005452080333360088 -0.0034784534959199087
0.033048224978106056 -0.005405788013466251 -0.003178448417604174
0.033798908226149116 -0.005313207098968875 -0.002578453162133898
0.034667616121428046 -0.005174333864577663 -0.0016784528283478872
0.035618146292822395 -0.0050045984627088425 -0.0005784491090180532
-0.03145378886912581 -0.004051654303201091 0.002121551892339979
-0.030928717583460774 -0.004083036148675334 0.0019215485067961557
-0.030404693104369607 -0.004114421719439876 0.0017215451212523325
-0.029881712637884583 -0.004145807290204417 0.0015215417357085093
-0.02934695839141127 -0.004145807290204417 0.0015215417357085093
-0.028798860155088868 -0.004114421719439876 0.0017215451212523325
-0.02824971790616032 -0.004083036148675334 0.0019215485067961557
-0.027699528850657906 -0.004051654303201091 0.002121551892339979
-0.02715575195108172 -0.004035963380463969 0.0022215386839506968
-0.026603734709365334 -0.004004577809699428 0.00242154206949452
-0.02605067066107508 -0.003973195964225185 0.0026215454550383432
-0.02549656166885611 -0.003941810393460643 0.0028215488405821665
-0.02492440737043139 -0.0038790467025121567 0.003221540710508619
-0.024350157596213784 -0.0038162755609830734 0.0036215474815962656
-0.023737727321727242 -0.0036907444537958023 0.004421546122610365
-0.02313968225572821 -0.0035965951920827743 0.005021541378080641
-0.022519408382518258 -0.0034710603596052048 0.00582154001909474
-0.021924377076370682 -0.003392598295339 0.006321548482954298
0.008782831363337074 -0.0050245436669668075 -0.004078448751390185
0.009224904112474952 -0.0050716182978233215 -0.0043784538297059195
0.009691690437452827 -0.005103003868587863 -0.004578457215249743
0.010157429955856834 -0.0051343875767072555 -0.004778460600793566
0.010595334105150733 -0.00518146034491862 -0.005078450777948107
0.011112840257542167 -0.00518146034491862 -0.005078450777948107
0.0116303464099336 -0.00518146034491862 -0.005078450777948107
0.012230591259853874 -0.0051343875767072555 -0.004778460600793566
0.012860243551390205 -0.0050716182978233215 -0.0043784538297059195
0.013435786001341377 -0.005040234589703929 -0.004178450444162096
0.013984007172243629 -0.0050245436669668075 -0.004078448751390185
0.014561375014441047 -0.004993161821492564 -0.003878460267007555
0.015139793388502631 -0.004961776250728023 -0.003678456881463732
0.015719258569138084 -0.00493039440525378 -0.0034784534959199087
0.01629975938047651 -0.004899008834489238 -0.0032784501103760855
0.0168219705745149 -0.004899008834489238 -0.0032784501103760855
0.017344178043262992 -0.004899008834489238 -0.0032784501103760855
0.017896582715170417 -0.004883317911752116 -0.003178448417604174
0.018479963175909553 -0.004851936066277873 -0.0029784599332215445
0.01912582793082479 -0.004789168650039088 -0.002578453162133898
0.019928665243046317 -0.004647942894824397 -0.0016784528283478872
0.020673734478609596 -0.004538098985083949 -0.0009784558801056997
0.021453966729300056 -0.00441256415260638 -0.0001784572390916006
0.022111331455366645 -0.004349796736367595 0.00022154953199604588
0.024880771867888007 -0.005275613331921947 -0.005678460934579577
0.025224824778692756 -0.005354071670897853 -0.006178454497277941
0.02573945128168348 -0.005354071670897853 -0.006178454497277941
0.026254085235254798 -0.005354071670897853 -0.006178454497277941
0.026839037768499885 -0.0053226861001333114 -0.005978451111734118
0.02753129356350187 -0.005244229623802554 -0.0054784575490357534
0.0281904911323953 -0.00518146034491862 -0.005078450777948107
0.028815825812475715 -0.0051343875767072555 -0.004778460600793566
0.029478934936182533 -0.0050716182978233215 -0.0043784538297059195
0.0300712039395738 -0.005040234589703929 -0.004178450444162096
0.03059106075014356 -0.005040234589703929 -0.004178450444162096
0.031110917560713325 -0.005040234589703929 -0.004178450444162096
0.03166802727426771 -0.0050245436669668075 -0.004078448751390185
0.03226316475118879 -0.004993161821492564 -0.003878460267007555
0.032934901647226844 -0.00493039440525378 -0.0034784534959199087
0.03357069694246534 -0.004883317911752116 -0.003178448417604174
0.03439953678097013 -0.004757783079274547 -0.0023784497765900747
0.035425355069296394 -0.004553789907821071 -0.0010784575728776113
0.036302683286325965 -0.00441256415260638 -0.0001784572390916006
0.03726289176191572 -0.004239956551917445 0.0009215464802382334
-0.030404693104369607 -0.0035791422070344803 0.0017215451212523325
-0.029894009821159806 -0.003642956429847133 0.001321538350164686
-0.02938541828845259 -0.003706766927369487 0.0009215464802382334
-0.028852230526549782 -0.003706766927369487 0.0009215464802382334
-0.028305179096801247 -0.0036748598159631607 0.0011215498657820566
-0.02775708179180142 -0.003642956429847133 0.001321538350164686
-0.027193028137130704 -0.0035791422070344803 0.0017215451212523325
-0.026642317540986504 -0.003547235095628154 0.0019215485067961557
-0.026090559206945863 -0.0035153279842218277 0.002121551892339979
-0.025545999996407 -0.0034993800164541122 0.0022215386839506968
-0.02499241440747496 -0.003467472905047786 0.00242154206949452
-0.024437780149323907 -0.0034355657936414596 0.0026215454550383432
-0.023864057503683533 -0.003371751570828807 0.0030215522261259897
-0.023288241244895425 -0.003307941073306453 0.0034215440960524424
-0.022729429073674645 -0.0032760339619001266 0.0036215474815962656
-0.022110723547680344 -0.00314840924156512 0.004421546122610365
-0.021548249416096177 -0.0031165021301587936 0.004621549508154188
-0.0209434112832379 -0.003020784521230113 0.005221544763624464
0.009796788327353034 -0.004520377779134166 -0.004178450444162096
0.01021050416673902 -0.0045841920019468185 -0.004578457215249743
0.010675722144501243 -0.004616099113353145 -0.004778460600793566
0.011139897040979896 -0.004648002499469173 -0.004978449085176195
0.011712299071209464 -0.004616099113353145 -0.004778460600793566
0.012340915732042823 -0.004552284890540492 -0.0043784538297059195
0.012943772010462318 -0.0045044223607858536 -0.004078448751390185
0.013463889591352973 -0.0045044223607858536 -0.004078448751390185
0.014040735892908607 -0.004472518974669826 -0.003878460267007555
0.014561375014441047 -0.004472518974669826 -0.003878460267007555
0.017224447213070426 -0.0044406118632634994 -0.003678456881463732
0.01774561160053495 -0.0044406118632634994 -0.003678456881463732
0.018327688209669624 -0.004408704751857173 -0.0034784534959199087
0.018941526643888984 -0.004360845947392833 -0.003178448417604174
0.01958790548886541 -0.004297035449870479 -0.002778456547677721
0.02026761823143247 -0.004217265808709514 -0.002278448083818163
0.021044453017370734 -0.004089641088374507 -0.001478449442804064
0.021730182103769813 -0.004009878897794139 -0.0009784558801056997
0.022258398465769325 -0.004009878897794139 -0.0009784558801056997
0.022754338912622962 -0.004025830590852153 -0.0010784575728776113
0.024710198275702033 -0.004839441442616832 -0.006178454497277941
0.025156070820944343 -0.004871348554023158 -0.006378457882821764
0.02556626998628858 -0.0049192036331972 -0.006678448059976305
0.026254085235254798 -0.004839441442616832 -0.006178454497277941
0.026839037768499885 -0.004807534331210506 -0.005978451111734118
0.02753129356350187 -0.004727768415339839 -0.0054784575490357534
0.02822617196287397 -0.004648002499469173 -0.004978449085176195
0.028815825812475715 -0.004616099113353145 -0.004778460600793566
0.02940652274336103 -0.0045841920019468185 -0.004578457215249743
0.0300712039395738 -0.004520377779134166 -0.004178450444162096
0.03059106075014356 -0.004520377779134166 -0.004178450444162096
0.03103693329538587 -0.004552284890540492 -0.0043784538297059195
0.03155626856531385 -0.004552284890540492 -0.0043784538297059195
0.03218814485515836 -0.0045044223607858536 -0.004078448751390185
0.03278380387272123 -0.004472518974669826 -0.003878460267007555
0.03353266172851804 -0.004376797640450847 -0.0032784501103760855
0.0341697534247804 -0.004328942561276805 -0.0029784599332215445
0.03503977262224439 -0.004185362422593486 -0.0020784595994355337
0.03614741318668607 -0.0039460646749814865 -0.0005784491090180532
0.03702840708936933 -0.0038024845362981674 0.0003215512247679575
-0.02938541828845259 -0.0031735847534021255 0.0009215464802382334
-0.0288655735850763 -0.0032060134054502365 0.0007215430946944101
-0.02836064121876475 -0.0032708707095464584 0.0003215512247679575
-0.027800245799167123 -0.0032060134054502365 0.0007215430946944101
-0.027252671897454228 -0.0031735847534021255 0.0009215464802382334
-0.026688619174106087 -0.0031087274493059036 0.001321538350164686
-0.026138429187281098 -0.0030762987972577926 0.0015215417357085093
-0.02558719611917254 -0.0030438664199193832 0.0017215451212523325
-0.025034918107135262 -0.0030114377678712723 0.0019215485067961557
-0.024481591425878968 -0.0029790091158231613 0.002121551892339979
-0.023936248041732278 -0.002962796652444255 0.0022215386839506968
-0.02338109224293944 -0.002930368000396144 0.00242154206949452
-0.02282489150021788 -0.0028979356230577347 0.0026215454550383432
-0.022267647676212754 -0.0028655069710096237 0.0028215488405821665
-0.021689218126280274 -0.0028006496669134018 0.003221540710508619
-0.021129359148485627 -0.002768221014865291 0.0034215440960524424
-0.020526089362843003 -0.002670935058720958 0.004021539351522718
-0.019919679157478776 -0.0025736453772863266 0.004621549508154188
-0.019332366652829613 -0.0025087880731901047 0.005021541378080641
-0.018765710882885422 -0.0024763594211419937 0.005221544763624464
-0.018174736417872872 -0.0024115021170457718 0.00562155153471211
-0.01760546921942946 -0.002379073464997661 0.00582154001909474
0.009875608019487891 -0.0039518798531373855 -0.003878460267007555
0.010343180380718742 -0.0039843085051854965 -0.004078448751390185
0.010782909922258888 -0.004032953345902812 -0.0043784538297059195
0.011302245192186866 -0.004032953345902812 -0.0043784538297059195
0.011876219294922385 -0.004000520968564403 -0.004178450444162096
0.01242365815486196 -0.0039843085051854965 -0.004078448751390185
0.01299945019926313 -0.0039518798531373855 -0.003878460267007555
0.013520093046085868 -0.0039518798531373855 -0.003878460267007555
0.014097464613573585 -0.003919451201089275 -0.003678456881463732
0.014618629001038108 -0.003919451201089275 -0.003678456881463732
0.018266775987999473 -0.003919451201089275 -0.003678456881463732
0.01884937413777593 -0.0038870225490411636 -0.0034784534959199087
0.01946399115766767 -0.003838377708323848 -0.003178448417604174
0.02004893624033216 -0.003805949056275737 -0.0029784599332215445
0.020792444579260383 -0.0036924469114621994 -0.002278448083818163
0.02138078712667707 -0.0036600182594140884 -0.0020784595994355337
0.022034232847349677 -0.0035951609553178665 -0.0016784528283478872
0.022431482903616462 -0.0036600182594140884 -0.0020784595994355337
0.024218407802240882 -0.004065381997950923 -0.004578457215249743
0.024364834062712226 -0.004243741446860683 -0.005678460934579577
0.024641965858595405 -0.00435724359167422 -0.006378457882821764
0.024984193377153907 -0.0044383133591493484 -0.0068784514455201284
0.02556626998628858 -0.0044058847071012375 -0.006678448059976305
0.026184288196222816 -0.00435724359167422 -0.006378457882821764
0.026839037768499885 -0.0042923825622877 -0.005978451111734118
0.02753129356350187 -0.004211312794812572 -0.0054784575490357534
0.028297533623831306 -0.004097810649999034 -0.004778460600793566
0.028887716464655433 -0.004065381997950923 -0.004578457215249743
0.029551347129004035 -0.004000520968564403 -0.004178450444162096
0.030107667081015144 -0.0039843085051854965 -0.004078448751390185
0.03148177020992521 -0.004065381997950923 -0.004578457215249743
0.03207560383524183 -0.004032953345902812 -0.0043784538297059195
0.03270826243604902 -0.0039843085051854965 -0.004078448751390185
0.03338051342214826 -0.003919451201089275 -0.003678456881463732
0.03409316890682462 -0.003838377708323848 -0.003178448417604174
0.03492410235847715 -0.003708663100131404 -0.0023784497765900747
0.03595331066097501 -0.0034978749991735336 -0.0010784575728776113
0.03683300071205381 -0.003351944202311885 -0.0001784572390916006
-0.02836064121876475 -0.0027392494322141525 0.0003215512247679575
-0.02782902180407759 -0.0027392494322141525 0.0003215512247679575
-0.027297404252035584 -0.0027392494322141525 0.0003215512247679575
-0.02673491894458052 -0.0026733490468343613 0.0007215430946944101
-0.026186299167616334 -0.002640395128854167 0.0009215464802382334
-0.02563663258407828 -0.0026074449361642715 0.0011215498657820566
-0.025068922556979623 -0.002541540825494182 0.0015215417357085093
-0.024516640819652047 -0.002508590632804286 0.0017215451212523325
-0.02396331786368605 -0.002475636714824092 0.0019215485067961557
-0.02340894623850104 -0.0024426865221341965 0.002121551892339979
-0.022872623644812073 -0.0024426865221341965 0.002121551892339979
-0.022326494224412408 -0.0024262095631440994 0.0022215386839506968
-0.021769771941049065 -0.0023932593704542038 0.00242154206949452
-0.021212002851111855 -0.0023603054524740097 0.0026215454550383432
-0.020653190679891076 -0.002327355259784114 0.0028215488405821665
-0.02009332983945128 -0.00229440134180392 0.0030215522261259897
-0.01951019897316214 -0.0022285009564241287 0.0034215440960524424
-0.01897047705207583 -0.0022285009564241287 0.0034215440960524424
-0.018384207628710236 -0.002162596845754039 0.003821550867140089
-0.01781964547191378 -0.0021296466530641434 0.004021539351522718
-0.0172297140881848 -0.0020637425423940536 0.004421546122610365
-0.016662538640243973 -0.0020307886244138595 0.004621549508154188
-0.016119680024726357 -0.0020307886244138595 0.004621549508154188
-0.015525049187285866 -0.0019648882390340683 0.005021541378080641
0.01091688998784307 -0.0034312407316049454 -0.003878460267007555
0.011437532834665809 -0.0034312407316049454 -0.003878460267007555
0.012012814514296088 -0.0033982868136247513 -0.003678456881463732
0.012589139275209937 -0.003365332895644557 -0.0034784534959199087
0.013166507117407356 -0.0033323827029546615 -0.0032784501103760855
0.013688714586155448 -0.0033323827029546615 -0.0032784501103760855
0.018205863766329322 -0.0034312407316049454 -0.003878460267007555
0.018726502887861762 -0.0034312407316049454 -0.003878460267007555
0.019309097312347923 -0.0033982868136247513 -0.003678456881463732
0.019986463122026954 -0.0033159057439645645 -0.003178448417604174
0.020571937195913825 -0.003282955551274669 -0.0029784599332215445
0.021158454351084266 -0.0032500053585847732 -0.002778456547677721
0.021746022038118873 -0.003217051440604579 -0.002578453162133898
0.02227005862440351 -0.003217051440604579 -0.002578453162133898
0.02405044936384443 -0.003628949338324916 -0.005078450777948107
0.024195564322130714 -0.003810184711345088 -0.006178454497277941
0.024471399716990028 -0.003925512248404872 -0.0068784514455201284
0.02484668546165708 -0.003991416359074962 -0.007278458216607775
0.02556626998628858 -0.0038925620557149765 -0.006678448059976305
0.026254085235254798 -0.003810184711345088 -0.006178454497277941
0.026944515638010536 -0.0037278036416849014 -0.005678460934579577
0.02767298125471357 -0.003628949338324916 -0.005078450777948107
0.02836890273536924 -0.0035465682686647293 -0.004578457215249743
0.028959599666254554 -0.0035136180759748337 -0.0043784538297059195
0.03148177020992521 -0.0035465682686647293 -0.004578457215249743
0.0320005839392114 -0.0035465682686647293 -0.004578457215249743
0.03270826243604902 -0.0034641871990045425 -0.004078448751390185
0.03330444299425367 -0.0034312407316049454 -0.003878460267007555
0.034054872922556434 -0.0033323827029546615 -0.0032784501103760855
0.03469274692978147 -0.003282955551274669 -0.0029784599332215445
0.03572039806093458 -0.003068769985564601 -0.0016784528283478872
0.03675483667101148 -0.0028545844198545334 -0.00037846062463542385
-0.027297404252035584 -0.002207631880172145 0.0003215512247679575
-0.026765786699993577 -0.002207631880172145 0.0003215512247679575
-0.02623416728530642 -0.002207631880172145 0.0003215512247679575
-0.02566959208999392 -0.002140684688218486 0.0007215430946944101
-0.025119927369101014 -0.0021072092295965072 0.0009215464802382334
-0.024586739607198205 -0.0021072092295965072 0.0009215464802382334
-0.024017459370238747 -0.002040262037642848 0.001321538350164686
-0.023464656092269387 -0.0020067865790208694 0.0015215417357085093
-0.022910809733016457 -0.0019733111203988907 0.0017215451212523325
-0.02235591656718966 -0.001939835661776912 0.0019215485067961557
-0.02182011551414248 -0.001939835661776912 0.0019215485067961557
-0.02126365586374518 -0.0019063602031549332 0.002121551892339979
-0.020716742269737687 -0.0018896261991342422 0.0022215386839506968
-0.02018015704308268 -0.0018896261991342422 0.0022215386839506968
-0.0196213448718619 -0.0018561507405122635 0.00242154206949452
-0.019061484031422105 -0.0018226752818902847 0.0026215454550383432
-0.01850058010969874 -0.001789199823268306 0.0028215488405821665
-0.01796242839847323 -0.001789199823268306 0.0028215488405821665
-0.01742427482460257 -0.001789199823268306 0.0028215488405821665
-0.016861279152376618 -0.0017557243646463272 0.0030215522261259897
-0.016322604037864175 -0.0017557243646463272 0.0030215522261259897
-0.01575804374371287 -0.001722252631314647 0.003221540710508619
-0.015192434780342545 -0.0016887771726926681 0.0034215440960524424
-0.014625779010398354 -0.0016553017140706894 0.0036215474815962656
0.011104469530241523 -0.002793433779605281 -0.003178448417604174
0.01159988098587278 -0.0028101715089162704 -0.0032784501103760855
0.012149409733669791 -0.002793433779605281 -0.003178448417604174
0.012671881698029075 -0.002793433779605281 -0.003178448417604174
0.013250028125898872 -0.0027599620462736008 -0.0029784599332215445
0.01377302163089994 -0.0027599620462736008 -0.0029784599332215445
0.01814495526994947 -0.002944069618113887 -0.004078448751390185
0.018665072850840125 -0.002944069618113887 -0.004078448751390185
0.019247142009394202 -0.0029105978847822067 -0.003878460267007555
0.019830261699812446 -0.002877122426160228 -0.003678456881463732
0.020477434031622443 -0.0028101715089162704 -0.0032784501103760855
0.02103140705074552 -0.002793433779605281 -0.003178448417604174
0.021553879015104804 -0.002793433779605281 -0.003178448417604174
0.022076350979464088 -0.002793433779605281 -0.003178448417604174
0.023346131078856025 -0.002944069618113887 -0.004078448751390185
0.02363293372835401 -0.0030612337232908127 -0.004778460600793566
0.023848896257536445 -0.00321186583650912 -0.005678460934579577
0.024026302032129798 -0.0033792394043287155 -0.006678448059976305
0.02433493488277677 -0.0034796620549043533 -0.007278458216607775
0.02484668546165708 -0.0034796620549043533 -0.007278458216607775
0.025496994487898383 -0.003412711137660396 -0.0068784514455201284
0.026254085235254798 -0.0032955507577737686 -0.006178454497277941
0.026944515638010536 -0.00321186583650912 -0.005678460934579577
0.027708408765451942 -0.003094705456622493 -0.004978449085176195
0.028440264396326576 -0.002994282806046855 -0.0043784538297059195
0.02906743936981443 -0.002944069618113887 -0.004078448751390185
0.032670487992422614 -0.0029608073474248764 -0.004178450444162096
0.03330444299425367 -0.0029105978847822067 -0.003878460267007555
0.03397827350343946 -0.002843646967538249 -0.0034784534959199087
0.034615640871183906 -0.002793433779605281 -0.003178448417604174
0.03548748546089414 -0.002642797941096675 -0.002278448083818163
0.036520351998465095 -0.00242521491063441 -0.0009784558801056997
0.03756002091612104 -0.002207631880172145 0.0003215512247679575
0.038487670354502235 -0.002040262037642848 0.001321538350164686
-0.026202254585964646 -0.0016080240548929092 0.0007215430946944101
-0.025702549733264413 -0.0016760143281301376 0.0003215512247679575
-0.025136929594023194 -0.0016080240548929092 0.0007215430946944101
-0.02460426523540732 -0.0016080240548929092 0.0007215430946944101
-0.024053553707940545 -0.0015740233303388473 0.0009215464802382334
-0.023501795373899903 -0.001540026331075084 0.0011215498657820566
-0.02296808793400046 -0.001540026331075084 0.0011215498657820566
-0.022414764978034463 -0.001506033057101619 0.001321538350164686
-0.02186039335284945 -0.001472032332547557 0.0015215417357085093
-0.021304978646380868 -0.0014380353332837936 0.0017215451212523325
-0.020748517133338418 -0.0014040383340200302 0.0019215485067961557
-0.020212716080291238 -0.0014040383340200302 0.0019215485067961557
-0.019654686220033135 -0.0013700413347562668 0.002121551892339979
-0.01911836362634417 -0.0013700413347562668 0.002121551892339979
-0.018582041032655205 -0.0013700413347562668 0.002121551892339979
-0.018033821724398102 -0.001353042835124385 0.0022215386839506968
-0.017497236497743096 -0.001353042835124385 0.0022215386839506968
-0.01696065313373324 -0.001353042835124385 0.0022215386839506968
-0.016424067907078232 -0.001353042835124385 0.0022215386839506968
-0.015861597500784363 -0.0013190458358606216 0.00242154206949452
-0.015324488870842423 -0.0013190458358606216 0.00242154206949452
-0.014760446392042603 -0.0012850488365968582 0.0026215454550383432
-0.014222816221458878 -0.0012850488365968582 0.0026215454550383432
-0.013657209120733704 -0.0012510518373330948 0.0028215488405821665
-0.013119055546863045 -0.0012510518373330948 0.0028215488405821665
-0.01255187823627707 -0.0012170548380693313 0.0030215522261259897
0.012367965064899955 -0.0021349775434812424 -0.0023784497765900747
0.012892526917116676 -0.0021349775434812424 -0.0023784497765900747
0.018053585074799094 -0.002474951261409175 -0.0043784538297059195
0.018634357832329307 -0.0024409542621454117 -0.004178450444162096
0.019185186706440482 -0.0024239520372232315 -0.004078448751390185
0.019767781130926643 -0.0023899587632497665 -0.003878460267007555
0.02028842770303968 -0.0023899587632497665 -0.003878460267007555
0.020872590474741493 -0.002355961763986003 -0.003678456881463732
0.021393758587496314 -0.002355961763986003 -0.003678456881463732
0.02191491924967054 -0.002355961763986003 -0.003678456881463732
0.022370991639750037 -0.0023899587632497665 -0.003878460267007555
0.02282601349796537 -0.0024239520372232315 -0.004078448751390185
0.02318078779424909 -0.0025089482606729385 -0.004578457215249743
0.023532946936743293 -0.002593940758832347 -0.005078450777948107
0.02368093781913999 -0.002780924254783046 -0.006178454497277941
0.02395859860624555 -0.002899913752206218 -0.0068784514455201284
0.024300818674223457 -0.002984909975655925 -0.0073784599093796865
0.024812308482782874 -0.002984909975655925 -0.0073784599093796865
0.025496994487898383 -0.002899913752206218 -0.0068784514455201284
0.026254085235254798 -0.002780924254783046 -0.006178454497277941
0.027014834217684303 -0.002661934757359874 -0.0054784575490357534
0.027850089006083045 -0.0025089482606729385 -0.004578457215249743
0.02851163350786451 -0.0024409542621454117 -0.004178450444162096
0.02906743936981443 -0.0024239520372232315 -0.004078448751390185
0.03259493910516981 -0.002474951261409175 -0.0043784538297059195
0.033228380016939674 -0.0024239520372232315 -0.004078448751390185
0.03390168153490308 -0.002355961763986003 -0.003678456881463732
0.03457707666601423 -0.0022879640401681778 -0.0032784501103760855
0.03529338293518308 -0.002202971542008769 -0.002778456547677721
0.03632495307173017 -0.001981991046794307 -0.001478449442804064
0.03736330323662046 -0.0017610105515798447 -0.0001784572390916006
0.03840846323217634 -0.001540026331075084 0.0011215498657820566
-0.025119927369101014 -0.0010408374310811874 0.0009215464802382334
-0.024586739607198205 -0.0010408374310811874 0.0009215464802382334
-0.024035506539089646 -0.0010063151658853409 0.0011215498657820566
-0.023501795373899903 -0.0010063151658853409 0.0011215498657820566
-0.02296808793400046 -0.0010063151658853409 0.0011215498657820566
-0.022434378631455865 -0.0010063151658853409 0.0011215498657820566
-0.02190066932891127 -0.0010063151658853409 0.0011215498657820566
-0.021346299566371407 -0.0009718003512700912 0.001321538350164686
-0.020790884859902825 -0.0009372780860742447 0.0015215417357085093
-0.020234423346860375 -0.0009027558208783981 0.0017215451212523325
-0.019676916889889207 -0.00086823728097285 0.0019215485067961557
-0.019141115836842026 -0.00086823728097285 0.0019215485067961557
-0.018605316646439995 -0.00086823728097285 0.0019215485067961557
-0.018069515593392815 -0.00086823728097285 0.0019215485067961557
-0.017533714540345635 -0.00086823728097285 0.0019215485067961557
-0.016997915349943604 -0.00086823728097285 0.0019215485067961557
-0.016462114296896424 -0.00086823728097285 0.0019215485067961557
