ply
format ascii 1.0
element vertex 690
property float x
property float y
property float z
property uchar red
property uchar green
property uchar blue
end_header
0.04193101798531146 0.07298620515889567 0.20823651501758103 244 208 63
0.042653132983505385 0.052232797586521926 0.20548499025388922 244 208 63
0.06979721973778076 0.024805035326283996 0.20122861473831918 255 0 0
0.08101096187384857 0.03412407546312085 0.20248527764567467 255 0 0
0.05536852827713935 0.059315013313873954 0.20654445819962963 244 208 63
0.059836777607120264 0.03581662286799519 0.19735704832597656 255 0 0
0.04229897538916795 0.04158027070594931 0.20358223428714808 244 208 63
0.08640268233986065 0.042148871772721246 0.2049418710804192 255 0 0
-0.003720246207614907 0.013979563314251632 0.1982097600821505 244 208 63
0.07471134216211439 0.016263358229339046 0.1993654463507961 255 0 0
0.06943481268795347 0.03376325174130829 0.19944608527494703 255 0 0
0.05665887265439286 0.06727707427639368 0.20755003122213522 244 208 63
0.02740741069654219 0.04063089971010085 0.2025464455390393 244 208 63
0.05116690807908387 0.051360981230754554 0.203459400311791 244 208 63
0.021939923628609415 0.008931324066476233 0.19918723757223855 255 0 0
0.05517547266395737 0.05927587541324917 0.20653439770427495 244 208 63
0.05903200760411996 0.06787686960184379 0.20670961087009063 244 208 63
0.05900085192700384 -0.0025087996846261326 0.19540528839963053 255 0 0
0.07509959610488962 0.0036775839930779167 0.1988099131952025 255 0 0
0.05098939010333765 0.055184790491601465 0.20184268135961753 244 208 63
0.06085392968595411 0.05352390683603838 0.2048371619168184 244 208 63
0.07147999372087913 0.04109550597783801 0.1983532790381084 255 0 0
0.06267913041509711 0.06538106770205136 0.1981898977665133 0 0 255
0.016528452529173527 0.009655734721004337 0.1992120007883948 255 0 0
0.06064265480311857 0.023793161417525823 0.2000602639063004 255 0 0
0.07778021431271226 0.061732495770378884 0.2066247236730288 244 208 63
0.07932523429665533 0.030157052575091933 0.2034577941598903 255 0 0
0.02574220676307673 0.07795436550595396 0.1957584633147178 0 0 255
0.06241538630757595 0.03223450983170391 0.20230311183030195 255 0 0
0.049888720868307875 0.030747308043825326 0.20250535931745342 255 0 0
0.04868877823380214 0.051884783279385234 0.2056534650106661 244 208 63
0.04960309179573745 0.03210175211196539 0.19235971836769247 0 255 0
0.04042895142080832 0.06002905238856934 0.20546148157539895 244 208 63
0.0791045663436017 0.03560710436007546 0.2042432776723034 255 0 0
0.04967070858431734 0.03136659494301193 0.20186794175791614 255 0 0
0.044954092104871404 0.07370047986370037 0.19567215915107675 0 0 255
0.04867886616220266 0.0636999597132485 0.2053541695496125 244 208 63
0.06526365440331874 0.07127102239355819 0.20704809419366735 244 208 63
0.06126513558920672 0.05662866758224284 0.20579775337920317 244 208 63
0.04861001334810113 0.028779441968772003 0.19613660132831937 255 0 0
0.06475315408164355 0.05930874566847946 0.20597484598721758 244 208 63
0.06434085546416228 0.06859674348023378 0.20743372587147932 244 208 63
0.06248311634055664 0.05863559439329096 0.19410091968966156 0 0 255
0.038586314503189285 0.042723091640207544 0.19137855487533806 0 0 255
0.04381822877084157 0.008302345165871954 0.19328378937144694 255 0 0
0.05766764622684246 0.05800523547515356 0.1960187074878122 0 0 255
0.0777999049946601 0.03280079318123763 0.1974046771461233 255 0 0
0.04814481669811702 0.031678347254258665 0.20079941248626965 255 0 0
0.05355827641069385 0.056183906714576536 0.20628553072805075 244 208 63
0.0036071478370019103 0.021456786078370614 0.1983193262315486 244 208 63
0.00806491041522098 0.027240458199019324 0.19920287685594432 244 208 63
0.06175311673994891 0.03290945521676731 0.20184063790640305 255 0 0
0.06448469028702827 0.060123504646075396 0.19434964027855256 0 0 255
0.0867768940526086 0.0577350562050129 0.2068526340573171 255 0 0
0.06600472733108449 0.03372727649973651 0.20339619175150378 255 0 0
0.06714386548593776 0.03290475315033619 0.19502897313771692 0 255 0
0.044140097472834795 0.023306137228078498 0.20136826425300206 255 0 0
0.04149889830784557 0.057531301393642875 0.204083057702264 244 208 63
0.05047642754826137 0.05517010639755973 0.20470749851570344 244 208 63
0.04146940086269606 0.06634937699180331 0.20525912330814902 244 208 63
0.08244712586993183 0.03582971025729549 0.19474148711428693 0 255 0
0.07321015333503618 0.06163813845207327 0.20578301835792023 244 208 63
0.016158643394820222 0.0693403731587865 0.20645326877579376 244 208 63
0.07684057943830078 0.01670059554224427 0.19951960652208278 255 0 0
0.049073894758043274 0.029877301511591924 0.19629473822016286 255 0 0
0.04021700074136873 0.0541812074909337 0.20413980087046674 244 208 63
0.05391803311468857 -0.002443407004747343 0.18891894439136123 0 255 0
0.08775537485418214 0.06285348783077288 0.2059523725176023 244 208 63
0.06374220921699532 0.018687387843880562 0.19198509149295187 0 255 0
0.08008789733924357 0.03325064215387523 0.20255997045595514 255 0 0
0.06097737734685835 0.06948049141420835 0.19975562655089607 0 0 255
0.08304978172216126 0.03664545411693398 0.2031408320062234 255 0 0
0.029573915567295966 0.07580379298848033 0.2072946840747299 244 208 63
0.07088331556145214 0.038689019795520536 0.2025191492650409 255 0 0
0.04663843552796908 0.06394905008866618 0.20714842717925372 244 208 63
0.05142020376978452 0.052360753546543286 0.201052085591 244 208 63
0.04046557273090915 0.02402967610391315 0.1995862501407734 255 0 0
0.04855674446057942 0.0657825793201218 0.20679026788581623 244 208 63
0.053598776681198376 0.05251855873319308 0.20371727557794947 244 208 63
0.06081647019285886 0.06713727848989899 0.20584905154839123 244 208 63
0.038047174449898906 0.018670056600123237 0.20089050704633138 255 0 0
0.08102227354427975 0.03472733477832801 0.19137481024065167 0 255 0
0.08016967038907033 0.03325385036308019 0.19752451855448414 255 0 0
0.06406364447568894 0.03141960756667976 0.2022356605521187 255 0 0
0.06420106342424411 0.07062871487680625 0.1957444925004659 0 0 255
0.0707248404433023 0.03922363483826638 0.20344404649742207 255 0 0
0.08526513506858391 0.05354729468354864 0.2046480287208817 255 0 0
0.04933955852992841 0.03170834395059277 0.20154795320390673 255 0 0
-2.8276647037902896e-05 0.0074508758302234464 0.19843920868740267 255 0 0
0.04189230007046234 0.055576526794544015 0.20591215904924873 244 208 63
0.07526827614889668 0.010078143999461574 0.19112496501188825 0 255 0
-0.0019977649247324633 0.011906639823496112 0.18879615807952027 0 0 255
0.07276013834199123 0.06282340472072423 0.20606081012158436 244 208 63
0.085296294866055 0.0609445852645574 0.20563600521373487 244 208 63
0.05689045838345369 0.06684323621507088 0.20785523539893128 244 208 63
0.04511243327635482 0.01454336753169259 0.19843670373258737 255 0 0
0.059786710573690005 -0.00206074658851009 0.19230091908832303 255 0 0
0.0513423273441461 0.05171409487754457 0.2052089767944176 244 208 63
0.03973042776224006 0.04426232598437858 0.20333985084315018 244 208 63
0.06909591182808161 0.04220179726273965 0.19631861043879986 0 255 0
0.04538900799196792 0.02592511473608284 0.19992011312879268 255 0 0
0.06326798191425949 0.03558697230476757 0.20169997435443396 255 0 0
0.06461574832219072 0.03409203819609272 0.20296343900705555 255 0 0
0.039987730865066566 0.041464739106215794 0.20398116608888975 244 208 63
0.040998238696426076 0.04384196096020786 0.20113987660774704 244 208 63
0.0813740192709416 0.0469811125246246 0.2043888486030957 255 0 0
0.07775094025741874 0.030499599797054393 0.20138394548104643 255 0 0
0.04053832045011424 0.06295665095835248 0.20686313715607538 244 208 63
0.06104513853870486 0.0331914250354381 0.20186052799602847 255 0 0
0.07524422126449827 0.01965211584623425 0.19987349782000277 255 0 0
0.07273578551797191 0.06470812995714466 0.1951682232894504 0 0 255
0.04325326708467104 0.05480333395862255 0.2042989057255743 244 208 63
0.06439363960881653 -0.0011449640869096583 0.1978980670082877 255 0 0
0.06151378642205726 0.038040381830921344 0.19345069691311934 0 255 0
0.06853049834799863 0.018429432997984854 0.20162221615619208 255 0 0
0.023632860958911907 0.011728356081853054 0.19966661505115965 255 0 0
0.0564383026321473 0.058196095226316906 0.19813594656442107 0 0 255
0.07020384004686438 0.04225962753209881 0.20419345485816423 255 0 0
0.06541620661233959 0.02054717973970708 0.18909137472020449 0 255 0
0.049359945935597435 -0.0011176394071430625 0.19853323033191117 255 0 0
0.0514008812486212 0.052511267383866224 0.20064717246165004 244 208 63
0.06764853287814337 0.01967073444998128 0.20176577298960816 255 0 0
0.08606795428212674 0.06033941540470636 0.20771837757591952 244 208 63
0.08166643272648892 0.04612820381890951 0.20463965038572213 255 0 0
0.04691656374146616 0.0015989801329115566 0.19883454935946102 255 0 0
0.007639701825139907 0.02833263058415885 0.1918665231463071 0 0 255
0.0788699797080885 0.03626007175114621 0.2043245405381271 255 0 0
0.04608119873578534 0.02765378191326759 0.18955529934673002 0 255 0
0.06634135032127679 0.07125389199583947 0.20653686583426703 244 208 63
0.05807644589113889 0.06947367175304846 0.20498845194159449 244 208 63
0.07082132569431464 0.041800219848684594 0.20479853519442093 255 0 0
0.07409970239043606 0.06232536106000908 0.20284405478617407 244 208 63
0.06396312801918558 0.06857978442328898 0.2073454347285133 244 208 63
0.08714169850711351 0.057567302789605916 0.19669879563468112 0 255 0
0.06135097956605281 0.06820923886836788 0.2064648846843183 244 208 63
0.0141437476386455 0.06327542819709377 0.20416419409558917 244 208 63
0.08066726138601675 0.0336801340122414 0.2033821323956794 255 0 0
0.057660102015619226 -0.004967655106507485 0.19721919240996288 255 0 0
0.07095891715926048 0.06450905207401214 0.2073602974564716 244 208 63
0.05892961373828132 0.05442155405096175 0.20517671167461668 244 208 63
0.0694758172681782 0.023372724972795213 0.19381532056731235 0 255 0
0.05138814278307635 0.05331810662786515 0.19693390344668343 0 0 255
0.04419302795675658 0.023667414783431387 0.20177510297469697 255 0 0
0.06417887338879281 0.05861908311211695 0.20687663450041008 244 208 63
0.08675452978231551 0.05640529658938293 0.19653402032591769 0 255 0
0.05965382911076661 0.05601784560541773 0.19527260912045852 0 0 255
0.046110453467411536 0.005981645083616767 0.19939923344727725 255 0 0
0.0777417886976984 0.012483174827322224 0.20005125725055764 255 0 0
0.06213481684330745 0.021399557132180225 0.20013551630198168 255 0 0
0.06372646586360195 0.034699016867029454 0.2033794620755177 255 0 0
0.07316109132592165 0.06281312569943338 0.2028856299819627 244 208 63
-0.0035859980662910416 0.011009446010137392 0.18991016850833758 0 0 255
0.06380542066553997 0.0346665462920183 0.20301980483691615 255 0 0
0.08365962763661203 0.05113434909180583 0.1957530439135917 0 255 0
0.05770725958160326 0.07035224167515905 0.19554488076721588 0 0 255
0.06028054285377514 0.03296170551246269 0.19910973726276 255 0 0
0.03223335809416926 0.07898038200970858 0.2077852493011826 244 208 63
0.06672211596414554 0.019715237209512355 0.20074028251311557 255 0 0
0.04227560785084127 0.07262111849772661 0.20819642725032625 244 208 63
0.023175228006901312 0.07574054051510451 0.20766186423554822 244 208 63
0.014962416709822905 0.03493949569407934 0.20248328851476494 244 208 63
0.054050623671329276 0.05656239150911862 0.20634837767487083 244 208 63
0.06184254374113543 0.057497323682074435 0.20673207338401983 244 208 63
0.0719932796583009 0.020087263455426826 0.20056471184871147 255 0 0
0.08158775495249322 0.034789467244063316 0.20205258325744543 255 0 0
0.06228447029761692 0.03569505585404833 0.20376987038817054 255 0 0
0.0709833539922488 0.02502702929781042 0.19938029215256217 255 0 0
0.07028520057360804 0.04077254065395949 0.19191252623090718 0 255 0
0.07883281488548731 0.061644658600719146 0.20771127607301942 244 208 63
0.0598790077130468 0.030066333339975358 0.20248616006253836 255 0 0
0.057407785898837445 0.06640824129692917 0.20673824684525643 244 208 63
0.058920822981012165 0.05437473447495729 0.20552754181005822 244 208 63
0.06919621583810985 0.03239957277600554 0.20285234611245578 255 0 0
0.06228524912603119 0.06834734683393137 0.20704267921439481 244 208 63
0.06059793419630001 0.03215486573145136 0.20305086961611804 255 0 0
0.06083259463195643 0.06801547611602436 0.20688542371166685 244 208 63
0.08369169294016104 0.06336229324641808 0.19526313879208348 0 0 255
0.07062382495074375 0.02488153623978576 0.20094379813711377 255 0 0
0.053458950744245885 0.050070956708720596 0.20334467353557958 244 208 63
0.05102916992505008 0.00036313709925349727 0.19883635447105114 255 0 0
0.060617416799876575 0.05532093737794194 0.19520374878093402 0 0 255
0.05378442283955184 0.05262512918442127 0.19308083760536604 0 0 255
0.06525492912577635 0.03379683344878759 0.20365465972103344 255 0 0
0.0826143206200944 0.03585348112979293 0.20393534246251346 255 0 0
0.001317506727189502 0.008929129809898004 0.19867020845437813 255 0 0
-0.00378022177999378 0.010477407257394737 0.19620201298983403 244 208 63
0.024031755103180667 0.011898382866151158 0.19969930085089618 255 0 0
0.02246151440458389 0.07545674661106726 0.20653420051128257 244 208 63
0.07746880399534294 0.030737915778197913 0.20301653307142165 255 0 0
0.04836302332197532 0.06353646975168009 0.20586039050594496 244 208 63
0.04785923572954408 0.06346978251182521 0.20610684047830652 244 208 63
0.03933727017053422 0.06430937614634634 0.2038297097618795 244 208 63
0.07126752079202038 0.03971158155033845 0.20438028459843124 255 0 0
0.05966052571990872 0.06862064561661994 0.19790982434827487 0 0 255
0.08658329047099741 0.05709829904438004 0.20515495239927642 255 0 0
0.08436792807780555 0.050997010305147535 0.2063653182829278 255 0 0
0.00285382609594575 0.020234227808877438 0.19920919478902843 244 208 63
0.0748127986936397 0.013591456794009103 0.20012576981080657 255 0 0
0.06345849486448005 0.033229147962716185 0.1955105620999093 0 255 0
0.07281555689411334 0.01955060278285342 0.20187921119285296 255 0 0
0.05313192557516273 0.0001917994435621656 0.1860670666562364 0 255 0
0.041592182403411115 0.043279336818788226 0.2042635336210298 244 208 63
0.034633553394085 0.019318932109097145 0.18815613902438053 0 255 0
0.014555983525786756 0.009379759232171957 0.19912574664843513 255 0 0
0.06637409044245832 0.01953908658944169 0.19747112537908684 255 0 0
0.05157188690011139 0.052082387959699175 0.19847165254343296 0 0 255
0.005236594743470461 0.00987369074401638 0.1893428948190548 0 255 0
0.025094085690145686 0.04540212421530529 0.20312521802528632 244 208 63
0.08133993607178867 0.034432480443048086 0.2028562505401478 255 0 0
0.08195224410966731 0.04546634064614886 0.20455848388447073 255 0 0
0.046147670531841795 0.001954028451788513 0.1973184960331887 255 0 0
0.08207993919730867 0.03513979792471207 0.20414827718984366 255 0 0
0.04773539391480345 0.06502484108573882 0.19882919894824075 0 0 255
0.060009777402365225 0.025500184103192262 0.2002722143610929 255 0 0
0.06015059669584786 0.06780983304555747 0.20630494125308932 244 208 63
0.0761146805372594 0.06396821224271948 0.20470571243998215 244 208 63
0.0703581216842363 0.021571872116446313 0.1893519533570444 0 255 0
0.06324259690621636 0.07214811677044392 0.1959232459757082 0 0 255
0.0720020705051691 0.020134083508635915 0.200213878137463 255 0 0
0.05985159630738476 0.032166509950577266 0.19474772933359882 0 255 0
0.020838095298044184 0.07293869053126754 0.19496622057065835 0 0 255
0.0818906724675856 0.03259111563001062 0.1974791973404048 255 0 0
0.014918927921813051 0.03296843819693633 0.20221915391994358 244 208 63
0.024331290215816585 0.010635896854163445 0.1931069258701185 255 0 0
0.04087676517215728 0.05854810824882238 0.20491776640649184 244 208 63
0.017379782195020815 0.06571313191108658 0.20564249949514105 244 208 63
0.0339586391864274 0.07826825992595324 0.19600623298421088 0 0 255
0.08656652023317829 0.041680300325559395 0.2030969433715348 255 0 0
0.07687754614318112 0.016428284591820302 0.20055609136272284 255 0 0
0.07364094648183425 0.005730741904501152 0.19687172274870793 255 0 0
0.056042228193173615 0.05680183681781055 0.20506472133166792 244 208 63
0.05491145573205817 0.057496591425394775 0.2022494749957544 244 208 63
0.08650451648541743 0.04181128057101678 0.20418476900577243 255 0 0
0.0549735628240608 0.05650094190873597 0.2060696877578835 244 208 63
0.06013690103214423 0.06779188555060763 0.20614907657999368 244 208 63
0.08233295074819796 0.04898526547641081 0.19967813930073955 255 0 0
0.08545225489464268 0.053851609981003 0.2057652288514 255 0 0
0.03860719655240339 0.06287542936771678 0.20680390962748452 244 208 63
0.04567999121829223 0.07023636995999034 0.20796347745689753 244 208 63
0.05318444336856141 -0.004034780022376082 0.19776749484013123 255 0 0
0.04037368632989183 0.060545079740370114 0.20660086211314133 244 208 63
0.0824630850266552 0.03565872315688298 0.203798374765279 255 0 0
0.040550439401412015 0.06650112871154609 0.19460103676875382 0 0 255
0.0646634667109023 0.057876250663655 0.20685332650745206 244 208 63
0.0649424937837647 0.019330924015804232 0.20171630203528543 255 0 0
0.06424118333102474 0.03545231692674098 0.1910510776917531 0 255 0
0.015744944966119348 0.06874663457187283 0.20564906888377046 244 208 63
0.0627205312713837 0.060032372907070836 0.19641584669258788 0 0 255
0.057273338749103564 0.024855385659612157 0.2017254495721869 255 0 0
0.04863770073963399 0.03186797762303148 0.20137301565470264 255 0 0
0.050539079908651766 0.05544328182306422 0.20403092378612028 244 208 63
0.07289400484102115 0.041612416170807895 0.19208997957480126 0 255 0
0.05660516127970722 0.06760830058078428 0.2065209892174625 244 208 63
0.08797137649665476 0.05275317243097551 0.20568175998465613 255 0 0
0.07250145456870624 0.04345868219488658 0.19232653444821457 0 255 0
0.0670277480624312 0.03339875494250893 0.19084684527271684 0 255 0
0.06951889203067382 0.03475540474809842 0.1910903158358258 0 255 0
0.06589357948732694 0.01684841962991474 0.19962233359624987 255 0 0
0.05683516800797339 0.06709985625381867 0.20681619731584225 244 208 63
0.07371413567292187 0.061392756683273486 0.20647750042977728 244 208 63
0.06184641323232976 0.05754797680069394 0.20593500367108858 244 208 63
0.027144945687593496 0.076541700525448 0.19878894466358737 0 0 255
0.021576479532107888 0.03666122020811481 0.20075621504493857 244 208 63
0.05933709357335891 0.06712257379993003 0.1951547084538522 0 0 255
0.047235795395577554 0.025907303849577176 0.18935115615540202 0 255 0
0.08263222951955251 0.035390673469728795 0.20105524479729378 255 0 0
0.05832733317772052 0.05827879449165303 0.20509267204953652 244 208 63
0.06297640268788096 0.06439182666972056 0.2076805813706629 244 208 63
0.08139853025271045 0.04803145097474796 0.20408300648304817 255 0 0
0.0700056148271959 0.040135664822919026 0.20031080991235387 255 0 0
0.05526281190815788 0.05706787097838659 0.2064462095984066 244 208 63
0.059776826005563555 -0.005028216610689466 0.19780010251712193 255 0 0
0.08462160116910143 0.051764288966403366 0.2022289257527936 255 0 0
0.07982698858670341 0.033083508809859496 0.20320999537134188 255 0 0
0.051630841951790026 0.05236536897123867 0.19681283840877928 0 0 255
0.06824249961802055 0.03505846327505646 0.19746649146470902 255 0 0
0.06195348355813123 0.022542747295765147 0.1892709250570756 0 255 0
0.016283626714921444 0.06962706284671324 0.2054227607516421 244 208 63
0.052855013583538175 0.051241331103685825 0.19287287642068243 0 0 255
0.015331619950446835 0.00699848150379313 0.19775549192386438 255 0 0
0.08706785493375199 0.05700881841527452 0.2029901233844245 255 0 0
0.0698074032855884 0.024722206454027076 0.20228971565117462 255 0 0
0.06184123341869101 0.03361833937918157 0.2018896911911724 255 0 0
0.02432601670014156 0.012156393148692912 0.19866920703128588 255 0 0
0.06327423381464853 0.06847254533265405 0.2074669880462852 244 208 63
0.08728360185637488 0.06348676544303308 0.19855361084214132 0 0 255
0.05858820779790332 0.055889094640219864 0.20424964939923637 244 208 63
0.08440695617576281 0.0631853922982832 0.1952574530721375 0 0 255
0.05784984972953754 0.06591008080008595 0.20704014094138365 244 208 63
0.0503594701883804 0.05440170280991571 0.20424471932654817 244 208 63
0.0055204851422153665 0.00860303108912994 0.19873200348571063 255 0 0
0.03783869694508333 0.059009696268122705 0.20526054068521696 244 208 63
0.06091631587134041 0.022443992206932797 0.1987833263597711 255 0 0
0.06984036887017323 0.02489778116798452 0.20097409287253323 255 0 0
0.08345856364133193 0.03741734752196192 0.19179484853296794 0 255 0
0.07202847904469668 0.04238924226041841 0.2046137747279142 255 0 0
0.06176975121583161 0.06607303035146478 0.20680280955436045 244 208 63
0.06190654517815945 0.01787568532138426 0.19965952279969856 255 0 0
0.059075215852161515 0.0681041974642568 0.2058920029101177 244 208 63
0.07835798155162095 0.03590109988432119 0.20420012199652376 255 0 0
0.04093227742131865 0.07782718261933999 0.19612210817399126 0 0 255
0.02704003665385317 0.04472307393361706 0.2020114565231896 244 208 63
0.06786700437401248 -0.0022186685287395452 0.19730585598000827 255 0 0
0.04505496656427424 0.050248652716671886 0.20480811877196212 244 208 63
0.06018770942269671 0.057782891831336364 0.19711346557975615 0 0 255
0.059370128152741036 -0.0028731864361474027 0.18581434374068412 0 255 0
0.06826964660574038 0.035404763308672184 0.20394478372579725 255 0 0
0.05258953762339359 0.058145071767024235 0.20471083902575163 244 208 63
0.0711260496420474 0.04161969217084113 0.19416922374366158 0 255 0
0.045437342395422985 0.025307762234653912 0.19814088362101043 255 0 0
0.06748204536548971 0.019544262305901724 0.20174472313462646 255 0 0
0.06471552183349992 0.05964862439247081 0.20655521457572443 244 208 63
0.0557568843685785 0.06011765050608089 0.19625273907205731 0 0 255
0.06188189659774451 0.06351633355076837 0.19792106581118396 0 0 255
0.06482910313510937 -0.003288270414785764 0.19863116257657426 255 0 0
0.03631872537369962 0.07791667761559624 0.19601844975144952 0 0 255
0.07909860824754068 0.06461244896315939 0.20597019960775273 244 208 63
0.06036397848888243 0.06411612838447926 0.20751464558111496 244 208 63
0.05741669426795765 0.05615894638977239 0.20537066384106753 244 208 63
0.061555071043554226 0.05608228351057731 0.20647234456929264 244 208 63
0.07147254305483776 0.040533772760690784 0.20252326806876358 255 0 0
0.027380484021705703 0.047186851353990686 0.20449258633480677 244 208 63
0.07839028872850078 0.030044225881524486 0.20133919431846697 255 0 0
0.08689999662078804 0.06090612605366934 0.2045673136070598 244 208 63
0.04145087936382627 0.06381167643557892 0.2070001094665085 244 208 63
0.059050700967930615 0.06806161081991968 0.2054611930261705 244 208 63
0.0531038008580652 0.054261617280360594 0.205009390020111 244 208 63
0.0028670123646761508 0.02030445788031906 0.19868294428488917 244 208 63
0.08261959512821532 0.03588157316171839 0.20372484223576437 255 0 0
0.06175497316094801 0.034257106253250194 0.19878892050970468 255 0 0
0.06668813796507561 0.02015442107262512 0.19331597510505102 0 255 0
0.07428602531366181 0.06295621702039256 0.19815712667895227 0 0 255
0.06034616191616805 0.05654430798207157 0.20268308647171152 244 208 63
0.0001929801415638116 0.008272302732659435 0.19218666142658855 255 0 0
0.05841861267736132 0.033058091173695764 0.19695337710825506 255 0 0
0.011637994429328138 0.009275677410476343 0.19796684087579347 255 0 0
0.05940950602788049 0.03051918561126272 0.19663937962657974 255 0 0
0.06999476025475103 0.021076820985175382 0.18927678220288738 0 255 0
0.045912085613693254 0.07130822899018391 0.1996220535771788 0 0 255
-0.0022648181294645377 0.0099714942357387 0.18598412576591283 0 255 0
0.06818610714243871 0.02130642914017714 0.19138467764977324 0 255 0
0.05916644419717727 0.06874445361222112 0.20046105163210567 0 0 255
0.07235298479409503 0.024182605726332972 0.19611806465103337 255 0 0
0.059815524275856735 0.02981404441119554 0.20245090046846878 255 0 0
0.04556576570669594 0.02554151090981384 0.1994488365349716 255 0 0
0.07075053341457815 0.039400545479749846 0.20432582152481496 255 0 0
0.07349039171656169 0.0214257815333336 0.2021463700645759 255 0 0
-0.0013586008027933352 0.010349208744894868 0.1969805252427663 255 0 0
0.07019490578224036 0.02458601488536772 0.20089361228637334 255 0 0
0.07018130959300396 0.04085595932372244 0.19616620023231549 0 255 0
0.06972104314396814 0.024138454910916016 0.19604622395063523 255 0 0
0.04282955154380248 0.026379132102628218 0.19995902797375498 255 0 0
0.04316444129369684 0.051835698284761006 0.20544480774882085 244 208 63
0.06785506483056515 0.0336822128313838 0.19090540386558041 0 255 0
0.04302002490869068 0.05137196995653481 0.2049070400310897 244 208 63
0.045702145675924 0.008515473780907026 0.19800433409242627 255 0 0
0.07736257130921284 0.031257833556503294 0.2020113492972403 255 0 0
0.04054805494375839 0.05789284546748848 0.20618759754719237 244 208 63
0.06349809346596968 0.03410876720517185 0.2035885840936171 255 0 0
0.042666553162143864 0.06384695388775906 0.2063843608965525 244 208 63
0.08688622850317937 0.05819010732271306 0.20745204799471803 255 0 0
0.051414008492146585 0.051290919891309364 0.2043052703390617 244 208 63
0.029412061691488536 0.043601630937720355 0.20406503072184595 244 208 63
0.039862122941405426 0.04091891717273729 0.20343291396061136 244 208 63
0.06133993143093955 0.037356782976775714 0.202245149508385 255 0 0
0.07481757388335591 0.010355201068113676 0.19862209972936895 255 0 0
0.06234489337325785 0.021585371551755748 0.19233682554197992 0 255 0
0.020185089480214555 0.05179962035193726 0.2048641989671486 244 208 63
0.0835456113961256 0.03770700661487109 0.20356289716291973 255 0 0
0.07109905803424224 0.06560682297417558 0.2047987145410256 244 208 63
0.014880154805530163 0.009486121634348633 0.1986121177778612 255 0 0
0.05352364112436637 0.05853089409102207 0.20612561417862416 244 208 63
0.06261617628759256 0.05640216574624365 0.19380619448179365 0 0 255
0.07068906772619585 0.034255877349300516 0.2017082851074596 255 0 0
0.06122173450809012 0.037376055775211844 0.20224475987193782 255 0 0
0.03851763082573721 0.06032965038991431 0.1969103523410339 0 0 255
0.06107096203383846 0.03328044153170237 0.20133710854428852 255 0 0
0.04522536961805623 0.009391588182612539 0.1934644116254652 255 0 0
0.02453661094591457 0.03713384042818292 0.2009359169256912 244 208 63
0.06379992454937151 0.0684446287260706 0.20824207776107584 244 208 63
0.0784312785149378 0.029880837516543524 0.20239031608644717 255 0 0
0.0626683088136406 0.059754236080562906 0.19849999159184462 0 0 255
0.037604418021386046 0.06097860016622217 0.20551742784354962 244 208 63
0.04416582033844328 0.005273248824845835 0.1977117989812501 255 0 0
0.08022754345577797 0.03334952267027809 0.20268385258707275 255 0 0
0.07038029197415566 0.02049385720445327 0.20194407149699298 255 0 0
0.04592458199824849 0.02685269813280146 0.19581218135086897 255 0 0
0.04880036956400791 0.06395141010440847 0.2059267244199597 244 208 63
0.02787774973673598 0.011204552103830765 0.19863117617308212 255 0 0
0.0575833312336172 0.0688214143829964 0.20807290862802122 244 208 63
0.05656097448701073 0.05649375411155533 0.20646580294240477 244 208 63
0.07397477335951574 0.0410220970088257 0.19203828014157479 0 255 0
0.060705181514482134 0.03717400312228364 0.20291945280127655 255 0 0
0.06317843178244938 0.031723799404156504 0.20261137393493708 255 0 0
0.07005893076286442 0.041629230217904045 0.20475661265324183 255 0 0
0.06121058234533362 0.03494916006039994 0.19727570566472974 255 0 0
0.07434872277460253 0.01861158825945 0.19117945796652364 0 255 0
0.0422440538012145 0.0560773392324691 0.20497959192871198 244 208 63
0.08727584656372718 0.05137227245760061 0.20655194544378522 255 0 0
0.051503847061583924 0.05333324922763981 0.19524076725419645 0 0 255
0.045665393961152864 0.009351154942538117 0.18710232741973348 0 255 0
0.04490430500235896 0.0640223984806631 0.2057492487768764 244 208 63
0.0828551113978552 0.03623232770751349 0.2038847474210628 255 0 0
0.0418117143384137 0.04365921873778914 0.20113587225830049 244 208 63
0.06746433568940008 0.07058988228166906 0.2053726468853901 244 208 63
0.0279933788538271 0.0440711691236805 0.20409214436276737 244 208 63
0.059135669554875134 0.03431581380800505 0.20032304706686688 255 0 0
0.014106654888429791 0.03501830892108629 0.20146414730272716 244 208 63
0.06266741198430681 0.05991687735154318 0.19852167419767197 0 0 255
0.07072094824821423 0.04218915499626011 0.2016640660430988 255 0 0
0.04428741165805941 0.06649159447970143 0.20424497063791075 244 208 63
0.07476376670985782 0.013926962987324636 0.2001693157548596 255 0 0
0.054295464179399594 0.05907478859716035 0.20514563164637528 244 208 63
0.05391063819770088 0.058870153863626144 0.2051086797943358 244 208 63
0.06195993417162737 0.05866600523853126 0.20662300665823105 244 208 63
0.04873020298193603 0.05136856318044611 0.19278650055432855 0 0 255
0.016266911063674394 0.05706090107723759 0.1959165889833402 0 0 255
0.0437263075797288 0.005944394191233163 0.19886225977283625 255 0 0
0.018303451593237624 0.007361116219549933 0.1989502516678714 255 0 0
0.023227047350722625 0.010955699658436523 0.1867542217613041 0 255 0
0.07110035517261014 0.03764131504550272 0.20431418892463624 255 0 0
0.04229666239832139 0.02561159859406256 0.2019870442102386 255 0 0
0.014674930630830748 0.06609416446094911 0.2052682755916382 244 208 63
0.0869389732220626 0.05847102571221905 0.20534706018728857 255 0 0
0.04989246840587874 0.0017455474390800155 0.19684856085183228 255 0 0
0.05914295516478008 0.06794868697550244 0.20544843453762385 244 208 63
0.05966799680418377 0.05774125438711572 0.20644216612762362 244 208 63
0.045071128426261015 0.012903687924496629 0.1992887469290931 255 0 0
0.08622088696804102 0.04190407977553637 0.19564669334106674 0 255 0
0.05922895104491784 0.03530167521613308 0.19090538240147065 0 255 0
0.011302816086532403 0.03348281045553836 0.20011707405948256 244 208 63
-0.002954504210506069 0.00784161031680594 0.19848171438159767 255 0 0
0.06955168901910945 0.04258208027245115 0.19531949460399242 0 255 0
0.05134303674191887 0.057009787249913936 0.20533202394284103 244 208 63
0.013671641055621865 0.03370776763816076 0.18955113918532202 0 0 255
0.04528159265002827 0.07314295744284358 0.1956059619142565 0 0 255
0.05491112276994278 0.05938990378317432 0.20493513845372652 244 208 63
0.07198430784571766 0.00203509568081172 0.18996930408274623 0 255 0
0.016423619714252727 0.05364133888216409 0.20400751559393163 244 208 63
-0.0036235544507780765 0.011311817502502224 0.18994958004860057 0 0 255
0.08293316137585283 0.03643654703167318 0.2031100304267078 255 0 0
0.07390317679217899 0.061424197464415936 0.20621846007918604 244 208 63
0.0636335189669315 0.03167324230090102 0.20154413050089703 255 0 0
0.0720911704532989 0.040417985039730285 0.2025233167284889 255 0 0
0.06467631306505081 0.019616970683119263 0.19996130588167782 255 0 0
0.07320343221768895 0.06545520811355887 0.20483121032177073 244 208 63
0.02394326350576 0.07699425792052679 0.19558525726014686 0 0 255
0.038262478552160695 0.062074865066256146 0.20350457494005023 244 208 63
0.061739326078616104 0.019853838187502047 0.1920905723147863 0 255 0
0.06557527640504403 0.06837907039978586 0.20827781378521915 244 208 63
-0.0011312047142806507 0.013047394987692256 0.1986861859114869 244 208 63
0.05787437601216637 0.03155861378601711 0.19037191543120338 0 255 0
0.028658307593061986 0.04111266624423445 0.20157018334121793 244 208 63
0.05428458020230149 0.056284931004275805 0.20495169692506615 244 208 63
0.05963392267038127 0.06819124500495032 0.2069789056759534 244 208 63
0.0618382741081726 0.03744728146292038 0.19635127662619803 0 255 0
0.04317457374536536 0.007059212777161036 0.1995331577127765 255 0 0
0.07071747542986517 0.06615103664474134 0.20486178054084533 244 208 63
0.05967750577149213 0.0256559855985271 0.19599708291611248 255 0 0
0.04579632857229544 0.026190189526291912 0.1995411823077561 255 0 0
0.0644789355935503 0.07113853736513917 0.20808265770949463 244 208 63
0.03506613358122106 0.0189322698865214 0.20091448765415304 255 0 0
0.07256235622328079 0.020326836788124008 0.19985388537627138 255 0 0
0.06562268888428924 0.019510699089835024 0.2003281391945772 255 0 0
0.06627031013465613 0.016770672050884977 0.20069329717202167 255 0 0
0.08058803748547085 0.033696609734182204 0.20252482787213802 255 0 0
0.06012192341271169 0.0702397244625708 0.20514193807066028 244 208 63
0.020072901888548746 0.051325182817896386 0.19206264475510323 0 0 255
0.08141949246965023 0.04802167143583902 0.20461817999303789 255 0 0
0.029606726637604164 0.07789847546109403 0.20858326561488408 244 208 63
0.03481667599928134 0.017479336623991884 0.1879152267260308 0 255 0
0.028385568564887574 0.03806286438919876 0.2033001410325206 244 208 63
0.06204532815132732 0.057088735009332786 0.20237379862690785 244 208 63
0.0862961894848509 0.04266825192188537 0.20429391494089244 255 0 0
0.07183968925668617 0.02007454196101974 0.20198836374978008 255 0 0
0.05985437890989539 0.029952793350506015 0.20300633669904708 255 0 0
0.048788740039899164 0.0644534285412073 0.20679735574781946 244 208 63
0.04096255512023096 0.04330386436382888 0.19151560264374567 0 0 255
0.08410690634517781 0.034892457859383996 0.19784185216573752 255 0 0
0.04050494105704271 0.061805045581704805 0.20570039849349958 244 208 63
0.043657229829610365 0.02132354453083844 0.20109158071896968 255 0 0
0.05929163706184201 0.05897145973637542 0.19565770437099986 0 0 255
0.07082619426294406 0.02243259696806336 0.18947854876760423 0 255 0
0.04379765526096879 0.021883862459890494 0.2008125735641113 255 0 0
0.040918318259447556 0.05334718083110934 0.20404606986164683 244 208 63
0.04046770979096791 0.07563535758143049 0.19900181860310615 0 0 255
0.06352718000932428 0.03176751012587219 0.201196747765816 255 0 0
0.0351444094071036 0.04034105537736706 0.20370984715289975 244 208 63
0.007186358914235333 0.026027989891296052 0.20116285363372954 244 208 63
0.07097986679485091 0.0384171622647871 0.19161559855892715 0 255 0
0.04595595469602047 0.06366386228178211 0.206621004061926 244 208 63
0.0809150220126299 0.031094831314644855 0.20362277953328078 255 0 0
0.07635459592133677 0.007549813326737119 0.19718248050647563 255 0 0
0.04107294909910779 0.05694527941422872 0.20607429364389984 244 208 63
0.06113718128021973 0.03315045344101668 0.20314364737601415 255 0 0
0.006257951927453833 0.025103988995199403 0.19887248016529246 244 208 63
0.05999771709295168 0.05802489781785994 0.19714100153020586 0 0 255
0.06376882500010714 0.035329681491816894 0.19420673389617932 0 255 0
0.08308389150275608 0.04647332371229437 0.19299401380188827 0 255 0
0.06365165286666088 0.03507602753385448 0.20164140053979798 255 0 0
0.06428337215796161 0.06875316130458037 0.20622813411174573 244 208 63
0.02424424844294353 0.0763970435651447 0.20724030998418116 244 208 63
0.011272475044225651 0.03171116238554189 0.19240842714723308 0 0 255
0.0678311680732145 0.03875712543241905 0.20330928229324036 255 0 0
0.062105699274758196 0.05586551351432856 0.19531371639743833 0 0 255
0.05398300679971313 0.049839176905643226 0.20336932984843295 244 208 63
0.08659849058920131 0.05710262460172909 0.2062278099967926 255 0 0
0.07411743318379742 0.06125244975010163 0.20754078094726072 244 208 63
0.06781015666848605 0.01733788755949081 0.20116488043038122 255 0 0
0.001953288004899914 0.009439485517254185 0.19774603180191738 255 0 0
0.06893234392772926 0.03606209135818298 0.20398542852437596 255 0 0
0.07556982106182256 0.012303323336163081 0.19461333491259053 255 0 0
0.04751966272496279 0.030907501450844886 0.20282467480327102 255 0 0
0.07236677645741403 0.06392109471088914 0.20301358937200087 244 208 63
0.04431632628704264 0.02181252592988367 0.20146696742780815 255 0 0
0.04138628376539876 0.05861409994630375 0.19356942744776565 0 0 255
0.053322968819705815 0.05104199329380049 0.1949805724638986 0 0 255
0.02833964695757875 0.0439512003592752 0.2040848105348741 244 208 63
0.018008974982182388 0.0718622828812125 0.20647889207557557 244 208 63
0.06618940396337794 0.06843074686926202 0.20687090025745689 244 208 63
0.02676605326920869 0.07729689861660352 0.2052479453374017 244 208 63
0.0729463144402818 0.06533691999231794 0.20799284055283623 244 208 63
0.071804862292743 0.039781887856107444 0.20354560955008713 255 0 0
0.07446850462825615 0.063347613794819 0.2077655018490228 244 208 63
0.0008634943230817964 0.02218777956837559 0.18769282030066678 0 0 255
0.05967501006646212 0.027390966189893076 0.20105210402683377 255 0 0
0.06172764488746821 -0.00180461302850516 0.19238373508436385 255 0 0
0.044466774654088735 0.0547660668896174 0.19313308115641803 0 0 255
0.018736151635937986 0.05641242508411033 0.19270806102942345 0 0 255
-0.0015154385905515552 0.01845290570740961 0.19779009056888897 244 208 63
0.06215584156270094 0.055715918204445075 0.1968869358467643 0 0 255
0.06312882957510946 0.02018810350301595 0.20142795216367312 255 0 0
0.0487046650876959 0.06361207657333842 0.20641498713077702 244 208 63
0.04833394122036291 0.06577340895991218 0.19469895123362602 0 0 255
0.051531427265030516 -0.0017537217022655684 0.19213503990384406 255 0 0
0.08209839979574783 0.0352381190778559 0.20341153357920244 255 0 0
0.06968142558846005 0.019408000453100354 0.20178164839902157 255 0 0
0.07305862655603441 0.004844746136939547 0.19673889214326118 255 0 0
0.08521037890544671 0.04406786759558063 0.20227784910634478 255 0 0
0.05952193266216102 0.06448278552986354 0.20599830850907666 244 208 63
0.07270886508476118 0.03988633595911419 0.20459041643768355 255 0 0
0.06011761323968173 0.05359578043627366 0.20402437739840257 244 208 63
0.08606777810833717 0.0633610802899015 0.207585679397849 244 208 63
0.07651696335949125 0.04002117001392738 0.20423156731223246 255 0 0
-0.0014084669781619554 0.01370866149006276 0.1960558909953585 244 208 63
0.07695659431717818 0.010081598861478136 0.18798387204867667 0 255 0
-0.00240770752320298 0.007855218124981073 0.19635343246023354 255 0 0
0.07737145613435951 0.034944998642143135 0.19768009362507338 255 0 0
0.038090042458084096 0.06093052846149677 0.20653139708578538 244 208 63
0.06019845293172332 0.06783815116606781 0.20638648277982924 244 208 63
0.0514403651653676 0.05359624305251656 0.19484976155863254 0 0 255
0.02206226601872459 0.050489944864456904 0.2048001376629123 244 208 63
0.08579660310103727 0.04390011203119554 0.2040884944853218 255 0 0
0.06042556807946063 0.03184049494993098 0.20112877071170315 255 0 0
0.07636124925202108 0.06145098445560907 0.20762349947744022 244 208 63
0.0514942983685308 0.00031566473854395885 0.19669787481307294 255 0 0
0.03763722702535928 0.061304380233682315 0.2044898270251013 244 208 63
0.06590625260168292 0.018860268424322306 0.18887852927263077 0 255 0
0.017915396742729125 0.05706584298879787 0.20450190778699923 244 208 63
0.0729050942115546 0.042334516765445515 0.20391383582804753 255 0 0
0.039312446679044696 0.04432457639808504 0.20333768503071598 244 208 63
0.06872160213444044 0.03838323149463904 0.20110605385640876 255 0 0
0.08309902568864941 0.036299978770463245 0.19800443654006597 255 0 0
0.06379611074945808 0.01990067216600108 0.20033441393793708 255 0 0
0.04278595797336903 0.04190720405366175 0.20310211360967276 244 208 63
0.05740790351068851 0.056112126813767926 0.20572149397650905 244 208 63
0.07763955458415146 0.030579490702849134 0.20192776231569656 255 0 0
0.014090596847219312 0.06273070493351424 0.2051620664321494 244 208 63
0.07777299356003575 0.012953786029383775 0.19904294448638668 255 0 0
0.03945502786015974 0.05520185124899119 0.20479287015190067 244 208 63
0.08010108360797397 0.03332087222531685 0.20203371995181588 255 0 0
0.08358571983751806 0.03776863255867267 0.20437605288687793 255 0 0
0.07152402846434272 0.06657587427985226 0.1953871176414126 0 0 255
0.04553478003123204 0.0029905040362508475 0.19690551422398841 255 0 0
0.06435552682357953 0.019271493170037013 0.1995074071987712 255 0 0
0.0256122633337782 0.010129790754116892 0.1973590795040252 255 0 0
0.04034370514594541 0.060652981931418055 0.19381539985940002 0 0 255
0.04474276348405934 0.01231290943787829 0.19384218005461393 255 0 0
0.061263421941209095 0.03544377239989537 0.19309789641656566 0 255 0
0.07386468267595235 0.06335845815351474 0.19501639140469385 0 0 255
0.07012145381215314 0.04073779290695775 0.19614893068058817 0 255 0
0.013729830600446427 0.03263650010260108 0.19896120150045163 244 208 63
0.05170829703150883 0.05277546148241002 0.1934733940734823 0 0 255
0.060884394467235585 0.05665210383465124 0.2044514682841554 244 208 63
0.07185306357090544 0.042591687163719076 0.20320719453571082 255 0 0
0.07032044309746766 0.019556209665878822 0.20009462217158783 255 0 0
-0.0020279470195812108 0.008036596420942685 0.198467269483374 255 0 0
0.05617154978547108 0.05709252263708813 0.2064722697152134 244 208 63
0.060325156926146845 0.05339299123511171 0.2050744143236102 244 208 63
0.08966687729775621 0.059963294488096605 0.20775836113320723 255 0 0
0.049330965346714106 0.001771731385348932 0.19573424253544724 255 0 0
0.05777958055806818 0.05594431298129833 0.20463651218995632 244 208 63
0.06565623117156637 0.031098226183072446 0.2025899751461184 255 0 0
0.07533764676783701 0.01331783940999283 0.20111062197738203 255 0 0
0.06156125334958666 0.06818258743564833 0.2070791133957719 244 208 63
0.07419472319863067 0.007814028632301073 0.19826736411058674 255 0 0
0.06258118102790734 0.054388131594299276 0.20606767523078506 244 208 63
0.060125488878155914 0.05733198247576844 0.20586305719774264 244 208 63
0.04086138961004937 0.05956166599956351 0.19368273135105818 0 0 255
0.02189915878660941 0.04708594130972649 0.2043417738480874 244 208 63
0.0613719775132243 0.054124994740168506 0.20620654938321448 244 208 63
-0.0010007284894647864 0.015115230768364121 0.1898861089496213 0 0 255
0.05248744739889848 0.05011551712000409 0.20120370497417617 244 208 63
0.07091036276647983 0.0413031646209405 0.19624414932825793 0 255 0
0.042452307104375774 0.04164501539987493 0.20359471674109317 244 208 63
0.07114931362499327 0.03977759609656019 0.2037429920792121 255 0 0
0.06362455260186131 -0.00408650750425326 0.1964143366922587 255 0 0
0.07133253426689522 0.04081886735240343 0.20043523445590342 255 0 0
0.018277842298506302 0.05559488888245397 0.2021390428050762 244 208 63
0.05338256253680322 0.055110753931537144 0.20584429631908976 244 208 63
0.05780266219050342 0.031175247931012406 0.19350281515603973 0 255 0
0.05079122698245461 0.05250978999502484 0.19511301744669396 0 0 255
0.05262241412807786 0.05794809818375008 0.20656120194419625 244 208 63
0.042018766184263354 0.0733941184719297 0.2051092924402702 244 208 63
0.05086628936742381 0.0003123587606906793 0.19557795451687537 255 0 0
0.03866648946995225 0.0642169104470521 0.20490430517654007 244 208 63
0.028768766005498023 0.04662495690030294 0.2044523856544333 244 208 63
0.08714554250135784 0.05710917170745069 0.20725060751020724 255 0 0
0.08350296040171112 0.050299939349019 0.20200547309081784 255 0 0
0.05801132151958998 0.06969862394092453 0.20772843682341494 244 208 63
0.06843640972900833 0.03607268593195267 0.2024302461139601 255 0 0
0.07395832009348025 0.016778413176601288 0.1994577707461638 255 0 0
0.0712238855265197 0.00037240871723003693 0.19927992789530838 255 0 0
0.057861359289447176 0.0585710825256812 0.20512000304967062 244 208 63
0.08908998226560226 0.05796123581212261 0.20422918165008547 255 0 0
0.04842714729183131 0.03160353845472892 0.20294030236732577 255 0 0
0.04202180615697832 0.043615407472903336 0.19158372089417774 0 0 255
0.04272518175306683 0.04339309849959571 0.20383484230569154 244 208 63
0.044087939618787694 0.008859182211223754 0.18699714554057037 0 255 0
0.04771582809555808 0.06358103545602083 0.2053141678058421 244 208 63
0.04957279862427525 0.029475495471763095 0.20134514117863692 255 0 0
0.07052807106617102 0.04215061321795523 0.20165408957341957 255 0 0
0.06826945425082585 0.021193464561830355 0.20151228256249815 255 0 0
0.03417714715898708 0.0782532368609827 0.1960097032591187 0 0 255
0.08457596592915019 0.04281058386028291 0.1925425945913448 0 255 0
0.015806077444842966 0.06878597535265396 0.20637044809144184 244 208 63
0.06861063969585422 0.021916373613178778 0.20215325262414532 255 0 0
0.05991276719494874 0.06800243487357661 0.20038072712298835 0 0 255
0.06710834971705941 0.019845708030814164 0.20130332566269363 255 0 0
0.04902570172428938 0.0026277403681748274 0.19748052025561952 255 0 0
0.0030492087263487688 0.007898590040026294 0.19220835666199895 255 0 0
0.0337591149089719 0.0770144411980328 0.20538547562910778 244 208 63
0.059113302377328314 0.03481263669230729 0.19402107884250427 0 255 0
0.042153033154643395 0.04488017753671043 0.19175579728304962 0 0 255
0.049343954042961574 0.03173175445440195 0.20137253277247555 255 0 0
0.06014685687830957 0.06782095220184083 0.20615320509566928 244 208 63
0.07582849442543792 0.041828717772085355 0.19219237538199477 0 255 0
0.08756565184862394 0.052014469971831595 0.20503705779097606 255 0 0
0.07569368110441314 0.014559123933308077 0.18854976944987095 0 255 0
0.048764657448904264 0.06375814287430911 0.20616801040158603 244 208 63
0.06432884112594917 0.019615568970504815 0.20066701308647397 255 0 0
0.06228502799954459 0.0654979884488077 0.20673897939077726 244 208 63
0.06222957541240763 0.036519444447562485 0.2039421958596072 255 0 0
0.06043968505336002 0.06790913614871406 0.20670826063905784 244 208 63
0.0630123939746441 0.06910954124996227 0.20612482369355126 244 208 63
0.06909057493372822 0.03691113704838534 0.19773498785447793 255 0 0
0.06153179796516134 0.03560196584600009 0.19241820629208733 0 255 0
0.05142680087552013 0.0517715023231429 0.20352069800490083 244 208 63
0.07203726989156489 0.042436062313627496 0.2042629410166657 255 0 0
0.07286987838408036 0.06195261596504017 0.20581646026651412 244 208 63
0.06051183476256092 0.06726188662061029 0.2069299471737954 244 208 63
0.028823471946058873 0.07768227292329775 0.20853478656104626 244 208 63
0.06053129500893989 0.03716035088418935 0.20184137431602583 255 0 0
0.05963484359825507 0.05372194016868995 0.20510101657851726 244 208 63
-0.0009848166364592606 0.01933517844615789 0.1979211289253595 244 208 63
0.08537489083214292 0.04461685245861105 0.20488817652530666 255 0 0
-0.0014353302481183397 0.012331897323801378 0.19751117278354294 244 208 63
0.06360416738247157 0.06187509211820355 0.20729676049655202 244 208 63
0.0441752606795376 0.023493416478133584 0.19996493662235548 255 0 0
0.07973720794551362 0.030704065423592438 0.20035725905197765 255 0 0
0.07390517465120988 0.006919455733963305 0.20028452386169765 255 0 0
0.06406134126653952 0.018145467625095113 0.1951046224296407 255 0 0
0.038860769690914274 0.04374834018795512 0.2042576827916369 244 208 63
0.059799609183376436 0.05765762412168713 0.2061663301282846 244 208 63
0.07007402252481162 0.02054798301841865 0.19557590684005696 255 0 0
0.07433236577751255 0.06129572600229057 0.20728396884710906 244 208 63
0.06382908705796367 0.019581918805829508 0.19847435746656386 255 0 0
0.08271443388274272 0.04958405204780765 0.20619900542933595 255 0 0
0.08316805485766114 0.042627955271067455 0.20528205503838565 255 0 0
0.026662636738768355 0.04456966520118159 0.2041253260734905 244 208 63
0.021035806231362288 0.047895531005560175 0.20335628397682384 244 208 63
0.01869650507173418 0.07309104757297352 0.19493289131363548 0 0 255
0.06507014683606054 0.019366419173142642 0.201366938981086 255 0 0
0.06087891989929256 0.03441366259275219 0.19719593107977296 255 0 0
0.07076732815599743 0.020173409973368212 0.20059653180077422 255 0 0
0.07996444228009793 0.03311852757463992 0.2029680013297171 255 0 0
0.06323580137129799 0.07049367605227426 0.19570228448176574 0 0 255
0.04285312076548294 0.04388352232063128 0.19482419032278367 0 0 255
0.04555120241128781 0.06724985625160482 0.20756168911986636 244 208 63
0.06213711686868684 0.03713634804254247 0.1963172695226652 0 255 0
