ply
format ascii 1.0
element vertex 676
property float x
property float y
property float z
property uchar red
property uchar green
property uchar blue
end_header
0.03934609061238644 0.04080323538625098 0.17428241853374338 255 0 0
0.038531523693977776 0.04339037413088063 0.1754133478900439 255 0 0
0.04056882402131758 0.013376945304784223 0.18502032392536283 0 255 0
0.005706978439776747 0.0449463538354105 0.17256429048883246 255 0 0
0.02416035700544161 0.02470032687536166 0.1714834494637934 255 0 0
0.01295514241441128 0.019075928752507708 0.17257206005269854 255 0 0
0.037567317588633145 -0.017118981243799347 0.1724120576233325 244 208 63
0.06330815829437535 -0.0009658111821393848 0.17643315880536328 244 208 63
0.011587467365683068 0.01744462718459085 0.17020114413540224 255 0 0
0.02935385858352254 0.03236540584961999 0.18287731055305137 0 255 0
0.039130004228352014 -0.003863587082333298 0.1820450536164787 0 0 255
0.04117145631100473 -0.015666714229202884 0.17174464739463238 244 208 63
0.02331823620334836 0.02314584741499635 0.18418721134118932 0 255 0
0.011776794880064927 0.019197016284934972 0.1831842392692066 0 255 0
0.012463930363693723 -0.036836037034109904 0.17011757606949066 244 208 63
-0.039643251742960524 0.017546844923002 0.16784560582820596 244 208 63
0.062486210790294476 0.006899461803146706 0.1735002502057997 255 0 0
0.016452563807638744 -0.034384325671920686 0.1684147053489891 244 208 63
0.01795806465256099 0.05344634054474627 0.17867168162888936 255 0 0
0.007059403206801987 0.04754527355188699 0.1733125614204421 255 0 0
0.053678488880954715 0.019726343160234562 0.17442379664056715 255 0 0
0.03673341803049092 -0.005115442921880609 0.1788245867893323 0 0 255
-0.03837184404802867 0.01854819810369921 0.17824476912176604 0 255 0
0.010405675519297277 0.020990894160105526 0.171346262062004 255 0 0
0.041981466637402286 0.014548305661605122 0.17249338629960975 255 0 0
0.05251890333698377 -0.011920347430503967 0.17191503291072993 244 208 63
0.04500816701555769 -0.015603041391292285 0.17214068527210996 244 208 63
0.010065149954548266 0.04679387446283858 0.17187823900495328 255 0 0
0.02694913064702688 -0.026902018092211315 0.18018453551546842 0 0 255
0.01344988519685689 0.05038404446955273 0.18463070247316823 0 255 0
0.03183329619802255 0.015588239777720227 0.1780668054233117 255 0 0
0.03522942637584873 0.02122450606698215 0.17387241857667737 255 0 0
-0.00213702950923898 -0.008738858946631553 0.17025511484790468 244 208 63
0.04848064574414729 0.024296189691594236 0.17322612137073493 255 0 0
0.030121757152883708 0.017449162077548597 0.17337836938398088 255 0 0
0.01834958980758535 -0.036266837443299435 0.16948773649688273 244 208 63
0.009021352734089733 -0.03626611092779038 0.16773284075555445 244 208 63
0.008719245011068319 0.023817590485062167 0.1724242830532488 255 0 0
0.03472128424902308 -0.006408848148799768 0.17092556397526046 244 208 63
0.052709356524037285 -0.00802127955008743 0.17429713981042566 244 208 63
0.03626018820359425 0.040767526471102114 0.18266490746638048 0 255 0
0.05102600136863004 -0.006487975970536648 0.18172510111076048 0 0 255
0.013700676104306794 0.00032468352598336893 0.17289834208905594 244 208 63
0.01668194137954512 -0.015337755985541001 0.1788638204329181 0 0 255
0.04289933834167565 -0.00997606583697499 0.17346142455334465 244 208 63
0.026418302671224823 0.029279780628831045 0.1718414563713913 255 0 0
0.0375182307995029 0.03276160809889425 0.1792080138066449 255 0 0
-0.034687640814797346 0.012524977296163529 0.17953846310549135 0 0 255
0.01357640148451714 -0.03467644020604316 0.16819416820483457 244 208 63
0.045111637589753034 0.026194560140457027 0.17407877671950867 255 0 0
0.027929252270654875 -0.0018456698441935296 0.1834587728730004 0 0 255
0.017810540852070695 0.014692882666762205 0.17053450914100152 255 0 0
0.01257365085171439 0.002879183051008945 0.17019345677898942 244 208 63
0.030632934310324555 0.018168635689857902 0.1722580223406166 255 0 0
0.038080457893074765 0.03350942878562853 0.17286509770622407 255 0 0
0.028968214559451207 -0.0008999640606911436 0.17283906976385424 244 208 63
0.03679224458494339 0.03608304769235304 0.17501971707349492 255 0 0
0.016242778810093585 0.001975819209508376 0.1715004989489514 244 208 63
0.035457847180696854 0.03275652809732203 0.1747390121679786 255 0 0
-0.025717637330165178 0.007314218292027278 0.16923102083337932 244 208 63
0.024458489796246704 -0.028283617973279544 0.171348981091131 244 208 63
0.040288205998723264 -0.009038965164073723 0.17115245798064094 244 208 63
0.03565383585630697 0.044034164795542896 0.17634448013817494 255 0 0
0.04726914316616842 0.020427005947949856 0.17725094466913885 255 0 0
0.026968273109612445 -0.0047065317049633255 0.17471381477528944 244 208 63
0.02679098803567412 -0.0009288974736712911 0.1716003698500311 244 208 63
0.03812380202418664 -0.01538098318258341 0.17216621058223575 244 208 63
0.017239401146618143 0.015171028220893345 0.18340842269041305 0 255 0
0.051363341203662975 -0.01425540033845393 0.17281210264685473 244 208 63
0.0453334624359897 -0.015539772376473061 0.17340111269909317 244 208 63
0.05604217868348766 0.019900069921341725 0.17358645582318044 255 0 0
-0.04026624399643132 0.017232404090806095 0.1685997713512557 244 208 63
-0.024500792276856444 0.0035378475652881134 0.16807866047549339 244 208 63
0.015468492316328837 0.003056876500875691 0.16987052483035625 244 208 63
-0.005684666534536982 -0.021131462691645255 0.1769991214139086 0 0 255
-0.03963472174992696 0.017931622591333463 0.16657949779034065 244 208 63
0.03699944296800657 -0.004715558222417989 0.17629468309196733 244 208 63
0.04697081234003288 0.018100572744398333 0.17713048757135194 255 0 0
0.039884388202840244 -0.0028642062048807003 0.1721955985719051 244 208 63
0.008319741189967342 0.03046624991181725 0.17051808437957713 255 0 0
0.03133701186989737 0.014568704771878448 0.18183679078046847 0 255 0
-0.036265820057454344 0.012222886666377747 0.16651650413873983 244 208 63
0.04017682066477748 -0.016662542644253105 0.17195379948787873 244 208 63
0.01619825764656252 0.014861148019355187 0.1833199148336478 0 255 0
0.028140262365582588 -0.005393560684688475 0.18332326243700248 0 0 255
0.05223761312310995 -0.005696316073525416 0.17222334924948618 244 208 63
0.04308277837916908 0.01513640371946561 0.17346201282971777 255 0 0
0.03812145864581277 -0.01648551903206916 0.17395105566306568 244 208 63
0.027751302035082644 -0.0017085383243973361 0.18345172402639995 0 0 255
0.03770001128614439 -0.017311078180599262 0.17097359527931533 244 208 63
0.004465924367376435 0.040144405533001505 0.17227041150742095 255 0 0
0.010842760617712076 -0.001177653190408778 0.16942000059291706 244 208 63
0.0004707059286768534 -0.03286472592594773 0.16725865820935845 244 208 63
0.04082564389814083 0.013680212988948908 0.1786364152216724 255 0 0
0.02700409487412863 0.020589891449638922 0.17151453936251043 255 0 0
0.016941103558855287 -0.015559151381901731 0.16918593497167 244 208 63
0.018898462032313476 -0.014104396729065816 0.17159201818532813 244 208 63
0.004043399998493353 0.0359820215817059 0.1715229774134791 255 0 0
-0.03908873412386367 0.020811660522220003 0.1688370898448391 255 0 0
0.05276996293908243 -0.005075419330799585 0.17276405587358998 244 208 63
0.03272440151510855 -0.009693656221307793 0.17219719706809616 244 208 63
0.009777281726999038 0.02072845351893409 0.17027387388497178 255 0 0
0.03843136696685153 0.014426118682390604 0.17255527938787038 255 0 0
-0.02940886041105955 0.009970755830404038 0.1685368595745708 244 208 63
0.03313340179135367 0.016843627685818482 0.17281461742024132 255 0 0
0.03832188620974457 0.04044515573830133 0.17959270519052797 255 0 0
0.046022396638856926 0.016461167932902677 0.18554602565918782 0 255 0
0.026151127343602667 -0.003584672049689503 0.18111773898030287 0 0 255
0.01783077113677365 0.016493441262309998 0.17067665373241195 255 0 0
0.04475034131836184 -0.015679072879321045 0.17273589926959063 244 208 63
0.019805935878169253 -0.0053510941314364145 0.16982706315462 244 208 63
0.020996797254793878 -0.017603277858579885 0.1697525114504852 244 208 63
0.06118307818461207 0.007118620473911188 0.18303833759124769 0 255 0
0.03196752886521011 0.05000447519660132 0.18274683996062163 0 255 0
0.029626015713947802 0.014309484964280791 0.17317307187730968 255 0 0
-0.04049854200418885 0.017152641716391477 0.17931464685366938 0 0 255
0.033540001348385404 -0.007297212918131872 0.18149463056633863 0 0 255
0.035688821742913476 -0.0033134013012275174 0.18075019735131342 0 0 255
-0.0374576453308634 0.01848425750128497 0.16858622777384083 255 0 0
0.032333595058652694 0.01606373958265528 0.17170783493752534 255 0 0
0.024028349348675107 0.023406824292025234 0.17462661784533123 255 0 0
-0.035373660401685554 0.01315800472322999 0.17951572445599145 0 0 255
0.056734406252724086 0.011752984483508314 0.1753859957845304 255 0 0
0.019596527712629142 -0.005579535404373134 0.1703421597787163 244 208 63
0.01582970750157125 0.01942757692926561 0.17167231356844384 255 0 0
0.03255653300798424 -0.007544859323273387 0.17072064125452768 244 208 63
0.013909319466177836 -0.03679589944291191 0.16806402513056534 244 208 63
0.05724854057351553 0.015072693155343726 0.17376440757785983 255 0 0
-0.0002329979664372388 -0.03242312274063463 0.16794645490844612 244 208 63
0.029455711729929654 -0.0021418410672509255 0.17282156799516485 244 208 63
0.05302008009814584 -0.005537860017180789 0.1738905479273717 244 208 63
0.03971470614051121 -0.012271406278678062 0.1709735854885339 244 208 63
0.03955660478124504 -0.012195340836669944 0.18386029928986758 0 0 255
0.03867423130320084 0.035103381894491074 0.1750714911584477 255 0 0
0.006875494054810421 0.037670725414254015 0.1721596516438802 255 0 0
0.027170423096436618 -0.006670761708259523 0.17174377990405446 244 208 63
0.01716935535014907 -0.010496848756262495 0.16995754894704673 244 208 63
0.04721082680627275 0.01797528649004739 0.17286560789786554 255 0 0
0.0489702889848551 0.02588621871934083 0.17332912613917323 255 0 0
0.035972263639410175 0.02124234997031999 0.1728470060892517 255 0 0
0.030090782826675842 0.05229903447751314 0.17518116821941487 255 0 0
0.0355350414451496 -0.0033737354476555534 0.18394419724257158 0 0 255
0.04102299255536146 -0.01597330056513874 0.1719908539822623 244 208 63
0.039225623220374886 -0.0056975577385319975 0.17175753037066097 244 208 63
-0.005359789635338388 -0.023469130584657782 0.1672360531307554 244 208 63
0.04344408684089059 0.01211990024818436 0.1740799114284586 255 0 0
0.028104943440184705 -0.026764983988991745 0.17095743232643032 244 208 63
0.0631297822027377 0.0033477244817964624 0.17339587698850548 255 0 0
0.03302298521757958 0.03427351771538684 0.1746272919642897 255 0 0
0.005757021881068971 0.022962626550627044 0.1721735982864251 255 0 0
0.03757121871561046 -0.016980880250171665 0.17241820897386695 244 208 63
0.053008614582680885 0.022420931774891482 0.18630483722670094 0 255 0
0.052021868957925 -0.005863643859753304 0.17701215934357542 244 208 63
0.015212536768166023 0.001230126320626447 0.1698385297394228 244 208 63
0.037564263713214946 -0.005608649607060529 0.17245103521546282 244 208 63
0.041209898602340235 -0.01611275985546678 0.17253841733000133 244 208 63
0.029005896759608695 0.05053042532049096 0.1729318146416789 255 0 0
0.03487558329604779 -0.005049152545205341 0.1716503042542139 244 208 63
0.026954205585482248 0.031155939681548898 0.18158303843859352 0 255 0
-0.007094209705078321 0.027118824048606226 0.17034037480278255 255 0 0
0.032687259295899496 0.017719381008880545 0.18142685835369593 0 255 0
0.06357226434206396 0.0011979675363806737 0.18189037342925193 0 255 0
-0.012547657763721028 0.027159181027182018 0.17534708863598403 255 0 0
0.01281246634888888 0.019280625286601176 0.17043197344318234 255 0 0
0.008739937188778517 0.021678145102126956 0.17179489949860524 255 0 0
0.06398589122098813 -0.00036592162137316544 0.17330000241198418 244 208 63
0.02971895305974616 0.017798090174862072 0.17233812759587164 255 0 0
0.020735433505822763 -0.007450919153746367 0.17414616671388325 244 208 63
0.01141240584076943 -0.001458966187111159 0.1715449524424815 244 208 63
-0.03714216672326823 0.017247652144561313 0.1672065926977358 244 208 63
0.051112533841190154 -0.006309698149211918 0.17241168264129603 244 208 63
0.03445199497923534 0.045972231375747366 0.17633987797302597 255 0 0
0.015591711027793111 0.019629014706765775 0.172203617980977 255 0 0
0.032355354136425776 -0.009121439654555908 0.17063908168210018 244 208 63
0.042046261183566594 -0.007402023800067782 0.17462109264568423 244 208 63
0.01243718050930354 0.01912975218293081 0.1746753283994979 255 0 0
0.03980249589898996 0.018091418833110016 0.17661139004114224 255 0 0
0.026727412037561755 -0.0037668392240520765 0.1777301630524504 0 0 255
0.011242203533793696 -0.03403826290449633 0.17014807105677204 244 208 63
0.06594249055307705 0.0031409430685101604 0.1735264602940148 255 0 0
0.04971577605365023 -0.01140080641484889 0.17227423270671177 244 208 63
0.05901600107461978 -0.0037128687936833467 0.17279813520622714 244 208 63
0.02426869102464095 0.05305373331971072 0.17911164144094519 255 0 0
0.038909201088055845 0.0187144320653683 0.18085014306063532 0 255 0
0.00782437588073461 0.04849699951847103 0.17124851565560575 255 0 0
0.04788755008778772 0.023309242626783203 0.17433700894964974 255 0 0
0.037442349542779606 -0.006228218779254398 0.1718759246672638 244 208 63
0.02566447449940001 -0.020393695297133974 0.16961170921216046 244 208 63
0.04842072692359773 0.02336933337711851 0.18601315730779883 0 255 0
0.026306107311828072 0.025342902172187712 0.17214182510366238 255 0 0
0.035133852914543615 -0.00806745276812101 0.18371569163582857 0 0 255
0.024111174813860145 -0.03304085167677091 0.16950178562422405 244 208 63
0.03393295197019925 -0.006474130893247407 0.17296143176628936 244 208 63
0.031144283819667423 0.04821104526719137 0.185818742873703 0 255 0
0.024522402865245468 -0.004371799723473135 0.17882796999125333 0 0 255
0.026852772982845524 0.029097021005281158 0.17324086496103938 255 0 0
0.01809614535502604 -0.009549295822327535 0.16958908401214642 244 208 63
-0.0024734709432528345 -0.030133243084520416 0.16752167050772776 244 208 63
0.04137421990276257 0.011753534741236022 0.1739145633034413 255 0 0
0.028133582184809172 -0.016037031245779723 0.17213537479940602 244 208 63
0.030278757894995508 -0.00927648026078125 0.17230793547659498 244 208 63
0.032348636380960465 0.0322009899998406 0.1745331910018031 255 0 0
0.05439392325673751 0.01658372323943144 0.17488197569396566 255 0 0
0.04331410670974353 0.014692873527227819 0.1745826008849391 255 0 0
0.01626260242527597 0.017284963334647588 0.1791506563302778 0 255 0
0.04471708515166762 -0.015698604475483942 0.1731954844209252 244 208 63
0.028907023395473602 -0.016028168897403314 0.17030185072805298 244 208 63
0.0029608053213559565 -0.004395185344914518 0.16871291256591858 244 208 63
0.03522526064281468 0.03301636876752161 0.17319047588916608 255 0 0
-0.0015355835005123573 -0.027487180293308093 0.16740617718866396 244 208 63
0.005119826198148221 0.04285375334768918 0.1713529405592731 255 0 0
0.060440447091112265 0.006335991112127668 0.1754667312292121 255 0 0
0.029019746742008752 -0.016615120139109582 0.17190495197130928 244 208 63
0.023920621448247484 0.022261667589254103 0.17237822649064577 255 0 0
0.025175226143505258 -0.02739704084138643 0.17789667508309126 0 0 255
0.026718760715425924 -0.004053997175308109 0.17814502309481892 0 0 255
0.017958999825991324 -0.017810011305674764 0.1724357857774655 244 208 63
0.042345504887388384 -0.01603132161158989 0.1718526741598852 244 208 63
0.04285935546139185 0.014303299897374024 0.1723946766351264 255 0 0
0.02984809834613094 -0.005859153435876065 0.17269198206510292 244 208 63
0.026271137920162797 0.02583034165037481 0.17269997550228583 255 0 0
0.01677556496783481 0.018358819789185007 0.17196531565535522 255 0 0
-0.022992504614960944 0.027184466052128306 0.170272667025293 255 0 0
0.03179153649612606 -0.009555483407649017 0.17213556587984918 244 208 63
0.03735534191552371 -0.002170029477063775 0.17231207392406414 244 208 63
0.05580429229012676 0.016359783527898346 0.18624954741607977 0 255 0
0.030962864134624037 0.01748382767787855 0.17166899845889033 255 0 0
0.046288001518582506 -0.01561504917855255 0.1799251372248667 0 0 255
-0.005576126624044449 -0.02112036823588779 0.16732021716131196 244 208 63
0.013161192634229496 0.01724418186219159 0.17037066229982537 255 0 0
0.036087110568211817 -0.0031354970156881193 0.1839942703999835 0 0 255
0.01824496993454942 0.01492875796962212 0.17183587760226396 255 0 0
-0.04019149892372453 0.018965320759629256 0.16651897912971023 255 0 0
0.03877620959818901 -0.002530326972436791 0.17320952207223503 244 208 63
0.03575908092643327 0.033364616064533274 0.17406670235762187 255 0 0
0.04917746530747679 0.023986727796359256 0.17326339251132464 255 0 0
0.03786214038868666 -0.005038459645527382 0.17168687757768725 244 208 63
0.04548885101555621 0.025262646936147715 0.1730507041028674 255 0 0
0.023889347098167885 -0.018661753611750438 0.17282871564074892 244 208 63
0.027609869684439167 0.034379429852039844 0.1728001964213212 255 0 0
0.03847799815986222 0.012304701443375324 0.1848234605428023 0 255 0
0.04099594652618834 -0.016044902015950456 0.17229440302318785 244 208 63
0.061997055409169055 -0.0014083611077090456 0.1741275493112765 244 208 63
0.025877462223947063 0.027938144263393916 0.1749529954868772 255 0 0
0.03863753146388974 0.014391911444031184 0.1763698688878818 255 0 0
0.03544778567421224 0.028496962667952902 0.18048079782100077 255 0 0
0.016547098187696927 -0.03386578371165412 0.16945934665468235 244 208 63
0.0342936704334971 0.021177509345426004 0.17272278533015575 255 0 0
0.024528313397484423 -0.02903305427069322 0.1724341892165033 244 208 63
0.02555563813685099 0.032617309335679134 0.17221668549344418 255 0 0
0.026431031301624053 -0.0036554797577487644 0.18113498397854594 0 0 255
0.022898825612778527 -0.018261308268505375 0.17130207989025512 244 208 63
0.03728659241620567 -0.0047905594556416275 0.17117996748877717 244 208 63
0.039880346733898314 0.01863278421850257 0.1723631075745746 255 0 0
0.05518869695622225 0.019187400569792033 0.18632517112373037 0 255 0
0.0068230977595960755 0.03671902727997223 0.1721154146107721 255 0 0
0.03906260608372719 0.012307832948436268 0.17413082195138235 255 0 0
0.028754846433745807 0.049942285373567125 0.17498434028694354 255 0 0
0.035236346212095794 0.03302287940551622 0.17303727834590937 255 0 0
0.039935694820136 -0.016554476305962663 0.1734378649227308 244 208 63
0.006931115200248573 0.03740185448258771 0.1710723264247924 255 0 0
0.028562961657087223 0.014665167789290248 0.184206311728339 0 255 0
0.015108525669196583 0.0030866616944122483 0.1698457430061034 244 208 63
-0.03172109255087986 0.00825568509242604 0.16883661392600025 244 208 63
0.04059710799809925 -0.016628746735828974 0.170916417557126 244 208 63
0.02123056701326293 -0.017835237241618163 0.17083949291757763 244 208 63
0.02864657815701368 -0.0007398383917881224 0.1728226008159518 244 208 63
0.040150587136336464 -0.0040290773111535845 0.17569649447461289 244 208 63
0.016454691244437734 0.014943681551627497 0.17206694554725313 255 0 0
-0.03685451549317693 0.019001702282771493 0.16676199365295064 255 0 0
0.03568031110671079 -0.004457072938683864 0.1710779075443356 244 208 63
0.02706206198211287 0.033451461826933954 0.17848070974171623 255 0 0
0.035717533701121996 0.018583378496329305 0.17307554497949307 255 0 0
0.034620642003817426 0.029193369445946922 0.1742570236662547 255 0 0
0.032015460888064215 0.015313917016996033 0.17421909984252668 255 0 0
0.04939760825002477 -0.011840365569769255 0.1845874926824012 0 0 255
0.03838340136119232 0.0131470878570324 0.17375736753009755 255 0 0
0.029400801581575535 0.01607878621164017 0.1843270152980356 0 255 0
0.029046165619002164 -0.02203776728702651 0.1719463893067815 244 208 63
0.03889826630427096 0.01222402317833146 0.18271198115083168 0 255 0
-0.031854971057076055 0.011887280232761185 0.1684413049584007 244 208 63
0.0331174300858063 0.0309129781386082 0.18094946083371594 0 255 0
-0.020883426631357966 0.025059798453179724 0.181070062441841 0 255 0
0.027691431791635676 -0.025214464721215645 0.17389459078809105 244 208 63
0.027105985433934367 0.029612063445659455 0.1722011527006035 255 0 0
-0.036748143892623625 0.013464232605314614 0.16659851767656597 244 208 63
0.0365601615853081 0.030424659273120304 0.18545475118646465 0 255 0
0.00711737978949737 0.03372977731429692 0.17272962131973127 255 0 0
0.027632325835185195 0.017882978789336944 0.1842757212922991 0 255 0
0.019716891827961172 -0.01679394989832018 0.16939847767374577 244 208 63
0.040274643769580995 0.013577843882750733 0.18286911268018266 0 255 0
0.04171462302001408 -0.014617711763055374 0.17155854601789497 244 208 63
0.036913425831468075 0.039908790120922154 0.1762603041854213 255 0 0
0.036197700020446165 0.021220122836098056 0.17286237433697835 255 0 0
0.028823338029173896 -0.01711491118514451 0.17004379140017947 244 208 63
0.04691459480548269 0.026101640732813874 0.17960490925489947 255 0 0
0.05970661324207026 -0.00590234888399025 0.17485074648490967 244 208 63
0.053816910304853256 0.018147343206110278 0.18618170620592558 0 255 0
0.03448052843388081 0.03258049916346808 0.17577281658862076 255 0 0
0.04906302750758178 0.023509238488802806 0.17381861398856413 255 0 0
0.027397993966415367 -0.024547150758143267 0.18031709373886146 0 0 255
-0.007297148178272431 0.0004999558932165943 0.18100943083606624 0 0 255
0.04657717604586455 -0.017455062604055695 0.18093709570483052 0 0 255
0.02941042505549773 0.03213539949735373 0.17427501608232068 255 0 0
0.001753311520292994 -0.031164074856490833 0.16748790398336344 244 208 63
0.026046526024356316 0.032691570387540586 0.18158261931281366 0 255 0
0.03011981106067539 0.016569073280717713 0.17370758018758983 255 0 0
0.03882211300321796 0.018807292054606572 0.18084778764933923 0 255 0
0.012567110023053184 0.019073661399475084 0.17468234650055592 255 0 0
0.025771025289237498 -0.02639110168901638 0.17370562263583975 244 208 63
0.00028114300210005556 -0.008938935549079943 0.18115666861926907 0 0 255
0.05050825237751627 -0.00820298508535882 0.18161475113088543 0 0 255
0.027622652759192394 0.050372739305309264 0.17492070687945713 255 0 0
0.018219052067539824 -0.007627169430325495 0.17069542835423343 244 208 63
0.040246365361924524 0.012462508243587748 0.17212736679458154 255 0 0
0.012007631279364179 0.019648280979411185 0.1703893593015861 255 0 0
-0.03425367856750555 0.010462982553753206 0.16658731229321216 244 208 63
-0.024519528079429923 0.005272192653823031 0.17675831780777354 0 0 255
0.002386961354707248 -0.034177806835671634 0.1678814751965373 244 208 63
0.03998149045725784 0.013564579508717771 0.18498579785904448 0 255 0
0.041769795744942086 -0.01877767874393505 0.1708457887490393 244 208 63
0.04154122860069859 0.014498926152211902 0.17440329600944152 255 0 0
0.029844376986715195 -0.009087656652684059 0.17120460439774815 244 208 63
0.03684421339449966 -0.003099825664327735 0.18244672337251586 0 0 255
0.007168631397286486 0.01965855806587932 0.17645502055850368 255 0 0
0.01315135850879108 0.052836153787136936 0.17289831316690718 255 0 0
0.01828376875869103 0.01495154481008082 0.17129969543705298 255 0 0
-0.026837661986379848 0.02534095084335168 0.1806511548944603 0 255 0
0.044810858994702024 0.01665638480279971 0.17584358437582676 255 0 0
0.02208477880417954 -0.03151205950513722 0.18177508765370468 0 0 255
0.02715250385163818 0.029857479697938064 0.17329487208408817 255 0 0
0.024010014011341 0.022140057089681683 0.17777914398289751 255 0 0
0.030040906556837506 0.016942355076594653 0.18441003433374087 0 255 0
0.006920117977790226 0.03629212685251208 0.17066439583601098 255 0 0
-0.029331261710541928 0.0100163301293066 0.16746448070274628 244 208 63
0.02972647002129721 -0.009065642295406667 0.17146698709056002 244 208 63
0.013261635961278924 0.0164780487316158 0.1719011000267568 255 0 0
0.008314321634639826 0.026867599664836414 0.18325967719270186 0 255 0
0.05143290640322185 -0.006135258331216256 0.18176953518372943 0 0 255
0.035876822007309135 -0.0025298964182739166 0.17290974278501778 244 208 63
0.03196115892462579 0.016634002506595986 0.18132819004502093 0 255 0
0.06447931511366078 0.005035570938065572 0.1756609484698274 255 0 0
0.040348830029683154 -0.015597413336809852 0.1747915072359045 244 208 63
0.019755828722984724 -0.012517339874497378 0.16951888394266842 244 208 63
0.027939741152744425 -0.01775030041666091 0.18278361180535216 0 0 255
0.01860713397546281 0.01585998314482842 0.17172167494720011 255 0 0
0.051155890686195776 -0.005965743935772324 0.17422931113088447 244 208 63
0.053108908396658 -0.007255374981118624 0.17649706287342 244 208 63
0.03730465604093885 -0.006425493855465584 0.1729375005402452 244 208 63
0.0028586723197949033 -0.003811931230731303 0.1708259963363293 244 208 63
0.062299133109589774 0.006717941080773121 0.17668669100964082 255 0 0
0.015737685837474587 0.0010499917766982423 0.1714246036692053 244 208 63
0.04796244462516569 0.023613958794372666 0.17309547002250808 255 0 0
0.021631788296970135 -0.006352317258021779 0.17853463277568363 0 0 255
0.004499916903537306 0.03617108264313178 0.1737559751274852 255 0 0
0.039039241704264475 0.019078925980500462 0.17659812738915848 255 0 0
-0.035795659097427726 0.015481531198676794 0.1683089013770213 244 208 63
0.010211068385857126 0.021153829658474045 0.17025918102109797 255 0 0
0.04102334765902601 -0.016010211170186993 0.1718350346390328 244 208 63
0.008474957735635166 -0.035616705703544804 0.1677850615373734 244 208 63
0.038027867316107036 -0.016818027076791118 0.17393015224248226 244 208 63
0.045761824431792664 0.019113709623424093 0.17280913731014735 255 0 0
0.05441657573263464 -0.00695872623413539 0.17553506375750494 244 208 63
-0.03506859519937638 0.010556599603224099 0.17942724401896826 0 0 255
0.051516392554347805 0.022091764487927375 0.1743678710266861 255 0 0
0.032700276052095634 -0.00960885221427123 0.17057916646735566 244 208 63
0.053825892934082235 -0.0048348500805143226 0.1739306189447353 244 208 63
0.006134157917039549 0.0449972782492746 0.17745701774241984 255 0 0
-0.0036850813210305743 -0.011407535467613776 0.18076475623173818 0 0 255
0.03405125594914105 0.029519429251767402 0.18202704109731235 0 255 0
0.04521851635867217 0.020286734746130217 0.17491536136686867 255 0 0
0.03618762212193491 -0.0029883348610631032 0.17919626112424455 0 0 255
0.037412626367890826 0.03321679587744508 0.182427406005168 0 255 0
0.043487532981375226 -0.01676250978591406 0.18395064925840246 0 0 255
0.027068816204393394 -0.0031380263512357717 0.17136620997007107 244 208 63
-0.020796200685849857 0.0034267339370675012 0.17694931362609403 0 0 255
0.040983413973167265 -0.017089349802668036 0.18375555786757775 0 0 255
0.05657148983107654 -0.006655984655360023 0.18532693135898182 0 0 255
0.04259933354788902 -0.01206561512417639 0.17335091349326393 244 208 63
0.03700808512516247 0.03800650470416632 0.17511707925860118 255 0 0
0.03490865474724066 -0.004722966226749735 0.17310645641533326 244 208 63
0.026223906850786047 -0.020925424524644583 0.1825245144148816 0 0 255
-0.013793768313923007 0.028144905185257932 0.1688192694293063 255 0 0
0.03753543139012474 0.017851538922290223 0.17317598841947 255 0 0
0.020248744464479905 -0.008190471074675458 0.17407951956207846 244 208 63
0.023791240216738462 -0.020834162107355197 0.16999739853121448 244 208 63
0.040130470532359554 0.012494337318061537 0.17212033317930314 255 0 0
-0.0036386106759102744 -0.025246575392508557 0.18017998297961213 0 0 255
0.04010942802431418 -0.006207099734333883 0.1713240308874085 244 208 63
0.03709778425678591 0.030977495206407128 0.17910176796146499 255 0 0
0.030036725461461057 0.01619424257453251 0.18010101561207073 0 255 0
-0.014650595759688575 4.41821048737627e-05 0.16864295832909373 244 208 63
0.05405656583298983 0.018989652157728368 0.17981946381560712 255 0 0
0.007127557279142252 0.03450533558433748 0.17060347078346874 255 0 0
0.03613723656487952 0.02880446967829319 0.17252453088589245 255 0 0
0.05120448652872175 -0.00628764144533063 0.18014268556996924 0 0 255
0.03977565282170234 0.014572599902632741 0.18501374235747017 0 255 0
0.06094606086257058 -0.0026446109378892007 0.1858139575265967 0 0 255
0.03246689077894579 0.014788940689368604 0.1726790670922834 255 0 0
0.03627038329359715 0.034577617418716323 0.1791948953149246 255 0 0
0.0390710344778066 -0.005715790406087276 0.1733654581539384 244 208 63
0.05706387612149295 0.018092250820804668 0.17567924480389985 255 0 0
0.03609567108013662 0.041432124366194215 0.1826812470909181 0 255 0
0.04124400805820853 -0.01613218455559524 0.17292574171615988 244 208 63
0.029583228388374887 -0.002279578559973988 0.17120505277185608 244 208 63
-0.01636931177751629 0.003117344092449438 0.16864919406688306 244 208 63
0.05910539037677315 -0.005704162670633843 0.1855507384625408 0 0 255
0.020612128752744267 -0.017387830104503732 0.17081375598868637 244 208 63
0.025868943557352912 -0.001246775827252038 0.171520140242102 244 208 63
0.040053662666263486 -0.0029086112736947884 0.17166599487672998 244 208 63
0.02840563486286099 -0.002108203189509596 0.17920516464930256 0 0 255
0.03604514838820571 0.02863648952429293 0.17892610908458983 255 0 0
-0.016806955440251747 0.0004126482822049745 0.16958250399922842 244 208 63
0.04182203683804878 -0.016070046034326425 0.17173601325683563 244 208 63
0.005926132932900252 0.019747882505681408 0.1827842888097775 0 255 0
0.03501338811493716 0.018556866958263866 0.17248349994245998 255 0 0
0.027726489437195016 0.03444517646087846 0.172091479079386 255 0 0
0.05125725993531824 -0.00720042331547345 0.17369233187130484 244 208 63
0.02669647620022704 -0.004389825906574861 0.17855683231524302 0 0 255
0.03194931426387945 -0.00909438868537376 0.17061084974065832 244 208 63
0.014059950179516332 -4.657046401993804e-05 0.16963670965025973 244 208 63
-0.021360633782692925 0.02751504017813355 0.17040480012092513 255 0 0
0.013874131667289933 -0.00015189764942273414 0.17069871086352315 244 208 63
0.01822518264140204 0.016523235742117528 0.17280214699164378 255 0 0
0.05020811430681429 -0.015709767373315777 0.1726667008042261 244 208 63
0.027455910206472988 0.016281762075573723 0.17237990855689184 255 0 0
0.057351583757831205 0.01653788722286293 0.1741941091567089 255 0 0
0.039452169547566224 -0.012759811821210235 0.17201375509774763 244 208 63
0.03756769435813097 -0.00552705484566884 0.1727247374572345 244 208 63
0.04853849362022577 0.023720374461083646 0.17411361023520114 255 0 0
0.042266806206447245 -0.0058963693103006795 0.17358903396528336 244 208 63
0.062195692407743884 -0.0039491378090838105 0.1762258729920808 244 208 63
0.03521382782943616 0.04534170129433327 0.1731605163912884 255 0 0
0.027409358338100813 -0.02890665971361464 0.16937618455472622 244 208 63
0.0289760385272688 0.03423204431021731 0.17544469258241224 255 0 0
0.042117902280576144 -0.016054694380847848 0.17191234754337786 244 208 63
0.06601221938162759 -0.001300287129073744 0.1755026080599171 244 208 63
0.03207441482791946 0.03375944937002168 0.17885649892808064 255 0 0
0.027933801696584493 -0.027327629413670826 0.17092113680747634 244 208 63
0.028083471080978924 -0.004417338716594938 0.1833606407395188 0 0 255
0.03407517467078971 -0.006362744594514337 0.1718965335032708 244 208 63
-0.018566864843500033 0.02742147878993341 0.16850729767141245 255 0 0
0.04118333395949121 -0.014458418474862967 0.1710510729158706 244 208 63
0.04668410550007127 0.025966272634783953 0.18279016699318573 0 255 0
0.025610118853131393 -0.017889946679990103 0.1729860333726702 244 208 63
0.026901612788809766 0.033246871100590686 0.172045023981441 255 0 0
0.01220117797828003 0.01862274650014853 0.18319054267026955 0 255 0
0.038912373030472965 0.0365296250628907 0.17514933633353744 255 0 0
0.035479456445184764 -0.0032942712538588347 0.17176858078827603 244 208 63
0.03052330954925792 0.013703608373725194 0.17321225246531868 255 0 0
-0.021750439400585665 0.0019042152229375511 0.18002325094161764 0 0 255
0.05628346025629858 0.020352647557311733 0.17571883597882973 255 0 0
0.018643240716710165 0.01602365928804017 0.17101129338960624 255 0 0
0.03701130131419924 0.04325193187729704 0.18603253374891582 0 255 0
0.030566951213355148 0.03237642513164252 0.17274905809255114 255 0 0
0.030647667591664724 0.013782364664522168 0.17142472449199778 255 0 0
0.04493611149744836 -0.01564536013758557 0.17313645987533635 244 208 63
0.038173070920761026 0.01316656908131851 0.1826995617055968 0 255 0
0.027955334082698992 -0.00712504521834836 0.1725439956818848 244 208 63
0.04920906806316215 0.0234476909479388 0.1737185692133401 255 0 0
0.027209119729932594 -0.02630940420906433 0.1780900729406263 0 0 255
0.03709018039997599 0.03174325844925203 0.18234145054137083 0 255 0
-0.02204818927187386 0.024849694619360777 0.1809768496745394 0 255 0
0.04285357329104422 -0.015959650276545563 0.17142965911222977 244 208 63
0.02663495135980235 -0.017311001070617813 0.18056940319884723 0 0 255
0.033217016532516595 0.03108456125089593 0.17234596011481818 255 0 0
0.04407552644886402 0.013191658172510088 0.18205850725700976 0 255 0
-0.0023774712405447455 -0.024607644760059645 0.16956331946357447 244 208 63
0.007863027956662896 0.04427028231988799 0.17434353649307516 255 0 0
0.026612947200170326 -0.0036764355880397736 0.17900879624754562 0 0 255
0.008103221166291304 0.045105465991400195 0.17760409946327455 255 0 0
-0.03130587765822302 0.007624978429995842 0.17957493008044495 0 0 255
0.04491278681536683 0.02420186504626911 0.1739797014334088 255 0 0
0.033177232473651654 0.016797843325189566 0.17173591980020536 255 0 0
0.047871539075826704 0.023870118373985588 0.1749356460490315 255 0 0
-0.0016602419748739643 -0.013499540836462043 0.17008729482546128 244 208 63
0.028877742559854525 -0.0007120669212895567 0.17122061952803383 244 208 63
0.031233622703450453 0.018784804052227256 0.18297079385178253 0 255 0
0.021714457786815262 -0.019266786753213732 0.18226869425555536 0 0 255
0.016237052025361146 0.0016663342874020642 0.170946966589154 244 208 63
0.04117800606097392 -0.016059711637401285 0.17153557322835616 244 208 63
-0.03441015204965147 0.014056482958960788 0.16888855431254368 244 208 63
0.03723228392255709 -0.004510518155789979 0.17375409063828567 244 208 63
0.04115866990861684 -0.016038991368823897 0.1712265092502124 244 208 63
0.05308686542122218 -0.009643423554862748 0.17205289680645877 244 208 63
-0.010925994914346633 0.001899098456805309 0.17007122942355068 244 208 63
0.05602286954290352 0.0152775541250031 0.1830116792853015 0 255 0
0.05413918852553982 0.015471977758787385 0.18609132813527732 0 255 0
0.031626465943601495 0.014411340399953895 0.17543566744095956 255 0 0
0.0614519037346193 0.004688947075319003 0.17974684396180912 255 0 0
0.027163890863158808 0.016449857671195 0.1734458448546975 255 0 0
0.011976646300544357 0.01901747282437076 0.17891414782840195 0 255 0
0.012921777331493153 -7.975759693205214e-05 0.1696170996059973 244 208 63
0.027870773889398213 -0.016083679281943986 0.17022450729643576 244 208 63
0.010625699806674209 -0.036528028724624545 0.16783780228641665 244 208 63
0.019221045832543054 -0.005978135885276726 0.17191793846082354 244 208 63
0.011794982454683935 0.02077148132355073 0.17042170588791009 255 0 0
0.051005135292478174 0.022370886272981803 0.17499069279896395 255 0 0
0.026292802182557827 0.03344541375224801 0.1726651976262541 255 0 0
0.06511995082756529 0.0006092474904992604 0.1862542690306697 0 255 0
0.04506359405255218 -0.015570488676692425 0.1713747087415206 244 208 63
0.019956302108236717 -0.011033589261389547 0.1706763708639441 244 208 63
0.05116708716861672 -0.005980183794678647 0.17386953442763392 244 208 63
0.04109385814469842 -0.015712288214359132 0.17281701888389867 244 208 63
0.038791795379676516 0.016969131743503167 0.1722136361797986 255 0 0
0.047007526303536655 0.01570749448939792 0.17323031751386614 255 0 0
0.005242683240362072 -0.03546273045403837 0.17718078357370692 0 0 255
0.03921651995226172 0.018894922739597236 0.17660313564054778 255 0 0
0.03777337383560705 0.01944910092201654 0.18293763615509603 0 255 0
-0.03323672955314377 0.023331778189819338 0.17368734287497586 255 0 0
0.01692015779239532 -0.01118433654120105 0.17153018849883078 244 208 63
0.025996464838554313 -0.01763411982374318 0.1805094694975487 0 0 255
0.02543819861843671 -0.026254500822919455 0.17096615010034294 244 208 63
0.014231213493440987 -0.036253567046654396 0.16817452599663849 244 208 63
0.011303453905160814 0.024969963523424385 0.17266025361551354 255 0 0
0.040560409454430124 -0.003333053660734899 0.17249457011962965 244 208 63
0.0349698345834555 0.033183359791626364 0.17333336610800326 255 0 0
0.04002789042389529 -0.016500329136291 0.17216376346372358 244 208 63
0.0005736177364428115 -0.005808568082116114 0.16841594625361914 244 208 63
0.030287547788266714 0.017565064938575303 0.17177540663973845 255 0 0
-0.0320928740385041 0.012028702520816881 0.16897005824077535 244 208 63
0.028656233044238207 0.034840505670886715 0.1728955075532914 255 0 0
0.04201757926112356 0.014547517775137764 0.17271195214636056 255 0 0
0.016668141700893837 0.014748027783327558 0.18334910882225008 0 255 0
0.030331414490836272 0.016395310791680863 0.176566786830419 255 0 0
0.04090124382917007 0.01793894188622136 0.1727033071236789 255 0 0
0.015669580582136466 0.0029324375653382454 0.17095971089344247 244 208 63
0.035196368629468774 0.046463325626494786 0.18603768174362437 0 255 0
0.04145057247995319 -0.013909422801814161 0.1710937420284558 244 208 63
0.044962656142860075 0.018118116079598734 0.17372476093986766 255 0 0
0.03572691146893491 0.018527576901114545 0.17415377550185968 255 0 0
-0.0007749668564080454 -0.011934669806956122 0.16805801193288264 244 208 63
0.028145589068692318 0.03463275523277076 0.1739296511342563 255 0 0
0.038105969686242205 0.044614299947901476 0.17435464564036698 255 0 0
-0.034535071772230135 0.02086953813659202 0.17669644127125844 0 255 0
0.016820959376137444 -0.014109608350167951 0.16923884432715758 244 208 63
0.02937081789264708 0.018066408949385104 0.17313428358002442 255 0 0
-0.013745779006325934 0.028090227616116806 0.1699003417976226 255 0 0
0.0037698488966174653 0.0018710191912952607 0.17113344607088482 244 208 63
-0.0044729555409918085 -0.013443342362898063 0.17741353455094394 0 0 255
0.050672389910817676 -0.015201640407301365 0.17272189091971354 244 208 63
0.02404794865201028 -0.004649329942262498 0.17878184331266292 0 0 255
0.02658261900808369 -0.003940410550831298 0.1798507668747509 0 0 255
0.00686221271947513 0.03706623752183514 0.17177302764528282 255 0 0
0.008177618727167525 0.043545935395508356 0.17322351177224293 255 0 0
0.03438761736581747 0.04514100055698202 0.1827152711512803 0 255 0
0.04176043475039534 0.014531024948075781 0.17290863009991955 255 0 0
0.041981691912947004 0.013840540348667107 0.17658842425130872 255 0 0
0.010018838797180492 0.050128928079552056 0.17474851630404648 255 0 0
0.03127234419877025 0.014103704680574822 0.17924619799092678 0 255 0
0.031376694362550264 0.032287961293807184 0.17280389257343098 255 0 0
0.05437206889717135 0.021704963012186742 0.17995769016468846 255 0 0
0.054372758568282165 0.01796326317505119 0.17385914147413536 255 0 0
0.031168459051898193 0.019052831348198063 0.17168639559716903 255 0 0
0.05134629645701191 -0.005690745433867078 0.17389480288357012 244 208 63
0.0385316833104551 0.015500761571846895 0.17206825088650063 255 0 0
0.03887314717563799 0.01247957349639501 0.17376443792283905 255 0 0
0.04039750011452119 0.016077031999991734 0.17656883725041767 255 0 0
0.03477526719906106 -0.0086921661270331 0.17083243307546325 244 208 63
0.04873142844750432 -0.013328055064657424 0.18447606276165165 0 0 255
0.010669675192927983 0.020829482975714464 0.1724384291196972 255 0 0
0.018541026027901572 0.015455090249291833 0.17205965724994254 255 0 0
0.021032657202899385 -0.019968930791895767 0.1693587567820986 244 208 63
0.03709100723423362 -0.002098302998334263 0.17148605009682755 244 208 63
-0.030309401177778687 0.02511155802221163 0.16965511196835434 255 0 0
0.00018280681698742886 -0.03269416593878511 0.1676050472331846 244 208 63
0.003182785415035396 -0.00032039884741882386 0.16890214690272162 244 208 63
0.010804979584976943 0.020885221352463075 0.17065071504771387 255 0 0
0.04529416249714188 -0.015526887883797434 0.17216461666530705 244 208 63
0.025598314497256545 -0.01735279357000072 0.17081607850612318 244 208 63
0.030683520055413766 0.018274787603746886 0.1722661940673883 255 0 0
0.010789976003809414 0.020926132427461615 0.1706513680213756 255 0 0
0.0026518092445712103 -0.03473435947813455 0.18023195090360095 0 0 255
0.049691947358232735 0.02309508977497076 0.17514243245438493 255 0 0
0.03727353359253478 -0.006667699248931324 0.1713050662790614 244 208 63
0.02952612961436379 -0.00870113005136703 0.17472914081562496 244 208 63
0.01785419885591988 0.015591398864522668 0.17491693667753186 255 0 0
-0.008438228497707262 -0.0008728827964277885 0.16797359591177713 244 208 63
0.04934338097668261 0.0233737906096186 0.17383314441541753 255 0 0
0.02842634435042478 0.03411107187906067 0.17539977488699013 255 0 0
0.046352907879509256 0.014581460541495297 0.17313509394182594 255 0 0
0.040354377558477074 -0.004895408016167317 0.18102057028498966 0 0 255
0.027584003713799175 0.034364238573455434 0.1731576524125753 255 0 0
0.052283634155557486 -0.005757371569100722 0.175431776942575 244 208 63
0.013858046594996199 0.05012955283201917 0.17283442402699797 255 0 0
0.004046069651082682 0.0361626016105039 0.17153084494052734 255 0 0
-0.036952468639941186 0.017050195212139994 0.16667196986939392 244 208 63
0.018171640160672704 0.05368584149900845 0.17228193392192503 255 0 0
0.030117684226095058 0.032350619674808234 0.1721754938372608 255 0 0
0.018152925044073866 0.01691269160995689 0.17065362264464934 255 0 0
0.05417298377416947 0.010843001250454678 0.17336210157811316 255 0 0
0.049201307926929776 0.02344313336171867 0.17382581077901804 255 0 0
0.0357802052117282 -0.0038774790064885593 0.172713612031897 244 208 63
-0.00808512286149915 0.0010956927372118702 0.17028542987106843 244 208 63
0.013666912617889194 -0.000261421841859474 0.1695991381295885 244 208 63
0.019435029503025957 -0.013734670040025161 0.17160378293230052 244 208 63
0.0005038038218057486 -0.006263382249131696 0.18128648715611703 0 0 255
0.02686762707681417 -0.006028017651648606 0.17210916169883608 244 208 63
0.05442785837361465 0.014924480962177999 0.17319402739615058 255 0 0
0.06388171880823422 -0.00033251015081446253 0.17650157660337135 244 208 63
0.007125844788162117 0.04159129314640547 0.1709686481366435 255 0 0
0.032067612066364055 -0.009543180303158939 0.1710761350771996 244 208 63
0.024306687779145804 -0.02864631578485048 0.16970269357753945 244 208 63
0.05422709816595613 0.013296201736209191 0.1738302512187317 255 0 0
0.033974965397671315 0.018490814659949877 0.18476051476894328 0 255 0
-0.002009675108968917 0.026061373154238694 0.1695834348091538 255 0 0
0.03008794521665956 0.01622432432097365 0.17939318180907515 0 255 0
0.06282112969127548 0.004917059713399689 0.18627099818249782 0 255 0
0.035164025310111695 -0.009001395338007777 0.17186318590201358 244 208 63
0.03400467342532354 0.03267311472518347 0.17895000750200363 255 0 0
0.011569995248472135 0.0512727130684458 0.1717016765901188 255 0 0
0.039765184155515394 -0.007290704827051904 0.1798069084936078 0 0 255
0.00983905944779252 0.050144255302662755 0.18435922788826425 0 255 0
0.014196552139156013 2.7798810592349205e-05 0.17072967841677328 244 208 63
-0.003139957614193902 -0.018702184910790336 0.167663430167348 244 208 63
0.05627212909787829 0.01640976239640538 0.17987014381740468 255 0 0
0.028331430628322718 -0.0006149267207451381 0.1711852159962909 244 208 63
0.038681342972618604 -0.005583299703716686 0.18193950302197812 0 0 255
0.030169370618065353 -0.006026998561476158 0.17090822294277666 244 208 63
0.04103549158980381 -0.01885701390514281 0.17240917083373025 244 208 63
0.028438576661543542 -0.025314580953636943 0.17176316432520067 244 208 63
0.026890481404348604 0.020809187537941483 0.17151563786220225 255 0 0
0.01333852761318604 0.05039064551105919 0.17499985576417387 255 0 0
-0.03549297209196257 0.014712880688524475 0.16674240895014492 244 208 63
0.04097300763115026 -0.01871982112907654 0.18368551256160146 0 0 255
0.020710822377057833 -0.017443337096174877 0.17045856540593424 244 208 63
0.030198026998520124 0.017495278734977616 0.17176596300510358 255 0 0
0.02785094987715326 0.03176602773423419 0.17205078586874106 255 0 0
0.009100134338002053 0.028542011075200473 0.17157270121198728 255 0 0
0.03549110334739108 0.03277605969348493 0.17427942701664403 255 0 0
0.005732803862959056 -0.03347498170532352 0.17088534776905 244 208 63
0.004570935079198672 -0.03280956067625626 0.16762186043094301 244 208 63
0.028739307441805542 -0.0006322087981051302 0.17067403798703354 244 208 63
0.03446538687870104 0.02869661980473884 0.18522973184983155 0 255 0
0.026009624902756694 0.033173468917365716 0.17263314935952526 255 0 0
-0.006510150160530026 0.0010500645932018313 0.16825899613529408 244 208 63
0.025070487791239084 0.030513525891235564 0.17179635886981104 255 0 0
0.05211551994927709 -0.008993742869935603 0.180628218262836 0 0 255
0.019411534298298266 -0.03346544345330027 0.17829094101523119 0 0 255
0.02362073784126645 0.021589493139970287 0.1841429583050952 0 255 0
0.03284286884910813 0.020580014925971276 0.17331235748704757 255 0 0
0.04096857414105225 -0.016046707185536357 0.1726008982778031 244 208 63
0.0312979384307889 0.014148083559230385 0.17924993604986428 255 0 0
0.05434844464091539 0.014857166017448274 0.17426534365104812 255 0 0
0.04165032588389522 -0.01612053397370725 0.17280136218552752 244 208 63
-0.016586094537234163 0.001934997877034354 0.18039825772221146 0 0 255
0.03831247268117623 0.01407467961061534 0.18060978135553749 0 255 0
0.060454605644331416 -0.005542688000295532 0.17276031023550012 244 208 63
0.018222129237813526 0.014891419418719742 0.17111268771431762 255 0 0
0.030751136601172756 -0.009395972327445615 0.17260701820707325 244 208 63
0.016550754081854416 0.018704621267643363 0.17115379954691437 255 0 0
-0.01779617307495524 0.02563084968736081 0.17490234787352352 255 0 0
0.03702347299487617 -0.007112147097703399 0.1709981042718008 244 208 63
-0.008221025539378264 0.027260351815562682 0.17134477507559204 255 0 0
0.0031042813955577155 -0.00652577077366568 0.16863274837906952 244 208 63
0.045873158470972786 0.02625364042082113 0.17312062863643543 255 0 0
0.05122364886946538 -0.006232206388979695 0.18335411671751609 0 0 255
0.04099915992560268 -0.016064816101259347 0.17244806556968278 244 208 63
0.028067127132311246 0.01969777428613928 0.17283929078472704 255 0 0
0.03291141904186421 -0.0076996876697892165 0.17929358024064004 0 0 255
0.0367082021684434 -0.004917115078562116 0.1801142683558861 0 0 255
0.02207639593774474 -0.020719241534767143 0.1790254659458164 0 0 255
0.028593773001093965 -0.025223432979249814 0.1696184212507907 244 208 63
0.0332948848806183 0.017265664486574767 0.17356418858044637 255 0 0
0.024975975190147895 -0.020631111819202165 0.1700917567581224 244 208 63
0.03206985498479347 0.04843359418809449 0.176272107070958 255 0 0
0.03258770150086717 -0.0070426542041938135 0.17104005278743153 244 208 63
0.02467974900125764 0.020201110916736716 0.17774520490736243 255 0 0
-0.004351231583642261 -0.014414239815796828 0.17096570360579022 244 208 63
-0.023997962066307152 0.026974977678796353 0.1691110845312259 255 0 0
-0.039559839224113075 0.019597052626127324 0.1730710750518958 255 0 0
0.057382189305214076 0.008094244053459734 0.18173553187462532 0 255 0
0.03272141891011189 0.015711850350146467 0.17381663058979457 255 0 0
0.012183510374180999 0.02406913807994812 0.17052580514065682 255 0 0
0.048266958634785126 0.023767621308595097 0.17495990315883025 255 0 0
0.026836615344656686 -0.017160224289770605 0.1741750268571806 244 208 63
