ply
format ascii 1.0
element vertex 675
property float x
property float y
property float z
property uchar red
property uchar green
property uchar blue
end_header
-0.018650049674959538 0.0005032676194425909 0.2526206674965274 0 0 255
0.012932421914490878 0.018590469496233955 0.2436019211258836 255 0 0
0.0037691323461053403 -0.0045521788540485155 0.2446128519146761 244 208 63
0.01834159894960871 0.018352314372836166 0.24607365118085484 255 0 0
-0.04240996905804479 0.007238568818400293 0.24125103694351166 244 208 63
-0.03080359476304252 0.01811317606410475 0.24119389251798923 244 208 63
-0.03625373579616832 0.05572490087792593 0.2415740966117196 244 208 63
0.02132335380506885 0.012947772799245359 0.24588746351276194 255 0 0
0.0026845084837589066 -0.0015905426304781423 0.2571683604811085 0 0 255
-0.004122121458172262 -0.0024498038867361363 0.24428995686007196 244 208 63
0.010803488356932109 0.01592790955337158 0.2522206882011646 0 255 0
0.02140402037653528 0.055693075514514655 0.2448765428890557 255 0 0
0.026608895096233563 0.023555842032043757 0.25368183112858433 0 255 0
0.01088970917340397 0.015765031644269054 0.25436148536158426 0 255 0
0.02566789871977057 -0.0029593330677791753 0.24647609614438912 255 0 0
-0.0012438310128878652 -0.004203119787079301 0.2456441909620911 244 208 63
0.018561912572557113 0.014492866510477459 0.25382251965710395 0 255 0
0.028719467753151023 -0.008948031512398223 0.2527715839431009 255 0 0
-4.322084297632249e-05 -0.009790541795681198 0.24799352264411412 244 208 63
0.03476671087660263 0.041367116407776135 0.25615464968870433 0 255 0
0.03495864678092587 0.04053932024043134 0.2455527778573588 255 0 0
-0.0013177413426181308 -0.0014796687581128294 0.2441178279483592 244 208 63
0.0027125681855521763 0.03895055008540612 0.24172986956590234 255 0 0
-0.008691790088412428 0.05224520212171382 0.2412044229247759 255 0 0
0.015246465232294788 0.030056342720418003 0.24297365435667892 255 0 0
0.031072068924217353 0.009127210416069934 0.24569735277506125 255 0 0
0.018026949359921773 0.005992930704350218 0.2465179282144006 255 0 0
0.005494323486107016 0.04114646914170106 0.241679647707371 255 0 0
0.02222358510128363 0.005693558503115632 0.24505317330062265 255 0 0
0.00696590148639452 -0.017540466299780906 0.2552840687997613 0 0 255
0.0019679876039075846 -0.003845890497574022 0.24473118094397714 244 208 63
0.025069932770450686 0.022388744120808185 0.24410842807882804 255 0 0
0.012178714724100807 0.018915977209100238 0.24785105256126008 255 0 0
-0.018385326886068278 0.004804044332986425 0.2523504779271911 0 0 255
0.0016898088796411326 -0.0008624628876394381 0.24424903080372284 244 208 63
0.011813499939663977 0.016001804495237602 0.2565237106118268 0 255 0
-0.01798013239735081 -0.01080318222865161 0.2480965256653557 244 208 63
0.013813944808215024 0.018482913196602366 0.24376683168733362 255 0 0
-0.004198942568900401 -0.00235130679929812 0.24454731126014587 244 208 63
-0.001695305866661792 0.04074170040205503 0.2423681215928021 255 0 0
0.012957515136914687 0.021597808479396456 0.24555013796475475 255 0 0
0.02428247738840955 0.024766406405227835 0.2451832866443026 255 0 0
-0.0019350733340284913 -0.013375907692667442 0.24579161246917816 244 208 63
-0.002860748842369174 -0.013155218980317643 0.25549317106597014 0 0 255
0.0246993125402593 0.02319131054131952 0.2456277563695939 255 0 0
0.01635125748531107 0.00967222730137893 0.24870318151888407 255 0 0
0.024142180700554575 0.023600645722259672 0.2567252473198124 0 255 0
-0.004565188640975205 -0.011961032282075654 0.2446911054208605 244 208 63
-0.0015152842683480022 -0.017109024460068418 0.24675321098018776 244 208 63
0.018405948433887254 0.01230467724900755 0.25077119023678024 255 0 0
0.013371244988074033 0.018407689354837956 0.2446050075876758 255 0 0
-0.005093186957059829 0.0026441346209144442 0.24369187818923557 244 208 63
0.031176215004458933 0.028395135039684768 0.2447111272736798 255 0 0
-0.03459115577566237 0.046467866870441625 0.2486585979755144 0 0 255
0.03080721410449482 0.009701710171977233 0.24736112303588503 255 0 0
0.025341426767951147 -0.01980808759186283 0.24685983098011932 244 208 63
0.019889388722542815 0.032470799940692525 0.24451009489122358 255 0 0
-0.014062039771480826 0.017506345411532065 0.24320183773998869 244 208 63
0.0030478914136154098 8.227336205044681e-05 0.2554843808369985 0 0 255
-0.038892439008858894 0.061114877216654095 0.2388872616286815 244 208 63
0.021146882775642018 0.0058143427502762995 0.2481711134154041 255 0 0
0.012387658129996575 0.017616432329087897 0.24582417703357237 255 0 0
0.012878448529168765 0.019676288859624427 0.24433165835530257 255 0 0
0.013473825288184145 -0.013592744549188239 0.24583191879912283 244 208 63
-0.03602374201185773 0.05848774958202388 0.2402989210261981 244 208 63
-0.009259227155746279 0.006837109197218454 0.24530027998691042 244 208 63
-0.0011819032221891297 -0.003754317305308362 0.2459340667927992 244 208 63
-0.022888357000593523 0.06153728298845626 0.25151624489320523 0 255 0
-0.001129400334405799 -0.0014860566009960241 0.2452021862161494 244 208 63
0.010443022249450894 0.01694762578631191 0.25425745575115605 0 255 0
0.011288214400878772 -0.012759839411704655 0.25840188325960656 0 0 255
0.022102655724583718 0.030528665136597723 0.25402379705829853 0 255 0
0.03129171161037105 0.008480953550705968 0.24564548971384048 255 0 0
0.02350528537438558 -0.0168551251609549 0.2487051182989851 244 208 63
0.0035015050578109876 0.025165100173247534 0.24477219714313506 255 0 0
-0.004243116427630225 0.005357464987576328 0.25248574567857685 0 0 255
-0.030683984522930377 0.020644808869247293 0.24204216955686247 244 208 63
0.031591390682913285 0.0072369099597967 0.24671101923854682 255 0 0
-0.03895278863873384 0.06190673969704919 0.23990442345638743 244 208 63
-0.04232983686055595 0.0017421345895532007 0.24162029396633125 244 208 63
-0.0026887799409000606 0.003663016038413721 0.24588696352609152 244 208 63
0.028971243497289856 0.009278803067189857 0.24513778290919228 255 0 0
-0.03358996085628982 0.03936436940798905 0.2406338502428065 244 208 63
-0.0019055626119175474 -0.012595667869291595 0.24488544861064668 244 208 63
-0.02974955703453518 0.06659885231388822 0.24011991103265892 255 0 0
-0.03703388975170872 0.06088979237592683 0.2475619285763401 0 0 255
0.026171771580577388 0.05462149293157274 0.2515957068555003 0 255 0
0.0008792814130705335 0.03474196656627636 0.24237697310409895 255 0 0
0.004318410393879719 -0.007175175178108871 0.2544448233731561 0 0 255
-0.04317431973923154 0.003078086537877372 0.24320815274836494 244 208 63
0.016264148219406745 0.009411584249532822 0.24871548818248662 255 0 0
0.013979935619563906 0.01863495381538471 0.2447320833106086 255 0 0
0.0315588852883917 0.0071216937300622365 0.25824310412177015 0 255 0
0.018617233760256008 0.012823942898362813 0.2507488326664547 255 0 0
0.029655745007266875 -0.010754762048757364 0.24811585897978766 255 0 0
0.0007444646498198249 -0.0042006080922358975 0.24468468072840174 244 208 63
-0.0056846687204548585 0.006804981275451842 0.25400723632448896 0 0 255
0.025618813102356176 -0.0033473317255353994 0.24605187843989265 255 0 0
-0.0017435469913162143 0.007209092536830817 0.24512671849477619 244 208 63
0.03573984849773766 0.030335790770971593 0.24419191465877033 255 0 0
0.013913790610566763 0.015550043762141284 0.24600612445787498 255 0 0
-0.008283055005802991 0.047444922090832814 0.24047314787289462 255 0 0
0.011795731496079119 0.022148396039519645 0.2561148875059222 0 255 0
0.029654714383042406 -0.011218170366669698 0.24814654559741942 255 0 0
-0.005011317333465791 -0.010938696317536746 0.25734806987774067 0 0 255
0.012354057448683113 0.01797399834929729 0.25288204485999494 0 255 0
0.01938479169824639 0.009007884565880968 0.2452509211531721 255 0 0
0.017579962005593277 0.01200208413837407 0.25711915161052634 0 255 0
-0.03679889929915357 0.04759651013270645 0.23990399500331092 244 208 63
-0.0022809437750940173 -0.0014460416034400222 0.24624927719484047 244 208 63
0.002869858112317821 -0.00859846049993777 0.2576439221035959 0 0 255
0.0007083456533509593 -0.015951648106083696 0.24632025518829098 244 208 63
0.002741741676543589 0.024571194463160473 0.24333724147187588 255 0 0
-0.00939534985337285 0.049731428981983725 0.2530718651501949 0 255 0
-0.02018397539701004 -0.012632190576777984 0.24384161390011197 244 208 63
0.03374152090682451 0.04735331391847547 0.25569880330479894 0 255 0
0.03145217766323222 0.008423259235442187 0.25496305789224555 0 255 0
0.027245011900121876 0.026137043467824077 0.244380405139488 255 0 0
0.011704865834445997 0.01915516595193794 0.25630827727362354 0 255 0
0.022794408783818672 0.05429478054713023 0.2546116463202885 0 255 0
0.02643030688409683 -0.005959918121282354 0.252442300734289 255 0 0
-0.03826444401683405 0.06056390446873197 0.237950367325536 244 208 63
0.018424487691185744 0.03035747295676336 0.2527620892293223 0 255 0
0.03482537386763417 0.028083757577708895 0.2442252272252333 255 0 0
-0.015792835479436974 -0.007457958277240551 0.24587472619340614 244 208 63
0.020723401549417615 0.005150654732662252 0.24654929904866424 255 0 0
-0.008321861601587438 0.018616126917716854 0.2439933561793389 244 208 63
-0.03170293015967428 0.06422991617007824 0.2380189633725069 255 0 0
0.019766850525628245 0.008145511912840284 0.24683242031664454 255 0 0
0.014812839002713551 0.0258976637848971 0.24483448245974654 255 0 0
0.01925026707374982 0.054679404241141996 0.2543832608421857 0 255 0
0.003313488043826635 -0.00317652708450869 0.2455686546480161 244 208 63
-0.0017545379409359858 -0.013570828359318091 0.2454316073675324 244 208 63
0.025989649720253298 -0.004901684270679865 0.25659697552890476 0 255 0
0.006292142084525035 -0.01606085301864605 0.25514733530333344 0 0 255
0.023671216916457596 0.052942449642681993 0.24247404348017038 255 0 0
0.012419278866264583 0.018145772443071286 0.25429108377301507 0 255 0
0.004908985541155909 0.038848410284112574 0.24233518473259277 255 0 0
0.02947136896457711 0.010036510712337098 0.2456527119403606 255 0 0
-0.008010604274261927 0.01833827594291457 0.24349302657049282 244 208 63
0.004142090938352099 -0.0034263249339059523 0.24462326119859068 244 208 63
-0.03043687819489859 0.0639128069336525 0.2402587789475943 255 0 0
-0.013741739995046617 -0.0038727285700904147 0.2435654488409493 244 208 63
-0.01858978961669409 -0.009068498621467375 0.2452424025497373 244 208 63
0.031784605101244874 0.006158683645044063 0.24550582957573666 255 0 0
-0.03511294972989627 -0.010595259061863673 0.24278817669903507 244 208 63
0.025606939373432613 -0.0028886753928856106 0.24754107269159875 255 0 0
-0.0031576036374930602 -0.012152399717906328 0.2549846330076663 0 0 255
-0.0415283559332243 0.011403041864427626 0.2409614437359428 244 208 63
0.0034859436147746253 0.04360270519995567 0.24784064718108823 255 0 0
-0.0017106476949534238 -0.013027534715729745 0.24673952160648063 244 208 63
0.020172761401944298 0.0076340056749524135 0.2490571539916251 255 0 0
0.02244649718251527 0.03230974876490779 0.24323627874060166 255 0 0
0.018595142327593607 0.014030046321582574 0.2538551283212836 0 255 0
0.018949081031534747 0.01789777807535481 0.2450654267827072 255 0 0
0.01246521899486868 0.017463863179264787 0.24583873908289788 255 0 0
0.01857425611699107 0.031952707249025464 0.249477242315293 255 0 0
-0.0054352958664499185 -0.012534899861651242 0.24461561683797597 244 208 63
0.01799447193758293 0.017816528527294227 0.24400677950755642 255 0 0
0.0038508465801226025 0.028656735653122913 0.24456053500435307 255 0 0
0.022439147948178303 -0.016785482556077445 0.24756631824255884 244 208 63
-0.03098152584436969 0.017553283590820947 0.24223025075368285 244 208 63
-0.001521412549250211 -0.013777608597636097 0.2456119799274277 244 208 63
0.012968065337946422 0.018340726500553014 0.2443717400901113 255 0 0
0.0053050272676945735 0.04106853055887506 0.2438202908485638 255 0 0
-0.03874626547105356 -0.0031049866844989962 0.25170975417942476 0 0 255
0.02538141250803584 0.030555296090405616 0.2435206756761827 255 0 0
0.002591547616663189 0.03833509978575136 0.2417637754321938 255 0 0
-0.0164962286563234 0.002486479843512331 0.24370130628660586 244 208 63
0.001414370425938033 -0.0016059041372160502 0.2443463473444555 244 208 63
0.0007431178586265151 0.03502283306962442 0.24288712512069296 255 0 0
-0.0035677274583194264 0.005730735691709458 0.24867454367565395 244 208 63
0.0037301647780613664 -0.004249360107214961 0.24539539758195789 244 208 63
0.029669937724068327 0.010297889717931595 0.24564673639936277 255 0 0
-0.0363915791565628 -0.006203825113519995 0.242487388502693 244 208 63
-0.01809150077074277 0.002982811534042583 0.2556757130424765 0 0 255
0.005111060597615376 0.04035268627694458 0.24385668208293343 255 0 0
-0.01365970501261966 -0.00867612267426604 0.24460427092876555 244 208 63
0.013133661097697705 0.05194931085246347 0.2446515332492879 255 0 0
0.024132065154366087 0.031738209307745756 0.24515927138646648 255 0 0
-0.003742624463099826 -0.012314387024971977 0.25751196249612607 0 0 255
0.031224024741326663 0.013438286672206007 0.24505452209286077 255 0 0
0.033855774935160565 0.03106287644514996 0.2472234146803736 255 0 0
0.0036556090980059235 -0.0037386397556246013 0.24508895140978196 244 208 63
-0.0013749803637893056 -0.012992517274167113 0.24568325823639336 244 208 63
0.014676670249205263 0.015771315886658064 0.24388880357259682 255 0 0
-0.042358465119075255 1.2209020942597487e-05 0.25448375964125064 0 0 255
0.024831241373078197 0.027142340726141297 0.24377937993594334 255 0 0
0.02839706342743882 -0.009000863150194209 0.25913179954994386 0 255 0
0.029551766030549965 -0.013715823774634487 0.24669662957694302 255 0 0
-0.002527895887246053 -0.013571023195833459 0.24810212208647295 244 208 63
-0.005290047497987754 -0.011782736569604426 0.2460048977830283 244 208 63
0.012356285117165995 0.020951855724685234 0.24560108691868127 255 0 0
-0.0171257099999204 0.0017323822653634927 0.2451461770379596 244 208 63
-0.001854068956912286 -0.013109828940179731 0.2464684855082149 244 208 63
-0.0017099645345441256 -0.013610968339889144 0.24559013116560163 244 208 63
0.02188509301194351 0.005081592784545785 0.24501064209807966 255 0 0
-0.002974030544075374 -0.012528960083739195 0.24991999741550155 244 208 63
-0.005395540128021535 -0.013162437936827488 0.24519610074374903 244 208 63
0.023582104039624865 0.031307013377150354 0.24343156694182877 255 0 0
0.005918942688156719 -0.002422826691546728 0.2445946317579217 244 208 63
-0.038313268907675814 -0.006365678451884571 0.2551384587688937 0 0 255
0.025214901897258023 0.006245556718824782 0.24619716927581728 255 0 0
0.003297024499655769 -0.01914101290024834 0.2466269031556225 244 208 63
-0.006312366994212884 0.04800960166207906 0.24698740804654454 255 0 0
0.003273900625647479 0.024787861417781495 0.24353218734539397 255 0 0
0.006010006221664166 0.04752230668605484 0.24134990746725865 255 0 0
0.03525762901093664 0.046260370058269065 0.24519031887384227 255 0 0
0.031721254017286316 0.047422577408077475 0.2555785676559668 0 255 0
-0.0019928037479563544 -0.013235825975611114 0.2458556704841576 244 208 63
0.030584001040784067 0.01037907742411075 0.24558635848930305 255 0 0
0.03232025669118333 -0.0003713392087145006 0.24740060622189594 255 0 0
0.03418384855403745 0.04279209292397496 0.24428581061400872 255 0 0
0.035210757672517454 0.03958615723449495 0.24455729421714115 255 0 0
0.0028393302265844016 0.039555812181859065 0.2416969682955724 255 0 0
0.025235793100247164 -0.019741654069969673 0.24792253065602607 244 208 63
0.013387524147653119 -0.013019867556451844 0.24626178583499034 244 208 63
0.0027315817158460208 0.024582970823030216 0.24351473877972912 255 0 0
0.024271144881200087 0.02518039762848783 0.24596003812236045 255 0 0
0.03525712029524969 0.03959917133598085 0.2434859307743879 255 0 0
-0.03526501120077534 0.05329256822273387 0.23961388025320038 244 208 63
0.01937901082366006 0.008330133292776602 0.2450809245880002 255 0 0
0.016903563081856057 -0.014935249525808436 0.2471267040555553 244 208 63
0.0244696004939313 0.026432022926344462 0.2523060243856451 0 255 0
-0.008701798725768633 0.0072293801223096196 0.251681322627708 0 0 255
0.025519346780377174 -0.003342726308670059 0.2479239003270748 255 0 0
0.0155761371249225 0.016161417315857123 0.2453452776561105 255 0 0
0.0041402550526278515 -0.00012924582970008126 0.244340648017915 244 208 63
0.011943913350972179 0.051530863987491266 0.24779877493538832 255 0 0
0.033943181470041925 0.04330523918930512 0.24423798925094922 255 0 0
0.0018228649052047345 -0.015834578642079634 0.25806408465348996 0 0 255
0.03533602409536993 0.038284961704651566 0.24465079450147764 255 0 0
0.012377387956202995 0.017665471097545533 0.24582033560772049 255 0 0
0.010512560955860124 0.02304060937939853 0.24424130980680445 255 0 0
-0.03951243541808715 -0.001672347825681833 0.24519568616683818 244 208 63
-0.03550638191597793 -0.009471554217360702 0.24594244457632453 244 208 63
0.010122757187928717 0.04898179962442455 0.2428556018165063 255 0 0
0.025811371221219074 -0.004506641462003562 0.24613981685296255 255 0 0
-0.03249386110313598 -0.012346154527711681 0.24520056718408909 244 208 63
0.030573663289035307 0.014524877816458805 0.246670036666907 255 0 0
0.0032207903432722035 -0.010424962812356647 0.24658083888164592 244 208 63
0.005440092710930218 -0.005937142569347372 0.24805172766318728 244 208 63
-0.038907913173395495 0.05996482332984036 0.2507036116649487 0 0 255
0.012585567094578549 0.01756615748815258 0.24725554371766179 255 0 0
0.0374595439455596 0.04162429562773206 0.24455079118311926 255 0 0
-0.021350646345831843 0.02531680903641002 0.24333959254335552 244 208 63
-0.017405979149523507 0.0011384111932422007 0.24516954242644337 244 208 63
0.02903128627745775 -0.01598636335227554 0.2489637875759738 255 0 0
-0.043250269667677047 0.004248434110590078 0.24205300290534273 244 208 63
0.002136285686670965 -0.0004425069394778493 0.2460353153240896 244 208 63
0.016624464824565952 0.016003990885618793 0.24452143148539127 255 0 0
-0.024347213868172103 -0.013569317343259663 0.2436654850473758 244 208 63
-0.005566113264437681 -0.011998646951810759 0.25419905382892116 0 0 255
-0.005611537305976584 0.008607530424009684 0.24427595217551118 244 208 63
0.018654699733209646 -0.015781858027776267 0.24620995513958774 244 208 63
0.02549276020636854 0.03040757095846211 0.2449677207674714 255 0 0
0.009434533954317087 0.048346763762989214 0.24285834039229479 255 0 0
-0.002635745867718857 -0.011971697512126787 0.25500251519565265 0 0 255
0.026780762868124218 -0.00794554979394887 0.25471915386839805 0 255 0
-0.02281047706651776 0.06053640008092609 0.23930959392310128 255 0 0
-0.0019488790521062505 -0.013298228417545256 0.24501913321195862 244 208 63
0.028741665687963124 0.02719341975851341 0.25675015353823905 0 255 0
0.03165393574488663 0.00660635713412115 0.24734666929607332 255 0 0
-0.013236266856981784 -0.0038617335640750983 0.24547167358512476 244 208 63
0.027180026092120217 0.026354751471850936 0.24482216523423578 255 0 0
-0.03779952014784413 0.01217405256504537 0.24219688239531648 244 208 63
0.023193437959261674 0.053148793720780525 0.24404273942386903 255 0 0
-0.0019395551187067128 0.007328967762290922 0.2456441188544055 244 208 63
0.02833942987400284 0.026438743087387563 0.2461094200312446 255 0 0
-0.013780200444196063 0.007851849122835222 0.2433219335796447 244 208 63
-0.018376201248709506 0.004635794684555912 0.24488196699440326 244 208 63
0.023365369938200885 -0.019641736261202802 0.24888199196642619 244 208 63
0.005143658370636624 0.040484175692067 0.24384982409396705 255 0 0
-0.041371363003203036 -0.002723757456115715 0.24244426968620716 244 208 63
-0.035356104482925726 0.06548785480675354 0.24034021837687872 255 0 0
-0.014429829248222411 0.054908495695771824 0.24177243006122617 255 0 0
0.0038030329786558218 0.026272603522249128 0.24391111033736598 255 0 0
0.0045874333865530605 -0.0004877585392030325 0.24546318447717558 244 208 63
-0.023240279702885502 -0.011223589055942604 0.2435094569399878 244 208 63
-0.02599267868413754 -0.011055212704946145 0.25615482548233526 0 0 255
0.03056118892769729 0.010349321279229023 0.24687481293736563 255 0 0
-0.00882215706991971 0.05242469601529303 0.2401118980806396 255 0 0
0.027468429364594076 0.025857843290219507 0.24538266763185096 255 0 0
0.02435097517418774 0.022753759020048003 0.24478416676057965 255 0 0
0.013052563188333411 0.018277627187653956 0.2516622668447992 0 255 0
0.02724572510492229 -0.0012378332574974615 0.24680991196299257 255 0 0
0.0032957607742937784 0.024861393198272796 0.2440651332377455 255 0 0
0.03674498452496498 0.035529812070787085 0.25346758838607314 0 255 0
0.03235546415988387 0.0126965411758421 0.24689333119199594 255 0 0
0.0026139019931317167 0.025769067844628943 0.251098987260646 0 255 0
0.03529385455678469 0.046216062840647575 0.2446587588583062 255 0 0
0.0036891997171867104 0.02532419371530793 0.24369923176569774 255 0 0
0.030097405612313395 0.04950491730093434 0.25215987836105025 0 255 0
0.0013708868631507644 -0.015710144048925963 0.24728552136591186 244 208 63
-0.003533833285192499 0.005752652550974391 0.24825001734910584 244 208 63
0.01660859620980173 0.05275939615994031 0.24261850407012842 255 0 0
0.01571192920765698 0.018950021318681384 0.24516803574507343 255 0 0
0.0030594835766770394 -0.0032421628079273186 0.24448531632399859 244 208 63
0.024379231910636283 0.031530824309735236 0.24375630439819246 255 0 0
-0.008964758399031554 0.006157754594385119 0.24317339425158457 244 208 63
0.0030882182032058933 0.02835252578827547 0.24882968035800423 255 0 0
-0.003834789191543688 0.00504438478544283 0.24657973459811608 244 208 63
0.020433531284065606 0.03255986436536258 0.2527309656594769 0 255 0
0.01488304629425535 0.01834687017287456 0.24538728508230415 255 0 0
-0.0007191656403565186 -0.014379456624667497 0.24677098871376058 244 208 63
0.037367969077572935 0.03763657947565671 0.24698830949134484 255 0 0
0.018176926256539893 0.01770927130876671 0.24402433937002085 255 0 0
0.0013863221601023842 0.03508050926033604 0.2439932692684178 255 0 0
0.02013166166509996 0.009864594375365408 0.24495065588744558 255 0 0
0.006240944964624823 0.0489652325618211 0.24227678906625297 255 0 0
0.012979468562699062 0.05470198198205946 0.2540228218541779 0 255 0
0.0037072220066339933 0.037633879214665676 0.24824932505595007 255 0 0
0.013043595333988934 -0.012804273994698051 0.24783752969938505 244 208 63
0.021020669202369953 0.005073520814194029 0.24549827116200695 255 0 0
0.03212353251785317 0.04635822933745676 0.2439312765849406 255 0 0
-0.01763763455517139 0.00038640869145448176 0.24484845866798952 244 208 63
0.017866545868005568 0.016015473779362677 0.2568692805535085 0 255 0
0.029238712683317163 -0.015122878806068463 0.24838179812803232 255 0 0
0.029742710344987638 -0.011477058684486455 0.24655902457926335 255 0 0
-0.030422832883822484 0.020728500579823034 0.24205156523000118 244 208 63
-0.023036885053228616 0.06294964301588617 0.23866370820058974 255 0 0
0.024705413593491134 0.023112714227480152 0.25678985945995597 0 255 0
0.026684928163593278 -0.017503741122564476 0.25959793464203196 0 255 0
-0.042877181444820014 0.007629714810776924 0.2411345846329853 244 208 63
0.0066861051030397065 0.044289340729589774 0.24261250004215146 255 0 0
0.011214772104679067 0.04973227423508939 0.24143744686537502 255 0 0
0.022165414206933253 -0.016710195243332438 0.2480822351342442 244 208 63
0.03334744063692962 0.004045657805300518 0.25217440114571504 255 0 0
0.03555201666885488 0.044144580607596004 0.25601532508566305 0 255 0
0.0008791975436890018 0.03321888316863228 0.24200520443825113 255 0 0
0.00016043903178137447 -0.0013877626337747582 0.24598493228875631 244 208 63
-0.010466561731710802 0.008921666796943787 0.24505036196689584 244 208 63
0.013515559960914272 0.018515021630735515 0.2453573524780872 255 0 0
-0.015676414436817852 -0.00711280925400669 0.24798354662072547 244 208 63
0.02216666821871241 0.007974593039930516 0.25127374093008165 255 0 0
0.031279520075381415 0.008495084698224764 0.24585847918335452 255 0 0
0.025305041740743897 0.007989768940034992 0.2557024831879299 0 255 0
-0.016587679137146476 0.0024248986833212624 0.2440578740887879 244 208 63
0.03791500085710389 0.03537835575250486 0.24499125904689564 255 0 0
0.031784330476451114 0.005732802179470767 0.2458023562873288 255 0 0
0.01626481163823894 0.01896324077053522 0.2544569660670862 0 255 0
0.027399892947822056 0.025803106086203502 0.24502465956939215 255 0 0
0.028249714768439835 -0.01343730804534022 0.25941770875981884 0 255 0
-0.022404499745641213 -0.013791017108311876 0.24480079122261647 244 208 63
0.014035236405043897 0.054797987515028 0.24233595094012056 255 0 0
0.031053249308602003 -0.0016908477903937718 0.24634247387949798 255 0 0
0.0016492867110890885 -0.003970611886227113 0.2447212133303244 244 208 63
0.010877476320248266 0.01617495124729565 0.24795842758191658 255 0 0
0.017302541799704797 0.01822860560088804 0.2460648897107546 255 0 0
-0.03888108014843005 -0.0026675842125300255 0.24211027135945476 244 208 63
0.02198367961490305 -0.016737325204575895 0.2470004715218216 244 208 63
0.0286671784924533 0.026621993827532185 0.2457583056435271 255 0 0
0.0037702316426563784 -0.004213167327344664 0.24459042254390506 244 208 63
-0.03509104246208228 0.06783891513925361 0.25039966968953004 0 255 0
-0.04250348126768186 0.001916216511197371 0.2447863890670569 244 208 63
-0.018433128323241607 -0.012063412937954512 0.24562892906542125 244 208 63
-0.0008289506769155186 0.03208098402288828 0.2547332552536195 0 255 0
0.025814787253839788 -0.004653216232968183 0.24695460433604938 255 0 0
0.007403461247086171 0.04554538926892416 0.24203364630319749 255 0 0
-0.021871098906733007 0.06002942292591771 0.23886042706001337 255 0 0
0.002995237938205204 -0.010741818876656034 0.24551578950354508 244 208 63
-0.0030648024628670877 0.001164969066892842 0.2442000797400691 244 208 63
0.030474603687098444 0.01055565696419374 0.24664153487517781 255 0 0
0.01184503233363765 0.01450142748197323 0.24416868997866076 255 0 0
-0.036078712374743686 0.0450213360779541 0.24118922655682 244 208 63
0.01851066726380134 0.008340154136245514 0.251040217359848 255 0 0
-0.029393336965259444 0.03348963522036233 0.2401906807450442 244 208 63
-0.03603078542462747 0.06765848642192751 0.23969006977430365 255 0 0
0.001486014645187007 -0.015763478973961836 0.24737230628956677 244 208 63
0.0117160679800319 0.05265852003037126 0.24133575213421204 255 0 0
-0.005835556452946558 0.00205165689899214 0.24505580651147135 244 208 63
-0.0019980793324631055 -0.004041302810070535 0.24585857559881233 244 208 63
-0.003919614221537114 0.00045576469799835356 0.25665457421733395 0 0 255
0.0025891762411861044 -0.015972091938706322 0.25811707193108513 0 0 255
0.001132182910822775 0.026318081555073626 0.24402350723477695 255 0 0
0.03166433791366254 0.006484266716755968 0.24735536501284866 255 0 0
0.001036419209926259 0.03201203645759202 0.25271954713850553 0 255 0
-0.015567219577380609 0.003332497839518434 0.24369835234519768 244 208 63
0.00560166345728224 0.045409090103254154 0.25421706834448854 0 255 0
0.022585501399630004 0.029969001118187136 0.24558835030998413 255 0 0
-0.005532636134876964 -0.012565241823969585 0.25742614546583065 0 0 255
0.011603935745777534 -0.012896042812634585 0.2552414081156394 0 0 255
0.022307954014917957 0.029516986621428386 0.24377135575505432 255 0 0
0.03514965004889977 0.04513118316410355 0.2527392520615525 0 255 0
-0.01790789864194368 -0.008693480707597517 0.24418339175405634 244 208 63
0.02923115572004692 0.050459937169528735 0.25204693173240844 0 255 0
0.01885818375856787 -0.01583936544545278 0.24676199121558645 244 208 63
0.031130697363327565 0.027004598817996873 0.256899429555965 0 255 0
-0.025684333674138804 0.029196658004280694 0.24283411676063985 244 208 63
0.029568756062864077 -0.012282139708917108 0.2487487893924639 255 0 0
0.02964023870024668 0.001063057911385782 0.24786747129916356 255 0 0
0.026584542483718762 0.008027808158825828 0.2472729814073214 255 0 0
0.024819097262596245 0.03117325340123681 0.24487835974438868 255 0 0
-0.0055200663391824605 -0.012255065086611344 0.2463807892965974 244 208 63
-0.028657128934857425 0.06610943585230704 0.238068605368113 255 0 0
0.015377967590115164 0.018966067276679564 0.24550557553278443 255 0 0
0.025804762979366503 0.02999119820403985 0.24394005102010716 255 0 0
0.027278449820438873 0.05380384308329224 0.24533814004931292 255 0 0
0.0034752664282618854 -0.005995477375498187 0.24900565915178605 244 208 63
-0.004391017168515368 0.006431824218324119 0.25410604278487325 0 0 255
-0.00312839683999625 -0.0005914465031506902 0.25251923062039966 0 0 255
-0.003665206436763893 -0.012404639875453836 0.257522381888813 0 0 255
-0.018238032980382943 0.002706981429487894 0.2556856259425906 0 0 255
-0.03559410196971368 0.014921970326917878 0.24113140944207206 244 208 63
-0.030098553446550554 0.017988228563199215 0.24332508871017908 244 208 63
0.030926467102619752 0.0014062541682682648 0.24583577546787508 255 0 0
-0.00419456862216002 0.0018340979215579747 0.254422331463515 0 0 255
-0.022573971937507393 -0.013907363356762108 0.2437256560088552 244 208 63
0.017128413211261267 0.028641960594579623 0.24323897458679836 255 0 0
-0.011827280466449677 -0.0069124071453056865 0.24423442199022594 244 208 63
-0.004742295595160129 0.006443688362623226 0.25196009296905053 0 0 255
0.002804652961453918 0.025731871204249822 0.24898732083212075 255 0 0
0.030214556277826023 0.05240623992236765 0.24342074110803005 255 0 0
0.028683629398239145 -0.015765770919737042 0.24684670237359155 255 0 0
0.004245866557102858 0.033938980018016124 0.24262295222253918 255 0 0
0.022214666373310776 0.006680088439410321 0.2577375393039771 0 255 0
-0.006888121811813556 0.04510100903542893 0.2417816586519196 255 0 0
0.003465594572844077 0.024863998002662452 0.2428226714404031 255 0 0
0.012086129061827783 0.020752421914631752 0.24984896330452003 255 0 0
0.03661691385285957 0.04180144394308116 0.24985657441175618 255 0 0
0.00015841283821323333 -0.0031590321937771887 0.25234645612047824 0 0 255
0.028052935751809577 0.05068547467146325 0.24233802305687133 255 0 0
-0.0045549144117355556 -0.013766351404637141 0.24481147047704466 244 208 63
0.02554175951331242 -0.0032037889353028967 0.2473793919918612 255 0 0
-0.005536472608165053 0.0013311530610470787 0.24800372873813015 244 208 63
0.01879607216560173 0.0055677919787909405 0.24623243904273132 255 0 0
-0.015815167718497232 -0.008256588700890573 0.2565517076032537 0 0 255
-0.0004040835515077435 0.00611652588579322 0.24420271658833562 244 208 63
-0.005316493533686059 -0.01283193685077533 0.25426862811446477 0 0 255
0.026994023007740224 0.00729408928108429 0.24515628584514712 255 0 0
0.012166740869165022 0.01780115316450607 0.2507577340641795 0 255 0
-0.01751010924924272 0.0008789870016903106 0.24518079394874645 244 208 63
0.02500777122824033 0.00671246243375564 0.245144939437595 255 0 0
0.0006334058387888033 0.028684673354845737 0.24866712980011058 255 0 0
-0.014040717474288894 -0.008840425220997546 0.24602423310816476 244 208 63
-0.00824702149281273 0.007306944373735307 0.25382726344527445 0 0 255
-0.03570889000809886 0.06564611717426447 0.24285959326973122 255 0 0
-0.03418932597929213 0.06547001370479572 0.2410457075665467 255 0 0
0.01208626656092299 0.0178944305346 0.25216364236338507 0 255 0
0.028944339010945144 -0.008323140097831886 0.2463678314512894 255 0 0
0.030914978791987593 0.013704000937072035 0.2577695325270459 0 255 0
0.03448587469622152 0.00611611628866773 0.24566327467596882 255 0 0
0.0029089515467619134 -0.010090475037113333 0.24499482053594532 244 208 63
0.030193751269478576 0.011003746399050877 0.24659572960600573 255 0 0
0.027307615780365453 0.025871522828177528 0.24455491429736784 255 0 0
-0.02401150182816556 -0.013544050332961083 0.24368302484988727 244 208 63
-0.039506378579305224 0.00912997507523582 0.24122799235877482 244 208 63
0.01736233508468011 0.030750616957037846 0.24311246191233987 255 0 0
-0.020589401114506155 0.06016518344300405 0.24855128788510047 0 255 0
0.027211817869207337 0.022396306370961627 0.24523992404019473 255 0 0
0.012423984852450169 0.018471605651577676 0.243644462159834 255 0 0
-0.019519407949994447 0.023775638691072788 0.24140035683661368 244 208 63
-0.03707778893649464 0.05897077767014473 0.25087431977371144 0 0 255
0.0047214451638069015 -0.018711267498680267 0.2456705289157181 244 208 63
0.010815141111439493 -0.013680432784853518 0.24669494932998468 244 208 63
0.0240393708748427 0.024116905249642773 0.2566851103630587 0 255 0
0.0035434378691277003 -0.01631446440499979 0.24716891276426523 244 208 63
-0.015607859002323431 0.0033796027946725125 0.24440833427670083 244 208 63
0.015940886933034377 0.019145112702089573 0.2565514144743268 0 255 0
0.024291180194409033 0.023341604132140637 0.2551571687171051 0 255 0
0.012853320403622956 0.01905079015258334 0.24464000639481379 255 0 0
-0.004718656731663506 -0.011227528876752452 0.24671620508197922 244 208 63
0.01186092523824146 0.05080804221570216 0.24146681686419613 255 0 0
0.004887366753590836 -0.00855873830871472 0.24655241602506678 244 208 63
-0.0031945684229606405 -0.012873872324110547 0.2554553967843677 0 0 255
-0.039977204503166795 0.007884732096570802 0.24128366000060952 244 208 63
0.02915235823447355 -0.006640010589706074 0.2462043106172691 255 0 0
0.025292149105845436 0.029626382944731793 0.24682853862117726 255 0 0
-0.011235836984763983 0.054565889037051354 0.24627060021055203 255 0 0
0.02443239710697654 0.023126892199738628 0.25517949741219204 0 255 0
-0.042653593972331844 0.001396080923987443 0.25118746740740394 0 0 255
0.0101831432323284 0.021600808579524365 0.24539113363893633 255 0 0
0.004177525622567057 -0.00012630422485536332 0.24487915942896818 244 208 63
-0.00099415775242951 0.005500941005937338 0.24586202359290268 244 208 63
0.029532077229978818 0.010218143691398233 0.24635957327418884 255 0 0
0.025272375397262008 0.030683859881961366 0.24350590460011778 255 0 0
-0.0302631232532329 0.06677278297244994 0.24007897473501558 255 0 0
0.02055961055572232 0.031042319786512253 0.2560264502215246 0 255 0
0.005811942194540006 -0.01610471276831589 0.25618528579066085 0 0 255
0.013228508191172932 0.018346110901568916 0.2442789745110756 255 0 0
-0.004110439153036642 0.005795689981561384 0.254589317748829 0 0 255
-0.03583500657292582 -0.006041471795366456 0.24459102487222464 244 208 63
0.015955435540900637 0.031148333983929622 0.2557558731681807 0 255 0
0.03339680200369966 0.026970823994316672 0.24529044891894852 255 0 0
0.0008044352065802139 0.0325662161930285 0.252669500360552 0 255 0
0.011653460188305039 0.02636610089987563 0.25263932939786904 0 255 0
0.012522376457170817 0.017856857210326017 0.2507743948955058 255 0 0
0.003852046413597182 0.026059490268012145 0.24285490143018165 255 0 0
-0.0002600132778642454 -0.014730785759114507 0.2459007319714197 244 208 63
0.03027042787902779 0.010930518650707648 0.24660497700066333 255 0 0
-0.03638131033883823 0.06374549386517914 0.23784707011074793 244 208 63
0.019332802268080988 0.05637519078592845 0.2542754753297489 0 255 0
0.01643902931295634 0.03047788442843893 0.2462652909964244 255 0 0
-0.02806505389543259 0.06355512476062292 0.24152330796519886 255 0 0
0.03358339881172174 0.04776980067196699 0.24291179034944357 255 0 0
-0.00751248212748104 0.017753053424895426 0.24463352040857592 244 208 63
0.003776570746918499 -0.004323496805040423 0.24459810539104365 244 208 63
0.010757891606824745 0.015188130183191956 0.24584949230591557 255 0 0
-0.0339199163994216 0.019180125546446495 0.2419541214452057 244 208 63
-0.026631299535760707 0.021475239825849445 0.24221904923338863 244 208 63
-0.01191404240638091 0.05613064819406968 0.2407621944253124 255 0 0
0.00898315655753262 0.04789610680877647 0.2428624031122776 255 0 0
0.02010710952443323 0.05623894310791325 0.2436610565259639 255 0 0
-0.0002730760247829124 -0.014715644794185537 0.24612894175295819 244 208 63
0.019893450922201315 0.009560557840657007 0.2445994758072618 255 0 0
-0.03775205179286041 0.06664697708288413 0.24650133481707995 0 0 255
-0.0361161535396865 0.0626158093582734 0.23894659455231634 244 208 63
-0.03103107858675405 -0.013058143736756405 0.24425838140408465 244 208 63
-0.017409871519676642 0.06051237140564016 0.24015689985222782 255 0 0
0.02744810944319894 0.025881396009958996 0.24573766224755747 255 0 0
-0.007597992071065137 0.017916988450082542 0.24300801496625563 244 208 63
-0.034051405095842466 0.04464941438712355 0.2519977253686168 0 0 255
0.029984241563993493 0.04963550389581865 0.2553323205580801 0 255 0
-0.0008257192011279137 -0.0038753774911616332 0.24436869648545836 244 208 63
-5.952815298032252e-06 0.036781938806368604 0.24272753739987513 255 0 0
0.01171266099291871 0.014567952662547717 0.2452298530747022 255 0 0
-0.00346839096474525 0.005603968860386984 0.24358850642570154 244 208 63
0.02675233558288003 -0.015775496188024048 0.24886185648819592 255 0 0
0.0025397528196591627 -0.003426387671252377 0.24554094340360008 244 208 63
0.012890674005542103 0.018787525164363387 0.24412303068593263 255 0 0
0.0062846735382261374 -0.005200642873369822 0.24640959944595459 244 208 63
-0.04078598630335995 0.007747149274883264 0.24449783550032894 244 208 63
0.033213347293723355 0.04816204630998133 0.2524273301756231 0 255 0
0.0011211126510280644 0.026985196127146407 0.255182965729881 0 255 0
-0.0015721371251995325 -0.013091345525822834 0.24541023590378797 244 208 63
0.029680618454093678 -0.012109866899684914 0.24713402837462037 255 0 0
0.027524688927501532 0.05366115487954429 0.24536170168715996 255 0 0
0.02727761681599958 0.052160996080197364 0.2550098350704609 0 255 0
0.028419813033469847 -0.000261700102535266 0.24627577305028187 255 0 0
0.030865019532316306 0.04859172669149649 0.2490768226782236 255 0 0
-0.011068372878145789 -0.004669653788315306 0.2440396325556533 244 208 63
0.0268898230177847 -0.012678357653608436 0.2464754272879754 255 0 0
-0.03611017798833734 0.06578301370272586 0.24537760252262744 0 255 0
0.0008328250617483015 -0.015469633861521176 0.24532242376352528 244 208 63
0.028240991176408055 -0.014715408752008299 0.25631442347366806 0 255 0
-0.011111652086127466 -0.005523977746895309 0.2459718577238153 244 208 63
0.024991862723294872 -0.01920500751361707 0.2468635673250711 244 208 63
0.001964549941154794 -0.01605298787480607 0.24527259814366473 244 208 63
-0.004216410233977141 0.002767724332413358 0.2564841947065316 0 0 255
0.00885129853924807 -0.01491260676465773 0.24720086998780225 244 208 63
-0.00022449994594474915 -0.0012826954064167157 0.25485636746394 0 0 255
0.0035729686314116046 -0.0026497901214076964 0.25303938163626777 0 0 255
0.030901837868925024 0.028911398716214495 0.2567598197468411 0 255 0
0.02167723831101695 0.029686655367868523 0.24372399657489902 255 0 0
-0.02685310784464443 0.06331134855597477 0.24798401513039184 0 255 0
0.033801628183669746 0.0025038823113546944 0.24801007564207922 255 0 0
0.016666091687922383 0.01603979705651948 0.2453263057867652 255 0 0
-0.018353234233849283 -0.010619494871273786 0.2523130875322777 0 0 255
-0.0027400373509384804 -0.013295135069150706 0.25338430810934204 0 0 255
0.01481954618967667 0.015907130372039297 0.2446034080326877 255 0 0
0.02104188617838586 0.05611282346093826 0.25120312693465185 0 255 0
-0.001896836594847625 -0.003231988429908416 0.2527649164631624 0 0 255
0.01658935393250399 0.027761745280376858 0.2448124946746968 255 0 0
0.020865915099897988 0.02983638820097141 0.24545621289617808 255 0 0
0.009414214032921952 0.0483703164827287 0.24321333500800127 255 0 0
-0.03582744743666657 0.04497734377315308 0.25187430752579604 0 0 255
-0.028222440988497445 0.035326532177169134 0.2508248617028812 0 0 255
0.0033121078990199036 -0.003210584892758709 0.24476596807408213 244 208 63
0.0035355358647465264 0.025083094462763626 0.24388528871413126 255 0 0
-0.0372072927810338 0.06361703484563934 0.25055864315193965 0 0 255
0.030893011082911346 0.0025987266427352582 0.24783729354877965 255 0 0
0.031386740822774435 0.007963776040882189 0.24729497286553617 255 0 0
-0.036906670062425394 0.06448097611590575 0.24733094746720025 0 0 255
-0.011231499820690685 -0.005785720605980657 0.24598236340331897 244 208 63
0.010818718518638522 0.018011373369153334 0.243583111472261 255 0 0
0.0015617411996331626 0.031360351340039186 0.2459926765937884 255 0 0
-0.03530228421631281 0.048961427454502444 0.24845245341903985 0 0 255
0.027581339158952216 -0.0010190064006679852 0.24609916699688072 255 0 0
-0.016964387387027727 -0.010509813088880573 0.24388509065285935 244 208 63
-0.0020625886281869146 -0.004046702882305506 0.2453186608600165 244 208 63
-0.01085008666064093 -0.0052137253922581485 0.2443565112332215 244 208 63
0.022347735295986382 0.007764719091987837 0.2481104492881484 255 0 0
0.0035280378930067843 -0.002557179606774298 0.2530306653954241 0 0 255
0.013190079990445119 0.026161803782053444 0.2559284237878021 0 255 0
0.02075543284591104 0.056162807153331065 0.24263006427137376 255 0 0
0.031738610860419056 0.005785795558827925 0.2466010905544522 255 0 0
0.015554548375036514 0.018948304085819878 0.24515914118582116 255 0 0
0.026074138568305125 -0.002285824792067223 0.24752781806710022 255 0 0
-0.003330565975817288 -0.0001051342382587736 0.24397517566549934 244 208 63
-0.0007061028934378516 -0.01439459758959647 0.2465427789322221 244 208 63
0.010269031659856789 0.02337496630965502 0.2559461201955785 0 255 0
0.021886825560895655 0.03061851230680175 0.25400548185887756 0 255 0
0.02440383343197358 0.006586680446747765 0.24724377150117927 255 0 0
0.0035637577905228354 -0.016338017124739278 0.24681391814855871 244 208 63
-0.010873549891448061 -0.004984308935111051 0.24541310826457405 244 208 63
0.021363955109071273 -0.017123693797824652 0.24651781730307828 244 208 63
0.002830251117989311 -0.00016004424667767376 0.24569857712207382 244 208 63
0.017971585159900463 0.01848024101163938 0.24461311361751553 255 0 0
0.020738943551078762 0.05609423733850556 0.24156051600288847 255 0 0
-0.00784176868718819 0.018190337381120764 0.24458565967287588 244 208 63
0.02964706245681538 -0.01150521165801121 0.2481651518417311 255 0 0
0.03368219335366841 0.00974836727810248 0.24644943783837717 255 0 0
0.036975534590231264 0.03910555726262216 0.25324354621292366 0 255 0
-0.038988548635127684 0.06285635299137614 0.250507152645868 0 0 255
0.03538119917304735 0.04041235962159363 0.24669042277575223 255 0 0
-0.0010773834892502283 -0.0018063047301303033 0.2484671273283114 244 208 63
-0.0396270704553267 0.01498622076356666 0.2536466286991604 0 0 255
-0.007443042940887039 0.050585253539826285 0.2413860334190167 255 0 0
-0.04324934176753352 0.006179481976075509 0.24335580780672936 244 208 63
0.027350202643314336 0.025777771269169327 0.24471688130462232 255 0 0
0.017047524223871683 0.006824572127836388 0.24461809833731277 255 0 0
-0.002013977322745799 0.007324803542577075 0.24456698149889575 244 208 63
0.004222691605641918 -0.00014063085476417013 0.24541927585238696 244 208 63
-0.003950963278259007 0.0025764208725012365 0.25226196931614964 0 0 255
0.02850697269120788 0.013480135376570026 0.24536903669961682 255 0 0
0.02554655268286053 -0.003110154269050704 0.24737345400257793 255 0 0
0.0269446963679335 0.011659270187206843 0.25449035065329945 0 255 0
0.02674694340482323 -0.0016574854705239377 0.24716692085944106 255 0 0
0.02768199226004943 -0.017036682721960374 0.25324885403972724 255 0 0
0.026184090893857464 -0.015488253774980608 0.2573104892631819 0 255 0
-0.020014958046926067 -0.001563022585590568 0.2558672152606374 0 0 255
0.025336637103660464 0.023235218531742853 0.2568178629905009 0 255 0
0.031646059531081364 0.013782536265326752 0.24534979848282612 255 0 0
-0.026695474498766934 0.031025502631544757 0.2405723514629603 244 208 63
0.030666419898701346 0.010097391307223862 0.2468975510881054 255 0 0
0.018124726240120233 0.01792277315850488 0.2503823509553079 255 0 0
0.02867536578657561 0.026665085771583892 0.24611363194169386 255 0 0
0.026589022117754567 0.023232909435561024 0.2505145379612807 255 0 0
0.0007738437087223375 -0.015715877771488723 0.2537460512335248 0 0 255
-0.007699114924196294 0.008990678987534799 0.2452041921220424 244 208 63
0.024077172581579206 -0.019724722920441053 0.24839166829341075 244 208 63
0.0024068319900620444 0.0251903629674097 0.24262531214792699 255 0 0
0.018429113553373053 0.018288166914246763 0.24572519983111638 255 0 0
-0.025796910045545525 0.029301376364526927 0.241747571458011 244 208 63
0.010667392349343323 0.016764696522053008 0.250032327099945 255 0 0
-0.02898674596236498 -0.010730919544569938 0.25596192904212073 0 0 255
0.015529376586471823 0.01610839253356764 0.24463068570438662 255 0 0
0.02435606106687736 0.02635309427292403 0.24535052097821883 255 0 0
0.01831137318969335 0.015466802214511941 0.2505559801991022 255 0 0
0.0189428020632292 0.013919406808413777 0.2475072074330905 255 0 0
-0.003417504303654447 -0.011377084477727048 0.24471805596072557 244 208 63
0.03080897000323611 -0.0018148791304223397 0.2470521574849311 255 0 0
0.01612799772912745 0.009463189769509987 0.2508293234536576 255 0 0
-0.011825604410928219 -0.004261052727355781 0.24531062692499533 244 208 63
-0.01815048821734539 -0.011925783837683196 0.24527825579777954 244 208 63
0.004946185311102164 0.03904741673893255 0.24232411062982737 255 0 0
0.011103277047323293 0.014725835715909604 0.2448267802030953 255 0 0
0.027212336027042056 0.026061591266130127 0.24561000747806 255 0 0
0.03093018018442358 0.009473352103374348 0.24620284625682018 255 0 0
0.02075828339053475 0.0076265192481853395 0.24909116601873924 255 0 0
0.02924414946398591 -0.007366032340234428 0.24786746819783656 255 0 0
0.036767129310382146 0.03108922419802796 0.24413697068937798 255 0 0
-0.03359169510746413 -0.010818254959697933 0.2525165520797396 0 0 255
-0.005798907719901123 0.0006890809475807395 0.24443287330630764 244 208 63
-0.002991554714881041 0.0017305056476195858 0.2438090342669975 244 208 63
0.025040045927408914 0.022419659732891187 0.24410466620473406 255 0 0
-0.01671415100907537 -0.0024539417624739046 0.24330117597015585 244 208 63
-0.003936663873767769 0.004662722962306523 0.24447417276340552 244 208 63
-0.008484369011816663 0.05113775228887697 0.2466555400122951 255 0 0
-0.03479511218584878 0.06489365265717532 0.2386027970902095 255 0 0
-0.009839946147794439 0.053726817626634026 0.23996724828268226 255 0 0
0.03524683388536979 0.03935563378833587 0.24457465369150358 255 0 0
0.008962836636137485 0.04791965952851596 0.24321739772798412 255 0 0
0.010974714278605328 -0.013687682678550566 0.2456314105173538 244 208 63
0.0014497399935648834 -0.0007906688091035476 0.24637683344586817 244 208 63
0.02430393318437096 0.02322884166925049 0.24474995390920742 255 0 0
-0.004262965895523962 0.005837593420106125 0.2562778541864178 0 0 255
0.012822819679273081 0.01934565018459015 0.24515527804027554 255 0 0
-0.04060713760566214 0.0001096613877980962 0.2545775401315799 0 0 255
0.003553646423169298 0.02516148126973935 0.24423884861523992 255 0 0
0.03281216304674907 0.029454130184390477 0.24620788526031606 255 0 0
0.027299420867217348 0.02596065166137862 0.2440886113677734 255 0 0
-0.018632521785910627 -0.004282171710997422 0.24545897278809706 244 208 63
0.012581947389839171 0.015306205310093569 0.2451385522691553 255 0 0
-0.012716343170102194 -0.007677506201766054 0.2456651679045881 244 208 63
0.024930181766895626 0.03010609562660966 0.24677599222919977 255 0 0
0.019100124175679772 0.007744969367908568 0.24473828180449225 255 0 0
0.010665134511926664 0.01602293214153256 0.25645657632949687 0 255 0
-0.018118151474995133 -0.011131499260396926 0.245985352217694 244 208 63
0.03318115578817639 0.0011066429995931371 0.2480672619618611 255 0 0
0.009485254999097357 0.048928619915264815 0.24145552676111146 255 0 0
-0.03485436619725887 -0.007811277987273296 0.2554323574008321 0 0 255
0.013202870287536913 0.054816315611844024 0.2540280237289879 0 255 0
-0.01737296481017055 0.025443665111673636 0.2414125513795345 244 208 63
0.021280991178169215 0.014152227640202786 0.24580512707366284 255 0 0
