ply
format ascii 1.0
element vertex 740
property float x
property float y
property float z
end_header
-0.02537555328591864 0.023130708795060725 -0.0010621469000533477
-0.02827668848425427 -0.00032910088085085957 5.539550213369485e-09
0.008133491609270847 0.018425954721758953 -6.309864236821717e-05
-0.0033025794797539617 0.020159811646182572 5.539550214013266e-09
0.01935432436101997 0.0020276505445435493 -0.0007080972791744008
0.03725147976109555 -0.0015679517297976994 -0.0021242992446931994
0.005939443257295749 0.029609774911029844 -0.0013276831819026697
0.028020566860022855 -0.0101046900560759 -0.0032180056270484773
0.01632025789852277 0.03567186029573594 -0.001593226680994552
0.03840921332946249 -0.0006290360820569825 -0.00021242275787407682
-0.03264455663164224 -0.029235155468103714 5.539550210571236e-09
-0.026064725813993144 -0.025920388826389324 -0.002124299244693198
-0.0024317273210286753 0.026101785127488213 -0.0003540440496741645
0.005942828918056303 0.02941228564070686 -0.0007966106182040279
0.037281906450772985 -0.0023228753157367964 -0.012682719047300957
0.02535100437867445 0.004926122125551076 -0.012682719047300957
-0.021441643929116367 0.0009718459444964476 -0.00847617682312158
0.029878510181326645 -0.010664179570225281 -0.0021242992446932
0.008604386458773053 0.01690654378529883 -0.007634868682169603
0.044689706973671584 0.024555149259128484 -0.004269641183093318
0.03124030983882914 0.027315537949935822 -0.003218005627048474
0.03947196640558672 -0.002549955133274773 -0.006372908749870871
0.02828682506791382 -0.00022424807768677024 -0.0010621469000533534
0.005960140122487037 0.01711139704893101 -0.0021242992446931955
0.017367399272877376 0.02259171136070621 -0.0021242992446931955
0.009360374269016527 -0.0379537113361999 -6.309864236822321e-05
0.020996882063979535 -0.014969833847078498 -0.0014161964576231607
0.027432717174431135 0.007017461996485325 -0.0063729087498708694
0.0016931256174522256 -0.011618918467750672 -0.0003540440496741688
0.027134423708516837 -0.0010720164015299936 -0.00637290874987087
0.01856335321979087 -0.0006278810322640216 -0.004970729190248457
0.004452220732207976 -0.004580631425336772 5.539550210914511e-09
-0.006039967952856364 0.043059152984816024 -6.309864236821369e-05
-0.014731942981941758 0.009523722637771301 -6.309864236821671e-05
0.026670901854475775 0.03192030012607738 -0.0005310670241484285
0.017225691958220612 0.03304346908543894 -0.001517356114967446
0.028234969841722597 0.004912969945097201 -0.0012745788377534924
0.04071120884609601 0.0025546930173823133 -0.0018587629628438781
-0.0180577506636437 0.004482706268577234 5.5395502132540846e-09
0.02563567411331904 0.000585460052380041 -0.002124299244693198
0.0037611798849849316 0.017156323505386754 -0.0021663700710036296
0.021171002867860104 0.03402702658096772 -0.0009862798793383782
0.037008269009678935 -0.000795890728538612 -0.0015932266809945573
0.03660740621847403 -0.004986303015774063 -0.0010621469000533545
0.006311968570204534 -0.006135174395506187 -0.0063729087498708694
0.0016149355926734779 0.03351771670971166 -0.0021242992446931933
0.002783194248531198 0.02896546553567781 -0.0003540440496741645
0.017102507226146795 0.019470903294363632 -0.009527812632403005
0.027885400080104098 -0.035374144871785265 -0.006372908749870874
-0.003173778995021579 0.008693745503746771 -0.0032180056270484734
0.0027904294259812317 -0.01924714356538465 -0.002124299244693199
0.0102441936015405 0.017478912433349057 -0.00216637007100363
0.005822139509463264 -0.0073134090705819325 -0.0063729087498708694
0.04510830349443772 0.019512982100464066 -6.309864236821931e-05
0.01868302971486211 -0.0006684439407702129 -0.004970729190248457
0.004306191168949975 -0.013071730768818254 -0.0005310670241484318
0.0033868250375779624 -0.03284898481705419 -0.0021242992446932007
0.017604215987141607 0.022217990743627566 -0.0005310670241484289
0.0457950350594557 0.019752090391806747 5.539550210963662e-09
0.03221586549425947 0.02693527385805321 -0.001593226680994554
0.022464377136816996 -0.0031902971911443576 -0.002166370071003633
0.0034546860504422773 0.01492153904945678 -0.0010621469000533503
0.0073481350958058975 -0.00454537169889046 -0.0005310670241484312
0.01871584044990316 0.034080250709683534 -0.011631083238019528
0.03866303609161 0.012369541892853598 -0.0017702496871233916
-0.005108361826590295 0.02461764659940731 5.539550214596625e-09
0.02054120501747957 -0.017253757930248706 -0.0032180056270484777
0.013828946658821 0.03261080867020967 5.539550214284784e-09
-0.04387399130257672 -0.026125559865509945 -0.003848981794649126
0.011259647252429348 0.016432455697604712 -0.0010621469000533506
0.01878615790155177 -0.037849480334726585 -6.309864236822378e-05
0.029530350536736895 0.027937246777065026 -0.0021242992446931955
0.005987966743512381 -0.0069249077002248695 -0.0042696411830933185
0.003706316087189103 -0.006106289315289332 -6.30986423682195e-05
-0.0034970134418940207 0.039635142405390324 -0.0005310670241484257
0.02728132844282041 -0.010130161701090493 -0.0018587629628438788
0.029811067207696714 -0.0338807739302129 -0.00321800562704848
0.03079598857779686 -0.030302892079754836 -0.00321800562704848
0.014283674077741124 0.033912249555105994 -6.30986423682159e-05
0.01885710523320409 -0.039481885186484746 -0.006372908749870874
0.020904524988426293 0.00020257115574511624 -0.002124299244693198
0.03738640241018008 -0.0015708792332597733 -0.00042485469557421634
0.008546401673213902 0.017092770907739002 -0.00847617682312158
0.027958270887582286 -0.0009036724070142778 -0.0007080972791744017
-0.0024075784168684205 0.025199194704003586 -0.000708097279174397
-0.04467146819064617 -0.027617134810696945 -6.309864236821881e-05
0.021361084612386665 0.03404298313850701 -0.00030346969724308624
0.00645886072207985 -0.00575225931614012 -0.010579447428738108
0.02865243965396262 0.029231403060972116 -0.0007080972791743985
0.014794398993238303 -0.04023077757550274 5.539550206500269e-09
0.0005959691497022688 -0.02755314468443274 -0.0005310670241484331
0.023702245268352965 -0.015442113621967886 -0.0021242992446932
0.01811521979587412 0.021048762584685892 -6.30986423682175e-05
0.017969011171611753 -0.0028668371993659856 -0.000796610618204032
0.040523992558750443 0.0021543479600026117 -0.002124299244693199
-0.00011199971773229341 0.007904384681083568 -6.309864236821778e-05
0.00029237968361769273 0.01995939012679143 -0.0015932266809945527
0.03521820609051353 0.02727670225892314 -0.0015932266809945543
0.016966418130384502 -0.009858890056241892 -0.009527812632403009
0.0005934383951597185 -0.019252716710733617 -0.003218005627048477
0.022532402431497154 -0.001456940790925838 -0.009527812632403009
-1.7950822060601106e-05 -0.02014372374156276 5.539550209537647e-09
0.03531917981911968 -0.023161424706539094 5.5395502070538216e-09
-0.013616808905578441 0.04304556960065977 -6.309864236821323e-05
0.01787829212777947 0.02101630157300521 -6.309864236821748e-05
0.01796455105545698 0.028198934470209137 -0.0010621469000533497
0.033300873787212554 -0.016323116091657958 -0.0010621469000533553
-0.0012650504415038237 0.006267745517097289 -0.0005310670241484294
0.01913083097016375 0.024743679324657222 -0.0010621469000533501
0.0287163119621808 0.02998693122459734 -0.012682719047300953
0.024975059516546494 0.005760398164129855 -0.0021242992446931976
0.03545245139961042 -0.004671717260358892 -0.0021242992446931994
0.026051375913021306 -0.0027766366388431904 -0.0003540440496741693
0.043275047895605545 0.026635263863643087 -0.009527812632403007
0.018872702962044414 0.019137573089823872 -0.0013276831819026716
0.019725091378671504 0.0016883909081961026 -0.0010621469000533527
0.0014636706826597478 -0.012685463693366877 -0.00035404404967416883
0.018413263802237977 -0.03955056745706689 -6.309864236822395e-05
0.002806777638450026 0.017520535939406726 -0.00847617682312158
0.010378394572247408 0.018688864581781008 -0.0014161964576231566
0.043348050335161044 0.02605550619015196 -0.0021242992446931968
0.017670195764106455 0.021173112577622263 -0.001325062183288234
0.006376676151167884 0.014299455351694745 -0.0015932266809945538
-0.0005573870441168019 0.03704783491275117 -0.0010621469000533477
-0.015818495505789235 0.040553783536353805 -0.009527812632403002
0.013929788300366957 -0.03953822346132324 -0.009527812632403012
0.017477500701602554 0.03321175267167816 -0.001896694637236146
0.007136823565416259 -0.003769183868580784 -0.001239169906182188
0.016935950719164237 0.033607753643969805 -0.0011147342617222045
0.005942164846857437 0.02947214621472653 -0.002124299244693194
0.025861714397659868 0.0061571010304266325 -0.0063729087498708694
-0.004572792257842188 0.027111463980161066 -6.309864236821546e-05
0.016302867901540757 0.03300380768505007 -0.012682719047300953
-0.0023975966305902247 0.026543076677170877 -0.0010621469000533486
-0.004330237294550665 0.040092658746473706 -0.0021242992446931924
0.023821596584023205 -0.017549119417485923 -0.006372908749870872
-0.014429403417909884 0.04114244148531036 -0.0032180056270484695
0.02733183346221235 -0.01606427195420612 5.539550208295612e-09
0.028031890474410417 -0.0007672803400389836 -0.0014161964576231596
0.016104204663392647 0.03323822878268114 -0.0013250621832882326
0.009912967869753727 0.023320877182537305 -0.0005310670241484283
0.01024623727206242 0.02352396692382558 -0.0007966106182040288
-0.03918813625657573 -0.026521637868721186 -0.002124299244693197
0.010582118135870244 0.021279764798352474 -6.309864236821701e-05
0.04204601099170508 0.017220327944641987 -0.012682719047300955
0.03783018283381819 0.02730495247754624 -0.001062146900053351
-0.03884568344984442 -0.02929527609783309 -0.0010621469000533523
-0.0018015903548041108 0.023269810217008732 -0.0014161964576231553
0.008129708337346442 0.02150227784317395 -0.0017702496871233888
0.001959469869416819 0.017933717931111957 -0.010579447428738105
0.030301863259926745 0.027700480518046005 -6.309864236821754e-05
0.02823128100964438 0.0038113741893146653 -0.0008497149623532134
0.02981964082009802 -0.015335926988663233 -0.0021242992446932002
-0.002710016103283382 0.024024653403339622 -0.004269641183093315
0.0009949100168259559 0.019282614099217808 -0.0021242992446931946
0.01793376425504379 -0.0029597555903719997 5.539550210260911e-09
0.016861018183353234 0.0007100731900930667 5.5395502107158105e-09
0.01871341628412151 -0.0017357210709477754 -0.0009559345398245638
0.027281732310523204 0.004784339865589251 -0.0063729087498708694
-0.024881213704246275 0.020684880985962474 -0.003218005627048471
-0.0195374807535205 0.0011328753183296703 5.5395502129894165e-09
-0.02260675410986564 0.013393318914108429 -0.002124299244693194
0.017531471666251044 0.031934924011874026 -6.30986423682163e-05
0.0315411971899054 -0.029053212523835074 -0.01268271904730096
0.011352117182066296 -0.03706482512028574 -0.0032180056270484795
0.020953609121112163 0.028469071689696493 -0.0015932266809945532
0.021898605470196852 -0.0031027738380307334 -0.002166370071003633
0.036887839580442706 -0.0003095914740719013 -0.0019472726932522283
-0.015311813958124438 0.012114840685061416 -0.0021242992446931946
0.03860953978753021 0.012547263390076462 -0.0021242992446931976
-0.02408001820983077 0.0376952408411482 -0.0005310670241484248
-0.021463301597704494 0.03977107467106886 -0.001062146900053346
0.014687211078186865 -0.009764405070570983 5.53955020973802e-09
0.005931400164146803 -0.0033295874484755438 -0.0021242992446931976
0.02727772372916409 0.004841982921599386 -0.0042696411830933185
0.027284793722415285 0.004944945797233406 -0.008476176823121583
0.030599025426504105 0.02689651549147476 5.539550212651869e-09
-0.005229515543848284 -0.015110034904860256 -0.012682719047300957
0.027406307553759616 0.007520396098931424 -0.0007080972791744007
0.018916017947134555 -0.0009091096276649756 -0.007775088309493282
0.04469849182065442 0.024754621353600407 -0.012682719047300955
0.0184468108933254 -0.0018108733690246216 -0.0018587629628438772
0.02135766435644818 0.025004394552310683 -0.0032180056270484734
0.007782879259095108 -0.03396571902283274 -0.001593226680994559
0.03569648307330089 -0.004148329013335479 -0.012682719047300959
0.008648549985671715 0.016740499780112217 -0.00805552452530166
0.0027344065832653106 -0.026699633564441307 -0.012682719047300959
0.0304217608680634 0.026970917511994267 -0.0014161964576231568
0.017436742976834074 -0.009543749188231651 -0.0010621469000533538
0.03311290208112885 0.027548982422635638 -0.003218005627048474
0.0184382369047002 0.0340138967570257 -0.00847617682312158
0.0032419425606721435 -0.009158275157300383 -0.0013250621832882363
0.04351946302363671 0.008426612879584863 -0.0014161964576231596
0.02493743783763072 -0.014850740068439984 -0.0010621469000533547
0.0186568281001352 -0.000653172255262572 -0.0042696411830933185
0.003256461187947493 -0.009103336088622972 -0.0025870221155869723
-0.0023987205870236016 0.02508585601345785 -0.001416196457623155
0.004022612712592293 0.02922448540815357 -0.0021663700710036283
-0.00026214585767053304 0.007296690773953844 -0.012682719047300955
0.00453987063838648 -0.03352204761902511 -0.006372908749870872
0.011466990640523231 0.024219505584364604 -0.0002655307422991074
-0.002037393140453861 0.009028830171207192 -0.0010621469000533506
0.0383008910902409 -0.0007415808185583451 -0.0009559345398245649
0.008992089473495259 0.01421621436330495 -0.001593226680994554
0.024913904291107923 0.005615666527867365 -0.0017702496871233914
0.002977691988812599 -0.0061095769995051594 -0.0005310670241484311
-0.0013239220770068947 0.037905598632029164 -0.0015932266809945508
0.03545245139961042 -0.004671717260358892 5.539550209006634e-09
0.02293542924722541 -0.0032020336549241674 -0.008476176823121583
-0.00013310038603398165 0.006668029319214302 -0.0005310670241484294
0.03501607439207337 -0.002286359308169786 -0.012682719047300957
0.031066198838231137 0.029376149118263348 -0.012682719047300953
0.03756594888714768 -0.0014395254009545377 -0.0006372866332743558
-0.028171400098683623 0.025966797238396476 -6.309864236821415e-05
-0.012233383248854196 -0.022993215312790843 5.5395502099834165e-09
0.025760139152823523 -0.01460790062979099 -0.006372908749870872
0.002927408349685863 -0.006926902436970011 -6.309864236821953e-05
0.026454095283204807 -0.016842222281831364 -0.00035404404967417084
0.027880595742459716 -0.0010404386009241068 -0.00035404404967416927
0.018021869399304287 0.018710656705409116 -0.0010621469000533508
0.03652697290223403 0.0010571029353728214 -0.002124299244693199
-0.036837927934571926 -0.02708181079103937 -0.012682719047300955
0.005420361888533262 0.016736520000703973 -0.00847617682312158
0.04300140950195451 0.028515302412631775 -0.009527812632403007
0.018400051971395024 -0.016428794236780113 -0.000531067024148433
-0.022782354355671795 0.03590856740425824 -6.309864236821342e-05
0.0014182855822527398 0.03789113935798636 -0.010579447428738103
-0.004488585889579483 0.022522992751567814 5.539550214336521e-09
-0.04023717774905706 -0.02860405046070124 -0.0063729087498708694
0.027642059677894567 -0.00024869535480034216 -6.309864236822034e-05
0.04127595837774061 0.005770237471681665 -0.0005310670241484321
0.032446218431846884 -0.019277541274724256 -0.006372908749870873
0.024651207211217052 0.03331650437653358 -0.0010621469000533497
0.0339396100622189 0.0014478360328591315 -0.009527812632403009
-0.004555173400532709 0.027178651974798015 -0.0032180056270484717
-0.027390166860812987 0.02223222071734581 -6.309864236821458e-05
0.014729402821397071 0.021919672424826828 -6.30986423682172e-05
0.040857506774478226 0.01557219909715265 -0.002166370071003632
0.023353596565996417 -0.03576859937977084 -0.002124299244693202
0.0040681372514977466 -0.02869246603073162 5.539550208380788e-09
-0.010439274601864619 0.04412420805722141 -0.0015932266809945495
-0.028541148306570577 -0.028326172031279424 -0.012682719047300957
0.025266538158114887 0.006203907266172701 -0.0017702496871233914
0.019020603531285606 0.0017167426971587238 -0.007634868682169605
0.029170158822328228 0.0077791294672634615 -0.0010621469000533525
-0.017334831750026175 0.04214550118857782 5.539550217204241e-09
0.016155546430023753 0.03331029181955847 -0.012682719047300953
-0.035764639392242996 -0.02934763273570416 -0.0010621469000533525
-0.028086704861542522 0.025161004973705853 -6.309864236821423e-05
-0.04624975039604125 -0.025145571729607193 -0.002587022115586971
0.002718382055114782 -0.01992729165519271 5.5395502093930495e-09
-0.04685244905879787 -0.025411001443004445 5.539550211846798e-09
-0.03855836565418067 -0.00929112651512391 5.5395502130485666e-09
0.04309002502470395 0.009363067496200646 -0.0021242992446931985
0.02901668990995741 -0.01057436537004586 -0.012682719047300959
0.0011986005511121923 -0.0289728413226888 -0.001062146900053355
0.0004849496842379704 0.03922675350240819 -6.309864236821449e-05
0.01739124785843424 0.01866925598717882 -0.000708097279174399
0.009584631206718014 -0.038711579555583873 -0.0010621469000533564
-0.002085284040085298 0.022789519409680076 -0.0021663700710036287
-0.039822416526886555 -0.029229822262175537 -0.0010621469000533523
-0.026226996885911628 0.029761365368467914 -0.01268271904730095
0.028291664525784452 -0.014796035092189184 -0.0003034696972430918
0.0016332429691536616 -0.011478562435744152 -0.001062146900053353
-0.001655716483419435 0.023002791759071373 -0.002124299244693194
0.007801783967471491 0.02069551712383137 5.539550213390135e-09
0.043009661117718034 0.009524335992496755 -0.0021242992446931985
0.023294926734361093 0.03659208367650595 -0.0005310670241484277
0.0008632284376153993 -0.012206827889684474 -0.002124299244693198
0.009660911907586075 -0.03551567455981237 -0.001062146900053356
-0.004995017892760145 0.005336352749781349 -0.002124299244693196
0.03799247495428369 -0.0010511767412337144 -0.00021242275787407684
-0.03337162940586587 -0.003744292632765621 5.539550213319254e-09
0.017636165937839378 0.03380859294042583 -0.003218005627048472
0.017381255381734156 -0.0046530488357021315 -0.0010621469000533532
0.041300939266867884 0.016146313474034214 -0.010579447428738106
0.002621661264673345 -0.03044010321465028 -6.309864236822201e-05
0.020935575824263128 0.03613472470359539 -0.009527812632403005
0.017762125818764487 0.03331429080712598 -0.0010621469000533493
0.017225691958220612 0.03304346908543894 -0.0016690937017095236
0.018589554681728265 -0.0016815338597588481 -0.0014870071035232057
-0.027165262120447443 0.021636489055833874 -0.003218005627048471
-0.03233925184112644 -0.005642445205461756 -0.009527812632403005
0.005331175725874008 -0.03548654702734589 -0.0021242992446932007
0.01751972191554302 0.032726690528116734 -0.0018587629628438736
-0.044324934606126444 -0.01923221485589491 -0.012682719047300955
0.01682485794327888 -0.0003025440379342519 -0.0042696411830933185
0.037276302324240146 -0.0016041305674675231 -0.0019472726932522283
0.01789574178073161 0.03387740006203075 -0.003218005627048472
0.020549861206295907 -0.0024958707874916733 -0.0016405502670885624
0.025249151083517815 0.03357337092673553 -0.012682719047300953
0.03565736594389316 -0.004786413363752239 -0.0021242992446931994
0.032900793174797584 -0.021104547570240235 -0.006372908749870873
0.01726885339021304 0.0337065211360818 -0.0011147342617222045
0.009065470455276265 0.014219085917437313 -0.002124299244693196
0.04520773186699372 0.02816572566081445 -0.0021242992446931963
0.003752113095354496 0.03523006893003019 -0.0003540440496741639
-0.0027968655914472483 0.024247565542533656 -0.012682719047300952
-0.0015819568958052943 0.02287142423918547 5.539550214195495e-09
0.024811372833866575 -0.017850422306699937 -0.0021242992446932002
0.021634150102212948 -0.015832687209967816 -0.006372908749870871
0.0416000856504007 0.0165604033965747 -0.0042696411830933185
0.041754771543046944 0.004800044374379057 -6.309864236822067e-05
0.00559175089106149 0.031329178307739756 -0.0021242992446931937
0.03501778913939028 -0.0022944832085434685 -0.006372908749870871
-0.022912538298143343 -0.02791663116851499 -0.0021242992446931985
0.04340694349570302 0.005235441652679057 -6.309864236822072e-05
0.00034555462955897806 0.008092101410707197 -0.0010621469000533508
-0.003880175997973485 0.009294948565485971 5.539550212896333e-09
0.02188796261155754 0.02527442957516193 -0.0005310670241484289
0.005231371111230838 0.014468810647762797 -0.0021242992446931955
0.0013931924215455616 -0.012985606025340178 -0.001770249687123392
0.04320548510818235 0.01931802563552369 -0.0021663700710036317
-0.03081759493250699 -0.0291134022137985 -0.002124299244693198
0.029811862159369377 0.02834172780916419 -0.004795453516529245
-0.03223453727297095 -0.0055531528481293346 -0.012682719047300953
0.008664092452560253 0.01637168574258271 -0.005110948817572132
0.0037928383171484735 -0.02925150966658888 -0.006372908749870872
0.021337218827514628 0.025189293813983847 -0.009527812632403005
-0.005219635873501901 0.026346400579109554 5.539550214786786e-09
-0.022345332204847117 -0.025027786729582897 -0.002124299244693198
-0.0008678989900445959 0.006386020207494008 -0.002124299244693196
0.018785671263735395 -0.037377381902427925 5.539550206558498e-09
0.0409296062760036 0.007168549305677027 -0.0010621469000533534
0.0004162460934804556 0.007885468156833267 -0.0010621469000533508
0.024936168898985176 0.004474596109173234 -0.0017702496871233916
-0.04619878710204016 -0.025796716757691945 -0.008896832159780476
-0.008117999742613102 -0.02031925852643209 5.539550210015015e-09
0.008659909244616423 0.01636800968401015 -0.0009044064667744683
0.03162761277356874 0.026886220303499846 -0.0005310670241484293
0.01830698961183135 -0.002068025670227816 -0.0013276831819026738
0.03266098695991449 0.0034905103381775303 -0.0032180056270484764
0.013096208372931732 -0.03767500315858539 -0.009527812632403012
0.014304878558707839 0.021611724441974046 5.539550213089106e-09
0.004841099707858726 -0.004194985784651462 5.5395502109316e-09
0.030181845621881764 -0.01203609526010629 -0.012682719047300959
0.012792739744493827 0.02245780901966283 -0.012682719047300953
0.018110919565003714 0.021776314345068024 -0.00026553074229910807
0.0026429614613599282 0.017592497193181945 -6.309864236821691e-05
0.017810616120796333 0.02195001942160083 -0.0018587629628438746
-0.03529657423285587 -0.02874470179336644 -6.30986423682195e-05
0.013076751468212038 0.024684472147569574 -0.0015932266809945532
0.02150721447527252 -0.00044630100441866706 5.5395502103086706e-09
0.0027479817112964666 -0.01961202817493348 -0.001593226680994557
0.00851270878863358 0.017192074012011394 -0.0013250621832882339
0.00617586949774398 -0.0032795230475934386 5.53955021094696e-09
0.041499502906087685 0.01641846511688211 -0.008476176823121582
0.04633766653034168 0.025229912676007746 -0.009527812632403007
0.0016959683743689676 -0.029964367944782373 -0.0021242992446932002
0.02676031865291949 0.031826267296152705 -0.0005310670241484285
0.018263420052132568 0.021797980584509657 -0.0021242992446931955
0.02139513781326679 0.024273901850315593 -0.0032180056270484734
-0.0012996413018411493 0.021426590720665308 -6.309864236821626e-05
0.028960748911653022 0.007782967396560496 -0.0014161964576231588
0.0050554295447374714 -0.030506706207044477 5.53955020812792e-09
-0.021877964023285897 -0.02764799449756858 -0.0021242992446931985
0.005056126976388877 0.03137036741499851 -0.012682719047300952
-0.030504548756338935 -0.001662822161758142 -0.00106214690005335
-0.0009250541344392288 0.017375235182569674 -0.0010621469000533497
0.03874308563324444 -0.000271333160971343 -0.0018056514014521353
0.03622152128049953 0.00013319450750823297 -0.010579447428738108
0.017333128516593767 -0.004835605277371452 -0.001327683181902674
-0.0019772388578217065 0.027718830300019717 -0.0003540440496741644
0.0008851421655485326 0.03950281519767357 -0.0017702496871233864
-0.01773931268628063 0.04193924556276537 -0.0005310670241484247
0.014993061012015592 -0.005175080554833091 -0.012682719047300957
0.017352040259188527 0.032893937248014635 -0.00132768318190267
-0.012069700401040195 0.04339076545763915 -0.01268271904730095
0.03728747401134211 -0.0016082214737033161 5.539550209219178e-09
0.008648549985671715 0.016740499780112217 -0.008896832159780474
-0.02284117068138678 0.03584595804455177 -0.0032180056270484695
0.007136823565416259 -0.003769183868580784 -0.0019472726932522268
0.001976924183620049 0.018579034257105064 5.539550213522336e-09
0.02287767435933507 -0.015549557748067837 5.53955020862294e-09
0.01768955043642418 -0.01477310174850687 -0.012682719047300959
-0.025481646683562943 0.023480115062560702 -0.0015932266809945508
0.01829324250958765 0.01882714897492671 5.539550212549564e-09
0.040211336758009496 0.014727019951553105 -0.002166370071003632
0.005633266581663102 -0.004225864944939275 -6.309864236821942e-05
0.01714917587266823 -0.03804570777590855 -0.006372908749870874
0.039698287333703716 0.0008492645573826867 -0.0011683591336638524
0.0012155772796004097 -0.015848560476975537 -0.0032180056270484764
-0.023784275390998397 -0.025901756127627105 -0.0063729087498708694
0.01917055932557747 0.023881609268999553 -0.0018587629628438746
0.0185437048758129 -0.0006312713912189644 -0.0063729087498708694
0.011766532995056802 0.021601234248159164 -0.0014161964576231564
-0.028328242551626213 0.023390537485642907 -0.0010621469000533475
0.019629629416334702 0.0017838425807686765 -0.001416196457623159
0.007377753941720946 -0.036594260709792714 -0.003218005627048479
-0.02358919518472567 -0.025852261867701815 -0.012682719047300957
0.018128791942691475 0.01928636644776598 -0.004795453516529245
0.012866564141826225 0.02196518349300655 -0.0003540440496741659
0.018897202127597976 0.022497427456589916 -0.000265530742299108
-0.002488545752228026 0.03894253354035655 -0.0015932266809945506
0.01703225345499596 -0.010068410633404816 -0.009527812632403009
-0.008160111884065898 -0.017646870989381426 -0.00637290874987087
0.017750597747711816 0.022017074684464864 5.539550212921107e-09
0.01868302971486211 -0.0006684439407702129 -0.0063729087498708694
-0.035788978705269384 -0.006042896050781691 5.53955021322349e-09
0.043369815528569194 0.001961207749977144 5.539550209225307e-09
-0.02539357133328866 0.03088314692198265 5.539550216503239e-09
-0.01132582547612443 -0.02244732788050338 -0.0010621469000533534
0.013787881159542761 0.03268840285073286 -0.001062146900053349
0.01806521057118916 0.001596418369721011 -6.309864236821955e-05
0.030599025426504105 0.02689651549147476 -0.002124299244693196
0.020841295563925673 0.00028512310035746304 5.5395502104270194e-09
0.03960354007972062 0.0007295764693388717 -0.0001062104292998604
0.018029305708907314 0.03339648273339071 -0.00045520003508802944
0.01963985896555206 0.0017738431327777673 -0.0021242992446931976
-0.03247601363535046 -0.005760681499961414 -6.309864236821724e-05
-0.024799753175131025 0.0016205864448014973 5.539550213363363e-09
0.02096335196077586 0.03400405410590362 -0.0006069376851392524
0.021170191282458367 0.026122515883148113 -0.009527812632403005
0.0011445637137563094 -0.011938859063595278 -0.002124299244693198
0.018862422352334558 -0.0018377708740225105 5.539550210323041e-09
-0.008004914189427767 0.04172750184827025 -6.30986423682137e-05
0.03453070338267688 -3.723502383255893e-05 -6.309864236822073e-05
0.02837339166210717 0.029655815402387552 -0.0015932266809945536
0.042924050234551675 0.009694109061040635 -0.0021242992446931985
0.004416143039657345 0.016969357440740268 -0.012682719047300953
-0.023552610013476378 0.015178132340555064 -0.0032180056270484717
0.008689080203484646 0.016486305787358053 -0.0025870221155869697
0.011291561130240334 0.014921068898415504 -0.002124299244693196
0.018753900790913346 -0.0017610234705603021 -0.0014870071035232057
-0.0020655973602867433 0.02380259688665164 -0.001770249687123388
0.029734565038545283 -0.010501000224853898 -0.0021242992446932
0.010531903004586049 0.018205322323174115 -0.0014161964576231566
0.030438655948718724 -0.012412465088633145 -0.006372908749870872
0.03393544412050191 0.029295330339462904 -0.009527812632403005
0.02622179333996893 -0.034557720291195165 -6.309864236822389e-05
0.03307486788032558 -0.01675698673254481 -6.309864236822243e-05
0.02469574102559956 -0.03504413785113498 -0.002124299244693202
0.03549637299780157 0.029452509537117748 -0.009527812632403005
0.02085371501488051 0.0339901541696783 -0.0010621469000533493
0.015813391156735242 -0.012929925903027667 -0.001062146900053354
0.034094472317573135 0.004283598419258176 -0.010579447428738108
0.04388127165638452 0.003925762604106377 5.539550209402345e-09
0.005420361888533262 0.016736520000703973 -0.010579447428738105
-0.04265399271831423 -0.02652703132103302 -0.0032180056270484747
0.015504842649173293 0.02048282508847351 5.539550212895901e-09
0.04399510850443891 0.02812111683431813 -0.012682719047300955
0.0031894706977362644 -0.017143911594968735 -0.0010621469000533536
0.025699217360172583 0.0007441143212940009 -0.0005310670241484317
-0.043251744353473544 -0.02585962153437091 5.539550211578739e-09
0.03015619056949768 0.02717826184521034 -0.0017702496871233894
0.007355210703917358 -0.004379370236881975 -0.0005310670241484311
0.017835866673287005 0.018650245205839744 5.539550212558808e-09
0.0003802599774287886 0.019140976376603912 -0.004269641183093316
0.0029068925746154285 -0.010113041324643983 -0.005110948817572134
0.018753900790913346 -0.0017610234705603021 -0.0019118709789234848
0.008677301457883082 0.016598966324417583 -0.00973813979425929
0.03799247495428369 -0.0010511767412337144 -0.0021242992446931994
0.039506621734918125 0.010369148489269325 -0.0017702496871233918
0.018126972693545223 0.033424506788858034 -0.000682804642545078
-0.001087741441239868 0.017518717263182864 -0.0010621469000533497
0.002551963944419161 -0.02599694948871602 -0.006372908749870871
0.03141293005705039 0.029029502208162573 -0.012682719047300953
0.03840921332946249 -0.0006290360820569825 -0.0005310670241484326
0.025401485171054908 0.004680027019655204 -0.0063729087498708694
0.01837366891643605 -0.0008251120229307704 -0.012682719047300957
0.035219255931453114 -0.003105544093420011 -0.009527812632403009
-0.026189430040265953 0.029936264667384655 -0.00321800562704847
0.02137815465841143 0.024757915692441776 -0.012682719047300953
0.018009860101875937 0.0015373580544742209 -0.002166370071003632
0.024323917639026107 0.03394445505236241 -0.00847617682312158
0.03977680341299884 -0.002993055312582812 -0.0010621469000533545
0.02804203568533975 0.0023768570015906608 -0.0021663700710036326
-7.698712136235198e-05 0.0066981899575158845 -0.002124299244693196
0.017920262790066425 0.0014332714095512988 -0.002166370071003632
0.025720144409780002 -0.016649696982172193 -0.012682719047300959
0.018614307983064564 -0.0016876540908931162 -0.0012745788377534924
0.006039586495924721 -0.006802276946169193 -0.008476176823121583
-0.04431187638455756 -0.02591386046014112 -0.008896832159780476
0.010894196444327023 0.015363559634534885 -0.0021663700710036304
0.03756594888714768 -0.0014395254009545377 -0.00010621042929986051
-0.0028260697574380494 0.024331989152628627 -6.309864236821587e-05
0.0021355414095317743 -0.022547283187658914 -0.006372908749870871
0.00808919071395858 0.016330694200156422 -0.00847617682312158
0.02781414114905369 0.00015136934911596183 -6.30986423682203e-05
-0.04099131351167826 -0.028524413552921162 -6.309864236821913e-05
0.0032419425606721435 -0.009158275157300383 -0.0038489817946491273
0.017101857581869283 0.00018383684804417817 -0.010579447428738108
0.01902060353128561 0.001716742697158722 -0.002587022115586972
0.006786653199522325 -0.004646912890223336 -0.010579447428738108
0.03147824567651919 -0.03301808332375028 5.539550206243639e-09
0.008680523139850056 -0.03545041428235817 -0.012682719047300959
0.02383916640389418 -0.01819516531506336 -0.00035404404967417084
0.017713904701050043 -0.0021872251215309195 -0.0021663700710036326
0.03944171855292116 0.013673738834126975 -0.002166370071003632
-0.008808014794917163 0.041820566024200805 -0.00321800562704847
0.0114415788773777 0.015511773204455119 -0.002124299244693196
-0.027372217434279995 -0.02818779842216741 -6.309864236821993e-05
0.014448991983822117 0.0318093533809371 -0.0007080972791743973
0.04315732022943587 0.015869249094405593 -0.012682719047300957
-0.001247904803212706 0.017665136150849494 -0.0010621469000533497
-0.043835812695086684 -0.025612792380824083 -0.001593226680994555
0.024961314932067928 -0.017779388482806427 5.539550208258863e-09
0.026225720912075947 0.03233000550974573 -0.0005310670241484283
-0.0030056260045118063 0.00867071150561661 -0.009527812632403005
0.018676477748336133 -0.0017149296296982766 -0.001062146900053353
0.02079731065246797 0.020628819423218314 -0.001858762962843875
0.01829324250958765 0.01882714897492671 -0.002124299244693196
0.000932999699702971 -0.017208439622973432 -6.30986423682205e-05
0.006916139109463008 -0.003534159680703367 5.539550210874626e-09
0.0462793146510366 0.02564984039146756 -0.012682719047300955
-0.02311904035933872 0.03554274843713942 -0.0032180056270484695
-0.023526321223032817 0.03822179154267939 5.539550217167221e-09
0.018948159402342905 -0.016211275572040433 -0.006372908749870871
0.010853692638344284 0.015875792422870953 -6.30986423682176e-05
0.04139965533814892 0.016280212859561168 -0.008476176823121582
0.00735745813127256 -0.004467571937248487 -0.0010621469000533525
-0.00046459519950891996 0.02015454611880651 -0.00847617682312158
0.0198384067975832 -0.0026886895292326796 -0.00035404404967416894
0.02104502931390898 -0.0033348888957959177 -0.0007080972791744015
-0.028223816269044386 -0.003256595705885226 -0.0021242992446931955
0.030852146551172323 0.027290438889641794 -0.004795453516529245
-0.002289521221763596 -0.015246702229205286 -0.0010621469000533532
0.014975395542567485 0.021079775493874218 -0.0007080972791743985
-0.021162963784559206 0.039963844186807665 -0.0005310670241484247
-0.04379129776298971 -0.02616395338474017 -0.012682719047300955
0.005076178163905811 0.02864719310696464 -0.00026553074229910655
0.003258511889189806 -0.00902761736038249 -0.0063729087498708694
-0.039677623834051955 -0.011765637991327724 -0.012682719047300953
0.026834604719901126 0.007292198045354554 -0.0014161964576231588
-0.039179287378092495 -0.029275323151428737 -0.0010621469000533523
0.03393544412050191 0.0292953303394629 -0.003218005627048474
0.014884954208502124 0.02116591936361479 -0.0007080972791743985
0.0166821444059119 0.019107551495631248 5.539550212677954e-09
-0.0057035119390658855 0.04117768951420173 -6.30986423682139e-05
0.03496871530606437 -0.004054173542658344 -0.0010621469000533543
0.04103504170868317 0.0020346562491626884 -0.006372908749870871
0.03187107954460503 0.006976465357731316 5.539550210461307e-09
0.02503273052731033 0.03559169937476389 -0.012682719047300953
-0.005024237635482202 -0.017793556121745463 -0.0010621469000533532
0.018593498530362736 0.022063909671460727 -0.0015932266809945536
0.028633265340745243 -0.014294602266643992 -0.0021242992446932002
0.0008740682196858114 0.029240023391741414 -0.0003540440496741644
0.025641664806354117 0.005929408740352855 -0.010579447428738108
0.01936123222197079 0.0013742395443586638 -0.011420756076163247
0.017225485577770667 0.03304743668756416 -0.0012138844867954266
-0.0014749605685021258 0.028254267109410924 -0.0014161964576231549
0.010412866979205111 0.019816119020856067 -0.0021242992446931955
-0.0029812545389241575 0.025192773299104933 -0.008476176823121578
-0.0018502837783615253 0.02336198382747771 5.539550214263953e-09
0.029100270469000794 0.005608700574551131 -0.0063729087498708694
0.025699217360172583 0.0007441143212940009 -0.0010621469000533532
0.04171258764492627 0.0271334229689493 -0.0032180056270484743
0.02176518806418942 0.02268290150133439 -0.0010621469000533506
0.04319630089462033 0.007220148584152525 -6.30986423682205e-05
0.03188909963594994 0.004189739809429938 -0.00637290874987087
0.028904157399374016 -0.014093493974834137 -0.001062146900053355
-0.005763271016950366 -0.014883775311622922 -0.001062146900053353
-0.023321171365055512 0.037706289427948216 -0.009527812632403002
-0.022939372745307614 0.00023644593708638516 -0.00216637007100363
0.03373781169759841 -0.017106036612013376 5.539550207792872e-09
0.01627300047128851 -0.012448547744705689 -0.003218005627048477
0.041286212128158806 0.007821983520773854 -0.00637290874987087
0.02771589012751828 -8.939910993584396e-05 -0.008476176823121583
0.04214044895653341 0.018284431329452 5.5395502110317844e-09
0.037639986050327236 -0.001377274947029942 -0.0015932266809945573
-0.04043701502172043 -0.026414602947875395 -0.0015932266809945553
0.017964032753775182 0.01868965597110713 -0.0002655307422991084
0.006155791405736902 -0.0038867744373547943 -0.012682719047300955
-0.042378607461480575 -0.020247660593641605 -0.0005310670241484298
-0.04041011517532347 -0.029178816386981783 -0.002124299244693197
-0.028544027161611328 -0.0029283150011213464 -6.309864236821718e-05
0.019744592653162443 -0.013842476418050897 -0.0003540440496741701
0.024250127256636257 -0.0035802720169341327 -0.0014161964576231598
0.019123378521532227 -0.0012288670918811067 -0.009527812632403009
0.027885400080104098 -0.035374144871785265 -0.0032180056270484803
0.008577013623275108 0.01699740627266082 -0.003428329750065785
0.04023391223807768 0.0016171180170106078 -0.002124299244693199
0.021421971802281052 -0.03943074964092872 -0.0015932266809945603
-0.02501285528519223 -0.0008683055134415481 -0.012682719047300953
-0.04684238243209832 -0.02553700899074555 5.539550211832818e-09
-0.02255112019828132 0.03615031924457699 -6.30986423682134e-05
0.046249860836075275 0.021212425903386654 -0.0010621469000533523
0.01917949136434542 0.002155125117080959 -0.0014161964576231588
0.018618210328000272 0.021347688710575716 -0.00847617682312158
0.00806552858937339 0.021372630671883178 -0.0007080972791743981
0.021202611149393705 -0.002855630907832176 -0.007950360437900358
0.023707985793881895 -0.0009921545316859952 -0.0007966106182040321
-0.0002462649379350819 0.04068345328469294 -0.0021242992446931924
-0.02894507884653184 -0.0267589350275454 -6.309864236821969e-05
0.025760139152823523 -0.01460790062979099 -0.01057944742873811
0.003536182076581999 -0.00552356081709571 5.5395502108705975e-09
0.03474976043430669 0.004409857990297498 5.539550210012831e-09
-0.012981311026767212 -0.020545750649860917 -0.001062146900053353
0.021078634692848118 -0.03726393910991393 -0.006372908749870874
-0.028181932993684277 -0.026226361841073298 -0.0010621469000533527
-0.0020108210234457144 -0.01430989228319216 -0.00637290874987087
0.009916788957411892 0.01835832983307083 -0.00216637007100363
0.028936812656950445 -0.014121080223427042 -0.0007080972791744031
0.04441454289960856 0.022984923244135078 -0.008476176823121582
0.03660740621847403 -0.004986303015774063 -0.0014161964576231607
0.030178444390702802 0.00524788466678358 -0.0021663700710036326
0.028767940850240464 -0.010354451251093088 -6.309864236822148e-05
0.03167525059382901 -0.0186633104002011 -0.0003540440496741713
0.01800942504063752 0.0022235602250228223 5.539550210806007e-09
0.02383916640389418 -0.01819516531506336 -0.0010621469000533551
-0.02180334784867863 0.00021322460289232849 -0.0010621469000533503
-0.042769883163904635 -0.026010790660028236 -0.00026553074229910943
0.015587609152702703 0.02118611009607263 -6.309864236821733e-05
0.019270487365052706 0.03420597521246502 -0.011631083238019528
0.025460670018879073 -0.0031013385007025553 -0.0017702496871233925
0.029578627680842424 -0.010345448717094646 -0.0010621469000533545
0.005434470368076434 -0.00439409064281147 -0.0063729087498708694
0.032574399374101705 -0.0196434482305482 -0.012682719047300959
0.008688103023498739 0.016442160465669122 -0.00048375435888198324
0.020136476874311363 0.03387762730957297 -0.0014414890942524752
-0.041826232678427284 -0.029007816123219114 -0.001062146900053352
0.01646968301761636 -0.040296067153757324 -0.0005310670241484355
-0.018664550015431408 0.041440607534369726 5.539550217210904e-09
0.025481748538218944 -0.01491612000967591 -0.004269641183093321
0.0028295976686685846 -0.02459827696344448 -0.0021242992446931994
0.021952060917606455 -0.0007087604927723038 5.539550210253596e-09
0.016751480948915348 -0.009019254762340674 -0.003218005627048477
0.013998951296628507 0.03234573554698351 -0.0007080972791743972
0.001878508019642146 0.037133819504194435 -0.008476176823121578
0.006768621335067757 -0.0063238147040684135 -0.0013276831819026736
0.016963314033059222 -0.009848592708718832 -0.012682719047300957
0.03718308355403106 -0.0013956377975108333 -0.0021242992446931994
0.037255090474562054 -0.0015747283492766537 -0.0014161964576231603
-0.019688005615429816 0.040853949299998506 -0.002124299244693191
0.002149123126373097 -0.022850496072703057 -0.006372908749870871
-0.02768374980207196 1.5266447689486186e-05 5.539550213369701e-09
0.018714727247421698 0.02221837320277811 -0.0013276831819026712
-0.02314127006650037 0.03855305613725705 -0.002124299244693191
-0.022569169921851855 0.016697544031973252 -0.0032180056270484717
0.0028010617707054765 -0.024362294987871663 5.539550208917621e-09
0.020089235205250987 -0.014968450357358692 -6.309864236822144e-05
0.010443027297653083 0.01846045695273549 -0.0003540440496741661
-0.02372905890827006 0.015412751357505841 -0.0032180056270484717
-0.0021626251223412227 0.02403446141514258 -0.0014161964576231553
0.017642486178721432 0.021207942736933615 -0.0038489817946491247
-0.02598009234316936 0.026787094164091016 5.539550216104736e-09
0.020841295563925673 0.00028512310035746304 -0.002124299244693198
0.041737274682094413 0.004568774671274126 -6.30986423682207e-05
0.006221759446430656 -0.0038637528590024497 -0.012682719047300955
0.0209969276166361 -0.01558249811396514 -0.006372908749870871
0.017831153047336127 0.021929358991298067 5.539550212906871e-09
0.03588797294625869 0.0025932874792192902 -0.0005310670241484321
0.0016814646503716191 -0.011682767262731465 5.539550210330936e-09
-0.019727753496180857 0.013986209950717447 -0.003218005627048472
0.02343428782302425 -0.0010329155801553766 -0.0018587629628438775
0.03719602068156157 -0.0014327251778311553 -0.0008851238939245184
4.1973300722099166e-05 0.02957667661917922 -0.009527812632403003
0.020232300825875404 0.0011030817668413976 -0.0017702496871233916
0.0016372503268644065 0.037535089921437725 -0.004269641183093314
0.0112921294179997 0.01633070554295993 -0.002124299244693196
0.012101691396660461 -0.03971404768724732 -0.00159322668099456
0.0031436220206820095 -0.017344538497700155 -0.0005310670241484323
0.021942138217705184 0.024070774213680934 -0.0021242992446931955
-0.006691419124711945 0.043224777093357376 -6.309864236821363e-05
-0.037214833219494405 -0.008507418584181624 -0.012682719047300953
-0.004334615215935719 0.022152486801366084 5.539550214287798e-09
0.0187783876889329 -0.0007453102656679451 -0.009177268375588857
-0.03586597268146744 -0.006948732361708486 -6.309864236821716e-05
-0.010808836101158733 -0.022128500209055286 -0.0010621469000533534
0.020256556920580156 -0.01772182251442896 -0.0017702496871233936
0.004468190534958706 0.03389557431074019 -0.0003540440496741641
-0.025886558347970077 0.028764987276878515 -0.001062146900053347
-0.04409054756090434 -0.02602474687376011 -0.011420756076163245
0.017477500701602554 0.03321175267167816 -0.0011380137941500296
0.034459341026516356 0.02991359782701826 -0.0010621469000533506
0.02545589143716478 -0.014273951127979499 5.539550208600357e-09
-0.02485746818035653 -0.02834096018750428 -0.002124299244693198
0.032176863187484236 -0.027654135116594376 -0.01268271904730096
0.02592673690817068 -0.034744465011240865 -6.309864236822389e-05
0.006720177470005815 -0.004952647682295501 -0.012682719047300957
0.015549720575893274 -0.0017714368841223271 -0.002124299244693198
0.03366438811627524 -0.029852598639116486 -0.0010621469000533569
-0.03348095418653609 -0.028685822879515595 -6.309864236821961e-05
0.02039287185193483 -0.0023936217070459447 -0.009527812632403009
0.03272623582343803 -0.020215774275576318 -0.00952781263240301
0.031455879413177464 -0.013124668001797955 -0.001062146900053355
0.018079173862800443 -0.012380040811930832 -0.006372908749870871
0.017477500701602554 0.03321175267167816 -0.0016690937017095236
0.030939561837628207 0.02686198630062779 -0.0002655307422991083
0.005926922404636679 0.02904919175421563 -0.0007966106182040279
0.01974362308662368 -0.0018941689061121281 -0.009527812632403009
0.035348959094491796 -0.004591711810567711 -0.0005310670241484328
0.04631672325700532 0.02385379185972578 -0.003218005627048475
-0.028488967038791654 0.02973723068234683 5.539550216571244e-09
0.016989307407645888 0.019562856456405577 -0.01110526381395933
-0.027273384550613306 -0.0021639064236595776 -6.309864236821718e-05
0.011076988257662106 0.014685928701251627 -0.0005310670241484293
0.027452516929492927 0.004215539142165857 -0.0063729087498708694
0.011602946281947975 0.024290853051078806 -0.0005310670241484283
0.008476157323606572 0.017294786618549187 -0.00973813979425929
0.033006291952453234 -0.02407185612964411 -0.01268271904730096
0.0277929372487342 0.003374792304131497 -0.0021663700710036326
0.036094578116649 -0.004458679734713475 -0.006372908749870871
-0.004136851117198 0.029264651838035383 -0.0021242992446931933
0.027693177327127554 -0.01566395843204012 -0.0014161964576231611
0.026529066326880492 -0.013309638845503373 -0.012682719047300959
-0.04684004855825888 -0.024638313614490644 5.539550211927988e-09
0.03780602167980849 -0.0012285203344509085 -0.000955934539824565
-0.004446217428636448 0.022418156441202732 -0.001062146900053349
0.029973604634234638 0.007125828713285933 -0.009527812632403009
-0.032067467572552785 -0.026542302993591668 -0.0021242992446931976
0.021118498006675087 0.02238262389088507 -0.009527812632403005
0.004167112712114845 -0.028896339202101495 -0.0007080972791744032
0.04176055602497657 0.005841042256858681 -0.012682719047300957
0.002966593994575818 -0.02550024680898736 -0.0021242992446932
0.0189213870041554 0.02162369434464792 -0.004269641183093317
0.01584386084935666 -0.011545666422566419 -0.003218005627048477
-0.026476073944962295 0.027563800884162465 -6.309864236821408e-05
-0.005002247247280987 0.024114525505524273 -0.0021242992446931937
0.01871115608345474 0.021422183597711312 -6.30986423682175e-05
0.018797676925059778 -0.0017906292700628802 -0.0009559345398245638
-0.036115397537261625 -0.027092078655384606 -0.009527812632403007
0.014625115706520864 0.024421603217690893 -0.0002655307422991076
0.03897142970539377 0.011559972431225795 -0.001416196457623159
-0.046736494086145816 -0.02613080211152561 5.539550211763358e-09
0.018872702962044414 0.019137573089823872 -0.001593226680994554
0.01566759799672109 0.03064965227583521 -0.0010621469000533493
0.025808686387811773 -0.00011478169904434255 -0.009527812632403009
0.028652182271894935 0.002235946024797208 -0.0007080972791744013
0.0013044362004904276 -0.011787203937683835 -0.002124299244693198
0.04170167387072212 0.004235015254590366 -0.003218005627048477
0.036176160023912246 -0.00494924763573188 -0.0014161964576231607
0.017224862779495014 0.03535781828087773 -0.012682719047300952
0.025026541653503154 -0.014771687545640236 -0.0005310670241484333
-0.003034592128225881 0.03991685438251055 -0.009527812632403002
0.029013788383094298 -0.014199362588788707 -0.0017702496871233938
0.012073730951169799 0.024509328190756602 -0.001593226680994553
0.02930984879291076 0.03213795843645237 -6.309864236821701e-05
0.04243786517426575 0.028698941651985548 -0.009527812632403007
-0.00018590733831059386 0.029011801255565968 -0.0010621469000533486
0.01440654935898259 0.02449156295746879 -0.0005310670241484285
0.043215690806117264 0.0033813057992568753 -6.309864236822091e-05
-0.0022915272292553597 0.028174196263507326 -0.012682719047300952
0.03484201299699672 -0.0013839680061175689 -6.30986423682209e-05
0.04379095824584658 0.01684185348281318 -0.012682719047300957
-0.0374657384988768 -0.012303477096695053 5.53955021266218e-09
0.04274242487110455 0.018367267173330606 -0.008476176823121582
0.019142011568040317 0.0336777627297673 -0.0010621469000533493
0.017960009910123986 0.021828135147291053 -0.0010621469000533503
0.02260553080120851 0.03613722981094283 -0.009527812632403005
