ply
format ascii 1.0
element vertex 769
property float x
property float y
property float z
end_header
-0.009193863719701767 -0.019740309566259384 0.17180000245571136
-0.008821189403533936 -0.019912663847208023 0.17329999804496765
-0.008402043022215366 -0.019993094727396965 0.17399999499320984
0.01851685531437397 -0.019142812117934227 0.16659998893737793
0.019054673612117767 -0.01924622617661953 0.16749998927116394
0.019655384123325348 -0.019407089799642563 0.1688999980688095
0.020215818658471107 -0.01952199451625347 0.16990000009536743
0.020732838660478592 -0.019590934738516808 0.1704999953508377
0.02133994735777378 -0.019740309566259384 0.17180000245571136
0.021979214623570442 -0.019912663847208023 0.17329999804496765
0.022548656910657883 -0.020016076043248177 0.17419999837875366
0.02305677905678749 -0.02006203681230545 0.17459999024868011
0.023607393726706505 -0.02014246955513954 0.1753000020980835
-0.012157523073256016 -0.01901055872440338 0.16929998993873596
-0.01119929738342762 -0.01888704113662243 0.16820000112056732
-0.010798061266541481 -0.018954414874315262 0.1687999963760376
-0.010405960492789745 -0.019044246524572372 0.1695999950170517
-0.009986181743443012 -0.019089162349700928 0.17000000178813934
-0.009575536474585533 -0.01915653608739376 0.17059999704360962
-0.009209917858242989 -0.01932496950030327 0.1720999926328659
-0.008821189403533936 -0.019459716975688934 0.17329999804496765
-0.008402043022215366 -0.01953831873834133 0.17399999499320984
0.015267985872924328 -0.018999330699443817 0.16920000314712524
0.015598797239363194 -0.01886458322405815 0.1679999977350235
0.015923334285616875 -0.018729835748672485 0.16679999232292175
0.016329869627952576 -0.018696149811148643 0.1665000021457672
0.01675497554242611 -0.01868492178618908 0.1664000004529953
0.01715889573097229 -0.018651233986020088 0.16609999537467957
0.0175930242985487 -0.018651233986020088 0.16609999537467957
0.018027154728770256 -0.018651233986020088 0.16609999537467957
0.018494626507163048 -0.01868492178618908 0.1664000004529953
0.01903192326426506 -0.018785981461405754 0.1673000007867813
0.019620472565293312 -0.018931956961750984 0.16859999299049377
0.020180121064186096 -0.019044246524572372 0.1695999950170517
0.020696358755230904 -0.019111618399620056 0.17019999027252197
0.021277839317917824 -0.019235137850046158 0.1712999939918518
0.021915799006819725 -0.019403571262955666 0.1727999895811081
0.022509824484586716 -0.019527088850736618 0.17389999330043793
0.023030368611216545 -0.019583234563469887 0.17440000176429749
0.023566992953419685 -0.01965060830116272 0.17499999701976776
-0.012179066427052021 -0.01860097050666809 0.1695999950170517
-0.01166659314185381 -0.018491294234991074 0.16859999299049377
-0.01119929738342762 -0.018447425216436386 0.16820000112056732
-0.010798061266541481 -0.018513230606913567 0.1687999963760376
-0.010405960492789745 -0.01860097050666809 0.1695999950170517
-0.009986181743443012 -0.018644841387867928 0.17000000178813934
-0.009575536474585533 -0.01871064491569996 0.17059999704360962
-0.009209917858242989 -0.018875159323215485 0.1720999926328659
-0.008831369690597057 -0.01902870461344719 0.17350000143051147
-0.008402043022215366 -0.019083542749285698 0.17399999499320984
0.013706494122743607 -0.01884225755929947 0.17180000245571136
0.014460030011832714 -0.01865580677986145 0.17009998857975006
0.014860803261399269 -0.01860097050666809 0.1695999950170517
0.015240914188325405 -0.01852419786155224 0.1688999980688095
0.015589511953294277 -0.01841452158987522 0.1678999960422516
0.015923334285616875 -0.018293878063559532 0.16679999232292175
0.016329869627952576 -0.018260976299643517 0.1665000021457672
0.016744906082749367 -0.018239041790366173 0.1662999987602234
0.01715889573097229 -0.01821710541844368 0.16609999537467957
0.0175930242985487 -0.01821710541844368 0.16609999537467957
0.018027154728770256 -0.01821710541844368 0.16609999537467957
0.018483512103557587 -0.018239041790366173 0.1662999987602234
0.018986418843269348 -0.018304845318198204 0.16689999401569366
0.01955064944922924 -0.018425488844513893 0.1679999977350235
0.020144425332546234 -0.018568066880106926 0.16929998993873596
0.020672040060162544 -0.018644841387867928 0.17000000178813934
0.021215733140707016 -0.018732581287622452 0.17080000042915344
0.021839704364538193 -0.018886126577854156 0.17219999432563782
0.0224709901958704 -0.01903967186808586 0.1735999882221222
0.023017162457108498 -0.019116446375846863 0.17430000007152557
0.023526590317487717 -0.01916031539440155 0.17469999194145203
-0.012157523073256016 -0.01812557317316532 0.16929998993873596
-0.011652753688395023 -0.018029218539595604 0.16839998960494995
-0.01119929738342762 -0.018007807433605194 0.16820000112056732
-0.010804458521306515 -0.018082749098539352 0.1688999980688095
-0.010405960492789745 -0.01815769262611866 0.1695999950170517
-0.009992054663598537 -0.01821122318506241 0.17009998857975006
-0.009575536474585533 -0.018264755606651306 0.17059999704360962
-0.009209917858242989 -0.01842534728348255 0.1720999926328659
-0.008821189403533936 -0.018553821370005608 0.17329999804496765
-0.008411700837314129 -0.018650177866220474 0.17419999837875366
0.012838262133300304 -0.01843605376780033 0.17219999432563782
0.013226599432528019 -0.018350403755903244 0.17139999568462372
0.013626712374389172 -0.018286166712641716 0.17080000042915344
0.014015447348356247 -0.01821122318506241 0.17009998857975006
0.014426027424633503 -0.01816839911043644 0.1696999967098236
0.014825754798948765 -0.01811486855149269 0.16920000314712524
0.015195795334875584 -0.018029218539595604 0.16839998960494995
0.015552371740341187 -0.017932862043380737 0.16749998927116394
0.01589469611644745 -0.01782580092549324 0.1665000021457672
0.016320062801241875 -0.01781509444117546 0.1664000004529953
0.01672476902604103 -0.01778297685086727 0.16609999537467957
0.01715889573097229 -0.01778297685086727 0.16609999537467957
0.0175930242985487 -0.01778297685086727 0.16609999537467957
0.018027154728770256 -0.01778297685086727 0.16609999537467957
0.018461283296346664 -0.01778297685086727 0.16609999537467957
0.01895229145884514 -0.01783650554716587 0.16659998893737793
0.019492462277412415 -0.017932862043380737 0.16749998927116394
0.020096831023693085 -0.018082749098539352 0.1688999980688095
0.020635558292269707 -0.01816839911043644 0.1696999967098236
0.02116604521870613 -0.018243342638015747 0.1703999936580658
0.021776290610432625 -0.018382523208856583 0.17170000076293945
0.022419216111302376 -0.018543114885687828 0.17319999635219574
0.022977545857429504 -0.018628764897584915 0.17399999499320984
0.023513123393058777 -0.018693001940846443 0.17459999024868011
-0.012171884998679161 -0.01770397089421749 0.16949999332427979
-0.01166659314185381 -0.017609968781471252 0.16859999299049377
-0.01119929738342762 -0.017568189650774002 0.16820000112056732
-0.010785267688333988 -0.017609968781471252 0.16859999299049377
-0.01038755290210247 -0.017683081328868866 0.16929998993873596
-0.009980306960642338 -0.01774575188755989 0.16990000009536743
-0.009575536474585533 -0.017818864434957504 0.17059999704360962
-0.009209917858242989 -0.017975537106394768 0.1720999926328659
-0.008831369690597057 -0.018121765926480293 0.17350000143051147
-0.008411700837314129 -0.018194878473877907 0.17419999837875366
0.012771163135766983 -0.017891978845000267 0.1712999939918518
0.013164864853024483 -0.017818864434957504 0.17059999704360962
0.013578842394053936 -0.017777085304260254 0.17019999027252197
0.014007208868861198 -0.01775619573891163 0.17000000178813934
0.014417526312172413 -0.01771441660821438 0.1695999950170517
0.014816992916166782 -0.01766219362616539 0.16910000145435333
0.01517774909734726 -0.017568189650774002 0.16820000112056732
0.015552371740341187 -0.01749507524073124 0.16749998927116394
0.015923334285616875 -0.017421960830688477 0.16679999232292175
0.016320062801241875 -0.017380183562636375 0.1664000004529953
0.016744906082749367 -0.017369737848639488 0.1662999987602234
0.01715889573097229 -0.017348848283290863 0.16609999537467957
0.0175930242985487 -0.017348848283290863 0.16609999537467957
0.018016301095485687 -0.017338402569293976 0.16599999368190765
0.018450167030096054 -0.017338402569293976 0.16599999368190765
0.01892954111099243 -0.017380183562636375 0.1664000004529953
0.019445912912487984 -0.01745329611003399 0.1670999974012375
0.0200373362749815 -0.017589077353477478 0.16839998960494995
0.020611239597201347 -0.01770397089421749 0.16949999332427979
0.021128781139850616 -0.017766639590263367 0.17009998857975006
0.021674828603863716 -0.017850199714303017 0.17090000212192535
0.02231566235423088 -0.01800687238574028 0.17239999771118164
0.02293792925775051 -0.01814265362918377 0.1736999899148941
0.023486191406846046 -0.018215768039226532 0.17440000176429749
0.03492174297571182 -0.018236657604575157 0.17459999024868011
0.03537809103727341 -0.018236657604575157 0.17459999024868011
0.03585495799779892 -0.018247101455926895 0.17469999194145203
0.0363115631043911 -0.018247101455926895 0.17469999194145203
0.036768171936273575 -0.018247101455926895 0.17469999194145203
0.03720346838235855 -0.018236657604575157 0.17459999024868011
-0.012157523073256016 -0.01724058948457241 0.16929998993873596
-0.01166659314185381 -0.017169306054711342 0.16859999299049377
-0.01119929738342762 -0.01712857186794281 0.16820000112056732
-0.010798061266541481 -0.017189672216773033 0.1687999963760376
-0.010399824939668179 -0.01726095750927925 0.16949999332427979
-0.009980306960642338 -0.017301691696047783 0.16990000009536743
-0.009575536474585533 -0.01737297512590885 0.17059999704360962
-0.009209917858242989 -0.017525726929306984 0.1720999926328659
-0.008831369690597057 -0.01766829565167427 0.17350000143051147
-0.008411700837314129 -0.01773957908153534 0.17419999837875366
-0.007974671199917793 -0.01778031326830387 0.17459999024868011
-0.007539856247603893 -0.01783123053610325 0.17509999871253967
0.011875723488628864 -0.01744425855576992 0.1712999939918518
0.012301861308515072 -0.017413707450032234 0.17099998891353607
0.012711519375443459 -0.017362792044878006 0.1704999953508377
0.013133997097611427 -0.01733224093914032 0.17019999027252197
0.013562886975705624 -0.01731187477707863 0.17000000178813934
0.013982489705085754 -0.017281323671340942 0.1696999967098236
0.014409025199711323 -0.01726095750927925 0.16949999332427979
0.014816992916166782 -0.01722022332251072 0.16910000145435333
0.015195795334875584 -0.0171489380300045 0.16839998960494995
0.015570941381156445 -0.017077654600143433 0.16769999265670776
0.015923334285616875 -0.016986003145575523 0.16679999232292175
0.016339676454663277 -0.016965636983513832 0.16659998893737793
0.01675497554242611 -0.01694527082145214 0.1664000004529953
0.01715889573097229 -0.016914719715714455 0.16609999537467957
0.0175930242985487 -0.016914719715714455 0.16609999537467957
0.018016301095485687 -0.01690453663468361 0.16599999368190765
0.018450167030096054 -0.01690453663468361 0.16599999368190765
0.01891816407442093 -0.016935087740421295 0.1662999987602234
0.019411001354455948 -0.016986003145575523 0.16679999232292175
0.01997784525156021 -0.017098022624850273 0.1678999960422516
0.02056260034441948 -0.01722022332251072 0.16910000145435333
0.02107909694314003 -0.017281323671340942 0.1696999967098236
0.021611414849758148 -0.01735260710120201 0.1703999936580658
0.022186221554875374 -0.017454443499445915 0.17139999568462372
0.022871902212500572 -0.017637744545936584 0.17319999635219574
0.023432323709130287 -0.017719212919473648 0.17399999499320984
0.032982632517814636 -0.017719212919473648 0.17399999499320984
0.03343740850687027 -0.017719212919473648 0.17399999499320984
0.03393114358186722 -0.01773957908153534 0.17419999837875366
0.034386441111564636 -0.01773957908153534 0.17419999837875366
0.03484174236655235 -0.01773957908153534 0.17419999837875366
0.035317305475473404 -0.017749764025211334 0.17430000007152557
0.03579338639974594 -0.01775994710624218 0.17440000176429749
0.03624920919537544 -0.01775994710624218 0.17440000176429749
0.036705031991004944 -0.01775994710624218 0.17440000176429749
0.037160854786634445 -0.01775994710624218 0.17440000176429749
0.03761667758226395 -0.01775994710624218 0.17440000176429749
0.03807250037789345 -0.01775994710624218 0.17440000176429749
0.03852832317352295 -0.01775994710624218 0.17440000176429749
0.03898414224386215 -0.01775994710624218 0.17440000176429749
-0.01119929738342762 -0.016688954085111618 0.16820000112056732
-0.010785267688333988 -0.016728641465306282 0.16859999299049377
-0.01038755290210247 -0.016798095777630806 0.16929998993873596
-0.009980306960642338 -0.016857629641890526 0.16990000009536743
-0.009569923393428326 -0.016917161643505096 0.1704999953508377
-0.009209917858242989 -0.01707591488957405 0.1720999926328659
-0.008831369690597057 -0.017214825376868248 0.17350000143051147
-0.008411700837314129 -0.017284279689192772 0.17419999837875366
-0.007974671199917793 -0.017323967069387436 0.17459999024868011
-0.007539856247603893 -0.017373578622937202 0.17509999871253967
0.011820261366665363 -0.016917161643505096 0.1704999953508377
0.01224430836737156 -0.016887394711375237 0.17019999027252197
0.012681697495281696 -0.016877472400665283 0.17009998857975006
0.013118564151227474 -0.01686755195260048 0.17000000178813934
0.013538951985538006 -0.01683778502047062 0.1696999967098236
0.013974250294268131 -0.016827862709760666 0.1695999950170517
0.014392022974789143 -0.016798095777630806 0.16929998993873596
0.014799468219280243 -0.016758408397436142 0.1688999980688095
0.015195795334875584 -0.016708796843886375 0.16839998960494995
0.015589511953294277 -0.016659187152981758 0.1678999960422516
0.015990158542990685 -0.016619497910141945 0.16749998927116394
0.016369100660085678 -0.016559965908527374 0.16689999401569366
0.016775112599134445 -0.016530198976397514 0.16659998893737793
0.017189888283610344 -0.016510356217622757 0.1664000004529953
0.0175930242985487 -0.016480589285492897 0.16609999537467957
0.018027154728770256 -0.016480589285492897 0.16609999537467957
0.018461283296346664 -0.016480589285492897 0.16609999537467957
0.018895411863923073 -0.016480589285492897 0.16609999537467957
0.019387725740671158 -0.016530198976397514 0.16659998893737793
0.019930249080061913 -0.016619497910141945 0.16749998927116394
0.020477477461099625 -0.016708796843886375 0.16839998960494995
0.021054252982139587 -0.016817940399050713 0.16949999332427979
0.021560683846473694 -0.01686755195260048 0.17000000178813934
0.022121502086520195 -0.01695685088634491 0.17090000212192535
0.02276625856757164 -0.01710568182170391 0.17239999771118164
0.023418856784701347 -0.017254512757062912 0.17389999330043793
0.03172285482287407 -0.01707591488957405 0.1720999926328659
0.03219136223196983 -0.017085837200284004 0.17219999432563782
0.032679345458745956 -0.01710568182170391 0.17239999771118164
0.03320680558681488 -0.017145369201898575 0.1727999895811081
0.03365844488143921 -0.017145369201898575 0.1727999895811081
0.03416930511593819 -0.017175136134028435 0.17309999465942383
0.03464173153042793 -0.017185058444738388 0.17319999635219574
0.03515520691871643 -0.017214825376868248 0.17350000143051147
0.03562919422984123 -0.017224745824933052 0.1735999882221222
0.03614528477191925 -0.017254512757062912 0.17389999330043793
0.03659979999065399 -0.017254512757062912 0.17389999330043793
0.03707562014460564 -0.017264435067772865 0.17399999499320984
0.03753039985895157 -0.017264435067772865 0.17399999499320984
0.0379851758480072 -0.017264435067772865 0.17399999499320984
0.03848413750529289 -0.017284279689192772 0.17419999837875366
0.03893943503499031 -0.017284279689192772 0.17419999837875366
0.03939473628997803 -0.017284279689192772 0.17419999837875366
0.039850037544965744 -0.017284279689192772 0.17419999837875366
0.04032847285270691 -0.017294201999902725 0.17430000007152557
0.04080743342638016 -0.01730412431061268 0.17440000176429749
-0.01119929738342762 -0.016249338164925575 0.16820000112056732
-0.010785267688333988 -0.01628797873854637 0.16859999299049377
-0.01038755290210247 -0.01635560393333435 0.16929998993873596
-0.009980306960642338 -0.016413569450378418 0.16990000009536743
-0.009569923393428326 -0.016471533104777336 0.1704999953508377
-0.009193863719701767 -0.016597123816609383 0.17180000245571136
-0.008831369690597057 -0.016761355102062225 0.17350000143051147
-0.008402043022215366 -0.016809659078717232 0.17399999499320984
-0.007974671199917793 -0.01686762273311615 0.17459999024868011
-0.00754846865311265 -0.016935249790549278 0.1753000020980835
0.01092259306460619 -0.016461873427033424 0.1703999936580658
0.011354618705809116 -0.016442550346255302 0.17019999027252197
0.011792530305683613 -0.01643289066851139 0.17009998857975006
0.01223711483180523 -0.01643289066851139 0.17009998857975006
0.012666787020862103 -0.016413569450378418 0.16990000009536743
0.013095413334667683 -0.016394248232245445 0.1696999967098236
0.013538951985538006 -0.016394248232245445 0.1696999967098236
0.013974250294268131 -0.016384586691856384 0.1695999950170517
0.014392022974789143 -0.01635560393333435 0.16929998993873596
0.014816992916166782 -0.016336284577846527 0.16910000145435333
0.015231890603899956 -0.016307301819324493 0.1687999963760376
0.015617367811501026 -0.016249338164925575 0.16820000112056732
0.01602834463119507 -0.01622035540640354 0.1678999960422516
0.01640833169221878 -0.016162391752004623 0.1673000007867813
0.01679525151848793 -0.016114085912704468 0.16679999232292175
0.01720021851360798 -0.016085105016827583 0.1665000021457672
0.01762480102479458 -0.01607544533908367 0.1664000004529953
0.018048860132694244 -0.01606578379869461 0.1662999987602234
0.018461283296346664 -0.016046462580561638 0.16609999537467957
0.01891816407442093 -0.01606578379869461 0.1662999987602234
0.019387725740671158 -0.016094764694571495 0.16659998893737793
0.019906453788280487 -0.016162391752004623 0.1673000007867813
0.020453158766031265 -0.016249338164925575 0.16820000112056732
0.021016990765929222 -0.01634594425559044 0.16920000314712524
0.02154800109565258 -0.016413569450378418 0.16990000009536743
0.022069724276661873 -0.016471533104777336 0.1704999953508377
0.022687025368213654 -0.016597123816609383 0.17180000245571136
0.023364989086985588 -0.016761355102062225 0.17350000143051147
0.030927786603569984 -0.016442550346255302 0.17019999027252197
0.03140949830412865 -0.016461873427033424 0.1703999936580658
0.031873561441898346 -0.016471533104777336 0.1704999953508377
0.03237605467438698 -0.01650051586329937 0.17080000042915344
0.032860901206731796 -0.016519837081432343 0.17099998891353607
0.03336627408862114 -0.016548819839954376 0.1712999939918518
0.03383373096585274 -0.016558479517698288 0.17139999568462372
0.03436172008514404 -0.016597123816609383 0.17180000245571136
0.034932319074869156 -0.0166550874710083 0.17239999771118164
0.035444483160972595 -0.016684070229530334 0.17270000278949738
0.035979002714157104 -0.01672271266579628 0.17309999465942383
0.03645247593522072 -0.01673237420618534 0.17319999635219574
0.036905158311128616 -0.01673237420618534 0.17319999635219574
0.03737941384315491 -0.016742033883929253 0.17329999804496765
0.037897851318120956 -0.016771014779806137 0.1735999882221222
0.0383736751973629 -0.016780676320195198 0.1736999899148941
0.0388723760843277 -0.01679999753832817 0.17389999330043793
0.03932689130306244 -0.01679999753832817 0.17389999330043793
0.039804283529520035 -0.016809659078717232 0.17399999499320984
0.04025905951857567 -0.016809659078717232 0.17399999499320984
0.0407138355076313 -0.016809659078717232 0.17399999499320984
0.0412159338593483 -0.016828980296850204 0.17419999837875366
0.041671231389045715 -0.016828980296850204 0.17419999837875366
-0.011185980401933193 -0.015790920704603195 0.1679999977350235
-0.01077247317880392 -0.015828516334295273 0.16839998960494995
-0.010381418280303478 -0.015903713181614876 0.16920000314712524
-0.009968558326363564 -0.015950709581375122 0.1696999967098236
-0.009564310312271118 -0.016016503795981407 0.1703999936580658
-0.009188512340188026 -0.016138697043061256 0.17170000076293945
-0.008821189403533936 -0.016289087012410164 0.17329999804496765
-0.008402043022215366 -0.01635488122701645 0.17399999499320984
-0.007974671199917793 -0.016411276534199715 0.17459999024868011
-0.007539856247603893 -0.01645827479660511 0.17509999871253967
0.01090336311608553 -0.0159883052110672 0.17009998857975006
0.011334605515003204 -0.01596950739622116 0.16990000009536743
0.011778665706515312 -0.01596950739622116 0.16990000009536743
0.01220833882689476 -0.015950709581375122 0.1696999967098236
0.012651876546442509 -0.015950709581375122 0.1696999967098236
0.013095413334667683 -0.015950709581375122 0.1696999967098236
0.01353097427636385 -0.015941310673952103 0.1695999950170517
0.013974250294268131 -0.015941310673952103 0.1695999950170517
0.014409025199711323 -0.015931909903883934 0.16949999332427979
0.014825754798948765 -0.015903713181614876 0.16920000314712524
0.015240914188325405 -0.01587551459670067 0.1688999980688095
0.015635935589671135 -0.015828516334295273 0.16839998960494995
0.016037890687584877 -0.015790920704603195 0.1679999977350235
0.016447562724351883 -0.015762722119688988 0.16769999265670776
0.016825459897518158 -0.015706326812505722 0.1670999974012375
0.01724153943359852 -0.015687527135014534 0.16689999401569366
0.017645983025431633 -0.015659328550100327 0.16659998893737793
0.018059713765978813 -0.015640530735254288 0.1664000004529953
0.018494626507163048 -0.015640530735254288 0.1664000004529953
0.01895229145884514 -0.015659328550100327 0.16659998893737793
0.019422639161348343 -0.015687527135014534 0.16689999401569366
0.019954046234488487 -0.015762722119688988 0.16769999265670776
0.020501798018813133 -0.01584731601178646 0.16859999299049377
0.021029410883784294 -0.015913112089037895 0.16929998993873596
0.02154800109565258 -0.01596950739622116 0.16990000009536743
0.022069724276661873 -0.016025904566049576 0.1704999953508377
0.022687025368213654 -0.016148095950484276 0.17180000245571136
0.02333805523812771 -0.016289087012410164 0.17329999804496765
0.030375484377145767 -0.015941310673952103 0.1695999950170517
0.03222441300749779 -0.01597890816628933 0.17000000178813934
0.03270716592669487 -0.01599770598113537 0.17019999027252197
0.03319096937775612 -0.016016503795981407 0.1703999936580658
0.03367581591010094 -0.016035303473472595 0.17059999704360962
0.03420170769095421 -0.016072900965809822 0.17099998891353607
0.03479048237204552 -0.016138697043061256 0.17170000076293945
0.03532133996486664 -0.016176292672753334 0.1720999926328659
0.03579193726181984 -0.016185693442821503 0.17219999432563782
0.036284103989601135 -0.01620449125766754 0.17239999771118164
0.036734696477651596 -0.01620449125766754 0.17239999771118164
0.03725000098347664 -0.01623268984258175 0.17270000278949738
0.03772320970892906 -0.01624208875000477 0.1727999895811081
0.038263220340013504 -0.016279686242341995 0.17319999635219574
0.03873825818300247 -0.016289087012410164 0.17329999804496765
0.03923643380403519 -0.016307884827256203 0.17350000143051147
0.03973565623164177 -0.01632668264210224 0.1736999899148941
0.04023592174053192 -0.01634548231959343 0.17389999330043793
0.04069043695926666 -0.01634548231959343 0.17389999330043793
0.041168615221977234 -0.01635488122701645 0.17399999499320984
0.04162338748574257 -0.01635488122701645 0.17399999499320984
0.0420781672000885 -0.01635488122701645 0.17399999499320984
0.04258183389902115 -0.016373680904507637 0.17419999837875366
-0.011185980401933193 -0.015351826325058937 0.1679999977350235
-0.010759679600596428 -0.015370102599263191 0.16820000112056732
-0.010375282727181911 -0.015452343970537186 0.16910000145435333
-0.009968558326363564 -0.015507171861827374 0.1696999967098236
-0.009553084149956703 -0.015552861616015434 0.17019999027252197
-0.00917245727032423 -0.01566251739859581 0.17139999568462372
-0.008816098794341087 -0.015827002003788948 0.17319999635219574
-0.008402043022215366 -0.015900105237960815 0.17399999499320984
0.010877723805606365 -0.015507171861827374 0.1696999967098236
0.011321262456476688 -0.015507171861827374 0.1696999967098236
0.011764800176024437 -0.015507171861827374 0.1696999967098236
0.012201144360005856 -0.015498033724725246 0.1695999950170517
0.012644420377910137 -0.015498033724725246 0.1695999950170517
0.013095413334667683 -0.015507171861827374 0.1696999967098236
0.01353097427636385 -0.015498033724725246 0.1695999950170517
0.013974250294268131 -0.015498033724725246 0.1695999950170517
0.014417526312172413 -0.015498033724725246 0.1695999950170517
0.014834516681730747 -0.015470619313418865 0.16929998993873596
0.017677759751677513 -0.015251307748258114 0.16689999401569366
0.018113980069756508 -0.015251307748258114 0.16689999401569366
0.018550198525190353 -0.015251307748258114 0.16689999401569366
0.019009171053767204 -0.015269584022462368 0.1670999974012375
0.019515736028552055 -0.015324411913752556 0.16769999265670776
0.020013540983200073 -0.015370102599263191 0.16820000112056732
0.02056260034441948 -0.015452343970537186 0.16910000145435333
0.02106667496263981 -0.015498033724725246 0.1695999950170517
0.021560683846473694 -0.015534586273133755 0.17000000178813934
0.02208266779780388 -0.015589414164423943 0.17059999704360962
0.022687025368213654 -0.015699069947004318 0.17180000245571136
0.02332458831369877 -0.015827002003788948 0.17319999635219574
0.029471542686223984 -0.01548889558762312 0.16949999332427979
0.029755719006061554 -0.01540665328502655 0.16859999299049377
0.030124744400382042 -0.015370102599263191 0.16820000112056732
0.030509844422340393 -0.01534268818795681 0.1678999960422516
0.031003978103399277 -0.015370102599263191 0.16820000112056732
0.03155576065182686 -0.015424929559230804 0.1687999963760376
0.0320727676153183 -0.015461482107639313 0.16920000314712524
0.03261108323931694 -0.015507171861827374 0.1696999967098236
0.03309357911348343 -0.015525448136031628 0.16990000009536743
0.03357711434364319 -0.015543723478913307 0.17009998857975006
0.034081701189279556 -0.015571137890219688 0.1703999936580658
0.03464864566922188 -0.0156259648501873 0.17099998891353607
0.035177674144506454 -0.01566251739859581 0.17139999568462372
0.035708799958229065 -0.015699069947004318 0.17180000245571136
0.03615782409906387 -0.015699069947004318 0.17180000245571136
0.03660685196518898 -0.015699069947004318 0.17180000245571136
0.03705587983131409 -0.015699069947004318 0.17180000245571136
0.03759222477674484 -0.015735620632767677 0.17219999432563782
0.038086485117673874 -0.01575389690697193 0.17239999771118164
0.03860413655638695 -0.015781311318278313 0.17270000278949738
0.039145972579717636 -0.01581786386668682 0.17309999465942383
0.03964415192604065 -0.015836140140891075 0.17329999804496765
0.04009709879755974 -0.015836140140891075 0.17329999804496765
0.040620237588882446 -0.015863552689552307 0.1735999882221222
0.04109763354063034 -0.015872690826654434 0.1736999899148941
0.041599467396736145 -0.01589096710085869 0.17389999330043793
0.0420781672000885 -0.015900105237960815 0.17399999499320984
0.042532943189144135 -0.015900105237960815 0.17399999499320984
0.04303713142871857 -0.01591838151216507 0.17419999837875366
0.04351739585399628 -0.015927519649267197 0.17430000007152557
-0.011179321445524693 -0.014903854578733444 0.1678999960422516
-0.010759679600596428 -0.014930485747754574 0.16820000112056732
-0.010363011620938778 -0.01499262172728777 0.1688999980688095
-0.009962684474885464 -0.015054757706820965 0.1695999950170517
-0.009553084149956703 -0.0151080172508955 0.17019999027252197
-0.00916710589081049 -0.01520565990358591 0.1712999939918518
-0.00881100818514824 -0.015365439467132092 0.17309999465942383
-0.008397214114665985 -0.015436452813446522 0.17389999330043793
0.010871313512325287 -0.015054757706820965 0.1695999950170517
0.011314591392874718 -0.015054757706820965 0.1695999950170517
0.011757867410779 -0.015054757706820965 0.1695999950170517
0.012201144360005856 -0.015054757706820965 0.1695999950170517
0.012644420377910137 -0.015054757706820965 0.1695999950170517
0.013087696395814419 -0.015054757706820965 0.1695999950170517
0.013538951985538006 -0.015063634142279625 0.1696999967098236
0.013982489705085754 -0.015063634142279625 0.1696999967098236
0.01779427006840706 -0.014912731945514679 0.1679999977350235
0.018233364447951317 -0.014912731945514679 0.1679999977350235
0.018672458827495575 -0.014912731945514679 0.1679999977350235
0.01913430728018284 -0.014930485747754574 0.16820000112056732
0.019643748179078102 -0.014983744360506535 0.1687999963760376
0.020132528617978096 -0.015019251964986324 0.16920000314712524
0.020623398944735527 -0.015054757706820965 0.1695999950170517
0.021103939041495323 -0.01508138794451952 0.16990000009536743
0.021586047485470772 -0.0151080172508955 0.17019999027252197
0.022121502086520195 -0.01517015416175127 0.17090000212192535
0.0292802806943655 -0.01494823768734932 0.16839998960494995
0.029490988701581955 -0.014832842163741589 0.1670999974012375
0.02982027269899845 -0.014779582619667053 0.1665000021457672
0.03023727424442768 -0.014770706184208393 0.1664000004529953
0.030690619722008705 -0.014779582619667053 0.1665000021457672
0.03123795986175537 -0.014832842163741589 0.1670999974012375
0.031845301389694214 -0.014912731945514679 0.1679999977350235
0.032457347959280014 -0.01499262172728777 0.1688999980688095
0.0330156646668911 -0.01504588034003973 0.16949999332427979
0.03349815681576729 -0.015063634142279625 0.1696999967098236
0.03402169793844223 -0.015099139884114265 0.17009998857975006
0.03456759825348854 -0.015143523924052715 0.17059999704360962
0.03509557992219925 -0.015179029665887356 0.17099998891353607
0.035625655204057693 -0.015214537270367146 0.17139999568462372
0.03607363998889923 -0.015214537270367146 0.17139999568462372
0.03652161732316017 -0.015214537270367146 0.17139999568462372
0.03696959838271141 -0.015214537270367146 0.17139999568462372
0.037504903972148895 -0.01525004394352436 0.17180000245571136
0.03802020847797394 -0.015276673249900341 0.1720999926328659
0.03849237039685249 -0.015285549685359001 0.17219999432563782
0.038987673819065094 -0.015303303487598896 0.17239999771118164
0.03950689733028412 -0.015329933725297451 0.17270000278949738
0.040050823241472244 -0.015365439467132092 0.17309999465942383
0.04055004566907883 -0.015383193269371986 0.17329999804496765
0.04105031490325928 -0.015400946140289307 0.17350000143051147
0.041527699679136276 -0.015409821644425392 0.1735999882221222
0.042053982615470886 -0.015436452813446522 0.17389999330043793
0.042532943189144135 -0.015445329248905182 0.17399999499320984
0.04303713142871857 -0.015463083051145077 0.17419999837875366
0.043492428958415985 -0.015463083051145077 0.17419999837875366
-0.011166004464030266 -0.014447789639234543 0.16769999265670776
-0.010746886022388935 -0.014473636634647846 0.1679999977350235
-0.010356876067817211 -0.01454255823045969 0.1687999963760376
-0.009962684474885464 -0.014611479826271534 0.1695999950170517
-0.009547471068799496 -0.014654556289315224 0.17009998857975006
-0.009145700372755527 -0.014723478816449642 0.17090000212192535
-0.00879064854234457 -0.01487855426967144 0.17270000278949738
-0.008397214114665985 -0.014981936663389206 0.17389999330043793
0.010845674201846123 -0.014577019959688187 0.16920000314712524
0.011294576339423656 -0.014585633762180805 0.16929998993873596
0.011737069115042686 -0.014585633762180805 0.16929998993873596
0.012201144360005856 -0.014611479826271534 0.1695999950170517
0.012644420377910137 -0.014611479826271534 0.1695999950170517
0.013095413334667683 -0.014620095491409302 0.1696999967098236
0.013554909266531467 -0.014637326821684837 0.16990000009536743
0.014007208868861198 -0.01464594155550003 0.17000000178813934
0.018805835396051407 -0.014577019959688187 0.16920000314712524
0.019259441643953323 -0.014585633762180805 0.16929998993873596
0.019736845046281815 -0.014611479826271534 0.1695999950170517
0.020192019641399384 -0.014620095491409302 0.1696999967098236
0.020684197545051575 -0.014654556289315224 0.17009998857975006
0.021141203120350838 -0.014663171023130417 0.17019999027252197
0.021662145853042603 -0.014714864082634449 0.17080000042915344
0.02222505398094654 -0.01479240134358406 0.17170000076293945
0.029158569872379303 -0.014447789639234543 0.16769999265670776
0.029385097324848175 -0.014344408176839352 0.1665000021457672
0.02974863164126873 -0.014309946447610855 0.16609999537467957
0.030164586380124092 -0.014301330782473087 0.16599999368190765
0.030616888776421547 -0.014309946447610855 0.16609999537467957
0.03112579509615898 -0.014344408176839352 0.1665000021457672
0.0317126139998436 -0.014413329772651196 0.1673000007867813
0.03232283145189285 -0.014490867033600807 0.16820000112056732
0.032937753945589066 -0.014568404294550419 0.16910000145435333
0.03347841650247574 -0.014611479826271534 0.1695999950170517
0.035604871809482574 -0.014757939614355564 0.1712999939918518
0.03605259209871292 -0.014757939614355564 0.1712999939918518
0.03652161732316017 -0.014766555279493332 0.17139999568462372
0.036948028951883316 -0.014757939614355564 0.1712999939918518
0.03748307377099991 -0.01479240134358406 0.17170000076293945
0.03793184086680412 -0.01479240134358406 0.17170000076293945
0.03840295970439911 -0.014801017008721828 0.17180000245571136
0.038919828832149506 -0.014826861210167408 0.1720999926328659
0.039392516016960144 -0.014835476875305176 0.17219999432563782
0.039958275854587555 -0.01487855426967144 0.17270000278949738
0.04050324857234955 -0.014913014136254787 0.17309999465942383
0.040979333221912384 -0.014921629801392555 0.17319999635219574
0.04150378331542015 -0.014947475865483284 0.17350000143051147
0.042053982615470886 -0.014981936663389206 0.17389999330043793
0.042532943189144135 -0.014990551397204399 0.17399999499320984
0.04303713142871857 -0.015007782727479935 0.17419999837875366
0.043492428958415985 -0.015007782727479935 0.17419999837875366
0.04399818927049637 -0.015025013126432896 0.17440000176429749
0.04450498893857002 -0.015042242594063282 0.17459999024868011
-0.011166004464030266 -0.014009480364620686 0.16769999265670776
-0.010740488767623901 -0.014026188291609287 0.1678999960422516
-0.010344604030251503 -0.014084665104746819 0.16859999299049377
-0.00995680969208479 -0.014159849844872952 0.16949999332427979
-0.009541858918964863 -0.01420162059366703 0.17000000178813934
-0.009140348993241787 -0.014268451370298862 0.17080000042915344
-0.008765197359025478 -0.014385404996573925 0.17219999432563782
-0.008382727392017841 -0.014502359554171562 0.1735999882221222
-0.007960968650877476 -0.014560837298631668 0.17430000007152557
-0.007526937872171402 -0.014602606184780598 0.17479999363422394
0.010826444253325462 -0.014109726995229721 0.1688999980688095
0.01128123514354229 -0.014126434922218323 0.16910000145435333
0.011730137281119823 -0.014134788885712624 0.16920000314712524
0.012201144360005856 -0.014168203808367252 0.1695999950170517
0.012651876546442509 -0.014176557771861553 0.1696999967098236
0.01311084721237421 -0.01419326663017273 0.16990000009536743
0.01357086468487978 -0.014209972694516182 0.17009998857975006
0.014040166512131691 -0.014235035516321659 0.1703999936580658
0.02074499987065792 -0.01425174344331026 0.17059999704360962
0.02124057337641716 -0.01428515836596489 0.17099998891353607
0.029089022427797318 -0.013976065441966057 0.1673000007867813
0.02934980019927025 -0.013892525807023048 0.1662999987602234
0.029730720445513725 -0.013867463916540146 0.16599999368190765
0.030128244310617447 -0.013850755989551544 0.16579999029636383
0.03058002144098282 -0.013859109953045845 0.16589999198913574
0.031051017343997955 -0.013875817880034447 0.16609999537467957
0.03161783143877983 -0.013934294693171978 0.16679999232292175
0.032226745039224625 -0.014009480364620686 0.16769999265670776
0.03284035995602608 -0.014084665104746819 0.16859999299049377
0.03341919928789139 -0.01414314191788435 0.16929998993873596
0.035054534673690796 -0.014268451370298862 0.17080000042915344
0.035604871809482574 -0.014310220256447792 0.1712999939918518
0.03607363998889923 -0.014318574219942093 0.17139999568462372
0.03652161732316017 -0.014318574219942093 0.17139999568462372
0.03696959838271141 -0.014318574219942093 0.17139999568462372
0.03741758316755295 -0.014318574219942093 0.17139999568462372
0.03786556422710419 -0.014318574219942093 0.17139999568462372
0.03831354156136513 -0.014318574219942093 0.17139999568462372
0.038761526346206665 -0.014318574219942093 0.17139999568462372
0.03936963900923729 -0.014377051033079624 0.1720999926328659
0.03984258696436882 -0.014385404996573925 0.17219999432563782
0.04040965437889099 -0.014427175745368004 0.17270000278949738
0.04088469222187996 -0.01443552877753973 0.1727999895811081
0.041455939412117004 -0.014477298595011234 0.17329999804496765
0.042005617171525955 -0.014510713517665863 0.1736999899148941
0.04250849783420563 -0.014527421444654465 0.17389999330043793
0.04303713142871857 -0.014552483335137367 0.17419999837875366
0.043492428958415985 -0.014552483335137367 0.17419999837875366
0.04399818927049637 -0.014569191262125969 0.17440000176429749
0.04450498893857002 -0.014585898257791996 0.17459999024868011
-0.011152688413858414 -0.013554984703660011 0.16749998927116394
-0.010740488767623901 -0.013587355613708496 0.1678999960422516
-0.01033233292400837 -0.013627816922962666 0.16839998960494995
-0.009945061057806015 -0.013700650073587894 0.16929998993873596
-0.00953624676913023 -0.013749206438660622 0.16990000009536743
-0.00912429392337799 -0.0137977609410882 0.1704999953508377
-0.00876010674983263 -0.01392724085599184 0.1720999926328659
-0.008377899415791035 -0.014040537178516388 0.17350000143051147
-0.007956401444971561 -0.014097184874117374 0.17419999837875366
-0.007522631902247667 -0.014137647114694118 0.17469999194145203
0.00992588885128498 -0.013644002377986908 0.16859999299049377
0.010366551578044891 -0.013644002377986908 0.16859999299049377
0.010807214304804802 -0.013644002377986908 0.16859999299049377
0.011261220090091228 -0.01366018783301115 0.1687999963760376
0.011730137281119823 -0.013692558743059635 0.16920000314712524
0.012201144360005856 -0.01372492779046297 0.1695999950170517
0.012666787020862103 -0.013749206438660622 0.16990000009536743
0.013126280158758163 -0.013765390031039715 0.17009998857975006
0.013602777384221554 -0.0137977609410882 0.1704999953508377
0.01408960297703743 -0.013838223181664944 0.17099998891353607
0.029730720445513725 -0.013433597050607204 0.16599999368190765
0.030128244310617447 -0.013417411595582962 0.16579999029636383
0.03056158870458603 -0.013417411595582962 0.16579999029636383
0.031051017343997955 -0.013441689312458038 0.16609999537467957
0.03156096860766411 -0.013474060222506523 0.1665000021457672
0.03214987739920616 -0.013538800179958344 0.1673000007867813
0.03280140459537506 -0.013627816922962666 0.16839998960494995
0.03339946269989014 -0.013692558743059635 0.16920000314712524
0.03394169732928276 -0.01373302098363638 0.1696999967098236
0.03446628153324127 -0.013765390031039715 0.17009998857975006
0.035054534673690796 -0.013822038657963276 0.17080000042915344
0.035604871809482574 -0.01386250089854002 0.1712999939918518
0.03607363998889923 -0.013870594091713428 0.17139999568462372
0.03652161732316017 -0.013870594091713428 0.17139999568462372
0.03696959838271141 -0.013870594091713428 0.17139999568462372
0.03748307377099991 -0.013894871808588505 0.17170000076293945
0.03793184086680412 -0.013894871808588505 0.17170000076293945
0.03838060423731804 -0.013894871808588505 0.17170000076293945
0.038761526346206665 -0.013870594091713428 0.17139999568462372
0.03927813470363617 -0.013894871808588505 0.17170000076293945
0.03975003585219383 -0.013902964070439339 0.17180000245571136
0.04026925936341286 -0.01392724085599184 0.1720999926328659
0.040790051221847534 -0.013951519504189491 0.17239999771118164
0.04140809550881386 -0.014008166268467903 0.17309999465942383
0.04198143258690834 -0.014048628509044647 0.1735999882221222
0.04250849783420563 -0.014072906225919724 0.17389999330043793
0.04303713142871857 -0.014097184874117374 0.17419999837875366
0.04351739585399628 -0.014105277135968208 0.17430000007152557
0.04399818927049637 -0.014113370329141617 0.17440000176429749
0.04450498893857002 -0.01412955392152071 0.17459999024868011
-0.011152688413858414 -0.013117196038365364 0.16749998927116394
-0.010714900679886341 -0.013117196038365364 0.16749998927116394
-0.010307790711522102 -0.013156352564692497 0.1679999977350235
-0.009921564720571041 -0.013226833194494247 0.1688999980688095
-0.009525020606815815 -0.013289482332766056 0.1696999967098236
-0.00911894254386425 -0.013344299979507923 0.1703999936580658
-0.008739747107028961 -0.013446105644106865 0.17170000076293945
-0.008368241600692272 -0.013571403920650482 0.17329999804496765
-0.007956401444971561 -0.013641884550452232 0.17419999837875366
-0.007518325932323933 -0.01367320865392685 0.17459999024868011
0.009902340359985828 -0.013172014616429806 0.16820000112056732
0.010341957211494446 -0.013172014616429806 0.16820000112056732
0.010807214304804802 -0.013203338719904423 0.16859999299049377
0.011247877962887287 -0.013203338719904423 0.16859999299049377
0.011730137281119823 -0.013250326737761497 0.16920000314712524
0.01220833882689476 -0.013289482332766056 0.1696999967098236
0.012666787020862103 -0.013305144384503365 0.16990000009536743
0.013133997097611427 -0.01332863699644804 0.17019999027252197
0.02974863164126873 -0.013007559813559055 0.16609999537467957
0.030146414414048195 -0.012991897761821747 0.16589999198913574
0.030598454177379608 -0.012999728322029114 0.16599999368190765
0.031051017343997955 -0.013007559813559055 0.16609999537467957
0.03157992288470268 -0.013046715408563614 0.16659998893737793
0.03218831121921539 -0.013117196038365364 0.16749998927116394
0.03284035995602608 -0.013203338719904423 0.16859999299049377
0.03341919928789139 -0.013258157297968864 0.16929998993873596
0.033981699496507645 -0.013305144384503365 0.16990000009536743
0.034486547112464905 -0.01332863699644804 0.17019999027252197
0.03507505729794502 -0.013383456505835056 0.17090000212192535
0.035625655204057693 -0.013422612100839615 0.17139999568462372
0.037953931838274 -0.013453937135636806 0.17180000245571136
0.03838060423731804 -0.013446105644106865 0.17170000076293945
0.03882937133312225 -0.013446105644106865 0.17170000076293945
0.03927813470363617 -0.013446105644106865 0.17170000076293945
0.0396343469619751 -0.013414780609309673 0.1712999939918518
0.04119279980659485 -0.013485261239111423 0.17219999432563782
0.04186052083969116 -0.013555740937590599 0.17309999465942383
0.042410723865032196 -0.013587066903710365 0.17350000143051147
0.04296301305294037 -0.013618391007184982 0.17389999330043793
0.0434424951672554 -0.01362622156739235 0.17399999499320984
0.04399818927049637 -0.01365754660218954 0.17440000176429749
0.0445304773747921 -0.013681040145456791 0.17469999194145203
0.04506433755159378 -0.013704533688724041 0.17499999701976776
0.045599762350320816 -0.013728027231991291 0.1753000020980835
-0.011139372363686562 -0.012664269655942917 0.1673000007867813
-0.010702107101678848 -0.012664269655942917 0.1673000007867813
-0.010301655158400536 -0.012709688395261765 0.1678999960422516
-0.009915690869092941 -0.012777816504240036 0.1687999963760376
-0.009519407525658607 -0.012838374823331833 0.1695999950170517
-0.009102888405323029 -0.012876222841441631 0.17009998857975006
-0.008719386532902718 -0.012967061251401901 0.1712999939918518
-0.00833926908671856 -0.01307303924113512 0.17270000278949738
-0.007942698895931244 -0.013163875788450241 0.17389999330043793
-0.007509714458137751 -0.013201725669205189 0.17440000176429749
0.009884677827358246 -0.012709688395261765 0.1678999960422516
0.010329660028219223 -0.01271725818514824 0.1679999977350235
0.010781574063003063 -0.012732397764921188 0.16820000112056732
0.011247877962887287 -0.012762676924467087 0.16859999299049377
0.011723204515874386 -0.01280052587389946 0.16910000145435333
0.012201144360005856 -0.012838374823331833 0.1695999950170517
0.012674243189394474 -0.012868653982877731 0.17000000178813934
0.013157147914171219 -0.012906502932310104 0.1704999953508377
0.029802363365888596 -0.012596141546964645 0.1664000004529953
0.030164586380124092 -0.012565861456096172 0.16599999368190765
0.030598454177379608 -0.012565861456096172 0.16599999368190765
0.031051017343997955 -0.012573432177305222 0.16609999537467957
0.03157992288470268 -0.01261128019541502 0.16659998893737793
0.032226745039224625 -0.01269454788416624 0.16769999265670776
0.03287931904196739 -0.012777816504240036 0.1687999963760376
0.03347841650247574 -0.012838374823331833 0.1695999950170517
0.03400170058012009 -0.012868653982877731 0.17000000178813934
0.03456759825348854 -0.012914072722196579 0.17059999704360962
0.035177674144506454 -0.012974631041288376 0.17139999568462372
0.03579193726181984 -0.013035189360380173 0.17219999432563782
0.04154614359140396 -0.013004911132156849 0.17180000245571136
0.042239610105752945 -0.01308060809969902 0.1727999895811081
0.04281478002667427 -0.013118457049131393 0.17329999804496765
0.04341752827167511 -0.013163875788450241 0.17389999330043793
0.0439477302134037 -0.013186585158109665 0.17419999837875366
0.04445401206612587 -0.013201725669205189 0.17440000176429749
0.045012835413217545 -0.013232003897428513 0.17479999363422394
0.045599762350320816 -0.01326985377818346 0.1753000020980835
-0.010277112945914268 -0.012241619639098644 0.16749998927116394
-0.009880445897579193 -0.012292779982089996 0.16820000112056732
-0.009502568282186985 -0.012373171746730804 0.16929998993873596
-0.009092185646295547 -0.012417023070156574 0.16990000009536743
-0.0086939362809062 -0.012482798658311367 0.17080000042915344
-0.008315125480294228 -0.012585116550326347 0.17219999432563782
-0.007928996346890926 -0.012687434442341328 0.1735999882221222
-0.007505408022552729 -0.012738593854010105 0.17430000007152557
0.009872903116047382 -0.012256236746907234 0.16769999265670776
0.010323511436581612 -0.012270853854715824 0.1678999960422516
0.010768754407763481 -0.012278162874281406 0.1679999977350235
0.011234534904360771 -0.012307396158576012 0.16839998960494995
0.011709338054060936 -0.0123439384624362 0.1688999980688095
0.012201144360005856 -0.012395096942782402 0.1695999950170517
0.012674243189394474 -0.012424331158399582 0.17000000178813934
0.013157147914171219 -0.01246087346225977 0.1704999953508377
0.029874000698328018 -0.012190461158752441 0.16679999232292175
0.030219102278351784 -0.012153919786214828 0.1662999987602234
0.030616888776421547 -0.012139302678406239 0.16609999537467957
0.031051017343997955 -0.012139302678406239 0.16609999537467957
0.03157992288470268 -0.012175844050943851 0.16659998893737793
0.03218831121921539 -0.012241619639098644 0.16749998927116394
0.03287931904196739 -0.012336630374193192 0.1687999963760376
0.03345867618918419 -0.012387788854539394 0.16949999332427979
0.03402169793844223 -0.01243163924664259 0.17009998857975006
0.03460812196135521 -0.012482798658311367 0.17080000042915344
0.03525977209210396 -0.012555883266031742 0.17180000245571136
0.03591664507985115 -0.012628966942429543 0.1727999895811081
0.039726898074150085 -0.012548575177788734 0.17170000076293945
0.04132849723100662 -0.01249010767787695 0.17090000212192535
0.04199517145752907 -0.012555883266031742 0.17180000245571136
0.04266654700040817 -0.012621658854186535 0.17270000278949738
0.04326772689819336 -0.01266550924628973 0.17329999804496765
0.04387204349040985 -0.012709359638392925 0.17389999330043793
0.04440303146839142 -0.012731285765767097 0.17419999837875366
0.04496133327484131 -0.012760518118739128 0.17459999024868011
0.045521724969148636 -0.012789752334356308 0.17499999701976776
-0.010264841839671135 -0.01178973913192749 0.1673000007867813
-0.009868697263300419 -0.011839068494737148 0.1679999977350235
-0.00949134398251772 -0.011916586197912693 0.16910000145435333
-0.009081481955945492 -0.011958868242800236 0.1696999967098236
-0.008673574775457382 -0.012008197605609894 0.1703999936580658
-0.008290981873869896 -0.01209980994462967 0.17170000076293945
