ply
format ascii 1.0
element vertex 748
property float x
property float y
property float z
end_header
0.00623347898478244 0.00791078388515533 0.007684813019016963
0.022116221592204863 0.03270708834433498 0.009590139871199211
-0.002198168104851713 -0.006590799733988001 0.0005345410577496285
0.017662530495213616 -0.0055445421105462635 0.008531624670105566
0.004762842777783098 -0.018807602411133505 0.008531624670105566
0.0036339894268242945 -0.03974621497140064 -5.575787791292454e-09
0.019910864662511876 -0.03602359750016261 0.0008018217345582228
0.008027530820726303 -0.03989304386144037 0.004297571512525672
0.017891487977633 -0.04026855368693255 -5.575787791292454e-09
0.025629537200610154 0.007027701580732078 -5.575787791292454e-09
0.036014248829815375 0.006384542397343524 0.00035636006793352855
0.023375035559621924 -0.01595389727071518 0.006414597836422463
0.01654196290510319 -0.008567058422728915 0.001781829970997048
0.0256236991967869 -0.014757515930883782 0.0008552734666406689
0.012780431298390448 0.02550614207660049 6.351140910727321e-05
0.02527315666964596 -0.014623585487556585 0.0019243776941212237
0.0389539648830519 -0.011466650903074138 0.0021381955828567232
-0.0350168928171656 0.03161374849160862 6.351140910727321e-05
0.003909254878628995 -0.03690372812165733 0.008955031770115649
0.036442528641522975 -0.03266529894191655 0.0005345410577496285
0.006542231796661708 0.002492647904332518 0.006414597836422463
0.007912343670325705 -0.03235245538431614 0.0016036489493193033
0.03170897136983266 -0.0400922098567025 6.351140910727321e-05
-0.006651944705252235 -0.01603968711169589 0.0010690950513269327
0.03580472455036003 0.006188548011649734 0.001425460663186608
0.03251522345109987 0.02755174985993248 0.0010690950513269327
0.015282976815550485 -0.0419497538557719 -5.575787791292454e-09
0.010260740843832465 -0.026600950646514368 0.01064865405272023
0.01764412996785478 -0.005451405132372002 0.012765684454907519
0.0047669583580525286 -0.03653199232478315 0.003874160334225091
0.015770378708994545 -0.0032987981232691036 0.009590139871199211
-0.018760212376493345 0.035558782583037 0.012765684454907519
-0.03698072210696266 -0.023604033419695025 0.0021381955828567232
0.009855562147921843 -0.030597177445743685 6.351140910727321e-05
-0.005064968447355849 -0.03098454459049101 0.001781829970997048
0.0024735878637349783 -0.022537417090823107 0.004297571512525672
0.03763504966096699 -0.017359294469712266 0.00026726774098091856
-0.0373263761354058 -0.019642902711490582 0.00035636006793352855
-0.033731190055679115 0.03536451040163551 0.009590139871199211
0.004613042108475924 -0.03974517164822282 0.012765684454907519
0.034824848801702515 0.02826297880465454 6.351140910727321e-05
-0.007018663219642079 -0.0331939435899676 0.001425460663186608
-0.023061528665831124 -0.03879648131824958 -5.575787791292454e-09
-0.010690899228901202 -0.02164062547545352 0.008531624670105566
0.02229149684760474 -0.01462822484303827 0.0021805416201246953
0.010098133057637331 -0.028540424320928248 0.0010690950513269327
0.017987162838309687 -0.003671364666450491 0.0016036489493193033
0.01831337170086334 -0.036590202600517 -5.575787791292454e-09
-0.010453176716067913 -0.03531364048387622 0.01064865405272023
0.026949542110405553 0.006847393527435578 0.00035636006793352855
-0.024349778741268563 -0.004301574100985532 -5.575787791292454e-09
0.03258902068686712 -0.02647402083483219 6.351140910727321e-05
0.008576751733776556 0.0027014308210275883 0.0021381955828567232
0.01329271728182776 -0.03972485511463999 0.0021381955828567232
0.009910853295653567 -0.029187783656067747 0.0016036489493193033
0.03591959457806344 -0.03631182815605017 6.351140910727321e-05
-0.007406947978169392 -0.028346090988471285 -5.575787791292454e-09
-0.011908817541193295 -0.0339197312807481 0.0021381955828567232
-0.0023487197961015987 -0.017521946693221963 0.01064865405272023
-0.00280184994830415 -0.007420248561181282 0.009590139871199211
-0.0350990262306886 0.03209282285911101 0.012765684454907519
0.023594650409156686 -0.040149587593325306 6.351140910727321e-05
0.02918124300516191 0.0010243805145078234 0.0018709222660880133
0.010707730746917488 -0.032458335143506545 6.351140910727321e-05
-0.025546220251260864 0.008754748977821485 0.0010690950513269327
0.017228468936406127 -0.008212126102478666 0.008531624670105566
0.02585695413043387 0.009798202249060991 0.001781829970997048
0.013200520196548996 0.02520824748259899 0.0021381955828567232
0.020081717684889994 -0.03656154663109043 0.00800236859891768
0.028957066933409183 -0.014327468498853623 0.0010690950513269327
-0.010542290589221582 -0.03341799715547365 0.0021805416201246953
0.031421711964987685 0.031528435065952404 0.0010690950513269327
0.004954576901493954 0.011378339372687889 -5.575787791292454e-09
0.0015507204690268918 0.013505227120809938 0.012765684454907519
-0.03724699900248401 -0.022364019891248206 0.0007127293757439683
0.03574574106322866 0.02811506169238748 0.0005345410577496285
0.006259402190665898 -0.02532658581727841 0.0010690950513269327
0.04046598214771411 0.02051522239734699 0.012765684454907519
-0.01196567860089249 -0.02464881738738056 0.003239056566325184
0.009107659196526728 -0.026339963339539096 0.0026039454065237477
0.0075132464610980386 -0.02785008434021176 -5.575787791292454e-09
-0.03110930028519906 0.03976121866869875 0.012765684454907519
0.0006155140590708042 0.015390286115440336 6.351140910727321e-05
0.005549762023719743 0.010201941704077495 -5.575787791292454e-09
0.022883285433827134 0.008526025470241472 0.003239056566325184
0.03651659623667011 -0.034208539182745246 -5.575787791292454e-09
0.04081772486044662 0.01963622545851596 6.351140910727321e-05
-0.006470887927938317 -0.0070250844023096925 0.012765684454907519
0.004953422423062561 -0.03728044043977596 0.0011454582370917562
0.018904442886054036 0.029950286996256296 0.003239056566325184
-0.01801732679147809 0.0347016283545453 0.0021381955828567232
0.03266312865289817 -0.01429433628436607 0.01064865405272023
0.01807849148156441 -0.0012151810662590753 0.00026726774098091856
0.01564527109530018 -0.038520015056796655 0.0021381955828567232
-0.006939427462279657 -0.003734633587394695 0.012765684454907519
0.03963148876580003 0.02219324673573421 0.012765684454907519
0.01777410964157007 -0.005796698857916643 0.004297571512525672
0.01916715178957261 -0.007022613557574882 6.351140910727321e-05
-0.03380820690162228 0.041263224864415596 6.351140910727321e-05
-0.033642520232170195 0.03437403538838255 0.012765684454907519
0.01751120534108076 -0.008128919129099452 6.351140910727321e-05
0.019625883425804885 0.002799419809538577 0.0016036489493193033
0.003782846452226708 -0.03699039734858039 0.0013337302239292482
0.035189648869152525 -0.029274519119492543 0.012765684454907519
0.024205087449851687 -0.014455863802522523 6.351140910727321e-05
0.03823491464617205 0.024299279433401016 0.003239056566325184
0.023613185894887985 -0.01675735451265079 -5.575787791292454e-09
0.03950094614020449 -0.019118907026127906 0.012765684454907519
-0.03672931485040035 -0.02456360492568764 0.0021381955828567232
0.0287427358328172 0.0298256693848114 -5.575787791292454e-09
-0.0309527620897159 0.021782762997666672 6.351140910727321e-05
0.00876308731623085 -0.032203218172765856 0.003239056566325184
0.0025429427088825792 -0.018584683992656736 0.009378435811407857
0.04140606525292696 0.012287752124813414 0.003239056566325184
-0.019873221963893677 0.0029937217907335134 0.0010690950513269327
0.006234711688111396 0.00799990434320876 6.351140910727321e-05
0.0025214116110390265 -0.01863303666765412 0.01064865405272023
-0.01422714465421731 -0.024413481395052092 -5.575787791292454e-09
0.0003075339483348053 -0.02327970614368203 0.0007127293757439683
0.030247046831289353 -0.014181756122943576 0.003239056566325184
-0.03376675092352317 -0.025117416014354035 -5.575787791292454e-09
0.015254780037623022 -0.0020204735629184493 0.0010690950513269327
0.01749834441313468 -0.008134296393738019 0.011495466213595146
0.02172979995019281 -0.014472053924351243 0.001781829970997048
0.004609274108784489 0.005469988301086349 -5.575787791292454e-09
0.03770760623059629 -0.01933751375809754 0.003239056566325184
-0.03159902643678114 -0.012689996972844666 0.0005345410577496285
-0.002361804052412403 -0.017521447510073722 6.351140910727321e-05
0.02216816478894915 0.0087814975230154 0.0005345410577496285
0.04064451547167287 0.021526929794019337 -5.575787791292454e-09
0.027152138122638295 0.030333996297696748 0.0016036489493193033
0.0038720123433590523 -0.03713546843870129 0.0021805416201246953
0.006684527884035058 -0.02518759168621309 0.00035636006793352855
0.03887249324708703 0.020125299717323252 0.006414597836422463
0.03391225247609597 0.00457417185651677 0.00035636006793352855
-0.033260027070819126 0.03850824781022988 0.0016036489493193033
0.010061025791926565 -0.04039756060163674 0.008531624670105566
0.03849249458759702 0.008834999321261241 0.006414597836422463
-0.005104279167199363 -0.03104121592132863 0.0021381955828567232
-0.027954639269091957 -0.033824062845283595 0.012765684454907519
-0.02887016103756381 -0.009389053294324991 0.003239056566325184
-0.004672716738408075 -0.02902434182271062 0.0005345410577496285
0.006426709979684687 0.013043398503256663 0.006414597836422463
0.0353638906255815 -0.008276491353804824 0.012765684454907519
0.0310726845184017 -0.0005552695230670163 0.0010690950513269327
-0.019458846845839598 0.002649783729989389 0.0010690950513269327
0.025303035581497338 -0.005997914418681701 0.001781829970997048
0.005907026201431255 -0.038043417601454896 0.000992731738115531
0.004867157185152032 0.004874470506466441 -5.575787791292454e-09
0.02065886938821765 -0.036318098277799526 0.0010690950513269327
-0.013239238944154082 0.03188921970086536 0.0010690950513269327
0.010078577744922022 -0.02426500620981096 0.001651282107879202
-0.004616677211446458 -0.030155192538676604 0.0005345410577496285
-0.03305240196859451 0.03328361772124085 -5.575787791292454e-09
-0.028418255667192943 -0.03616215071963948 -5.575787791292454e-09
0.0026170685325587555 -0.0351115810332083 0.0010690950513269327
0.008100069444360036 0.0011461304937434643 0.0005345410577496285
0.0017984230527265759 -0.0366680579786622 0.003239056566325184
0.0371559965270838 -0.014174262683775364 0.0006414555141818804
-0.014533012738648349 0.03517883935310587 0.006414597836422463
0.030694773771066605 -0.03957616958310559 0.0021381955828567232
0.036065186914144384 -0.03897860866419199 0.0021381955828567232
0.008460383859741427 -0.026805835074754973 0.012765684454907519
-0.002268679563434683 -0.007496273190248172 -5.575787791292454e-09
0.03613527312148259 -0.008330985256575812 0.003239056566325184
0.037008644119429016 0.00442369936722165 0.006414597836422463
0.03087295565362347 -7.556937547434258e-05 6.351140910727321e-05
0.00533568900664237 0.010611747623706846 0.0010690950513269327
0.00326440445399181 -0.03867507916421858 0.012765684454907519
0.03856739222686143 -0.02258608505176262 0.0010690950513269327
0.030635678390522208 0.028885904241980998 0.0010690950513269327
0.002033721917286462 -0.035463408686869584 0.0010690950513269327
-0.031531308425368935 0.01891951739925881 6.351140910727321e-05
-0.029453140909914723 -0.007689434554977396 6.351140910727321e-05
0.017592894999194177 -0.00509764591985909 0.008531624670105566
0.03704462093422877 -0.012653048134120388 0.006414597836422463
-0.0261509009535475 0.03801950283809541 0.0021381955828567232
-0.033576447489056464 0.039053958172351716 0.011495466213595146
-0.0064737612175324415 -0.028973466030123025 6.351140910727321e-05
0.02451772209492006 -0.00523507528749772 0.0021381955828567232
0.021797860878974788 -0.013181146387982528 0.001425460663186608
-0.011446878350174843 -0.01996330033519431 0.009590139871199211
0.0005376205634859154 -0.020760623223516107 0.00035636006793352855
0.03225171656039958 -0.025086977734083696 0.0007127293757439683
-0.027520366036610205 -0.0341837345168793 0.009590139871199211
0.022921359814055867 -0.00433508385698817 0.0007127293757439683
0.0024821695936222818 -0.022385708780895904 0.004297571512525672
0.007300246859268639 -0.027316470444556096 0.00800236859891768
0.005402021240121842 -0.037679346693358345 0.0016800122625307051
0.03944975714822053 0.0184778417054428 0.006414597836422463
0.007058489506969405 0.01737672365288464 0.006414597836422463
-0.0027395019498027326 0.023976886228701984 0.006414597836422463
0.021799543017359185 -0.014661013448625467 0.0007127293757439683
0.0027158219297384505 -0.03506072396088974 0.001781829970997048
0.02933631397464098 0.008599860994255557 0.001425460663186608
-0.015847365410184146 -0.003480203989704642 0.0021381955828567232
0.025384939331001378 0.007001329643772147 0.0010690950513269327
0.020449704409181736 0.006842704913442389 0.012765684454907519
0.03421390047697126 -0.012595511231169402 0.01064865405272023
0.03280460225947829 -0.028709815225178317 -5.575787791292454e-09
0.0025214116110390265 -0.01863303666765412 0.007261409487511066
0.03383608342022302 0.029920494768625527 0.0016036489493193033
0.035757792387895664 -0.011356395487881475 0.0021381955828567232
0.017562816096783247 -0.00481087140246362 0.008531624670105566
0.016287947079559245 -0.008331756830770035 0.0007127293757439683
0.038472468822872155 -0.022706217649463564 0.0007127293757439683
0.0365773173248725 -0.021349863625874026 0.003239056566325184
-0.010881842712544637 -0.03307508125173633 0.0005345410577496285
0.006054207257598462 -0.025869188925686556 0.01064865405272023
0.024977785072354788 -0.014246927776476466 0.0010690950513269327
0.03924387204886739 -0.01992238994469527 0.006414597836422463
0.02881386206338243 0.02979715015367407 0.0010690950513269327
-0.035567020987710654 -0.026496275465807805 0.012765684454907519
0.007736191048047121 0.021639335621813957 0.0021381955828567232
0.006234954058679412 0.008024673864988851 0.006414597836422463
0.023656073292897824 0.008869518494181224 0.003239056566325184
0.007214641613888281 -0.027930613732113637 0.0021381955828567232
0.0197179730640244 -0.038271393306128075 6.351140910727321e-05
0.021569291248936022 0.007709867510392167 0.009590139871199211
0.003743629237303031 -0.02078781597458063 0.0021381955828567232
0.023349053678616227 0.008746323163801173 0.003239056566325184
0.00630237656412344 -0.038308384788258744 0.0003054548777894771
0.0056423556924788025 0.0031184707361921276 0.0005345410577496285
0.005335940603326997 -0.02541029850794651 0.0010690950513269327
0.0016886142021543893 -0.03576618888019815 0.00035636006793352855
-0.005919400992243537 -0.018664221201419195 0.0016036489493193033
0.005724870890343493 -0.03791625987123841 0.0019854653879297335
-0.01167907352992327 -0.026388255616132054 0.009590139871199211
0.015264652805403458 -0.0017136835018361797 0.001781829970997048
-0.020647873343801023 -0.036913472705075966 0.012765684454907519
0.007634717984939659 -0.039118208431976303 0.0021381955828567232
0.03733295840316952 0.022799360049522363 0.009590139871199211
-0.009576271001725242 -0.03458222936800897 0.008531624670105566
0.007866215798498994 -0.03981436929377065 0.0021805416201246953
0.032445325501502705 -0.024842671978360462 0.001781829970997048
0.013645112655699738 -0.039617863445888996 -5.575787791292454e-09
-0.0197858417375637 -0.03697704299543548 0.012765684454907519
-0.017394064508086345 0.0010247379132047863 0.0021381955828567232
-0.02276035151521239 0.006389139141649984 0.012765684454907519
0.0300854270905433 -0.00014936015709070613 6.351140910727321e-05
0.008674952109379939 -0.04012816348328119 0.008531624670105566
0.037053993513971435 -0.019667278300509527 0.0010690950513269327
0.019557222616873707 -0.03597398599247569 0.001425460663186608
-0.03089845438105171 0.03925862700470225 0.0021381955828567232
0.02913873403454541 -0.016636850617846078 0.0021805416201246953
0.03230605855769175 0.028359038684169585 6.351140910727321e-05
-0.029354026011583063 0.039426314224060115 0.012765684454907519
0.03802503058077052 -0.009721199720158497 0.0007127293757439683
0.006684527884035058 -0.02518759168621309 0.0007127293757439683
-0.03554242617192272 0.03633935382157836 0.012765684454907519
-0.009627152649106725 -0.018354826060687827 0.012765684454907519
-0.010311439762078592 -0.030388966112559788 -5.575787791292454e-09
-0.0023750362737244807 -0.0063131862133838255 0.0016036489493193033
-0.009249173708470735 0.03134082924742318 0.006414597836422463
0.010649594092948484 -0.024605504858522004 0.012765684454907519
0.00826366523666988 -0.04227561425146745 0.0010690950513269327
0.008552507645179345 0.0021111110396250807 0.0021381955828567232
0.025739765274896066 0.009265886461661875 6.351140910727321e-05
0.016607215822677372 -0.00786819048589227 0.01064865405272023
0.028107894073743134 0.006169702928560002 0.0005345410577496285
0.008484609903484274 -0.03955291948268257 0.0019854653879297335
0.02596791706774931 -0.03923034656833941 6.351140910727321e-05
-0.004588417806144093 -0.03008343783888059 0.0021381955828567232
0.03383700805014016 0.029180153540322013 6.351140910727321e-05
0.03651659623667011 -0.034208539182745246 0.0021381955828567232
0.016552639691033398 0.0017755625836340576 0.009590139871199211
0.017871228589933248 -0.005804956843708645 0.011354332892594576
0.022612491109042943 -0.01514543465186996 0.008531624670105566
0.020811104215335607 0.007135738261966402 6.351140910727321e-05
0.004632258601355812 -0.01898373673180052 6.351140910727321e-05
0.008201067930648176 -0.024974811811545483 0.012765684454907519
0.005013197415184562 -0.0373487145294259 0.00038181449505011425
0.042018264586453254 0.017301587483462114 -5.575787791292454e-09
-0.010549286299675201 -0.03618660235946522 -5.575787791292454e-09
0.006210819484011817 0.00746354636499687 0.012765684454907519
0.006027903231875899 0.00770449732595711 0.008531624670105566
0.03195076650868086 -0.02572735648521551 0.0010690950513269327
0.001811934897396956 -0.03689735199351177 0.009590139871199211
0.02399405850741239 -0.038506869131108554 0.012765684454907519
0.001029732053320277 -0.019711268688775697 0.0007127293757439683
0.009681521945672305 -0.026848273761945134 0.00026726774098091856
-0.005288807065048702 -0.03129349527550195 -5.575787791292454e-09
0.004914037717987035 -0.037195746303789516 0.0007636382299771397
0.018092707471945683 -0.00471795325970761 -5.575787791292454e-09
-0.022800948579812325 0.03729831958660127 0.009590139871199211
0.007881017251517818 0.0010119725884967818 0.0012472760730046772
-0.031846812700528915 -0.012992773009934322 0.0005345410577496285
-0.03159902643678114 -0.012689996972844666 0.0010690950513269327
0.03740125180952696 0.007152794210958756 0.008531624670105566
-0.031664102242177534 0.042119183192513045 0.0010690950513269327
-0.03311296124341538 0.03374019541188454 0.0010690950513269327
0.004914266460887569 -0.03720491099718608 0.000992731738115531
0.005979335162270594 0.0023920473382463003 -5.575787791292454e-09
0.025478415141183142 -0.007145354595050831 0.01064865405272023
0.01807857753359123 -0.007821852967240608 0.010225246952710147
-0.028510300024133867 -0.03331635812522504 6.351140910727321e-05
0.03826151215614754 -0.0229521269966145 0.0010690950513269327
0.01820295193686719 -0.008323951900389447 0.00035636006793352855
0.012963792725551135 0.027893186282516604 0.006414597836422463
0.009833638099146011 -0.026099861249173583 0.012765684454907519
0.03208498041250813 0.0034290503643744203 0.0018327351930027438
-0.03303739346638793 -0.02668667216376854 -5.575787791292454e-09
0.02585274430411361 -0.011605870974095829 0.006414597836422463
0.036609689633327495 -0.012775591532211694 0.001389823796128853
0.02921807779524993 0.0006627466051954813 0.0016036489493193033
0.0340849160372257 -0.03196729736618291 0.008531624670105566
-0.03304292792316925 -0.01378765885295671 0.009590139871199211
0.032925028948338306 0.029902847871556646 0.012765684454907519
0.005015143035511347 -0.01828187389873332 0.01064865405272023
-0.02159579764011935 -0.03677760065149398 0.003239056566325184
-0.014700560008857918 -0.000971477777102618 -5.575787791292454e-09
-0.024628779728279565 -0.006791980172957947 0.003239056566325184
-0.03386715658980979 -0.02485693672412867 0.0021381955828567232
0.005907026201431255 -0.038043417601454896 0.0001527246510008429
0.0024170994289046364 -0.018811157936874715 0.007684813019016963
0.011218155036784624 -0.042872606683890875 0.0010690950513269327
0.022984532021291748 -0.016244967313453797 0.00035636006793352855
0.003982098824733998 0.006928073634150589 0.0010690950513269327
0.022304796475338395 0.008199396170696396 0.003239056566325184
0.012522238837578357 -0.026548868838753754 -5.575787791292454e-09
0.005476900835404673 -0.03773597933911511 0.002061828701141135
0.009719732347082772 -0.029667857159483068 0.0008018217345582228
0.03664757488003621 -0.008050518347199404 0.00035636006793352855
-0.024651054411094823 0.037498778188872275 0.0005345410577496285
0.03611339555871327 0.006479368949861258 0.00035636006793352855
0.03894380880840152 0.018645739120569278 0.0021381955828567232
0.033318704162066656 0.03031793763780688 0.0016036489493193033
0.007365348199336249 -0.027891897936469887 0.0021381955828567232
-0.03516021443012528 -0.02029398451080126 0.003239056566325184
0.018026490614040342 -0.0017816111023970082 -5.575787791292454e-09
0.008613016503717055 -0.03160373341211385 0.0010690950513269327
0.018095457623291285 -0.03674010503786794 0.0021381955828567232
0.0005697776966916749 -0.02424523987957819 0.0008018217345582228
-0.013439535852892806 -0.0217623591087411 0.0010690950513269327
0.0046787314004066 -0.018923198544575023 0.008531624670105566
-0.008597920974774832 0.030735021350952563 0.012765684454907519
0.010134884155947712 -0.02830727828046124 0.0008018217345582228
-0.013670772309288261 -0.03815319178136705 -5.575787791292454e-09
0.037325360560654657 0.007063610083710249 0.008531624670105566
0.004448973504124549 -0.03761787658051465 0.011707169253813874
-0.03416477258577821 0.025171900132596663 -5.575787791292454e-09
-0.01267586079834675 -0.03446712077930443 0.0016036489493193033
-0.003719769707974154 -0.00595640923002579 6.351140910727321e-05
0.0039017584435440556 -0.020611583547273472 0.001425460663186608
-0.004572964862482918 -0.01768188126506252 6.351140910727321e-05
-0.02811603710046189 -0.033681515900777004 0.009590139871199211
0.03203147971699713 -0.026287826047519218 -5.575787791292454e-09
-0.02114005175400525 -0.03914446889561356 -5.575787791292454e-09
0.006684527884035058 -0.02518759168621309 0.001781829970997048
0.029047432817039334 0.004500039861089492 0.0005345410577496285
0.03927210554785013 -0.021370237821202398 -5.575787791292454e-09
0.021136582467559267 -0.0063482735386555245 0.003239056566325184
0.02845146671783961 -0.014538830795333463 -5.575787791292454e-09
0.01750144051282069 -0.008613893725366816 0.00035636006793352855
0.030829890875651182 0.005751626105741836 6.351140910727321e-05
0.032013170287134574 0.0005349623190556384 6.351140910727321e-05
-0.00226655371906839 -0.006458157942806722 0.0016036489493193033
0.01564428301607426 0.0280013025891234 0.006414597836422463
-0.003376814217564239 -0.017537873144251512 0.0021805416201246953
0.00816872219778626 0.02125426755985655 0.006414597836422463
0.019550908723285895 -0.00432821004538645 0.001781829970997048
0.000872729334641795 -0.021468718342460315 0.008531624670105566
0.0055124743629157424 -0.036893457581309526 0.0013363683680956426
-0.021211574381339467 0.03665151937168069 0.012765684454907519
-0.01740391064156378 0.004423938941356598 0.0021381955828567232
0.0390871617606353 -0.013167479254066621 0.006414597836422463
0.0254980505215296 0.007015578520540239 0.0021381955828567232
0.03586276971695373 -0.032683122997850096 0.003239056566325184
0.006151349763838951 0.007471578598893965 0.012765684454907519
0.04162758554744248 0.014099395683761406 0.012765684454907519
0.012720618781871472 -0.029330615001190028 0.0016036489493193033
0.009582616124047627 -0.026822976233324997 0.0016036489493193033
0.0005045449054570143 -0.024079783075841937 0.0005345410577496285
0.002558767112185703 -0.0184676695803464 0.0017571340103283005
0.005546314098415582 0.010202607198939073 0.0021381955828567232
-0.010562220919504914 -0.02151279100514223 0.012765684454907519
0.018187139510750024 -0.004811864960500187 0.0009621878912112762
-0.03590588637041142 -0.014192647500849179 0.0021381955828567232
-0.03372813372335145 0.03837359624298452 0.009590139871199211
-0.005626912729069518 0.024459485310241377 -5.575787791292454e-09
0.027912779222607417 0.006323659066566377 0.0010690950513269327
0.03400617126626664 -0.008769091476956824 -5.575787791292454e-09
0.03651538483780304 -0.03441144063002068 0.0005345410577496285
0.0031606134279566116 -0.03858599931255226 6.351140910727321e-05
0.00023568515104449396 0.014984823999462965 0.0010690950513269327
0.03646544761128957 0.0068315623315760975 0.001425460663186608
0.0029707861757272474 -0.020915885272416383 0.01064865405272023
0.004920211048536532 -0.03722626786935543 0.0019854653879297335
0.029771411014526017 0.00818015431059787 0.00035636006793352855
0.028569049622759433 -0.042154663858129 0.0021381955828567232
0.03975612908549841 -0.01615672314271394 0.012765684454907519
0.0025214116110390265 -0.01863303666765412 0.0017571340103283005
0.037637710614485544 -0.016627899240261167 0.0018709222660880133
-0.0006379976425475761 0.021945514109767215 0.0010690950513269327
-7.494735396769653e-06 0.020962449376242136 0.0021381955828567232
0.004920211048536532 -0.03722626786935543 0.0009163647926766539
0.012545818579306593 -0.026607660157193146 0.0013363683680956426
-0.036212943975476974 -0.02454411634041158 0.009590139871199211
0.017536411202285267 -0.004491971201984316 0.01064865405272023
-0.003505837875646645 -0.008026844225732965 0.0021381955828567232
0.0042187994700051586 -0.027956201317953715 0.0010690950513269327
0.005638573504790283 -0.03785457268001747 0.00061090803505015
-0.010932032620195434 -0.026503869892512546 0.001781829970997048
0.03208325659839561 -0.025334670609387877 0.0021381955828567232
-0.011344669506286424 -0.024043086640619247 0.001781829970997048
0.029186142571585732 -0.0166194754710666 0.012765684454907519
0.01991557076735574 -0.03648696377180166 0.012765684454907519
0.002396128428477403 0.016590829672301428 -5.575787791292454e-09
0.016087614189775497 0.00031592882185306156 6.351140910727321e-05
0.00588299901415979 -0.03802684437743131 -5.575787791292454e-09
0.02715895472767392 0.007254022062233366 6.351140910727321e-05
0.02816587731237146 -0.015088911943551811 6.351140910727321e-05
0.013360626950422175 -0.04029184100126684 0.004297571512525672
-0.008796844763070627 -0.033926472206166534 6.351140910727321e-05
0.0037302490834681254 -0.017183820532109338 0.008531624670105566
0.035952538458985404 -0.030017770685412525 0.0021381955828567232
0.004283000026302853 -0.03749007492531041 0.009590139871199211
0.03425845654272176 -0.00935713943510076 6.351140910727321e-05
0.037507631838251024 -0.015432001838461306 0.0018709222660880133
0.022190352846573617 0.006136104848786739 6.351140910727321e-05
-0.0038206195876972367 0.02616080847144562 0.0021381955828567232
0.005507730659231646 -0.03385852390278321 0.0016036489493193033
0.00864232729298703 -0.03961932810629796 0.001298188559465324
0.004398511989587166 -0.03515140911542287 0.012765684454907519
0.0024650294813188356 -0.0379318277843336 0.012765684454907519
0.007920908664931715 -0.035063789197076145 0.012765684454907519
-0.01392349915709299 -0.03580299116624782 0.012765684454907519
0.03754659596636067 0.004344758561752536 0.0010690950513269327
-0.03737260980503013 -0.020481015893650215 0.001425460663186608
-0.0095843738709203 -0.021273564963636436 0.0010690950513269327
-0.009055993661281129 -0.03501479874812779 0.001425460663186608
0.006252770586568599 0.010864883537820781 0.003239056566325184
-0.03537512730411878 -0.026946503122610353 6.351140910727321e-05
-0.032027614738643614 0.039834674761564305 0.006414597836422463
-0.010731423952622825 -0.022563182331231574 -5.575787791292454e-09
0.009626665877264821 -0.029879263230646082 0.0016036489493193033
0.02914211680771345 0.0019797058498940683 -5.575787791292454e-09
-0.033074012535503704 0.02145391229447449 0.0010690950513269327
0.02360152067620208 -0.004605598163055038 0.0021381955828567232
0.024010915239774822 -0.00910229673623226 0.0016036489493193033
0.0189417716860737 -0.004577067533251331 0.0020312848542368804
0.0018433358092732096 -0.035614148355449106 0.001781829970997048
0.026553789997583715 0.00922350654874996 0.012765684454907519
-0.010326331213275947 -0.03256458295715586 -5.575787791292454e-09
-0.022625094235093048 0.00923873612114135 -5.575787791292454e-09
0.033653904847825135 -0.023551091438939922 0.0010690950513269327
0.024232154043913906 -0.013789400016110646 0.012765684454907519
0.020112410520122956 -0.004756416706914421 0.009590139871199211
0.004953422423062561 -0.03728044043977596 0.0012218252462539224
0.005511054147162696 -0.01788827486936379 -5.575787791292454e-09
0.03602429948616685 -0.03914761019259912 -5.575787791292454e-09
0.028003767968215236 0.030580540750236855 0.009590139871199211
0.029143609139252426 0.00176298182519154 0.0016036489493193033
0.007742623938837301 0.001508182773760501 0.012765684454907519
0.012173615838887175 -0.027223454952994334 0.01064865405272023
0.00564539394156045 0.01068572940867221 -5.575787791292454e-09
0.02958630929931961 0.0011682400808495804 0.00800236859891768
-0.013555715119115063 -0.025737814136470943 0.012765684454907519
0.012725568291751586 -0.027266136941200912 0.0016036489493193033
0.04110340070673331 0.010847112662131175 6.351140910727321e-05
-0.035063972145662696 -0.012702797310483623 0.0010690950513269327
0.030418660872487683 0.006418921406832621 0.012765684454907519
0.017942161918124318 0.005160058666406906 0.0016036489493193033
-0.020324878605109026 0.035770616681250686 0.0016036489493193033
0.020407841163516977 -0.03621000890543326 0.0016036489493193033
0.035750792057784885 -0.011363533871955007 0.0016036489493193033
-0.03244414679461201 -0.012956909209524445 0.003239056566325184
0.0236912585318476 -0.016201383277739238 0.009590139871199211
0.007491409242454509 -0.02785650652003208 0.0005345410577496285
-0.010710696845567436 -0.027605229646750943 0.009590139871199211
0.003882755233628306 -0.025349950144561116 0.004297571512525672
0.036296667502881325 -0.012084949951059925 0.0007483663065250124
0.006213982127782986 0.007489235685777945 0.005144382653827963
0.012878570219223447 0.02486516689525214 0.0021381955828567232
-0.032503843739641256 0.0398145431475547 6.351140910727321e-05
0.02916625631268653 0.005479840283326418 0.012765684454907519
0.04002053978198553 -0.014368899502098277 0.0021381955828567232
0.0024170994289046364 -0.018811157936874715 0.0034507565478260386
0.018076354936253976 -0.0046600225674097795 -5.575787791292454e-09
0.016944575144348297 0.02888999449332943 0.009590139871199211
-0.004379527946787297 -0.02941381418681306 0.0010690950513269327
-0.02327310334397424 0.009946909208908693 0.0021381955828567232
-0.011252002867248529 0.030365253598288067 0.0010690950513269327
0.0037592421418244596 -0.02077000892630681 0.0007127293757439683
0.03087295565362347 -7.556937547434258e-05 0.012765684454907519
0.02216678409861329 -0.006983780944659656 0.00026726774098091856
0.008565682712219939 -0.03958799793719439 0.0015272820676037154
0.026802924827779923 -0.010382245191029931 0.001425460663186608
0.020761091398063695 -0.03636374257417165 0.0018709222660880133
0.009952566745943086 0.025737714321145286 0.0021381955828567232
0.005878693034071912 0.012613327213528024 -5.575787791292454e-09
0.008866767042218084 -0.02396410298130847 -5.575787791292454e-09
0.033138942236608536 -0.04218359348295827 0.0005345410577496285
-0.03274337688031855 0.03979374133264918 0.008955031770115649
0.008822164036941416 0.01425452517475448 0.0010690950513269327
0.03891744221688371 0.02333034727224855 6.351140910727321e-05
0.026403591625834853 0.007461549990015909 0.006414597836422463
0.0008015294744131838 0.019595462506057808 0.0010690950513269327
0.034944310899245164 -0.007855894445057198 0.0016036489493193033
-0.03163247991633861 0.017725550833094985 -5.575787791292454e-09
-0.015566686269129007 -0.0061824076430209126 0.0021381955828567232
0.007159297276948576 -0.03884336580103047 0.0003054548777894771
-0.03250756585003667 0.03933203564067792 0.0016036489493193033
0.002318165915727113 -0.018953005327269172 0.012342277354897437
0.006180188162051621 0.007427588606220572 0.0021805416201246953
0.033893160648694555 0.001882642438353175 0.009590139871199211
0.017662530495213616 -0.0055445421105462635 0.0021805416201246953
0.0375769511811649 -0.009025035459586704 0.001425460663186608
0.03689262371302137 -0.019957463354778788 0.0016036489493193033
-0.0054010713062365365 0.028048262298245617 -5.575787791292454e-09
0.020964688509968906 0.030709479695837674 6.351140910727321e-05
-0.0248272630867516 -0.0050434393060462416 6.351140910727321e-05
0.0013454591891808724 -0.024730417939985344 0.004297571512525672
-0.02551965894793819 0.03829678563266622 6.351140910727321e-05
0.03489738059632178 -0.028351068802144067 0.009590139871199211
0.006272983791654333 0.011210082516435066 0.006414597836422463
0.016323659476621902 -0.007076334046315984 6.351140910727321e-05
0.014166503355780366 -0.04240863414897647 0.0010690950513269327
-0.03411144498972971 -0.029144472389880802 0.012765684454907519
0.028074708257063995 0.006197647800029947 0.0021381955828567232
-0.020256515812039938 0.03864956726197048 0.0010690950513269327
0.004150851945413028 -0.036785607758776415 0.008955031770115649
0.017582489413269488 -0.005006102902387455 0.004297571512525672
0.03250347440657721 -0.0400034976521545 0.003239056566325184
0.01455116046778102 -0.03979811754203875 0.009590139871199211
-0.010934424889905042 -0.03571016732557903 6.351140910727321e-05
0.005052428629041556 -0.0373877152537782 0.0003054548777894771
0.0022620324270472636 -0.01830707067298922 0.012765684454907519
0.03391729166708259 -0.00889519434399576 -5.575787791292454e-09
0.026462425985818713 -0.011690971534845624 -5.575787791292454e-09
0.01813497312939618 -0.004798603559509442 0.0018174632695506163
0.005315392271104479 0.009239063187038743 0.0021805416201246953
0.01657500355047017 -0.00780818581640839 6.351140910727321e-05
0.006511452334990021 -0.038443546960532586 0.0010690950513269327
-0.004270533455681914 -0.015438311033017491 0.0016036489493193033
0.004651102532423559 -0.02576103889432961 0.012765684454907519
0.008464481536208416 0.0016100958434511394 0.0001781790781174286
0.0333784617623759 -0.01358007208007129 0.012765684454907519
0.004914037717987035 -0.037195746303789516 0.0006872712845382627
-0.014543165481497042 0.0015382663629070563 0.012765684454907519
0.015870893433484138 -0.0008331083620700292 0.009590139871199211
0.023808079384790463 0.03064598548085936 0.0021381955828567232
0.002020277764057697 -0.026290451796691428 0.0008018217345582228
0.007777969955044936 0.0015350099907654813 0.012765684454907519
0.007300246859268639 -0.027316470444556096 0.011177910123908116
0.007863072911971178 -0.03580487758622656 -5.575787791292454e-09
0.0005170028628796566 0.01443326882508178 0.0010690950513269327
0.0038341307159974643 -0.039146742789399586 0.003239056566325184
0.03808110366812835 -0.022113328523682894 0.003239056566325184
0.0018002143382615 -0.0368195404946805 0.009590139871199211
0.0048308151406984 -0.03789882663813877 0.007473109469011921
0.03945434584767943 0.023528256487144076 0.0010690950513269327
0.004028384631094446 -0.016719944583412555 -5.575787791292454e-09
-0.033519214972131735 0.03924830742773307 0.012765684454907519
0.00916071265739169 -0.026297416017248325 0.0026039454065237477
0.039765779915203296 -0.017538852872352073 0.012765684454907519
0.02450051918825859 0.007358394957186814 0.006414597836422463
0.03384056027747834 -0.030762325103959657 0.012765684454907519
0.014738705053545872 -0.039104080251515946 -5.575787791292454e-09
0.036571029062791215 -0.008672882295141168 0.012765684454907519
0.0025625430367588573 -0.018478964718976452 0.012342277354897437
0.024441461310358827 0.009673561750510554 -5.575787791292454e-09
0.011396559410501874 0.02642819833613101 0.006414597836422463
0.029566358744477567 -0.016462277995121823 0.004297571512525672
0.041597117022096855 0.016293162649357235 0.006414597836422463
-0.027603037742330715 0.0413558928084828 0.0010690950513269327
0.007941192489703725 0.006919291674235476 0.006414597836422463
0.022775027576514683 -0.004859003151567158 6.351140910727321e-05
0.008588239185411963 0.022263179532433678 0.006414597836422463
0.0257539037363325 -0.04151079363234259 0.0021381955828567232
0.021993667861290256 0.008687155587333524 0.0010690950513269327
0.008074485750270078 0.0025460174011746693 0.0021805416201246953
0.010139891276128646 -0.026429658246509544 0.0021805416201246953
0.034017722051925985 -0.012845627849315434 0.008531624670105566
0.004915720392749008 -0.03718758109347828 0.0019854653879297335
0.026203151505036312 -0.010447973122542798 0.0021805416201246953
0.004423787404556039 0.005900107542483821 0.0021381955828567232
0.0085642616426559 0.0043405178653178784 0.0021381955828567232
0.00237031055336741 -0.018880073529947028 0.01064865405272023
0.03594003579558533 -0.011434883374707182 0.0012829166360131966
0.026009431870360505 -0.006903425804160044 0.001781829970997048
-0.03332192254672395 0.03807974618540239 0.0016036489493193033
0.03625804114216913 -0.03787976935172481 0.0005345410577496285
0.03765378608539337 -0.023573960656601004 0.0010690950513269327
-0.01569315680780693 -0.038838044547794645 -5.575787791292454e-09
0.03772599146973429 -0.014385879314639312 6.351140910727321e-05
-0.0068505955516890045 -0.03222383001753152 0.012765684454907519
0.023017843736915913 -0.004961797016856121 0.0021805416201246953
0.005148221205969438 -0.03747462911437348 0.0007636382299771397
-0.03354499414961759 -0.030808159696839667 0.0005345410577496285
0.022414599290747465 -0.013171207394421165 0.008531624670105566
-0.009621410901581336 -0.020668218757281722 0.008531624670105566
0.02216678409861329 -0.006983780944659656 0.0018709222660880133
-0.01532559456041412 0.002121709014294013 6.351140910727321e-05
-0.022979222822183284 0.008999443678426628 0.004297571512525672
0.008699246902187555 0.022505828533815466 0.006414597836422463
-0.03274591787684469 -0.027212255346150103 -5.575787791292454e-09
0.00983707953132277 -0.024240029575832784 0.012765684454907519
-0.03241241164782095 0.039822389391491554 0.012765684454907519
0.003780654870226336 -0.03700593451919198 0.009590139871199211
0.0007833428231379725 -0.023047500910787062 0.012765684454907519
0.024355330996650562 -0.016600019415107366 6.351140910727321e-05
0.03492230963297201 -0.022306412733883514 0.0016036489493193033
0.012519187175139534 -0.026541537811171027 0.0018709222660880133
0.011898242478213876 -0.026396933794299228 0.008531624670105566
0.02238100986428624 -0.013220056716484498 6.351140910727321e-05
-0.015130131600880257 -0.035754673567316486 0.0005345410577496285
0.0053749127527766265 0.009106520877155109 0.006414597836422463
0.008081545874845445 -0.03287145002283065 0.003239056566325184
0.03287882002040342 0.0011279560981748368 6.351140910727321e-05
0.02441036179592935 -0.005883008168879393 0.012765684454907519
0.02918887378250249 -0.04224323248712443 0.0021381955828567232
-0.006660606031835924 -0.028934138837667045 0.008531624670105566
0.008565682712219939 -0.03958799793719439 0.00022908793235060002
-0.009984420326433333 -0.028075535948185838 0.009590139871199211
-0.010959856047774857 -0.02193235181783823 0.01064865405272023
0.02535681673228335 0.031126046553269077 0.006414597836422463
0.024336284582047955 -0.005087933849419939 0.001425460663186608
0.018196332682822444 0.032172878643964675 0.0005345410577496285
0.018632382539745515 0.0008574466442441934 0.0016036489493193033
-0.021019721075928706 -0.005910251258387356 0.012765684454907519
0.022660750610607336 0.009027340404362956 -5.575787791292454e-09
0.008552686059679546 0.002113747974062316 0.0008018217345582228
0.016050662434428334 0.0001586094235469267 0.006414597836422463
0.02182181625501536 -0.006930005357874906 0.0013363683680956426
0.02002236792754923 -0.03653441232115848 0.003239056566325184
0.03584005474810036 -0.011323778846136367 0.0007483663065250124
0.008089292677893673 0.0030307281775583173 0.0021805416201246953
-0.032990891953953834 0.03976505466662016 0.011495466213595146
-0.002248653144242365 -0.007444189005136578 0.0005345410577496285
0.018359539917289967 -0.0055304429366249 0.012765684454907519
-0.008546004207670285 -0.019770839149731496 0.0021805416201246953
-0.015759780075461513 0.00039564684849274393 0.012765684454907519
0.024157101245768517 -0.013917159818474086 0.004297571512525672
-0.0024771695259236566 -0.018038629581308564 -5.575787791292454e-09
0.013621153411229159 -0.042576226762987 0.0021381955828567232
0.009666307354350343 -0.02979049649066641 0.0021381955828567232
-0.03235403896690227 0.03934269758162098 0.0018709222660880133
0.03898851322399258 0.018511402665949597 0.0010690950513269327
-0.012796138024994325 -0.02074424789410947 0.0010690950513269327
0.010821088095049516 -0.024105051428301192 0.0021381955828567232
0.002804571839300922 -0.02717027768442027 0.00026726774098091856
0.01798054503946666 -0.0032698150154823005 0.0013363683680956426
0.010052290708558035 -0.02745770530014733 0.0013363683680956426
0.03527788229799516 -0.011987589319058611 0.001960010992674792
0.009971064054607159 -0.02901324220720645 0.0016036489493193033
0.014570774847281049 -0.04226045041049003 -5.575787791292454e-09
0.0025519113029246043 -0.02334092565542454 0.012765684454907519
-0.021217573262404435 0.007078023591940715 0.008531624670105566
0.008573008098072868 0.010881323589181128 0.0010690950513269327
0.012343669588874577 -0.026177977079156953 0.0018709222660880133
0.0398406870854637 0.006578817842328918 0.0021381955828567232
-0.026400290920314862 0.03858905227323004 0.009590139871199211
0.023895747679877805 -0.010433764252443764 0.0021381955828567232
-0.01119884266558763 -0.022245002601642264 6.351140910727321e-05
0.037428193628329526 0.008074303182031017 -5.575787791292454e-09
0.008869126416940447 0.014693686382948429 0.0016036489493193033
-0.03261759055543508 0.039320034576357056 0.0021381955828567232
-0.03232208191088472 0.03982876761917694 0.009590139871199211
-0.011675866483961071 -0.03373941375513518 0.0005345410577496285
0.009038613516954343 0.018395775139617435 6.351140910727321e-05
-0.003768509683932609 -0.017567293504115702 6.351140910727321e-05
0.016779890404090406 -0.008091715009144474 6.351140910727321e-05
0.006742336273157014 0.015541004196173592 0.006414597836422463
0.004332597596725613 -0.017466304999653848 0.01064865405272023
0.03598167456046217 -0.011497138807500619 0.0004276339294956165
-0.03462745617730334 -0.01995661483094723 -5.575787791292454e-09
0.006202424855602596 0.0074222934993186255 0.008955031770115649
0.03209302558103576 -0.026549192205255742 0.0021381955828567232
0.005601325359134973 0.010406763432954012 0.0010690950513269327
0.007140457158998516 0.0015755027473606247 0.006414597836422463
-0.010999772588884967 -0.026407478665061684 0.001425460663186608
0.004110386056829626 -0.02038932577776064 0.0021381955828567232
0.00901674968716469 0.015854730297406226 -5.575787791292454e-09
0.033195199489576305 -0.013772455801798505 0.012765684454907519
0.03211680244065657 0.003376600171774608 0.0001527246510008429
0.005620354315844629 -0.025907581402950897 0.0021805416201246953
0.017725650136015344 -0.008026847582379464 0.007684813019016963
0.008323517123085171 -0.027535962938619717 0.0005345410577496285
0.038713041503394864 0.0053918459558336285 -5.575787791292454e-09
-0.026473994222959606 -0.034235468693810736 0.0010690950513269327
0.005560597105055457 -0.018114997811831568 -5.575787791292454e-09
0.006210907797960622 -0.03883411874958333 0.0011220264190310507
0.01878893477984191 -0.004641564051785572 0.0021381955828567232
0.03525209056074158 -0.007762654083789645 0.0005345410577496285
0.025160986415481236 -0.013637276107230461 0.0019243776941212237
0.03289269024090757 -0.028982178516578513 0.0021381955828567232
0.03626450371041841 0.027556267879187593 -5.575787791292454e-09
0.00796614769470044 0.010994641008069536 0.006414597836422463
0.028582452279203283 -0.039361705795567796 0.0021381955828567232
-0.005389436714580832 -0.03065472585699206 6.351140910727321e-05
0.0034042327811906075 -0.034740392689826524 0.001425460663186608
-0.02327310334397424 0.009946909208908693 -5.575787791292454e-09
0.014795752640914242 0.02671620672065282 0.0010690950513269327
0.009887899980358746 -0.026145056176078953 0.007684813019016963
-0.009574407914852097 -0.030675109581875352 0.0016036489493193033
0.029614221766277725 0.0020947720101608747 0.012765684454907519
0.037342377727188784 -0.01474695285439182 -5.575787791292454e-09
0.03669125615621276 -0.011893327121639543 0.006414597836422463
-0.024478659294341936 0.011365576259383968 -5.575787791292454e-09
0.003959112539636844 -0.03721984295841609 0.003239056566325184
-0.02897515301852293 -0.03285876917523887 0.012765684454907519
-0.03104324180615852 -0.012058907010967568 0.0021381955828567232
0.023589635046465794 -0.008100271102492094 0.0010690950513269327
-0.035049012672908574 -0.019099751670402346 0.009590139871199211
0.03686471119348303 -0.013394287336649782 -5.575787791292454e-09
0.007312016961321651 -0.03893347983465875 -5.575787791292454e-09
0.008552686059679546 0.002113747974062316 0.0016036489493193033
0.03760525425160149 -0.017695787764682114 0.0021381955828567232
0.01596259301199877 -0.0002666770264421381 0.012765684454907519
0.022162052878704534 -0.040089718955155354 0.0021381955828567232
0.0028298656363943157 -0.02719533638597468 0.0021381955828567232
-0.029618764198303064 0.018397140320103186 0.003239056566325184
-0.03274337688031855 0.03979374133264918 0.011495466213595146
0.017742460606435344 -0.005773415184764289 6.351140910727321e-05
-0.001664865155646239 -0.017570582744331122 0.012765684454907519
0.005709837307462032 0.01116060467173201 0.0021381955828567232
0.028060323720440317 -0.016943087600596582 0.009590139871199211
0.0025638907743255985 -0.018507202741876796 0.00980184291141794
-0.002594704302964552 -0.006090637187817806 0.0010690950513269327
0.038067242416406834 0.02541983902091366 0.0016036489493193033
0.009780935131949458 -0.026065965067875826 6.351140910727321e-05
0.00507992785961574 0.01112509245445949 0.0010690950513269327
0.017399440832628673 -0.008171748970516495 0.007684813019016963
0.006047212496043058 -0.027638483796069358 0.003239056566325184
-0.0060224918918199075 -0.018139057913241486 0.008531624670105566
0.011613740548056027 -0.02504821555778423 0.0016036489493193033
-0.02114056903369555 -0.003637347607592985 0.0010690950513269327
-0.026872740422748377 0.010968847278667558 6.351140910727321e-05
-0.020591254012459124 0.03638633378777387 0.012765684454907519
-0.006356188436198552 -0.02850273891148754 0.0016036489493193033
-0.01872787204939066 0.03554352035630532 0.003239056566325184
0.032161190052932824 -0.04006104361842518 0.009590139871199211
-0.011063026289610305 -0.026311665926257582 0.00035636006793352855
0.039938800872198185 -0.014057359794962386 0.0021381955828567232
0.028031924248102094 0.009388618364743494 -5.575787791292454e-09
0.018833439431264955 0.005330146657407186 0.012765684454907519
0.004914037717987035 -0.037195746303789516 0.001298188559465324
0.010604515965512347 -0.023901446182160974 0.0016036489493193033
0.0019897760955356835 -0.01936244743955118 0.01064865405272023
0.018471978331797687 -0.0047557436858741515 0.0019243776941212237
0.02021127963638025 -0.03662217163463614 0.00800236859891768
-0.017900076132604636 0.03757583175767304 0.0021381955828567232
0.021134681554035115 -0.03893514029111896 0.009590139871199211
0.03690330070370561 -0.024279530623996293 0.00035636006793352855
-0.0024733053967077004 -0.006206767614261877 0.0005345410577496285
0.018675385502506664 -0.008058286338069598 0.0021381955828567232
-0.01141256644011212 -0.025536891479124843 0.001781829970997048
