ply
format ascii 1.0
element vertex 644
property float x
property float y
property float z
property uchar red
property uchar green
property uchar blue
end_header
-0.019886309243878377 -0.03234388565915412 5.533908416662575e-09 255 0 0
0.019556202436202375 -0.007204536553282704 -0.002122135737684895 244 208 63
0.03398515865436127 -0.01995531980138524 -0.008467544203208815 0 0 255
0.008888197136661438 -0.013079906980664633 -0.0015916040484493736 244 208 63
0.010479341902334361 -0.01112152825762031 -0.0005305261553271025 244 208 63
-0.025007034683708806 0.012767468203342451 -0.009518108966850493 0 255 0
-0.03072614979945842 0.010732065570421745 -0.0010610651493217437 255 0 0
0.0032581785789059766 0.04737610898200112 5.533908419496957e-09 244 208 63
0.015225689267136005 -0.02201801073754486 -0.0013263309939394996 244 208 63
0.015048893605324022 -0.02318948007934831 -0.002122135737684896 244 208 63
0.02057569231186378 -0.03760031290554632 5.533908421617741e-09 244 208 63
-0.018352782900218426 -0.007895833657889772 -6.303437912691018e-05 255 0 0
-0.02512884492551129 -0.014745207890004162 -0.0015916040484493777 255 0 0
0.012968557912848278 -0.022428884527507256 -0.008467544203208817 0 0 255
0.018704852304160136 -0.03563566435913017 -0.0018189696405544217 244 208 63
-0.04305702640118657 -0.012332360068652471 -0.0032147282273392542 255 0 0
-0.023405867915021895 0.010660469570901481 -6.303437912691081e-05 255 0 0
0.01763734505299189 -0.010141255135473355 -0.0005305261553271017 244 208 63
-0.008347871125215456 -0.039692430320668666 -0.000707376112686262 255 0 0
0.01793979016091119 -0.029104518068235677 -0.0010610651493217378 244 208 63
0.014824792955941574 0.0043203596171436775 -0.0010610651493217383 244 208 63
-0.0379970158422971 0.008496246151258975 -0.006366418217626868 255 0 0
0.010613094761217932 -0.028205486516361136 5.533908420397674e-09 244 208 63
-0.009252023977297364 -0.027237401906563076 -0.00846754420320882 0 255 0
0.010791795858376781 -0.025753536287854102 -0.01266980224586082 0 0 255
-0.0028407683260529447 -0.05241695792446562 -0.0021221357376848982 255 0 0
-0.009808724792133126 -0.015683967212307737 -0.006366418217626865 255 0 0
0.02956776249066838 -0.02018304108150113 -6.303437912690432e-05 244 208 63
-0.02320904241398749 -0.007654496559765525 -0.002122135737684901 255 0 0
0.007217688914366539 -0.027180963377069725 -0.002122135737684897 244 208 63
-0.03384839028972429 -0.019929005971985426 -0.006366418217626868 255 0 0
-0.03162662231784063 0.013364824714370959 -0.001061065149321744 255 0 0
-0.011710926059672142 -0.029402498608576452 -0.0032147282273392503 255 0 0
-0.013091469117825157 -0.012345306505098448 -0.001326330993939503 255 0 0
0.0021778268416959993 0.04889476625131863 -0.0010610651493217398 244 208 63
0.04101061514843658 0.004122733944574204 -0.001061065149321735 244 208 63
-0.03120270089996402 0.011169967601549691 -6.303437912691176e-05 255 0 0
0.007965469072712983 -0.03992683023768807 -0.0015916040484493738 244 208 63
-0.012870075340217993 -0.016790239903042105 -6.30343791269095e-05 255 0 0
-0.01237785777660026 -0.012288794105833285 -0.00846754420320882 0 255 0
-0.023523256089662513 -0.016965871862969387 5.533908416217177e-09 255 0 0
-0.007799243871672821 -0.04110401487361743 -0.00846754420320882 0 255 0
-0.015393722759713525 -0.02159324538282317 -0.001061065149321742 255 0 0
-0.022351074359922684 -0.008021310066586407 -0.0032147282273392516 255 0 0
0.01410763282992568 -0.02458487602120885 -0.002122135737684896 244 208 63
-0.04267293192137787 0.0008685289016471432 -0.0032147282273392542 255 0 0
-0.010771266133301276 0.004238580467196263 5.533908417778845e-09 255 0 0
0.0018840503009030457 0.04994375748762925 -0.0032147282273392486 244 208 63
0.030401438520868705 -0.018203031670206912 -0.0005305261553271002 244 208 63
0.00381199897859843 0.04735431638740204 -0.012669802245860822 0 0 255
-0.04119914699673445 -0.012260893594211548 -0.009518108966850495 0 255 0
-0.009055983722056465 -0.03954689675105318 -0.0014147541227125524 255 0 0
-0.03080680749495912 -0.020251875565853263 -6.30343791269117e-05 255 0 0
-0.01038948387854174 0.0027745853111472395 -6.303437912690921e-05 255 0 0
0.013170038221421489 -0.019927696554386466 -6.303437912690632e-05 244 208 63
0.00763794517726368 -0.02680075262581188 -0.01266980224586082 0 0 255
-0.02477912316363263 0.01054372092634011 -0.002122135737684901 255 0 0
0.025824831748713705 -0.013364854059896748 -0.003214728227339246 244 208 63
0.01234124973913691 -0.012434373211609472 -6.303437912690642e-05 244 208 63
-0.0039920914584455035 -0.04811798006455999 -0.012669802245860822 0 255 0
0.025171849275681772 -0.014468029279788444 -0.0014147541227125483 244 208 63
0.019163830494292055 -0.03457850089984489 -0.0011368547762643268 244 208 63
0.044477285086792426 0.0025499908473998038 -0.0005305261553270984 244 208 63
-0.008615027732417188 -0.023803740625145467 5.5339084180429084e-09 255 0 0
0.014929133502667979 -0.010433998005418289 -6.30343791269061e-05 244 208 63
0.02564486474628724 0.010669051619322486 -0.0021221357376848948 244 208 63
-0.015088251014979319 -0.023078928400301645 -0.0021221357376848995 255 0 0
0.02027414780801177 -0.038071626335656084 5.533908421580812e-09 244 208 63
0.008056936040850539 -0.003610254054335782 -0.0005305261553271029 244 208 63
-0.02273802041530625 -0.019194608891270393 -0.00794226333926001 0 255 0
-0.041156221575909195 -0.011469358750957661 -0.001061065149321745 255 0 0
-0.019402442000219393 -0.035251614403567486 -6.30343791269103e-05 255 0 0
-0.01256921489069125 -0.012854251018415412 -0.0005305261553271054 255 0 0
0.013345234046120676 -0.016479225901592672 -0.0003536834711047245 244 208 63
0.019986800467153124 -0.03140940471212752 -0.0005305261553271014 244 208 63
0.04431209608638699 0.0011389150345575924 -0.012669802245860817 0 0 255
0.04477656087792661 0.0014550637440839374 -0.0010610651493217346 244 208 63
-0.024830544620130894 -0.020034712603533 -0.009518108966850493 0 255 0
0.003990699822778604 0.05100374621270764 -0.0021221357376848974 244 208 63
0.0057348853001166905 0.04758085979882769 -0.012669802245860822 0 0 255
0.008512045175194495 -0.02444550703583824 -0.0016388794375153818 244 208 63
0.022815017003486208 -0.030050085552522098 -0.0010610651493217372 244 208 63
-0.008045512536001498 -0.01451876668196144 -0.001061065149321741 255 0 0
-0.02168710856492853 -0.02888273267964644 -0.0032147282273392516 255 0 0
-0.02720792887952497 -0.01257929760858618 -0.009518108966850493 0 255 0
-0.01797708326461449 -0.03140333929552151 -0.006366418217626867 255 0 0
-0.009993781725411809 -0.011645906493672468 -0.0017684467642940876 255 0 0
0.019498393774229125 -0.033621486636671735 -0.0018947629356877342 244 208 63
0.0021349735197918594 -0.05226032567461413 -0.00951810896685049 0 0 255
-0.009896089458148438 0.0034946258523064406 -0.004265292738002251 255 0 0
-0.03873708976438011 0.007183357178981132 -0.0015916040484493794 255 0 0
-0.0076712078247871815 -0.017059286766870466 -0.012669802245860824 0 255 0
0.04181336706594431 -0.015396328440020575 5.533908424218606e-09 244 208 63
-0.013598231943086975 -0.03909738805851869 -0.0015916040484493764 255 0 0
-0.02176966056471459 -0.028922355210948512 -6.30343791269106e-05 255 0 0
0.03490003476633203 0.009687206993673841 5.5339084233719666e-09 244 208 63
0.007788819126615261 -0.04120690231085998 -0.01109395358252629 0 0 255
0.013192003853431245 -0.01162562873535287 -6.303437912690632e-05 244 208 63
-0.028151575749744293 0.01087223396839141 -0.0014147541227125548 255 0 0
-0.018357263658431867 -0.010045569495025082 -0.0021221357376849 255 0 0
0.01267607611689139 -0.01893190167292695 -0.010568672718577478 0 0 255
0.019422492077735463 -0.03154385579214191 5.5339084214765145e-09 244 208 63
0.011185693767628083 -0.018381762112891546 -0.001768446764294085 244 208 63
-0.026786334865417764 -0.020182474409279016 -0.009518108966850493 0 255 0
-0.03703712166993797 0.00854459745861099 5.533908414562206e-09 255 0 0
-0.012907720590230752 -0.01681435787758122 -0.006366418217626866 255 0 0
0.023142395689178596 -0.017462670364354112 -0.0021221357376848948 244 208 63
-0.0009811437482417835 0.05078686051501034 -6.303437912690806e-05 255 0 0
-0.042241123640467025 -0.009964313757947114 -0.012669802245860827 0 255 0
-0.01869750175590755 -0.009496505600297014 -0.012669802245860824 0 255 0
0.022606773057176174 -0.010328538281053205 -0.0014147541227125485 244 208 63
0.006018464776655608 -0.0021814026952047512 -0.0010610651493217394 244 208 63
0.015234867333304914 -0.02153424468535411 5.533908420963678e-09 244 208 63
-0.00832528114184669 0.038134830526715624 -0.001061065149321741 255 0 0
-0.013248787445831278 0.0266539804726252 -0.012669802245860824 0 255 0
0.019986800467153124 -0.03140940471212752 -0.0010610651493217376 244 208 63
0.019966319313982375 -0.031924997504907515 -7.578782446955862e-05 244 208 63
0.024306722937154027 -0.01685828711777137 -0.009518108966850486 0 0 255
-0.02226513446978012 -0.02985696770688382 -0.0032147282273392516 255 0 0
-0.019992365997906048 -0.03187604916789292 -0.0011671692103608117 255 0 0
-0.010802104233245872 -0.01529460672849209 -0.002122135737684899 255 0 0
-0.007699325898065624 -0.015143412508143545 5.533908418155049e-09 255 0 0
0.019993288864096348 -0.03141453916722576 -0.0009852753958898134 244 208 63
-0.04150384665056603 -0.010668396910523006 5.53390841401519e-09 255 0 0
0.0151764201531671 -0.041013828989467725 -0.009518108966850488 0 0 255
-0.009939844649013223 -0.015843698956831263 -0.007066792196934606 0 255 0
-0.030561571995521123 -0.018158564091405753 -0.0010610651493217437 255 0 0
0.012340697233720346 -0.022505122179675454 -0.0003536834711047246 244 208 63
0.0012465889547369916 -0.0502540712441185 -0.002122135737684898 244 208 63
-0.0005657603604974974 0.05050218867657182 -0.000530526155327104 255 0 0
0.01874313708425214 -0.03556294817005654 -0.0002273672680887397 244 208 63
-0.024324625731714154 -0.011303210455433359 -0.000707376112686264 255 0 0
0.022711564917850906 -0.010370780659467877 5.533908421879309e-09 244 208 63
0.020687000903092844 -0.028828342265470167 -0.0032147282273392464 244 208 63
0.019715904835200113 -0.03291546769130851 -0.0015916040484493723 244 208 63
-0.020105813776773597 0.011129906911190163 -0.012669802245860824 0 255 0
0.007722619162138624 0.04406671487123474 -6.303437912690699e-05 244 208 63
0.043082267601023086 -0.003469140781031473 -0.003214728227339244 244 208 63
0.02237462970989841 -0.009691745431024178 -6.30343791269052e-05 244 208 63
0.04303909527301534 -0.0021875121300994355 -0.012669802245860817 0 0 255
0.04187879746930502 0.0018536025470471656 -0.0010610651493217348 244 208 63
-0.02282430840409954 -0.030653332418916563 -0.00035368347110472894 255 0 0
-0.03060649088827061 -0.018648134486214454 -0.012669802245860826 0 255 0
0.01054315627794736 -0.024067783570869607 -0.01266980224586082 0 0 255
-0.0069848852927585445 -0.0037850714229437712 -6.303437912690879e-05 255 0 0
-0.011815266606398547 0.004409702576362983 -6.303437912690938e-05 255 0 0
-0.04257289808353954 -0.001834270549487558 -0.002122135737684903 255 0 0
0.02285929636615645 -0.00810659474197215 -0.012669802245860819 0 0 255
0.0008757317103561058 0.050363851844177215 5.5339084192051915e-09 244 208 63
-0.02659525501594974 -0.017817148125239813 -0.0018189696405544273 255 0 0
0.01085760269399932 -0.028374907343968157 -0.0021221357376848965 244 208 63
0.019975600595448884 -0.031405520983576664 -0.0011368547762643268 244 208 63
-0.010199815650055592 -0.014984756428927357 -6.303437912690918e-05 255 0 0
-0.010133062674205053 -0.02765562219711933 -0.0019099238209267016 255 0 0
-0.04251079890331312 -0.009094577136126587 -0.012669802245860827 0 255 0
0.00598001910212911 -0.0023433899975552337 5.533908419830286e-09 244 208 63
0.007056108907675702 -0.00431427902181744 -0.0015916040484493738 244 208 63
-0.012015060053196283 -0.029550187556465338 -6.303437912690941e-05 255 0 0
0.012733010484579092 -0.012040328574729229 -6.303437912690638e-05 244 208 63
0.038371574038139344 -0.018547837550558718 5.533908423797108e-09 244 208 63
-0.008068670203507062 -0.02397211310914157 -0.0014147541227125524 255 0 0
0.01204875377637447 -0.025357238116976263 -0.01109395358252629 0 0 255
-0.03083671564531064 0.013432902286540694 5.533908415321536e-09 255 0 0
0.010371655965668112 -0.014751609262284705 -0.010568672718577478 0 0 255
0.032883309042703444 -0.020110513108558426 -0.010568672718577476 0 0 255
-0.021254357179533744 -0.02879503205795659 -0.009518108966850493 0 255 0
-0.04111946073932881 -0.012398574705892 -6.303437912691298e-05 255 0 0
-0.01999815617371845 -0.031445843759838915 -0.001591604048449377 255 0 0
-0.006463546848412164 -0.002802775989304139 -0.006366418217626865 255 0 0
-0.038074751128195174 0.010507762538102825 -0.006366418217626868 255 0 0
-0.009844973599884245 -0.015578433618170844 -0.004265292738002251 255 0 0
0.02861112668358642 0.012942139856236183 -0.0032147282273392455 244 208 63
0.011576668255362079 -0.015579786548101144 5.533908420515678e-09 244 208 63
0.018849630985422586 -0.028811643649382036 -0.0010610651493217376 244 208 63
-0.041563237947102476 0.0028478694373363315 -0.0015916040484493796 255 0 0
-0.03347994810622217 0.010710653455743232 -0.009518108966850493 0 255 0
-0.011135984470772353 -0.025694742020980238 -0.0021641637166762494 255 0 0
0.019390446763574824 0.011327910280914823 5.5339084214725895e-09 244 208 63
0.029442489476822896 0.012919825113661014 -0.0032147282273392455 244 208 63
-0.043367659922715435 0.003939189064809623 -0.009518108966850495 0 255 0
-0.00921879978253179 -0.0022414352926711377 -0.0007957993047039796 255 0 0
-0.015771241817916323 -0.03852788652295121 -0.0015916040484493766 255 0 0
-0.014325706515460057 -0.04187575362994051 5.533908417343552e-09 255 0 0
-0.006660561577492168 -0.04379616936176182 -0.006366418217626865 255 0 0
0.020981459980339043 -0.03577522358446106 -0.009518108966850488 0 0 255
0.044411563252003204 -0.0077798419255107965 -0.012669802245860817 0 0 255
-0.012385378326519482 -0.009451659565404657 5.533908417581174e-09 255 0 0
-0.007629489112220624 -0.027229940047695432 -0.012669802245860824 0 255 0
-0.019206751867458585 -0.034480588035180774 -0.0021221357376849 255 0 0
0.022687331585038006 -0.02940565578238538 -0.0015916040484493718 244 208 63
-0.019451244621519738 -0.03154686725023658 -0.0005305261553271062 255 0 0
0.011648004192808979 -0.013188713106884246 -0.01266980224586082 0 0 255
0.012712048671934227 -0.012060665024100402 -0.010568672718577478 0 0 255
-0.011187405927270617 0.027625991311390777 5.533908417727883e-09 255 0 0
0.00811096064786915 -0.04049586629250166 -0.01109395358252629 0 0 255
0.006825812304693228 0.045722223482193174 -6.30343791269071e-05 244 208 63
0.041905532255212694 -0.010906446803801642 -0.012669802245860817 0 0 255
0.010728708037505712 -0.01597167783053735 -0.011829351446862165 0 0 255
-0.011855560037135015 0.008825078958349898 -0.0010610651493217415 255 0 0
0.023985019069000257 -0.020418108862210883 5.5339084220352626e-09 244 208 63
0.008731548696175031 -0.03014015607839801 -0.002122135737684897 244 208 63
-0.0094297799461429 0.009924282413113373 -0.002122135737684899 255 0 0
0.021744150195572562 0.012465283157496515 -0.0010610651493217374 244 208 63
0.010086781744293125 -0.03944482289321524 -0.001768446764294085 244 208 63
-0.03713375547444361 -0.016653169987829793 -0.012669802245860827 0 255 0
-0.003683215885698544 -0.0484712070988983 -0.012669802245860822 0 255 0
0.008692535337511737 -0.014372765607762713 -0.01266980224586082 0 0 255
0.009836410777842204 -0.01564117131656182 -6.303437912690673e-05 244 208 63
0.013853393313644139 -0.03911325488073793 -0.002122135737684896 244 208 63
0.007677292973729491 -0.01677082024837314 -6.3034379126907e-05 244 208 63
-0.00816786111641499 -0.01430970713241743 -0.0021221357376848987 255 0 0
-0.028387487467299122 -0.018676136189304426 -0.0042652927380022534 255 0 0
0.007850131543176146 -0.017098998346664583 -0.002164163716676247 244 208 63
-0.0005657603604974973 0.05050218867657182 -0.0015916040484493747 255 0 0
0.01058231434041023 -0.01822112672855668 -0.0007073761126862597 244 208 63
-0.019746359419480098 -0.03147838288836454 -0.001591604048449377 255 0 0
-0.011294466500663177 -0.016070344571639823 -0.004790569554292335 255 0 0
-0.044456480120923327 -0.007234807475047842 -0.0032147282273392547 255 0 0
0.015034288640713675 -0.018796926421107103 -0.0007957993047039767 244 208 63
0.027439452935017133 -0.01117454955123137 5.533908422458309e-09 244 208 63
-0.008015387329950616 -0.017313046635592574 -0.0038450617729721705 255 0 0
-0.011511394698777135 -0.023177217697227602 5.533908417688206e-09 255 0 0
-0.026995248699247514 -0.01804610596509754 -0.0014147541227125546 255 0 0
-0.018613482479832084 -0.03576100820700341 -0.0007957993047039808 255 0 0
0.005845698559108741 0.0484438894501336 -0.002122135737684897 244 208 63
-0.023642158088667924 -0.010189460727111112 -6.303437912691083e-05 255 0 0
0.003056756455427 -0.048526352401427615 -0.0005305261553271035 244 208 63
0.04144342724871231 -0.01071685042125794 5.533908424173301e-09 244 208 63
-0.007995211269056595 -0.044896140859769194 -6.303437912690891e-05 255 0 0
-0.013207330313210107 0.005816793216207432 -0.009518108966850491 0 255 0
0.014862934044148686 -0.02075635348776234 -0.01266980224586082 0 0 255
-0.035109828965935425 -0.017752824756541597 -0.006366418217626868 255 0 0
0.010680138156582308 0.03324003932567206 -0.009518108966850488 0 0 255
-0.012344066909612568 0.013224046131847838 -0.012669802245860824 0 255 0
0.015225514205895959 -0.020255933343729486 5.5339084209625326e-09 244 208 63
-0.04467352367731107 0.0017944573987571995 -0.0005305261553271093 255 0 0
-0.02398646813082538 0.013218809473366679 5.53390841616045e-09 255 0 0
-0.008747020871668152 -0.0020296124571083035 -0.010568672718577482 0 255 0
-0.01670940411055731 -0.02940872593153163 -0.0021221357376849 255 0 0
0.02326160328641808 -0.019709125006828372 -0.012669802245860819 0 0 255
-0.04265783010665848 -0.008504696650771274 -0.009518108966850495 0 255 0
0.012882400461049008 -0.011898415635847192 -0.010568672718577478 0 0 255
-0.009315765495053233 -0.026107898690466015 -0.00846754420320882 0 255 0
-0.022063814043726718 -0.028545752947447923 -0.0005305261553271066 255 0 0
-0.04282258195992114 0.0063382480307422814 -0.0015916040484493799 255 0 0
0.020003078126733395 -0.031709508249471864 -0.001743183555313221 244 208 63
0.007584632958181444 -0.0405495139613011 -0.0013263309939395007 244 208 63
0.012012562647760244 -0.039323219082007956 5.533908420569059e-09 244 208 63
0.022807860742852636 -0.03118073830369831 5.533908421891102e-09 244 208 63
-0.02263703942532524 -0.01813607529950522 -0.0010610651493217428 255 0 0
-0.007072672433153736 -0.003759338938528969 -0.008467544203208818 0 255 0
-0.013213468587673239 0.019977096205349397 -0.006366418217626866 255 0 0
-0.013223360053693204 0.03174794076910749 -0.0021221357376848995 255 0 0
0.01042105460471636 -0.01591039425354491 -0.011829351446862165 0 0 255
0.027166972644671564 -0.01665234122970495 -0.0021221357376848943 244 208 63
-0.015943222789669687 -0.01065568321445397 -0.001061065149321742 255 0 0
0.012876145816397405 0.0022639238315929986 -0.0010610651493217385 244 208 63
-0.04485124827680145 0.0009549628591333649 -0.0021221357376849034 255 0 0
-0.017087403828234225 0.00640600432000037 5.533908417005342e-09 255 0 0
0.016001121512049667 -0.009993668390967386 -6.303437912690597e-05 244 208 63
-0.013544149150974131 -0.017314908558608098 -0.00846754420320882 0 255 0
-0.03777271483380754 0.00801901150238545 -0.0015916040484493792 255 0 0
0.02210364705328272 -0.019004401312258553 -0.0007957993047039758 244 208 63
-0.012315323473060436 -0.03979843040747412 -0.009518108966850491 0 255 0
0.01812918416051842 0.007195663579390523 -0.0021221357376848956 244 208 63
0.009730062592386018 -0.026778759672105697 -0.0021221357376848965 244 208 63
-0.0133866709404482 -0.008842475795568848 5.533908417458551e-09 255 0 0
-0.010938417236275786 -0.015368283224599263 -0.0018038124235061853 255 0 0
-0.026581509166904705 -0.017861848444417915 -0.0016673938018813023 255 0 0
-0.030387963864958543 0.01346243096888633 -0.0015916040484493783 255 0 0
-0.020033198779168208 -0.031559959402396816 -0.0008488495643728216 255 0 0
-0.011792501561789733 -0.018816535303821668 -0.0014147541227125528 255 0 0
-0.011332359669773114 -0.014267566957385675 5.533908417710131e-09 255 0 0
0.044414821617280366 0.0027399942726244802 -0.0005305261553270984 244 208 63
0.0426016283652008 0.001223632531763879 -0.012669802245860817 0 0 255
-0.004913248524849614 0.04973871523937417 5.5339084184962456e-09 255 0 0
0.010087916100652038 -0.01515534095841908 -0.0021641637166762468 244 208 63
0.015081360887907201 -0.023095699874246905 -0.0018568698930671343 244 208 63
0.04515220384630833 -0.0018358706395790229 -0.0005305261553270983 244 208 63
0.00864565333027849 -0.03961609147703223 -0.0017684467642940852 244 208 63
0.029172205041338023 0.012928873654750582 -0.012669802245860819 0 0 255
0.03425427938796144 -0.018088873527232353 -6.303437912690373e-05 244 208 63
-0.005941219257463788 0.04712780130958751 -0.006366418217626865 255 0 0
0.015155445185631361 -0.019357061674374756 -0.0018568698930671343 244 208 63
-0.02564109232835144 -0.0126894849983472 -0.002164163716676251 255 0 0
-0.006439341849210369 -0.0006651283584748379 -0.0005305261553271046 255 0 0
0.029182824074014596 -0.02018336287037012 -0.010568672718577476 0 0 255
0.019251021110982005 -0.03434250215762738 -0.001364227704750823 244 208 63
-0.01357407045621652 -0.02435318196405005 -6.30343791269096e-05 255 0 0
0.012722420797428306 -0.032132907519372374 5.533908420655992e-09 244 208 63
-0.008383174804653261 -0.01488738392670361 -0.002164163716676249 255 0 0
0.011306864479351322 -0.018433677383754794 -0.001768446764294085 244 208 63
-0.013374729335281794 -0.02455310594784181 -0.012669802245860824 0 255 0
-0.01403211869675536 -0.03231915851197623 -0.0015916040484493764 255 0 0
-0.02004233434492046 0.009122026333799995 -6.303437912691039e-05 255 0 0
0.02523115354755554 -0.01341970793099754 -0.0014147541227125483 244 208 63
0.008619265631106867 -0.0029956013915992175 -0.001061065149321739 244 208 63
-0.015356091676506317 -0.007970848917121692 -0.0015916040484493766 255 0 0
0.02627326376402618 -0.010198959570234326 -0.012669802245860819 0 0 255
-0.013512394256327326 -0.03967544229698138 -0.012669802245860824 0 255 0
0.01547258228282369 -0.03178068430439895 -0.0032147282273392473 244 208 63
0.018527983784491026 -0.031822709121156915 -0.0010610651493217378 244 208 63
0.023994545233819893 -0.017207775127358407 -6.3034379126905e-05 244 208 63
-0.0009375049275654671 -0.0510188723133794 -0.008467544203208818 0 255 0
-0.011779118990115665 -0.031319494068771415 -6.303437912690937e-05 255 0 0
0.014878555983014794 -0.023549557776086135 -0.0018568698930671345 244 208 63
0.015235841807144017 -0.020828067881300438 -0.001061065149321738 244 208 63
0.015752132821054837 -0.0390480147173375 -0.010568672718577478 0 0 255
0.03255987277661349 -0.017983484636895034 -0.0015916040484493708 244 208 63
-0.02283294813165744 -0.030318099251459778 -0.001768446764294089 255 0 0
-0.04075584741269085 -0.01298355246461133 -0.009518108966850495 0 255 0
-0.007520261017578474 -0.02444329701417199 -0.0007073761126862619 255 0 0
-0.0071314535451367286 -0.02716749276881829 -0.000353683471104727 255 0 0
0.015122293848722915 -0.019157777220662243 -0.0018568698930671343 244 208 63
0.008203344410708913 -0.03975653713962486 -0.0007073761126862601 244 208 63
-0.043088330993799724 0.005878876205798929 -0.0015916040484493799 255 0 0
0.02342703717017664 0.01303037679270768 5.53390842196693e-09 244 208 63
-0.008895684293396142 -0.04418113408819734 -0.001061065149321741 255 0 0
-0.009161400946004887 -0.026606080479221514 -0.00846754420320882 0 255 0
-0.04404541609100065 -0.011420278865034354 5.5339084137039375e-09 255 0 0
0.007932041989053597 -0.04088089173381813 -0.01109395358252629 0 0 255
-0.007441143962181649 -0.015657376118284962 -0.0014147541227125522 255 0 0
0.010933170458647804 -0.031560570598864954 -0.0015916040484493734 244 208 63
-0.006605169367780367 -0.0021001618838683467 -6.303437912690875e-05 255 0 0
-0.0076732589758483054 -0.04025557703203099 -0.0002652603107093433 255 0 0
-0.007529890903653051 -0.025940791099822846 -0.002164163716676249 255 0 0
-0.018989939027618415 -0.0311187706723806 -0.004265292738002253 255 0 0
-0.03072614979945842 0.010732065570421745 -0.0015916040484493783 255 0 0
0.01874313708425214 -0.03556294817005654 -0.0006063195453274156 244 208 63
-0.001139901777862218 0.04999423179198483 -0.0013263309939395018 255 0 0
0.012018497527372224 -0.016295608922906973 -0.0021641637166762468 244 208 63
-0.03693944356948016 -0.01877314440224253 -0.006366418217626868 255 0 0
0.011884555440443055 -0.018184908278246033 -0.01266980224586082 0 0 255
-0.02701170040815315 0.012918051227222857 -6.303437912691124e-05 255 0 0
0.036019236690962776 -0.01983407623180487 -0.0021221357376848935 244 208 63
0.01882257441064593 -0.03540087181921401 -0.0009094820375118334 244 208 63
0.04035670373772625 0.006171809315704145 -0.0032147282273392442 244 208 63
-0.015127540626350897 -0.03172539328615538 -6.303437912690979e-05 255 0 0
-0.01733409446098544 -0.03212831140288515 -0.0010610651493217422 255 0 0
0.03522623153567543 -0.020140581141429754 -0.001768446764294082 244 208 63
-0.012821024799820472 -0.011886153253726483 -0.0032147282273392508 255 0 0
-0.013396955029364915 -0.016541221866521485 -0.0010610651493217417 255 0 0
-0.03578976682227578 0.011719002150751973 -0.0032147282273392534 255 0 0
-0.019971405197175864 -0.03198066697924228 -0.0009549609617933379 255 0 0
-0.011581769317275802 0.028097873437552014 -0.006366418217626866 255 0 0
0.011500024825406258 0.017577338512328573 -0.004265292738002248 244 208 63
0.011741681182612786 -0.018718217673284607 -0.0014147541227125498 244 208 63
-0.010392437657499518 0.00277836734227252 -0.007627092898252823 0 255 0
0.007755522579949895 -0.024973493759647653 -0.007942263339260005 0 0 255
0.027724646921431742 -0.014993381989679703 5.533908422493235e-09 244 208 63
0.013373352119399117 -0.02946823461017123 5.533908420735708e-09 244 208 63
0.01922269964285241 -0.030984580666354254 -0.0025843873453248794 244 208 63
-0.0010522313871235 0.05275886770499654 -0.006366418217626864 255 0 0
-0.010695799560121025 -0.028838845939872952 -0.012669802245860824 0 255 0
0.021989211645685198 -0.010153662221393639 -0.0017684467642940837 244 208 63
-0.030243620307009503 -0.018165007964102954 -0.001414754122712555 255 0 0
0.015039889588480479 -0.018815634699754377 5.5339084209398e-09 244 208 63
-0.011709209852370875 -0.016209494983439043 -0.007942263339260009 0 255 0
0.004068624083743609 0.04611442137477813 -0.0015916040484493742 244 208 63
-0.008108294252681156 -0.028525591559316797 -0.006366418217626865 255 0 0
0.01812794760077659 -0.029046697263286236 5.533908421317979e-09 244 208 63
0.02000806686611738 -0.0314416827666651 -0.001364227704750823 244 208 63
-0.043860620231710015 0.0025830981660195686 -0.009518108966850495 0 255 0
0.033817702965067364 0.01008917897017561 -0.0021221357376848935 244 208 63
-0.011213472849487937 -0.03932158787554001 -0.002122135737684899 255 0 0
0.01028159960659775 0.03451309883009529 -0.01266980224586082 0 0 255
-0.02721585824297586 -0.012654632632857724 -0.012669802245860826 0 255 0
-0.01997093971642198 -0.03144443315077172 -0.001237907865166454 255 0 0
-0.020318945270999377 0.011241127465841862 -6.303437912691043e-05 255 0 0
-0.019044473133679587 -0.03870359134073562 -0.012669802245860824 0 255 0
0.017542269597097076 -0.040677314738023086 -0.0010610651493217378 244 208 63
-0.014749249477245466 -0.022054391094204682 -0.00216416371667625 255 0 0
-0.032374431315755514 -0.018512315297549528 -0.002164163716676252 255 0 0
0.024221817223816826 -0.008562315072784247 -0.009518108966850486 0 0 255
-0.01086175862759973 -0.014914832112462336 -0.0005305261553271052 255 0 0
-0.01103643028049346 0.003555923849083105 -0.009518108966850491 0 255 0
-0.04463397400386613 -0.0043982547855615645 -0.009518108966850495 0 255 0
-0.026479496023947703 -0.01044476275380912 -0.0063664182176268675 255 0 0
0.01110391487065934 -0.03938250918707617 -0.001768446764294085 244 208 63
-0.04345950534694419 0.005167680304920802 -0.0005305261553271092 255 0 0
0.014757110030497955 -0.010526003312166854 -6.303437912690613e-05 244 208 63
0.005982782641126606 -0.04928197338069024 -0.0010610651493217394 244 208 63
0.012006089429537256 -0.01571842695490046 -0.0010610651493217385 244 208 63
-0.019150414529433467 -0.03462715780543098 -0.0016977082359777818 255 0 0
-0.014796292378913204 -0.030101796416619513 -0.012669802245860824 0 255 0
0.03318841751006669 -0.020581565464680138 -0.0010610651493217359 244 208 63
0.03280035025321508 0.013203768373528239 -0.0010610651493217359 244 208 63
-0.015212083062317135 -0.010359739658368764 -6.303437912690979e-05 255 0 0
0.012246015412636967 -0.02262309119334374 5.533908420597649e-09 244 208 63
0.015233340354049248 -0.02167512547126015 -0.0015916040484493727 244 208 63
-0.015414814097437732 -0.02083856953187386 -0.0021221357376848995 255 0 0
0.011700471969088792 0.020590482456861 -0.008467544203208817 0 0 255
-0.003768253400923125 -0.0476064167160451 -0.0021221357376848982 255 0 0
0.015233703631420212 -0.020614468882491407 -0.001061065149321738 244 208 63
-0.013243957577052426 0.02050501007130168 -0.006366418217626866 255 0 0
-0.02659525501594974 -0.017817148125239813 -0.0006063195453274212 255 0 0
-0.01401703408458558 -0.008520930798020205 -0.0021221357376848995 255 0 0
-0.01541619637289382 -0.039218979726749786 -0.012669802245860824 0 255 0
0.001485147841100848 0.049741390741794296 -0.0015916040484493744 244 208 63
0.015684026915273996 -0.010697664518880597 -0.001061065149321738 244 208 63
0.022219027589193554 -0.01967294703310502 -0.0010610651493217372 244 208 63
0.01141993279021299 -0.018491601404001835 -0.0003536834711047247 244 208 63
0.03287335787371722 -0.020623197658541353 5.53390842312377e-09 244 208 63
-0.019971405197175864 -0.03198066697924228 -0.0008488495643728216 255 0 0
-0.013756306171360814 -0.016851945448457088 -0.0007073761126862628 255 0 0
-0.009896089458148436 0.0034946258523064406 -0.012669802245860824 0 255 0
0.012858398856698365 -0.02497205279313999 -0.01266980224586082 0 0 255
0.022820428723207414 -0.031023229735731905 -0.002122135737684895 244 208 63
-0.030366638774942712 -0.01865798243990308 -0.0063664182176268675 255 0 0
-0.020494097583367225 -0.031692576893006794 -0.012669802245860824 0 255 0
0.020010539985601043 -0.03164877920172535 -0.0016673938018812967 244 208 63
0.012355214161753331 -0.016452155160010463 -0.0021641637166762468 244 208 63
0.02241400533401799 -0.010260170289369637 -0.0007073761126862583 244 208 63
0.0338181826126268 -0.01822816763091647 -0.009518108966850486 0 0 255
0.032915194474344274 0.012591632848564018 -6.303437912690391e-05 244 208 63
0.01324327858230057 0.031653883299383116 -0.0010610651493217385 244 208 63
-0.00921879978253179 -0.0022414352926711377 -0.001061065149321741 255 0 0
0.008726020606265357 -0.044618337898194464 -0.002122135737684897 244 208 63
-0.01455280243230226 -0.018990989395058694 -6.303437912690972e-05 255 0 0
-0.01981327328976513 -0.03261965467221733 -0.00021220641447211458 255 0 0
0.014838336422050138 -0.021422952284759964 -0.008467544203208817 0 0 255
-0.041791311373527824 -0.009849586918921075 5.533908413979986e-09 255 0 0
-0.00792959315552231 -0.0037664957051198847 -0.00026526031070934336 255 0 0
-0.009809102236309642 -0.015729772542318964 -6.303437912690914e-05 255 0 0
-0.008981972282189435 -0.001721522383133518 -0.006366418217626865 255 0 0
0.012084406566377683 -0.022791261294403377 -0.0017684467642940847 244 208 63
-0.008881879753299531 0.03684396739537114 -0.0015916040484493757 255 0 0
0.014995261115244825 -0.018677008459760613 -0.002122135737684896 244 208 63
-0.012029445432320561 -0.019045217902885794 -0.0010610651493217415 255 0 0
0.04386378145317767 0.0027868041809366076 -0.003214728227339244 244 208 63
0.008358683939553701 -0.039693535331501786 -0.0014147541227125502 244 208 63
0.010518849075362647 -0.015931544282320693 -0.01224957532848947 0 0 255
-0.007590912394742762 -0.02544950652154224 -0.004265292738002251 255 0 0
-0.027867980588527796 -0.013223580651093957 5.533908415685102e-09 255 0 0
-0.01538160508139239 -0.03171961930097789 -0.006366418217626866 255 0 0
0.012971453000754477 -0.01941597332335177 -0.004265292738002248 244 208 63
0.0188991176610482 -0.035232529692658374 -0.0021221357376848956 244 208 63
0.013755816404654557 -0.011179611148472482 -0.008467544203208817 0 0 255
-0.021057402153419995 -0.035597450413065924 -0.012669802245860824 0 255 0
0.014978329758779756 -0.01862951525605923 -0.0013263309939394998 244 208 63
-0.022738892685762433 -0.019199743346368633 -0.012669802245860826 0 255 0
0.024385215135234502 -0.008639526186876864 -6.303437912690495e-05 244 208 63
-0.01930157839234154 0.008067770611354453 -0.0010610651493217424 255 0 0
-0.011649162835120267 0.008004290673543973 -0.0015916040484493762 255 0 0
-0.0077844360181686615 -0.045355238455833634 -0.009518108966850491 0 255 0
-0.011709209852370877 -0.016209494983439043 -0.0032147282273392503 255 0 0
0.00987936554419325 -0.025836349361628205 -0.005105743537000904 244 208 63
-0.027073710539887517 -0.011812999917510085 -6.303437912691125e-05 255 0 0
0.019740866746584308 -0.03145506635025385 -0.0007957993047039762 244 208 63
-0.03544282175428549 0.010012782447402281 -0.009518108966850495 0 255 0
-0.010740078922791269 -0.015242719791239945 -0.0014854926510288597 255 0 0
0.022187447755786797 -0.009662071032964284 -0.012669802245860819 0 0 255
0.018546704206114487 -0.010075476633461918 -0.0005305261553271016 244 208 63
-0.008754948211289675 -0.01748028577514445 -0.007627092898252823 255 0 0
0.022525560832429545 -0.018263821432834365 -0.0015916040484493718 244 208 63
-0.007780857381894532 -0.01717830614797903 -0.012669802245860824 0 255 0
-0.005997033435598132 -0.04518443535277052 -6.303437912690867e-05 255 0 0
-0.007067566311666603 -0.02637406665702309 -0.0017684467642940871 255 0 0
-0.024435236101812394 -0.016707195100805743 -6.303437912691093e-05 255 0 0
0.019382474899707278 -0.035373452978981076 -0.008467544203208817 0 0 255
-0.008665605252070373 -0.014404796755117799 -0.004265292738002251 255 0 0
-0.02490863002850906 -0.012078774249255726 -0.0014147541227125544 255 0 0
-0.02245756826109313 -0.032917635212558104 -0.001768446764294089 255 0 0
-0.03883377618844923 0.009969434046239801 -0.009518108966850495 0 255 0
-0.012969469647977074 -0.012457414508926568 5.533908417509643e-09 255 0 0
-0.00584036981639149 -0.0034494160340857783 -0.0015916040484493753 255 0 0
0.011653472579752393 0.019551936203901592 -6.303437912690651e-05 244 208 63
-0.02550488051678976 -0.014989702667894681 -0.0042652927380022534 255 0 0
-0.03186859945200146 0.01055791808933347 -0.0021221357376849017 255 0 0
0.009951268153862268 -0.02583539006650934 -0.008887771120580168 0 0 255
0.017928590289206948 -0.040437316908980926 -0.0010610651493217378 244 208 63
0.04058030854891435 -0.013268790975271961 -0.0032147282273392442 244 208 63
0.013623998326643637 -0.02445078720665074 -0.0032147282273392473 244 208 63
0.01965406875279111 -0.034684743846174114 -0.01266980224586082 0 0 255
0.0341268995677473 -0.019921950902820087 -0.010568672718577476 0 0 255
0.019993288864096348 -0.03141453916722576 -0.00022736726808873957 244 208 63
-0.011635154900172506 -0.025560100701005565 -0.0021641637166762494 255 0 0
-0.02655538355363581 -0.01665817390593401 -0.009518108966850493 0 255 0
0.007957933850030869 0.03879994585678892 5.533908420072511e-09 244 208 63
0.019779109026259654 -0.03269250241019966 -0.0009094820375118332 244 208 63
0.022750519585462627 0.00987185713725022 -0.0010610651493217372 244 208 63
-0.007742368195036695 -0.0161388724458432 -6.303437912690888e-05 255 0 0
0.01008985088152469 -0.0011404860321019396 5.533908420333596e-09 244 208 63
-0.04517977649757299 -0.0037578843111730916 -0.0021221357376849034 255 0 0
0.02426419013922552 -0.016202978252884713 5.5339084220694516e-09 244 208 63
-0.043029765419644074 -0.004228703420960521 -0.0032147282273392542 255 0 0
-0.020458808070734975 -0.028313739125249503 -0.0010610651493217426 255 0 0
0.022283976321165466 -0.030853693549851097 -6.303437912690521e-05 244 208 63
-0.025202724816469613 -0.020621364069136935 -0.001061065149321743 255 0 0
-0.02520721974148861 -0.009167483565160492 -0.012669802245860826 0 255 0
-0.019173848449647313 -0.03161991939498474 -0.00035368347110472845 255 0 0
0.007761763057795943 0.040477040631751234 -0.003214728227339248 244 208 63
0.01252659911575879 -0.032087974459817335 -0.002122135737684896 244 208 63
0.02150292997359413 -0.009602111040376355 -0.012669802245860819 0 0 255
-0.009469766766730614 0.0018891827321719213 -0.00846754420320882 0 255 0
-0.009500343792687166 -0.027734565709148132 -0.0021641637166762494 255 0 0
-0.0331463137639635 0.013155504090838904 -0.0015916040484493788 255 0 0
-0.011177964763284299 0.006110947707134244 5.533908417729039e-09 255 0 0
-0.012377857776600262 -0.012288794105833285 -0.0021641637166762494 255 0 0
-0.044156856231138415 -0.009074198186338752 -0.0032147282273392542 255 0 0
0.010183659420237204 -0.0311927092543905 5.5339084203450836e-09 244 208 63
-0.02725135013854458 -0.013935243044640647 -0.012669802245860826 0 255 0
-0.007522224638019572 0.0456068449701117 -0.0021221357376848987 255 0 0
0.013711930676795747 0.0031785644204214486 -0.0010610651493217383 244 208 63
0.007696741467966905 -0.01650324167274887 -0.008467544203208817 0 0 255
-0.03622614086223338 0.011528735880688555 -0.006366418217626868 255 0 0
-0.027496512780125448 -0.011130532274463855 5.533908415730594e-09 255 0 0
-0.005841286611093698 -0.0031115496116468516 -0.0005305261553271046 255 0 0
0.02117342829089817 -0.00785108932042299 -0.0032147282273392464 244 208 63
0.0015621558133209856 -0.049987484344882926 -0.002122135737684898 244 208 63
0.008199780447197678 -0.0403228531677723 -0.004790569554292332 244 208 63
0.024499431969260636 -0.011477577522007702 -0.0017684467642940832 244 208 63
0.013610528730306885 -0.03915452480914286 -0.001591604048449373 244 208 63
0.02272685292487184 -0.029540339602776713 -0.002122135737684895 244 208 63
-0.02245649158387111 -0.007465903996586714 -0.0010610651493217428 255 0 0
-0.009859796126151297 0.0021234359215623814 -0.002584387345324883 255 0 0
0.04297788253005066 0.006041998370465666 -0.0014147541227125461 244 208 63
0.009885199232336996 -0.015729162357765506 -0.010988896600204781 0 0 255
0.020235134449348477 -0.028929643020490795 -6.303437912690545e-05 244 208 63
-0.02395746260837052 0.012599749416231142 -0.009518108966850493 0 255 0
0.01168873375877354 0.0202962986204084 -0.008467544203208817 0 0 255
-0.006253731398600441 -0.004079953480527193 -0.0007073761126862618 255 0 0
0.03193894978454775 -0.020157557022140848 -0.002164163716676244 244 208 63
0.012447335838690367 -0.02234761361170905 -0.0014147541227125498 244 208 63
-0.04209868652977953 0.006395181892472643 -0.0032147282273392542 255 0 0
-0.019746359419480098 -0.03147838288836454 -0.001237907865166454 255 0 0
-0.0031647722762796968 -0.05145427086758321 -0.006366418217626864 255 0 0
-0.022351466982819437 -0.0288254623562842 -0.0014147541227125541 255 0 0
-0.031721390151672 -0.018103084857031267 -0.00035368347110473 255 0 0
-0.005558696281156775 0.04357656363739836 -0.0005305261553271045 255 0 0
-0.022425158657646844 -0.03306088792647957 -0.001768446764294089 255 0 0
0.019949620697894247 -0.03200696664183654 -0.001743183555313221 244 208 63
-0.013242227202945609 -0.009481275272412975 -6.303437912690956e-05 255 0 0
0.010428604500161366 -0.026327852513480198 -0.0015916040484493734 244 208 63
0.0072814886172166415 -0.02459760388408344 -0.0002652603107093415 244 208 63
0.019498393774229125 -0.033621486636671735 -0.0007579025938926523 244 208 63
-0.039573862253508424 -0.014523567205214504 -0.012669802245860827 0 255 0
-0.032744881137987424 0.013223842736996685 -0.0005305261553271079 255 0 0
0.014566073693361272 -0.01781160688043927 -0.002122135737684896 244 208 63
-0.04262491454587102 -0.00865002884936497 -0.006366418217626869 255 0 0
0.021031600352849452 -0.010064421465557251 -0.0014147541227125487 244 208 63
0.029013125981784613 -0.018682652919858756 -0.008467544203208815 0 0 255
-0.013920882963383428 -0.017011255224558073 5.533908417393128e-09 255 0 0
0.025429871329045936 -0.015143223280097946 -0.003214728227339246 244 208 63
0.04502367044335632 -1.9855663407723428e-05 -0.002122135737684892 244 208 63
0.02001285322256489 -0.03162581076226538 5.5339084215488125e-09 244 208 63
-0.012518040341375481 -0.022105927908976735 -0.0005305261553271054 255 0 0
0.03812099967683727 0.007785398349031577 -0.002122135737684893 244 208 63
0.008122364926339224 -0.02946338956267214 -0.001061065149321739 244 208 63
0.020632203699214265 -0.030540396668878284 -0.005105743537000902 244 208 63
0.0021266095389849 -0.0501376281977912 -0.0032147282273392486 244 208 63
-0.01989233216006772 0.011015282275547043 -6.303437912691037e-05 255 0 0
0.010242600414740006 -0.01586650751377142 -0.0017439362933475545 244 208 63
0.009975749405772344 -0.011670576973628145 -0.0010610651493217387 244 208 63
-0.008208241571814141 -0.017375014266910283 -6.303437912690894e-05 255 0 0
-0.014065603965508983 -0.023724740445894454 -0.00216416371667625 255 0 0
-0.009031851580711797 -0.01751052785734114 -0.012669802245860824 0 255 0
-0.009687451877026968 0.002742496231676589 -0.012669802245860824 0 255 0
-0.027254608503821744 -0.01066278179595065 -0.0010610651493217433 255 0 0
0.03381629235600017 -0.01999055062296591 -0.012669802245860819 0 0 255
0.014845609052872183 -0.020355052410694966 -0.01266980224586082 0 0 255
-0.003201428885647802 -0.051422573652073304 -6.303437912690833e-05 255 0 0
0.03923253938349327 0.006732655439036148 -0.002122135737684893 244 208 63
-0.02219158851066697 -0.031383309456299094 -0.009518108966850493 0 255 0
-0.007838882593609807 -0.01591571793668875 -0.012669802245860824 0 255 0
0.034242047363281194 -0.020400742382432405 -0.0007073761126862568 244 208 63
-0.01743676130082724 -0.0298150319386179 -0.006366418217626866 255 0 0
-0.030213509773721517 0.012893787536969483 -0.012669802245860826 0 255 0
0.015523131468865772 -0.0101627684416201 -0.008467544203208817 0 0 255
-0.027080911324767115 0.01082830472820126 -0.0014147541227125546 255 0 0
-0.0027255329998990244 -0.04948924588890522 -0.012669802245860822 0 255 0
0.014030348857975933 -0.017908702118040052 -0.01266980224586082 0 0 255
0.027490437244372622 -0.01585574377729527 -0.0021221357376848943 244 208 63
0.037148290616940874 -0.016072977573643295 -0.0010610651493217355 244 208 63
-0.017165663285937757 -0.029310798900061955 -0.0010610651493217422 255 0 0
-0.022208536057766955 -0.029541183539621794 -0.012669802245860826 0 255 0
0.04018363394577468 0.005536020790997349 -0.002122135737684893 244 208 63
-0.04265067384602491 -0.004138734845488853 -0.0010610651493217452 255 0 0
-0.022573922258928385 -0.03237539465853311 -0.0003536834711047289 255 0 0
-0.021084748135795806 -0.028220410234096424 -0.0010610651493217426 255 0 0
-0.03556819798342857 0.011809043331102099 -0.0032147282273392534 255 0 0
-0.042977502050130095 -0.005767670323910125 -6.303437912691319e-05 255 0 0
0.009524989986690467 -0.01753596941628477 -0.008467544203208817 0 0 255
0.019930797060973185 -0.032093529871423436 -0.0014400209998841355 244 208 63
-0.03785731494891068 -0.015478412935223389 -0.0010610651493217446 255 0 0
0.01785882686717642 -0.040482877355639026 -0.0021221357376848956 244 208 63
0.03323478951230003 -0.01784266254204057 -0.0010610651493217359 244 208 63
0.014754069226877496 -0.019660656317373203 -0.0021641637166762463 244 208 63
-0.007595407319761757 -0.016856949366561305 -0.012669802245860824 0 255 0
0.0010496033182041046 0.05272360854980476 -0.0013237126646989223 244 208 63
-0.008866620079889703 -0.03957802324668225 -0.002122135737684899 255 0 0
0.012636626622999999 -0.0188799864020637 -6.303437912690639e-05 244 208 63
-0.010761258297092841 -0.015093955178043721 -0.0018568698930671375 255 0 0
-0.01403211869675536 -0.03231915851197623 -0.0010610651493217417 255 0 0
-0.013264700816125902 -0.02136937747381766 -0.009518108966850491 0 255 0
-0.03944089666424772 0.007168636350139655 -0.006366418217626869 255 0 0
-0.038744375550093024 0.010037045125740973 -0.012669802245860827 0 255 0
0.01944623159618338 -0.03829912904220059 -0.009518108966850488 0 0 255
-0.007181027245425023 -0.016275214794398904 -0.000353683471104727 255 0 0
-0.03806869987839473 0.011177356602560206 -0.0005305261553271085 255 0 0
-0.0036844086801303653 -0.04770488410995515 -0.0010610651493217404 255 0 0
0.0071624419144116535 -0.01681822642741184 5.5339084199750915e-09 244 208 63
0.02099135245827369 -0.028267496648095504 -0.0010610651493217374 244 208 63
-0.042197441307459366 -0.008294896379679785 -0.002122135737684903 255 0 0
-0.00026315423165436895 0.05071761721712654 -0.00026526031070934244 255 0 0
-0.02225178124363184 -0.029753268714066024 -0.0032147282273392516 255 0 0
-0.010207772335202906 -0.02774736642987985 -0.0014854926510288597 255 0 0
0.04250832983148819 -0.013463608837576585 -0.012669802245860817 0 0 255
-0.04027067075143291 -0.013672944639828875 -0.003214728227339254 255 0 0
0.00784080776129298 -0.0031389694637944717 -6.303437912690697e-05 244 208 63
0.0399652910909348 0.006671386534806601 -0.012669802245860817 0 0 255
-0.010508589272398306 -0.015921376563592445 -6.303437912690922e-05 255 0 0
-0.009901413141292278 -0.02676662681506433 -0.0012732807342706622 255 0 0
0.010392311168164225 -0.018189490227927714 -0.0010610651493217387 244 208 63
-0.015332177096818356 -0.019815995340260652 -0.000353683471104728 255 0 0
-0.016258963444600375 -0.008235241985325928 -0.009518108966850491 0 255 0
0.011196283454778869 -0.023337110336185622 -0.00141475412271255 244 208 63
-0.011062322141470734 0.015085649382330998 -0.006366418217626866 255 0 0
-0.0448248332559334 0.001101269278587491 5.533908413608486e-09 255 0 0
0.019382474899707278 -0.035373452978981076 -0.005315853959942531 244 208 63
-0.012990503306564385 -0.022270882145175863 -0.009518108966850491 0 255 0
0.024121477787744428 -0.01997434582124277 -6.303437912690498e-05 244 208 63
-0.019573522367905466 -0.03151693076627396 -0.001237907865166454 255 0 0
-0.0017281530805789474 -0.04974950629754674 -0.0005305261553271041 255 0 0
-0.022278226621940355 -0.030497906371366432 -6.303437912691066e-05 255 0 0
-0.009208734267186462 -0.026306543614099284 -0.004265292738002251 255 0 0
-0.013119397963057996 0.018722101401835462 -0.012669802245860824 0 255 0
0.003631377773329826 -0.05104969523460376 -0.00951810896685049 0 0 255
-0.027863384472040564 -0.012980454993768658 -0.0017684467642940897 255 0 0
-0.00548413182991584 -0.04515960296646567 5.533908418426332e-09 255 0 0
0.011474743148982442 0.009235632983272672 -6.303437912690652e-05 244 208 63
-0.013019682878344612 -0.01626244240727829 -0.0007073761126862627 255 0 0
0.000737556657821333 0.053485863641724876 5.53390841918827e-09 244 208 63
-0.008083696630582608 -0.0028564079734259952 -0.004265292738002251 255 0 0
0.04150210615731238 0.008245758814619584 5.533908424180487e-09 244 208 63
0.007890322770529697 -0.0247917660256739 -0.003214728227339248 244 208 63
0.008056848510230516 -0.040608731208512175 -0.003214728227339248 244 208 63
-0.04490095352599845 0.0006512657597733284 5.533908413599164e-09 255 0 0
0.04044639580751097 -0.013457281335067853 -0.009518108966850484 0 0 255
0.009491678767262209 -0.025863027480313664 -0.005105743537000904 244 208 63
-0.012535655752165817 -0.02583262551559716 -0.0014147541227125528 255 0 0
0.018779531607717517 -0.035490406030308286 -0.0021221357376848956 244 208 63
0.03182487866623587 -0.0185713726622408 -0.002164163716676244 244 208 63
0.028127332297784566 0.011278103840249588 -0.009518108966850486 0 0 255
