ply
format ascii 1.0
element vertex 749
property float x
property float y
property float z
end_header
0.03808977248598606 0.012947872375721828 0.001398976131810915
0.021398520391996568 0.02420650937925931 -5.612505741942019e-09
0.02614705025637919 -0.012084438338542539 -5.612505741942019e-09
0.029568900044093092 -0.021355286932137278 0.0005380611436842597
-0.047968595023505436 0.004532375820102113 0.012849749664949268
-0.030856841697518473 -0.0058764111384921715 -5.612505741942019e-09
-0.016179183402460245 -0.03914706586665682 0.0014348476765097334
0.026096264797888638 0.027369802451904228 -5.612505741942019e-09
0.020349198877190593 0.0087265707149355 0.012849749664949268
0.0174105910079893 0.02338872265689823 0.006456839560033679
-0.00047878589314599723 0.0099035421892128 0.008587807542432014
0.01948902199317772 -0.016515747391122597 0.0017935637649271466
0.023454550640633755 -0.01710404665476215 0.0005380611436842597
-0.02747471848248432 0.01612772317888415 0.0010761353083818407
0.04200739071919773 0.007525767642384334 0.006456839560033679
0.0173672291864 0.008358937848133251 0.0019370502002941119
0.01470158065230226 -0.025535624872436057 -5.612505741942019e-09
0.008718977342034499 -0.027510092995730047 0.0010761353083818407
0.04875242361586376 -0.014340027815257526 -5.612505741942019e-09
0.02540555467702712 0.006400425191693055 0.0021522761330550395
0.03920892844178412 -0.015180590873029521 0.012849749664949268
0.024145924400125265 -0.014077856100365226 0.012849749664949268
0.011645639535453119 -0.03805705998145674 0.0032603865601494126
0.011158710150100212 0.014089535239046347 0.009653293329633019
0.04373315667046494 0.0101430915829254 0.0010761353083818407
0.0133604482512636 -0.012744833504060728 0.008587807542432014
0.03199154277191452 0.007347248439186341 0.012849749664949268
0.031773710095334085 0.00810311747385878 0.0010761353083818407
0.03507384903700854 0.01669430395531522 6.392964754685785e-05
0.039777418534500564 -0.017132041635028766 0.008587807542432014
0.019915931614897173 0.022528992551135957 0.012849749664949268
-0.009279242507880942 -0.041476277740589235 -5.612505741942019e-09
-0.03284945640884875 0.018463134595572896 0.0010761353083818407
0.02431276399338302 0.021042680905969807 0.006456839560033679
0.03824678442698133 -0.016503456390186036 0.009653293329633019
0.022057803418786256 0.020043766526895376 0.011251519444717615
0.015709092460041544 -0.025602991029437607 0.0018832427549600385
-0.004810922037795446 0.015300796154512252 -5.612505741942019e-09
0.017320603755381813 0.008284647322109998 0.0018294317176222902
0.01549756736302536 -0.02539212854630135 0.0010761353083818407
0.03693063860133926 0.014124266170869766 0.0032603865601494126
0.026690491598292163 -0.016587693054559465 0.0018832427549600385
-0.020251782772665438 -0.008340029901702548 6.392964754685785e-05
0.016734375236792384 0.004830500617932137 0.0014348476765097334
0.04587486945726691 -0.0017330706528105194 0.002194901029520099
0.04548533394788601 -0.012884269501411796 -5.612505741942019e-09
0.027108541580545785 -0.025464703800264384 0.00901400288359918
0.03063211737070254 0.003383464179926437 6.392964754685785e-05
0.007270302902150345 -0.01871734994559469 -5.612505741942019e-09
-0.007643130493432329 -0.04217035276794934 -5.612505741942019e-09
0.011058799923962095 0.015745939297276947 0.006456839560033679
-0.029346424445561157 -0.0063205864622205565 0.0010761353083818407
-0.008362835698337763 0.026893957578518594 0.009653293329633019
-0.0028171310683458204 -0.006801236452592845 0.0010761353083818407
0.006699512777267325 -0.0207785486238034 0.0021522761330550395
-0.007649119651246731 0.02227418296982419 6.392964754685785e-05
0.024919290377727617 -0.013818901923511552 0.002194901029520099
0.012042623502433196 -0.027011691726913797 0.0021522761330550395
0.014000190037501107 -0.012736325223581261 0.0038996726444645033
0.028714358593873203 -0.02374276172771938 0.0010761353083818407
0.01549756736302536 -0.02539212854630135 0.0008071019302868399
0.02525836146871143 0.022634636821231367 0.0021522761330550395
-0.005434842376500351 0.021230643981289665 6.392964754685785e-05
0.01891136111743903 0.005405898247180209 6.392964754685785e-05
0.023258524578845672 0.019338816287038808 0.0016621562116319137
-0.04994300039479946 0.007276821081960527 0.0016142093768650376
-0.03992936255880468 0.016278905790084584 6.392964754685785e-05
0.01927846162809605 0.022938024430573127 0.002194901029520099
-0.010917699075640028 0.012862360287219954 0.012849749664949268
0.009899638147075897 -0.01201908459689948 0.0005380611436842597
0.021039243816178197 0.011685508998923356 0.0021522761330550395
-0.01158595128814209 0.014865317561924886 0.012849749664949268
0.04189896634327894 -0.014044472451978943 0.0021522761330550395
-0.051645098504256914 0.004996607769015301 -5.612505741942019e-09
0.02670695208865938 0.003119839065998856 0.012849749664949268
0.025061790688070112 -0.01444093968456358 0.0010761353083818407
-0.009889262744800544 -0.04364382699394336 0.0032603865601494126
0.027559422365692306 -0.026136996821249727 0.010718778090547259
-0.016079681655386976 -0.02854118819878126 0.0005380611436842597
0.038215924645638596 0.012868117973135572 0.0019370502002941119
0.013261611843374311 0.023210356841708035 6.392964754685785e-05
-0.003392185235460698 0.017141322035230652 0.012849749664949268
0.015844159786990167 0.009274667540354328 0.0010761353083818407
0.034979798260288 0.014458768676135892 0.00010760921401948199
-0.0003509214929093988 0.040566849803312474 6.392964754685785e-05
0.03768105964912636 0.01319381701332497 0.0016142093768650376
-0.017380771046893395 -0.023374734868908686 0.0032603865601494126
0.027594937605593797 0.0053738885130050025 6.392964754685785e-05
0.02065564631797093 0.01155921030393773 -5.612505741942019e-09
-0.0006546553003950416 -0.04624613927523356 0.0005380611436842597
0.006288872766845919 -0.02602249664764583 0.012849749664949268
0.04911884782392987 -0.002318838475308381 0.012849749664949268
-0.0023594567996419093 0.011550409296772436 0.0003587067876936122
0.014943672786802411 -0.01740828459061342 0.0021522761330550395
-0.045790191229162155 0.0025634220299443904 0.0032603865601494126
-0.05174527762775389 0.011145609163752549 0.012849749664949268
-0.04310783671770775 0.0010368000993160446 0.0005380611436842597
0.02925948800595537 -0.019276809299444586 0.0032603865601494126
6.067166463705497e-05 -0.006484955457672956 0.0016142093768650376
-0.05123108774323761 0.009239491740112099 0.011571166720308062
0.012485992631512332 -0.026740630615275936 0.0007174228761110253
0.004972585687918822 0.006113108797615927 0.006456839560033679
0.04258868291609682 0.0004401736994297729 0.008587807542432014
-0.05034634819948918 0.009455078574884526 -5.612505741942019e-09
0.028540787080654627 0.002824707663630957 6.392964754685785e-05
0.015735092328325356 -0.010929181893195843 0.012849749664949268
0.021479841239675466 0.020776265078589564 6.392964754685785e-05
0.027612050021152842 0.0058281945869302675 6.392964754685785e-05
0.024387309301489777 -0.015402161438917622 0.0016142093768650376
0.0055308453773620205 0.006319120291542879 0.0003587067876936122
0.014062195461479784 -0.013642744963820506 0.012849749664949268
0.04044326288936175 0.010691130958848213 0.0005380611436842597
0.032854113230845944 -0.0252362810127302 0.004325872090778726
0.018481452679290314 0.004709759387645715 0.008587807542432014
0.02741216360271125 -0.013480062447493725 0.012849749664949268
-0.04782918944824752 0.0020366334384355972 6.392964754685785e-05
0.014000190037501107 -0.012736325223581261 0.005178259694252766
0.02470223177071161 -0.014516617807226743 0.0016142093768650376
0.02527015934414828 -0.014521618517281724 0.0005380611436842597
0.012060970589147785 0.021214077055377343 0.009653293329633019
-0.012601649414410615 -0.04196332166664802 0.012849749664949268
-0.004012927886233448 0.01929154775945128 0.0010761353083818407
0.0056260045990945496 0.042187983960472936 0.0021522761330550395
0.0190069897171746 0.004594337841442418 0.0003587067876936122
0.023233770879875285 -0.017366898183319577 -5.612505741942019e-09
0.04135219467326961 0.013814668012122493 -5.612505741942019e-09
-0.04676003498925809 0.012063077974276607 0.006456839560033679
0.001539179800067328 0.04337549988084149 0.0032603865601494126
0.01395152812173083 -0.012611811172419 0.0073092276766511
0.002296332625373892 0.0060729572180047335 0.0021522761330550395
0.022018084884756886 -0.018456364067216083 0.0008071019302868399
-0.014596431445429532 -0.021172547464642755 0.009653293329633019
0.037139219167938456 -0.02079139574108106 0.0032603865601494126
-0.007479798396672855 -0.04453457440783328 0.0032603865601494126
0.026893924967834867 -0.017348333566923876 -5.612505741942019e-09
-0.0037228395755374627 0.014571468167072603 0.012849749664949268
-0.009937911752284971 -0.016436024985448907 0.0021522761330550395
-0.011010860507152212 -0.017449511236311933 0.0021522761330550395
0.05084723599756325 -0.004301051828296046 6.392964754685785e-05
-0.011809526572337505 -0.01753190881131261 0.012849749664949268
0.023840516841805583 0.011670988485531433 0.0014348476765097334
0.007022841467541365 -0.0194021110701506 0.0005380611436842597
0.018541011233120817 0.004757651697658573 0.008587807542432014
0.026843722773418198 -0.017140031472967797 -5.612505741942019e-09
0.0019044840750288654 0.041231947142943995 0.0016142093768650376
0.006945142216590832 0.04496537808728716 -5.612505741942019e-09
0.027520066767626732 0.0028943866836468957 6.392964754685785e-05
0.00506713720141521 0.042595578139885085 0.009653293329633019
-0.018104605926603456 -0.03328246849107586 0.012849749664949268
-0.01561721635728983 -0.023441201460951466 0.009653293329633019
0.014622320103221332 -0.03704238599721735 0.0007174228761110253
-0.016636650050926745 -0.030008900837923378 6.392964754685785e-05
-0.018176714866453496 -0.03287275646334722 6.392964754685785e-05
0.011125277466572006 -0.037938294387299336 0.0010761353083818407
0.018140901957743146 0.008645027852979808 0.004858609339802026
0.02576968468315468 0.010211993839203277 6.392964754685785e-05
0.05355491157398662 -0.008277279166470931 -5.612505741942019e-09
0.02585757411373255 0.004034239651126646 0.010718778090547259
0.03298564213195486 0.01686529225793568 6.392964754685785e-05
-0.004415889294686538 0.015638069892760877 6.392964754685785e-05
0.01987072972367632 0.010603769898322913 0.006456839560033679
0.02788008021872278 -0.025521289481807107 0.00038432883854941895
0.027051977673176394 -0.0255764161960228 0.010292582749380092
0.017482171652213052 -0.015993729225379845 0.0014348476765097334
0.014759625133862498 -0.010103717972652347 0.0021522761330550395
0.0253212943738082 0.011210797934759407 -5.612505741942019e-09
0.028198507155155386 0.006716268706058583 0.0010761353083818407
0.014024128586725996 0.012153426239829615 -5.612505741942019e-09
-0.04760555881298215 0.011158785827060348 0.0021522761330550395
0.01841037884371124 0.004122743950105081 0.0017935637649271466
0.006953201523526692 -0.027041714686660445 0.012849749664949268
0.023654358678464167 0.028362278554642836 0.0014348476765097334
0.002572596337081367 -0.0071977483908159815 6.392964754685785e-05
-0.04107309120841051 -0.0004653943230900683 0.0021522761330550395
0.012670196870578425 0.02242448422741601 0.0032603865601494126
-0.04608283407167834 0.011852692983478632 0.0005380611436842597
0.02465841080219728 -0.02557736808744893 0.0017935637649271466
0.002392916836717041 0.006622667543176254 6.392964754685785e-05
0.0050106492318551885 0.006309861502399564 6.392964754685785e-05
0.028946983588905358 -0.025532703315528198 0.0013836036389410426
0.019824734405166525 0.021971261575553923 0.0010761353083818407
0.03666464804870633 -0.024736199616624478 0.012849749664949268
-0.004587430842981903 -0.045718127464797476 -5.612505741942019e-09
-0.04626445960648388 0.011774177527906982 0.0021522761330550395
0.01934986277812859 0.025201939032109495 0.0014348476765097334
0.027867872804865735 -0.013165861204730907 0.0016142093768650376
0.0156705100795649 -0.01804590106797007 0.0010761353083818407
0.026948852385008052 -0.01243326708421267 0.0016142093768650376
0.020310008133051415 -0.016832574690719995 0.010718778090547259
0.0087585168723584 -0.0164822054957704 0.0021522761330550395
0.0044925494968126155 0.008084810076913187 0.0002690277655892589
0.016029791907301253 -0.02649225660063624 0.0014348476765097334
0.015583245834705347 -0.0254383953273903 0.0021522761330550395
0.013531364323128368 -0.03830131334347837 0.012849749664949268
0.01595115935870503 -0.026239423277669885 0.0008071019302868399
0.013005150520092683 0.023754456879935062 0.0014348476765097334
0.04640363189530598 -0.012458836366648855 0.0005380611436842597
-0.01615300617029877 -0.01931985897708254 0.0021522761330550395
-0.020738522393137643 -0.007755145300040932 -5.612505741942019e-09
0.016187327359741495 -0.01061760331849597 0.0021522761330550395
0.038419822691961 -0.01595343036544615 6.392964754685785e-05
0.03953226992784476 -0.018302561815643912 0.004325872090778726
0.04187993227483505 0.004896371440058933 0.006456839560033679
0.04976696438221142 -0.0057930261541841045 0.004325872090778726
-0.011526855703525931 -0.043305970529718546 0.0016142093768650376
-0.003156838711406198 0.037988262542849094 0.009653293329633019
0.02421087559825536 0.029596946720799006 0.010718778090547259
0.04424855156915197 0.0058360839765364955 0.0021522761330550395
0.02934111061488879 -0.02599425200809539 0.007522321755231009
0.013921998555055846 -0.012584642699559015 0.00816161528012514
0.02028545997066233 0.040552605146801465 0.0032603865601494126
0.0003917014560009017 -0.009164336281669311 0.012849749664949268
-0.003681328671443438 0.012040810969582852 0.0010761353083818407
-0.005626643314899373 0.033240245942340506 0.0032603865601494126
0.022894413508933713 0.024182580472729972 -5.612505741942019e-09
0.03172886158632338 -0.02563283322120367 0.0011294152423190944
0.02745669523805793 0.00773121633491451 0.012849749664949268
0.006356495576465038 -0.02450190534201201 0.0003587067876936122
0.02182351857527249 -0.015460465351321031 0.002194901029520099
0.014615125810088784 -0.025568347199494367 0.0018832427549600385
0.01406294856835727 -0.013528621925819221 0.011997362061475229
0.0017166877206653693 0.044071757833723864 0.0010761353083818407
0.026951390117045965 0.009905475320130842 0.0010761353083818407
0.02283295995721749 0.023961742941113792 0.0017935637649271466
0.022804881006906395 -0.013045571539138023 6.392964754685785e-05
0.0187038073850352 0.004956649321586772 0.0013425131694743684
0.009570594139212197 -0.027660256014297006 0.0021522761330550395
0.04394214544393712 0.009516581175167165 -5.612505741942019e-09
-0.015614344342298884 -0.03397572492122716 -5.612505741942019e-09
0.03874314123514824 -0.015324784796862553 0.004858609339802026
0.006454311838827444 -0.022119282403062268 0.0007174228761110253
-0.00241612445980803 0.012702720999598535 0.0032603865601494126
0.0066724328830168765 -0.018926428306394252 0.002194901029520099
0.004434226261220737 0.005228059268604936 0.0021522761330550395
0.027134830646279622 -0.026138185766295865 0.0011294152423190944
-0.009467629432158535 -0.015355775982606538 6.392964754685785e-05
0.02440718627859179 -0.013770714094083824 0.0013425131694743684
0.02582290241713122 0.00708438301081752 0.0032603865601494126
0.01357326543738088 0.013512271371921307 0.0005380611436842597
-0.013981031332148895 -0.03839784940152883 0.009653293329633019
0.02026909634800161 0.007787098849485288 0.0007174228761110253
0.02405227428685399 0.03126873199301725 0.009653293329633019
0.015176264268656316 -0.02540369541291414 0.0002690277655892589
0.004475450671687715 0.04201469859391321 0.0010761353083818407
0.004452557354276665 -0.02038217051383155 0.012849749664949268
0.01856827598773942 -0.018965117962661957 0.0008071019302868399
0.011732720055798548 0.021833004112874418 -5.612505741942019e-09
-0.005932090422134042 -0.013361965747470143 0.0010761353083818407
0.030147017884801706 -0.025396125649432152 0.00030746637420005755
0.02707017398829784 -0.026134530080615368 0.002194901029520099
0.04110693501708799 0.0014320581927377907 0.0017935637649271466
0.014625110138452694 -0.03486530383560485 6.392964754685785e-05
0.03377399156426424 0.0072186216534900855 0.008587807542432014
0.02704031195568306 0.0025232602465389523 0.0003587067876936122
0.018033720751964494 0.024885787064813803 0.009653293329633019
-0.022031537668323505 0.016057723408462767 0.006456839560033679
0.03174178192871678 -0.025109866830779877 0.001153001364734877
-0.017826294897334734 -0.025473407214393364 0.009653293329633019
0.01328028103548439 0.008059827266073263 0.0017935637649271466
0.0534355095631478 -0.007713782947479215 0.0005380611436842597
0.014294756220853553 0.007660091662886602 0.006456839560033679
0.05017200360423124 -0.0073091160286190395 -5.612505741942019e-09
-0.04898823041498684 0.010962162639290878 6.392964754685785e-05
-0.018511092848513724 -0.02529064027977567 0.0021522761330550395
0.02720670579751848 -0.026140477706301304 0.007522321755231009
0.03855429454066937 0.012640447991915884 0.0018294317176222902
0.03808977248598606 0.012947872375721828 0.0010761353083818407
0.03287506379651543 0.011064627055134686 0.009653293329633019
0.014056477923018543 -0.014035902646580233 0.012849749664949268
0.016672909084329023 0.025607160457704628 0.0007174228761110253
0.01872966990586823 0.005001030090892081 0.007735419425814592
0.02252171066084049 0.023403744048313763 0.0013836036389410426
0.0256083981914651 -0.014731662961051679 0.0013451686864768416
-0.03323176151993876 -0.0073321381689738395 0.012849749664949268
0.02834041627798893 -0.023162248141789472 0.0032603865601494126
-0.04977653434816054 0.003814951098446438 6.392964754685785e-05
-0.01789749946740944 -0.0258828371304107 0.0032603865601494126
0.018807784004976413 0.02535751901432636 0.0021522761330550395
-0.006480592253895807 -0.04534171020891898 -5.612505741942019e-09
-0.0024781644681190823 -0.006762389177977929 0.0010761353083818407
-0.026287924885446408 -0.0074683881815236445 0.0032603865601494126
-0.04995161167050744 0.006597252910581974 0.009653293329633019
-0.003530197871067935 0.01842904834058784 0.0016142093768650376
0.0326977984356932 0.009625417490450512 0.006456839560033679
-0.002668230550798992 0.01706864731577222 0.0016142093768650376
0.006277728804898392 -0.02397728667153927 0.0014348476765097334
0.029763107143454884 -0.017361645491714747 -5.612505741942019e-09
0.012787068144230248 0.017092286299136783 0.009653293329633019
0.01769431252878702 0.0074203986469410415 0.004325872090778726
0.02638025639197516 0.029362371806033887 -5.612505741942019e-09
-0.006079682373272812 0.025734339198429875 0.0021522761330550395
0.02041181983252784 -0.01913067255443826 0.0008071019302868399
-0.03577289193601582 -0.004461369073519672 0.0032603865601494126
-0.03951983682548024 0.016396932073471992 0.006456839560033679
0.010434948653181486 -0.029780408517236633 0.009653293329633019
-0.0045058747435515615 -0.0451776922445059 0.009653293329633019
0.03494812044001792 0.017317652929771565 0.0021522761330550395
-0.01820844727484552 -0.007848790975948112 0.0021522761330550395
0.04155843458198633 0.0005744215154009743 0.0010761353083818407
0.021611213813463526 0.008957247390127498 0.0010761353083818407
-0.031105366094342172 0.018679635985330713 0.0010761353083818407
0.05284672588776266 -0.011085730613163406 0.0010761353083818407
-0.04445673561786137 0.013018488374947674 6.392964754685785e-05
-0.008369886458407865 0.02658040171138313 0.009653293329633019
0.02233534780727168 0.009649698091819368 0.0032603865601494126
0.005890162081543146 -0.025013906862400938 0.012849749664949268
-0.018425284301933586 -0.034479910072397535 -5.612505741942019e-09
0.04361128878015703 -0.000231363408139031 0.008587807542432014
-0.0064882183823316815 0.025027376658105834 0.012849749664949268
0.024897737702195097 -0.02749089660272264 0.0007174228761110253
0.0252530962491905 -0.027264359572947594 0.012849749664949268
0.02773027796016414 -0.026130092619657586 0.012849749664949268
0.02940354295890804 -0.025489034416317075 0.0016142093768650376
0.032453856746207 0.015180175926451715 6.392964754685785e-05
0.014058787780509624 -0.03844663920307011 0.0014348476765097334
-0.016153763098279844 -0.030429069301892417 0.0010761353083818407
0.012341141349295861 -0.03680279613053025 0.009653293329633019
0.02940354295890804 -0.025489034416317075 0.0006917971370371595
-0.008768710685775226 0.02911581990558674 0.0021522761330550395
-0.04053756117919641 -0.001531575135182341 0.0032603865601494126
0.011858404251483198 -0.037708316858414304 0.0032603865601494126
0.01784522884552439 0.0046983537674499965 0.008587807542432014
0.03780461385767433 -0.01633458888416379 0.0010761353083818407
0.00310899388504745 -0.007695393722119891 0.0005380611436842597
0.03899601419099795 0.012293018932518187 0.0002690277655892589
0.027001719712606728 -0.025679292433399455 0.0026210930352552815
0.0058268112031878245 -0.02298942313716341 0.010718778090547259
-0.00778592855582624 0.022735975163096115 6.392964754685785e-05
0.044312883926443426 0.007982510138893893 0.0003587067876936122
0.03706742869019792 -0.01928194907338529 0.0010761353083818407
-0.04836268630754782 0.0025000912280754082 6.392964754685785e-05
0.02278332747107759 -0.017106059758256503 0.004858609339802026
0.02854560294957992 0.0023355554521533924 0.0003587067876936122
0.027849770135426423 -0.025486567664773575 0.0001537303808471578
-0.0066596404034006355 -0.013858513743244974 -5.612505741942019e-09
0.0012427872921597822 -0.04628104205858552 0.0021522761330550395
0.01993822248169721 0.00694116092907523 0.0010761353083818407
0.036613772893480695 0.01613982187814674 6.392964754685785e-05
0.017555888378704008 0.007110532335161353 0.0014845758885276407
0.013942063449453585 -0.012599985804613124 0.0017687051752095508
-0.0026805955983444903 0.041667212612037714 -5.612505741942019e-09
0.00891183798826526 -0.0404834874663886 0.0016142093768650376
0.025307271206635326 0.008256441654826583 6.392964754685785e-05
0.021864209100129407 -0.014113601565004066 0.0014348476765097334
0.010102104210920988 -0.027689036983831673 0.0021522761330550395
0.030652910615706158 -0.02531948121831251 0.001998540171773601
0.002186960029352105 -0.008683044145087823 0.0005380611436842597
0.01856827598773942 -0.018965117962661957 0.0013451686864768416
0.013004525749840717 -0.03482731276567391 0.012849749664949268
0.04533356341486848 0.0006683633435944965 0.012849749664949268
0.023977437379992354 0.03165787840179301 0.012849749664949268
-0.006118298704964922 -0.04542111157106935 0.0005380611436842597
0.018143683577891454 0.022902639233140627 0.0016142093768650376
0.0031339629291558717 -0.007577915423283997 -5.612505741942019e-09
0.03190259080356139 0.003562359862590763 0.0021522761330550395
0.019607947552162202 -0.019122897776506165 0.0010761353083818407
0.005020215177340285 0.005399070889513396 0.0019729181529892555
0.02582194256068978 -0.02321612269259725 0.0005380611436842597
0.025962815488805763 0.003757809395310609 0.012849749664949268
0.02499993336052645 -0.024794832433888317 0.0021522761330550395
0.011191099925964103 0.013859732011756436 0.0032603865601494126
-0.01558087285998466 -0.010523607708207549 0.0010761353083818407
0.02701129660194995 -0.017956547846795404 0.0021522761330550395
0.027849770135426423 -0.025486567664773575 0.001767941746142801
-0.0063401854133566995 -0.04259316425432517 0.0010761353083818407
0.03232789400805853 0.016949392581787705 0.0016142093768650376
0.013610754545792601 -0.031910611843060085 0.008587807542432014
0.024277671869670586 0.02093414797810177 0.006456839560033679
-0.006163426048969611 0.026525796678004476 -5.612505741942019e-09
0.017867911693078345 -0.01678804306895701 6.392964754685785e-05
0.0330046507658495 0.004699156259801092 0.0010761353083818407
-0.008608993291550512 -0.04238587919549198 0.012849749664949268
0.004143833076475415 -0.024987975145269042 0.012849749664949268
-0.0023747987433849534 -0.045517267736399865 0.009653293329633019
0.01663627820362805 0.005512435668906769 0.002194901029520099
0.031967718298631556 0.01456256295830536 0.0016142093768650376
0.021864209100129407 -0.014113601565004066 0.0003587067876936122
0.021935584874839584 0.020175829493739746 0.008055066188261658
-0.0032697185056761277 0.04117257698511874 0.0021522761330550395
0.04525096857969715 -0.0018379695000978742 0.0021522761330550395
0.02362674031196349 0.028117798546332555 0.0021522761330550395
0.025897399176020342 0.005436608707844672 0.012849749664949268
0.022558363002436466 0.019603180643418084 0.011251519444717615
0.011045022421396522 -0.03024210548766808 0.0016142093768650376
0.013942063449453585 -0.012599985804613124 0.010292582749380092
0.02753521357609524 -0.019877263613581542 0.009653293329633019
0.010013028103215055 -0.039409319102143216 0.0021522761330550395
0.02672298268628683 -0.016697385974892866 0.0010761353083818407
0.019501493391813493 0.041103251905357074 0.0032603865601494126
0.024181548650831657 0.02891160779092315 6.392964754685785e-05
-0.015960175469645805 -0.027422845083635343 0.0016142093768650376
0.05354334426845899 -0.008195977929472171 0.0005380611436842597
-0.025201268101649563 -0.009805227051569691 -5.612505741942019e-09
0.008408121997250311 -0.02804182700842828 0.012849749664949268
0.02720670579751848 -0.026140477706301304 0.002194901029520099
-0.02009030789957669 -0.008354210660051925 0.012849749664949268
-0.002437528331245427 0.011688587736002348 0.0017935637649271466
-0.0089457802448459 0.027423271103088932 -5.612505741942019e-09
0.023197080274829807 -0.017408291076175794 0.0016142093768650376
0.025211124001638715 -0.02722636837531228 0.009653293329633019
0.009684009732500203 -0.012151450970536515 0.0010761353083818407
0.028052034053954327 -0.025022200679915212 0.0005380611436842597
-0.0034351056145614325 0.018270836297158144 0.0005380611436842597
0.02870732424402514 0.005069136146881684 0.0004304500053770948
0.022107097027317595 0.036098141098902733 0.006456839560033679
-0.049271427664956804 0.010251884468625459 0.0010761353083818407
-0.04625016454294392 0.0007353726994987899 6.392964754685785e-05
-0.018257177178055774 0.017384633096885826 0.0010761353083818407
0.04144511493577026 0.006696227783141718 0.0010761353083818407
0.039328651812349 -0.019339229096095593 6.392964754685785e-05
0.014591460437576162 -0.026196755112820963 0.010718778090547259
0.026658013100687137 -0.016481746687429823 0.0016142093768650376
-0.05005473996404493 0.0032994826351120878 0.0021522761330550395
0.017328034119537657 -0.018300790641215564 6.392964754685785e-05
-0.051714321845873525 0.0060182270049016886 0.012849749664949268
0.02642210079559901 0.03153656936532892 -5.612505741942019e-09
0.013916742010863051 -0.012582592424827137 0.011997362061475229
0.04018541718734047 0.011053373161001308 -5.612505741942019e-09
-0.0022828778198362913 0.00894387903471944 0.006456839560033679
0.019375039613859325 0.022349430430048514 0.0010761353083818407
0.03996668988321601 -0.016752718483294064 0.002194901029520099
0.037053395094843414 -0.021044322715471575 0.012849749664949268
0.015818114867102814 -0.018147998285123222 0.0013451686864768416
-0.022232652763931642 0.015623323197046254 0.0010761353083818407
0.04714645434612021 -0.0027529275191101286 0.002194901029520099
0.012814079704891804 0.017328992800628478 0.0032603865601494126
0.011739737928886025 0.02025604747600318 0.0032603865601494126
0.047229752115592896 -0.002827731354754909 0.004325872090778726
-0.01582207508106898 -0.01881734266928272 0.0010761353083818407
0.013425059233493351 0.012149850522969012 0.009653293329633019
-0.003647811901402736 -0.04372916846825323 0.009653293329633019
0.02785158638519679 -0.02549436407954183 0.000999269123742959
-0.015960747647048162 -0.034607282741138896 0.0032603865601494126
-0.005332090519705891 -0.007089472199088033 -5.612505741942019e-09
-0.006309961798505566 0.03049795363050712 0.006456839560033679
-0.02067580259382328 0.017847144737905912 0.0021522761330550395
0.0014740137396085037 -0.009136446804614014 0.0010761353083818407
0.03248036299760689 0.014845123375369192 0.006456839560033679
0.03971554733740351 -0.01736354560179521 0.008587807542432014
-0.01207161930079624 -0.014657908305196855 0.0010761353083818407
0.004442637648859515 -0.018338510319364152 0.0021522761330550395
0.0024308460265139486 -0.006446321565309619 0.0005380611436842597
0.015052380299609975 0.010290247250948417 0.0002690277655892589
-0.014041250141249153 -0.03831967271721837 6.392964754685785e-05
0.02528670797806024 0.007074529086747421 0.0005380611436842597
0.020414335036584408 0.008014974349295677 0.0007174228761110253
0.01603407281292703 -0.0304275542425433 0.0014348476765097334
0.001276811162801343 0.010893687689922806 0.012849749664949268
-0.002944406574742714 0.03824913865346508 0.0032603865601494126
-0.0507768855762282 0.004028446737521228 -5.612505741942019e-09
0.03184685190263358 -0.02508490588068742 0.0013067374543021609
0.03221915128240608 -0.024983698650470437 0.001921673987134719
0.022679096199865714 0.023517931408716154 0.0017935637649271466
0.010405153293168365 -0.03894716413103589 0.0010761353083818407
0.014936531147076939 -0.03317025845504657 0.008587807542432014
0.0350500609219754 0.014450889763707883 0.001398976131810915
0.03188008056558545 0.015857750359771126 0.0010761353083818407
-0.015544943122251662 -0.0399998919256365 -5.612505741942019e-09
0.024085191117168576 -0.016157819009663652 0.0005380611436842597
-0.006009262293264729 0.0292737739731485 0.0017935637649271466
0.025716785071311515 0.025167205117592933 0.0010761353083818407
0.02319181067572972 -0.012401416668236718 0.0032603865601494126
-0.02715438142463267 -0.007308762837053353 0.012849749664949268
0.017757116737928617 0.007708783686649815 0.009653293329633019
-0.0503170762947359 0.004364860499304723 0.012849749664949268
0.013282456115893381 -0.02679502085982247 0.002194901029520099
0.028995569974634497 -0.023128698476017364 -5.612505741942019e-09
-0.021532978473566708 -0.01032451722878415 0.0010761353083818407
0.007931743501801779 0.04275172020774298 0.006456839560033679
0.004994427221049329 0.006172579816249627 6.392964754685785e-05
-0.004750781575877587 -0.04513304125880727 0.012849749664949268
0.03189556801692925 0.015240940526033376 -5.612505741942019e-09
0.023983501312930592 0.027044101242487635 0.006456839560033679
0.02570813732875257 0.03188501112983908 0.012849749664949268
-0.005775330596206184 0.02416520571785814 0.0021522761330550395
3.478280478505887e-06 0.007802256056404632 0.012849749664949268
0.015619206893349604 -0.017358974308925686 0.012849749664949268
0.03904156917504472 -0.02044095040423389 6.392964754685785e-05
0.025775297968811527 -0.014192927632924074 0.010718778090547259
0.03518395956767649 0.014415564319208431 0.0007532944849527666
-0.026991154988026966 -0.009493217011261924 0.0010761353083818407
0.024579479257866497 -0.02709719505832777 -5.612505741942019e-09
0.02352165174171322 0.009533490211435212 0.0032603865601494126
0.0279026739315273 0.008305681462780767 0.0010761353083818407
0.015820037385550805 -0.025860502703988333 0.0002690277655892589
0.003535735651299945 -0.023940668215412488 0.0010761353083818407
-0.004279132197819129 -0.04308364701714419 0.0010761353083818407
0.0358071730475042 0.01416611649021667 0.0005380611436842597
0.019714163226895953 -0.017000440010981215 0.002194901029520099
0.04145335394017799 0.007146002083346634 0.0005380611436842597
-0.0005030405099902332 -0.006542628035547666 -5.612505741942019e-09
0.012962399048579465 0.018269213620877394 0.012849749664949268
0.007662023110844085 -0.01692508389761629 0.004325872090778726
0.028390703786726798 0.002338270179530649 0.0014348476765097334
0.039673759813994874 -0.017551432898011282 0.012849749664949268
-0.011700727871821455 -0.010327545815503046 0.0021522761330550395
-0.026601571608658888 0.01654824958205337 0.006456839560033679
0.0018545838490692285 -0.008903538059430161 0.0016142093768650376
-0.0013729779867801247 0.010319790215531338 0.004325872090778726
0.03921060520464852 0.012101659960324262 -5.612505741942019e-09
0.0055308453773620205 0.006319120291542879 0.0017935637649271466
0.025539579637027254 0.0034574313330144606 0.0003587067876936122
0.013853939374920403 -0.02988006087897014 6.392964754685785e-05
0.044271542967642116 -0.013357398799672097 -5.612505741942019e-09
0.01375958443612085 0.02440916124300342 0.0003587067876936122
0.043170072925703455 5.412393586597811e-05 0.004325872090778726
0.02656517746932865 -0.015044690965533292 0.008587807542432014
0.008124502924618788 -0.04441251178743475 0.0005380611436842597
0.01402494119328761 -0.012864937187148208 0.0038996726444645033
0.0009579726299499916 0.0067290581892620015 -5.612505741942019e-09
0.025352028395260618 -0.011847286413407807 0.0010761353083818407
0.009130272605277068 0.044833894952215875 0.0010761353083818407
-0.011006510700922413 -0.007613674235475309 0.0010761353083818407
-0.05142457219149842 0.012168866612716028 0.0021522761330550395
0.025482593975835043 0.034570987157086425 -5.612505741942019e-09
-0.004462426597805524 0.035994908001872 6.392964754685785e-05
0.02044478632673355 -0.01852988157743381 0.002194901029520099
0.038648360399446795 -0.015417893993452671 6.392964754685785e-05
0.012875238421407994 -0.012973073465629708 0.012849749664949268
0.00835544824276269 0.04272044097699365 0.009653293329633019
0.016169392633159713 -0.02755203784972149 -5.612505741942019e-09
0.02785158638519679 -0.02549436407954183 0.0012298712696632791
-0.038987131267764596 0.01716054363094426 0.0021522761330550395
-0.027964434808487086 -0.0071497194524220075 0.009653293329633019
0.017496211342235994 0.007050661959913632 0.0014845758885276407
0.026767323759943232 -0.02823295277652637 0.0005380611436842597
0.025786293012870016 -0.012465552382235867 0.002194901029520099
-0.023782002575194857 0.01837080783502541 0.0010761353083818407
-0.02086795004970223 0.01739935920896404 0.006456839560033679
0.012460056216337272 -0.03500049157498037 -5.612505741942019e-09
0.02824396496094651 -0.013587977152190943 0.0010761353083818407
-0.00027491296766330196 0.009814442701973911 0.002194901029520099
0.023719812187428694 0.011122880094792573 0.010718778090547259
0.01406294856835727 -0.013528621925819221 0.007735419425814592
0.045034436260018545 -0.0016819227579792362 0.0021522761330550395
0.02519665897758019 -0.014487326245847922 0.0005380611436842597
0.013794855596501331 0.02093992463379544 0.006456839560033679
0.033553017209303856 -0.026780622910287155 0.012849749664949268
0.030652910615706158 -0.02531948121831251 0.00030746637420005755
0.021935584874839584 0.020175829493739746 0.009653293329633019
-0.004610940807615126 0.0100662955783793 0.012849749664949268
0.014880464297372466 0.010532038909397648 0.0021522761330550395
0.010788586337423462 0.04406157707516625 0.0032603865601494126
0.021009704395242097 -0.015736165488934126 0.0010761353083818407
0.006436431744206076 -0.02222280720244461 0.0007174228761110253
0.017189474403168963 -0.01825409812313194 0.008587807542432014
0.026965015913239007 0.008897659344400385 0.008587807542432014
0.023564241190589374 0.02763786411233063 0.0014348476765097334
0.022479485055777244 0.02342534570478986 0.0016910755615039193
0.039118999659145615 -0.020173285577096783 0.012849749664949268
0.04870594605185396 -0.005237540546062805 -5.612505741942019e-09
0.03191728781771329 -0.02558889311420602 0.010718778090547259
0.05029944078092866 -0.009785146149560907 0.0010761353083818407
-0.017140189660012333 -0.036387673969220206 0.012849749664949268
0.013425059233493351 0.012149850522969012 0.0032603865601494126
0.035266518758211574 0.014388049200110553 0.0020446613706727383
0.015279174528875639 0.009151065734193347 0.004325872090778726
0.04435773706642389 0.0073097242565598585 -5.612505741942019e-09
-0.004135156185887407 0.009268732842460773 0.0010761353083818407
0.041435477049759445 0.006457715671557484 0.0016142093768650376
0.036792040619000724 0.013683757138321711 0.0020446613706727383
0.023575678188365153 -0.01694834975193016 0.0002690277655892589
0.04427514473536651 0.006071771069540245 0.0014348476765097334
0.028938060881628952 0.002853888134671227 0.012849749664949268
0.02199253788229146 0.023753321027557662 0.0001537303808471578
-0.01372891401024529 -0.03871000815709486 0.009653293329633019
0.025284269020088512 0.022771033959180405 0.0021522761330550395
-0.017370027309399263 -0.023333006182890286 6.392964754685785e-05
0.022891578042187406 -0.016961276143116797 0.008055066188261658
0.027027151344214333 0.008791277406654932 0.012849749664949268
-0.00046359718854129244 0.010317111307041781 0.0038996726444645033
0.013163060832711466 0.02309560587380585 0.012849749664949268
0.000985645393715705 -0.006999689207514998 6.392964754685785e-05
-0.005742809035588228 0.032868765251296166 0.006456839560033679
-0.034715310233701585 -0.004990872074259186 6.392964754685785e-05
0.027523527494959035 0.007444675274770793 6.392964754685785e-05
-0.026243940068265897 0.018687601474098692 0.0021522761330550395
0.01561153832351716 0.022331981290085217 -5.612505741942019e-09
0.01641400634723493 -0.011736540113683426 0.0021522761330550395
-0.0024912140478072953 0.01177849930204728 0.0017935637649271466
0.023831634855528857 0.026047233104032612 0.010718778090547259
0.038050012679520906 0.016078757450657774 0.0010761353083818407
-0.003895205018644874 0.019068823231935608 0.0021522761330550395
0.031887735250623404 0.015977367708996677 0.0010761353083818407
0.024061257173329832 0.011624456457204991 0.0007174228761110253
0.015851143538660538 -0.012275355558593453 0.002194901029520099
0.016335468567883277 -0.013778565175853295 0.0014348476765097334
0.025251919083331405 -0.025484952844002765 0.009653293329633019
0.01407846819899702 -0.014380751005768366 0.004325872090778726
-0.034132927920448676 0.016046368086262287 0.009653293329633019
0.02761591538182506 0.00589633350905156 0.006456839560033679
-0.0055709151147924916 0.03859857613998886 0.0010761353083818407
0.04740867612873164 -0.0029951983211762017 0.006456839560033679
0.024887772137894257 -0.014427543229320479 0.0016142093768650376
0.018113239560356556 0.004622199332554396 6.392964754685785e-05
-0.0144812788778886 -0.04114110013367865 0.0010761353083818407
0.014251020954209066 -0.03802310743179793 0.0017935637649271466
0.014227005068255529 -0.025737201512607694 0.0021522761330550395
0.002392916836717041 0.006622667543176254 0.012849749664949268
0.026056338544801796 -0.02759498529122014 0.012849749664949268
0.004244758424101855 -0.018876650872409483 0.0016142093768650376
0.03188008056558545 0.015857750359771126 0.0005380611436842597
0.010711122205328256 0.013670851551811037 -5.612505741942019e-09
0.017137279279943574 0.008057076258681161 0.0019370502002941119
0.01707944040118866 0.023363612625227896 0.006456839560033679
-0.01986115292662972 0.015645603877310968 0.006456839560033679
-0.017297752511926372 -0.036017584510631154 0.012849749664949268
0.02482027223626457 -0.014443593930503722 -5.612505741942019e-09
-0.009849640469048057 -0.04423930634536665 -5.612505741942019e-09
0.0321961250455697 0.009709486639860352 -5.612505741942019e-09
0.018119714374723192 -0.018885604473863678 0.0018832427549600385
0.02927104909666084 0.005183208047945411 -5.612505741942019e-09
0.007718168107214601 0.04276395994821448 0.012849749664949268
-0.024544831970749612 -0.007364245173922638 0.0010761353083818407
0.01795822570980652 -0.016278648238894394 0.0010761353083818407
0.023983501312930592 0.027044101242487635 0.008587807542432014
0.02845497605223929 -0.02556246842539827 0.001998540171773601
0.007986489946075946 0.04436537969880849 0.006456839560033679
-0.005743048603844285 -0.04549899170475473 0.0016142093768650376
0.02606628710719567 -0.01517831304272054 0.0010761353083818407
-0.01082414385574082 0.0145777697010594 0.006456839560033679
0.015411145768520939 0.022766889298247578 6.392964754685785e-05
-0.03122184249254412 0.01598974460719373 -5.612505741942019e-09
0.03168334887961016 0.007879257995070114 0.0021522761330550395
-0.0013570253352279142 0.03913945665828894 0.0005380611436842597
-0.024947604285670395 -0.00984710879966268 0.0021522761330550395
-0.04481590882767457 0.0017419420960546677 0.009653293329633019
0.005041176624005465 -0.02739655047445665 6.392964754685785e-05
-0.00038442398842242204 0.010221881293931943 0.006456839560033679
0.03186971619692178 0.008369274352090198 0.0021522761330550395
-0.0008542948107150826 0.007637312176379053 0.0021522761330550395
0.01595965219460982 0.025503127170461732 -5.612505741942019e-09
0.008034123975347505 -0.027262392282901747 0.0007174228761110253
0.03065711700166351 0.0033967929340193146 0.009653293329633019
0.025208403201611194 0.022375954734474054 -5.612505741942019e-09
-0.010501099929261381 -0.04332424339035902 0.012849749664949268
0.020810003322031635 0.009106027757252633 0.0032603865601494126
0.001998215895411991 -0.008221666752711304 0.0032603865601494126
0.045456920605872884 -0.01529043912197328 6.392964754685785e-05
0.02127964480244735 0.024291946248882375 0.0021522761330550395
0.013550505768806047 -0.032268446166233644 0.008587807542432014
0.04814137240190053 -0.014045386792282006 0.0032603865601494126
0.03463608138547286 0.017398305790386225 0.0014348476765097334
0.0159691629594195 -0.018241205820350374 0.0016142093768650376
-0.0025226627908789163 0.03792110960172418 0.0021522761330550395
0.0350014009284769 0.017302505645827984 0.0007174228761110253
-0.01967151673512973 -0.008385315461634252 0.010718778090547259
0.022908189941963857 0.03471815342507501 0.009653293329633019
0.011847775262962539 -0.03006695045700974 0.0021522761330550395
0.021395220448714176 -0.018259889286556266 6.392964754685785e-05
0.032572116206262026 0.014129432924160554 0.0032603865601494126
0.025619488188925576 0.02461744016898634 0.0021522761330550395
-0.007004839410806746 0.034449574262400126 6.392964754685785e-05
-0.02823398158129131 0.016134388211295904 -5.612505741942019e-09
-0.003530197871067935 0.01842904834058784 0.0010761353083818407
0.014357737247496845 -0.015529199838626702 6.392964754685785e-05
-0.008364271683882317 -0.042487484750567114 6.392964754685785e-05
0.04089902643374908 0.01422749952192504 0.0021522761330550395
0.040094647036246114 0.011168233785761816 0.0021522761330550395
0.018119714374723192 -0.018885604473863678 0.0010761353083818407
0.022805446980811713 0.023869775123408783 0.0007174228761110253
0.03890654564318544 0.012368760256696374 0.0013451686864768416
0.03163258339766719 -0.02513462503277992 0.0005380611436842597
0.03737948674827378 -0.01802636292544262 0.0010761353083818407
-0.04985201524121259 0.0071637944525191335 0.0005380611436842597
0.013644729477784903 -0.039187816200527206 0.0010761353083818407
0.006920966904946516 -0.026112844822505372 -5.612505741942019e-09
0.017519078546278002 -0.018767981713265477 0.0013451686864768416
-0.007927971285956292 -0.04206382822000841 0.0021522761330550395
0.02651822653380724 -0.012224339872960384 -5.612505741942019e-09
0.026755513131139236 -0.01681092187454301 0.0005380611436842597
-2.0146041235979227e-05 0.009725118859428138 6.392964754685785e-05
0.029032236737925484 0.00509522732461138 0.0012913649614322885
-0.008228186347152017 0.024748953081308006 6.392964754685785e-05
0.006901965015970779 -0.018306907319914748 0.002194901029520099
-0.017927648793041238 -0.03408834030758712 0.012849749664949268
0.017496211342235994 0.007050661959913632 0.005746514675612911
0.013189254151195347 -0.030902557676741396 -5.612505741942019e-09
-0.0052937441997502055 -0.007634586056716355 0.012849749664949268
0.014970239498603669 0.009523139637267865 0.012849749664949268
0.015206452784315577 -0.026248253480230407 6.392964754685785e-05
0.02763000497855554 0.006214205859421162 6.392964754685785e-05
0.0017041339180086156 0.04114409165972524 0.0005380611436842597
0.034934493995092956 0.01387194267206201 0.0001793524317029646
0.01420342442266704 0.021632800277111626 0.006456839560033679
0.032316051669727446 0.011509964163245819 -5.612505741942019e-09
-0.0038855637851395518 0.01798200025231455 6.392964754685785e-05
-0.015814233630328817 -0.03965106130769931 0.0021522761330550395
0.04882683597600439 -0.0045650366092876505 0.010718778090547259
-0.005965981692643218 -0.044895158445647974 6.392964754685785e-05
0.01034989603875293 0.042083221274107345 -5.612505741942019e-09
0.01575554812357768 -0.03238861096633391 0.0021522761330550395
0.03200155923331014 -0.025567111538241278 0.007522321755231009
-0.0007007882315309209 0.014296787059847074 0.0021522761330550395
0.007286111775568739 -0.027381210513179623 0.0032603865601494126
0.031891575654431084 0.007183686295934325 0.009653293329633019
0.01479306617383742 -0.02616567056164541 0.008587807542432014
-0.0005490142519284239 0.010418220396828737 0.0013425131694743684
0.05050555073161575 -0.010293822769341236 0.012849749664949268
0.012250328166028428 -0.036987670490657674 0.009653293329633019
0.01782521264027531 0.004156220333651322 0.0003587067876936122
0.018140901957743146 0.008645027852979808 0.0016621562116319137
-0.015115766286411866 -0.0178516525296579 0.0021522761330550395
-0.004996998563394788 0.03840971612612103 0.0032603865601494126
0.02707389174441015 -0.026134781279195628 0.012849749664949268
0.01743509044474379 -0.018749846943522663 -5.612505741942019e-09
0.040033549160263346 0.011242509546554492 0.0018832427549600385
0.025763601911964 0.028070073737736602 0.006456839560033679
0.014217537771984833 -0.03667143194883233 0.008587807542432014
0.015543818477639233 0.041283522173255226 0.006456839560033679
0.014943672786802411 -0.01740828459061342 -5.612505741942019e-09
-0.0013502953115990337 0.011334716141681807 0.012849749664949268
0.007575009341958855 0.0427706404793526 0.012849749664949268
0.032090099137018706 0.013717687063409726 0.0016142093768650376
-0.026190700666943574 0.016077157083389068 0.0010761353083818407
-0.005495692745945242 0.031915864047896626 0.0010761353083818407
0.03171129531198452 -0.02785174171426045 0.0010761353083818407
0.02319181067572972 -0.012401416668236718 0.008055066188261658
0.02167983796853495 0.023255995802613425 0.009653293329633019
0.024246130169359306 -0.011622130923890714 0.0018832427549600385
0.02659026665677936 0.0026667468508208363 0.0014348476765097334
0.02775189756621491 0.0023907177276371724 0.0014348476765097334
-0.015324125155219137 -0.018123405442254218 0.0010761353083818407
0.03248036299760689 0.014845123375369192 0.0032603865601494126
-0.002383722154443361 0.011478213080761886 0.0010761353083818407
0.04435708780510646 0.007383961529267289 0.0014348476765097334
0.004991063031087249 0.006444993573800832 0.002194901029520099
0.014000190037501107 -0.012736325223581261 0.009440195145906053
0.052091935452869394 -0.011954099364009381 0.0021522761330550395
-0.0028791855207756095 0.012394744789201764 -5.612505741942019e-09
0.037686537074269486 -0.02450572885260415 0.0010761353083818407
0.026389589070517187 0.002753065284540805 0.0017935637649271466
0.013995342374226625 0.010949683711753505 0.006456839560033679
-0.01817736946715427 -0.027805979873265704 0.012849749664949268
-0.008359579444904402 0.026014241494840294 0.012849749664949268
-0.042338388827413156 -0.00021758530696218891 6.392964754685785e-05
0.014658826492449994 0.009919050211945162 0.012849749664949268
0.01171162639020058 -0.030104197401573114 0.0016142093768650376
0.01395152812173083 -0.012611811172419 0.010718778090547259
0.00542219896231083 0.00587950089658557 0.0001793524317029646
0.0241939128037838 0.029116728031365925 6.392964754685785e-05
0.006331410551419342 -0.020169583259866605 0.002194901029520099
0.03284245673384315 0.012248635779673412 6.392964754685785e-05
0.006468976207117708 -0.01961199772418172 0.010718778090547259
0.02233534780727168 0.009649698091819368 0.009653293329633019
0.024872364087762933 0.00877021301959993 0.012849749664949268
0.013916742010863051 -0.012582592424827137 0.0047520643530856
0.018039340281607398 0.004635109925580207 0.010718778090547259
0.0133604482512636 -0.012744833504060728 0.002194901029520099
