ply
format ascii 1.0
element vertex 643
property float x
property float y
property float z
property uchar red
property uchar green
property uchar blue
end_header
-0.021956357760597442 -0.007881605346725223 -6.194978693626745e-05 255 0 0
-0.00882250741883286 -0.023832736889232115 -0.008321848593226907 0 255 0
-0.009690144929012868 0.0020868993196356623 -0.00749585839559991 0 255 0
-0.018201373804910246 -0.03126416091783385 -0.0019118181299340004 255 0 0
-0.011603019345779782 0.005075160254097718 -0.002085621507189444 255 0 0
0.020022557999590115 -0.009881427696523983 -0.0013904113546163493 244 208 63
0.012529604050920207 -0.025174343739566816 -0.002085621507189441 244 208 63
0.009877713226644323 -0.014950941160801964 -0.012451801073116851 0 0 255
-0.01962777001883267 -0.03143039612486594 -0.0017727753784044795 255 0 0
-0.011598601762056768 0.03590445371309642 -0.002085621507189444 255 0 0
0.009534066584331776 -0.041309348502640134 -0.0010428080808670625 244 208 63
0.03273635003137579 -0.01751797101725148 -0.0020856215071894386 244 208 63
-0.026116719168334888 -0.0176220179430212 -0.0014897291684997929 255 0 0
-0.02272658267661877 0.009840869862352004 -0.002085621507189445 255 0 0
-0.007268176309526404 0.002510718095272531 -0.0005213977315531313 255 0 0
0.007464178989768138 -0.02583837758067236 -6.194978693626386e-05 244 208 63
-0.026827257973433126 -0.01607344799141565 -0.0010428080808670668 255 0 0
0.009827148700121835 -0.017825220827259923 -0.0020856215071894412 244 208 63
-0.00967557744446206 -0.015310385488265358 -0.0041919025776085 255 0 0
0.010438830892248735 -0.015677520309859787 -0.004604895936041196 244 208 63
-0.006413176450215414 -0.002417508272120929 -0.012451801073116853 0 255 0
-0.007362401520562111 -0.0034212865731587457 -0.002126926337663526 255 0 0
-0.01064471694642998 -0.014707395255107197 -0.0015642183369463125 255 0 0
0.010337857976224139 -0.01565742040337041 -0.0017139294984692256 244 208 63
-0.012004779789275192 -0.025525423299651944 -0.001042808080867065 255 0 0
0.012857696661393959 -0.024414698349805152 -0.012451801073116851 0 0 255
-0.018820905611698503 -0.03403135047837971 -0.00010427662495714204 255 0 0
0.02479690387462753 -0.013183643133715015 -0.0020856215071894395 244 208 63
0.02586687208963944 -0.010086203885006246 -0.003159414457636009 244 208 63
0.0073304829366832025 -0.02780968006166952 -0.001824919922067876 244 208 63
0.03205623308266813 0.010235467892976378 5.438690005102838e-09 244 208 63
-0.015891886493803783 -0.029533904161198804 -6.194978693626672e-05 255 0 0
-0.00743782713819215 -0.0033523085691424454 -6.194978693626568e-05 255 0 0
-0.026912174633445102 -0.017777572184455553 -0.0010428080808670668 255 0 0
-0.009648658228745149 -0.015479463980273608 -6.194978693626595e-05 255 0 0
-0.028480444701207606 -0.0199098907190903 -0.012451801073116857 0 255 0
0.03115452886144989 -0.02038435830540556 -0.0010428080808670597 244 208 63
-0.03665398699315624 0.01079478451307823 -6.194978693626925e-05 255 0 0
-0.021384003202042482 -0.028418745715575965 -0.006256875336791876 255 0 0
-0.04228937980490847 -0.004155942829511117 -0.0062568753367918785 255 0 0
-0.009180608172318363 -0.026984128937255877 -0.012451801073116855 0 255 0
-0.014595811983220188 -0.020948034828038184 -0.008321848593226907 0 255 0
0.026516095787385438 -0.010079155840016377 -0.0010428080808670603 244 208 63
0.01107960528983473 -0.0391507989485821 -6.194978693626341e-05 244 208 63
0.010254541472045192 -0.017339986748061878 -6.194978693626351e-05 244 208 63
0.04003698096206761 -0.015529456667390256 -6.194978693625986e-05 244 208 63
-0.011836358663957824 -0.010145545897782517 -0.009354336961825221 0 255 0
-0.004019599905854637 -0.046402422744941954 5.438690000684822e-09 255 0 0
-0.009935979186834304 0.002381939861077803 -0.0025399194474703952 255 0 0
0.016046245342254104 -0.03990618388614445 -6.19497869362628e-05 244 208 63
-0.022368925471611532 -0.018941666160171722 -0.010903067028464412 0 255 0
-0.034117538113627624 -0.020017396527387855 -0.002085621507189447 255 0 0
0.01823793373575793 -0.03600925447237853 -0.012451801073116851 0 0 255
0.03692823122716302 -0.015482365940945321 -0.001042808080867059 244 208 63
-0.014195596003372201 -0.00870248081380574 -6.19497869362665e-05 255 0 0
-0.004451552972726636 -0.04924770866176895 -0.012451801073116853 0 255 0
-0.02095071998698734 -0.007762691093655373 -0.0031594144576360147 255 0 0
-0.026522723157473272 -0.016687073443019083 -0.0010428080808670668 255 0 0
0.02186561132215586 -0.018378860822442604 -0.001042808080867061 244 208 63
-0.04133523741292322 0.002790662076400547 -0.0062568753367918785 255 0 0
0.01344946491915129 0.028531241941505685 -0.0010428080808670618 244 208 63
-0.024134079349552418 -0.011353642667152096 -0.0017380182334401576 255 0 0
0.0071301392494736715 -0.040520484605498425 5.438690002050272e-09 244 208 63
-0.03816558827305185 0.009797896379629105 -0.003159414457636017 255 0 0
-0.00846224859315489 -0.03894569656301269 -0.0010428080808670647 255 0 0
0.012555708768422541 -0.020077394912351696 -0.001738018233440153 244 208 63
0.04359442274638223 0.0008810043806043878 -0.012451801073116848 0 0 255
0.009643059175084508 -0.025393271710214427 -0.0013009363886623572 244 208 63
-0.007522487713600643 -0.003972682720238083 -0.0005213977315531313 255 0 0
0.01900462816501278 -0.033512864186358016 -0.0017131897123161502 244 208 63
0.017077314554622625 -0.039380262687343535 -0.009354336961825218 0 0 255
0.04314567102677333 0.004001274690529986 -0.0005213977315531251 244 208 63
0.009798570652876338 -0.0155036522898889 -0.012451801073116851 0 0 255
0.03884415379658888 0.00929493527885008 -6.194978693626001e-05 244 208 63
-0.01221421522578589 -0.012778609779811583 -0.0015642183369463127 255 0 0
-0.021130550054328658 -0.007777787653969498 -0.006256875336791876 255 0 0
0.01951898329026604 -0.03711630771598819 -6.194978693626238e-05 244 208 63
0.011560779806502983 0.03599274571735782 -0.0020856215071894412 244 208 63
0.0323878999380542 -0.018117586900663542 -0.008321848593226901 0 0 255
-0.014589864853399475 -0.04039946946417669 -0.006256875336791875 255 0 0
0.020379443470025297 -0.030281470313702537 -0.012451801073116851 0 0 255
0.02515114396624614 -0.009284741619876444 -0.01245180107311685 0 0 255
0.01943878256497143 -0.03212998345946489 -0.00044691207494643593 244 208 63
-0.008038801513131816 -0.024085561510851176 -0.006256875336791874 255 0 0
-0.02063417952701483 -0.02774038704872835 -0.002085621507189445 255 0 0
0.009671236437494264 -0.015414317051650594 -0.011212815030798873 0 0 255
-0.0017801051164581774 -0.05221437171912416 -0.0010428080808670638 255 0 0
0.014509955517576008 -0.02333101991209953 -0.0007821064957454961 244 208 63
-0.02632336701205504 -0.01708353020033826 -0.0010428080808670668 255 0 0
0.012743357620822468 -0.016540468736911923 -6.194978693626321e-05 244 208 63
-0.01414523137201593 -0.017242459786022027 -0.0006952047449613202 255 0 0
0.008949947051566272 -0.017178397860515133 -0.008321848593226903 0 0 255
0.012775952466955237 0.013648147785825604 -0.001042808080867062 244 208 63
0.012654265041392901 -0.024532910980786624 -0.001610680288670651 244 208 63
0.02247899510945387 -0.009652863983262172 -0.004191902577608497 244 208 63
-0.007214395062033164 0.0005351559079535366 -6.194978693626565e-05 255 0 0
0.0117293003821518 -0.02252558361172498 -0.001042808080867062 244 208 63
0.03432429137469912 -0.019885857551992073 -0.0013904113546163476 244 208 63
-0.02221008340221944 -0.02867796101549401 -0.0013904113546163545 255 0 0
0.009200740897417122 -0.04100727408788035 -0.01038682433592022 0 0 255
0.006404961355585981 -0.002637237563814199 -6.194978693626398e-05 244 208 63
-0.04229056525285935 -0.0032396845495368137 -6.194978693626994e-05 255 0 0
-0.025286521724435896 -0.012889360652424353 -0.004191902577608503 255 0 0
0.011170999149934052 0.023242270436313463 -0.0020856215071894412 244 208 63
0.010431668479377699 -0.028308566682369033 -0.0021269263376635238 244 208 63
0.011547955686262495 0.024323474549772607 -0.009354336961825218 0 0 255
-0.00951890836481215 -0.025480978946526896 -0.010386824335920223 0 255 0
0.019520970307888415 -0.03182056165421758 -0.0007448618493657776 244 208 63
-0.007736370071682133 -0.015572473908258996 -0.006256875336791874 255 0 0
-0.0062833977456863 0.04133309724179041 -0.0020856215071894434 255 0 0
-0.01681999676702865 0.009067942880825179 -6.194978693626683e-05 255 0 0
-0.012553474119474859 -0.02012106951991132 -0.0018249199220678784 255 0 0
0.02423601395028214 -0.020195036698430643 5.438690004145137e-09 244 208 63
0.024774173506871295 -0.013943274600430277 -0.0010428080808670605 244 208 63
0.021950058576603395 -0.019408659059575194 -0.0013035096659886269 244 208 63
0.0008741446696797034 -0.049647753587046844 -0.0015642183369463112 244 208 63
0.00985373873524165 -0.015526312047909805 -0.011625811372741513 0 0 255
-0.02045379253781739 -0.028321719983206622 -0.009354336961825221 0 255 0
-0.03109546729860831 -0.018264650072798684 -0.006256875336791877 255 0 0
-0.0007208726890392165 0.052565908750733956 5.4386900010888e-09 255 0 0
-0.018820905611698503 -0.03403135047837971 -0.0018770609849696784 255 0 0
0.009667161957414754 -0.015372043699261102 -0.012451801073116851 0 0 255
-0.016499466359758366 0.008820994779291505 -0.0031594144576360143 255 0 0
0.020305333083028686 -0.03069828455386955 -0.0010944379690652067 244 208 63
0.0035448061224522217 0.05055826512961831 -0.0010428080808670631 244 208 63
-0.01107039420013582 -0.02867214317110418 -0.010386824335920223 0 255 0
-0.0006074483428912383 0.050177306711952314 -0.012451801073116853 0 255 0
0.008679795198698659 -0.017135081274148728 -0.002126926337663524 244 208 63
0.044399115158277526 -0.0029464025385805394 -0.002085621507189437 244 208 63
0.019671092572218964 -0.031050479946673544 -0.0002234551051263594 244 208 63
-0.043871057766357066 -0.003360585820229037 -0.009354336961825225 0 255 0
0.026371419423205096 -0.0182690815795681 -6.194978693626154e-05 244 208 63
-0.022324878919812285 -0.010215081569532424 -0.0003475978661375181 255 0 0
-0.008857761566828605 -0.02992166895954924 -0.0010428080808670647 255 0 0
0.009108618066388269 -0.030070261677782085 -0.0020856215071894412 244 208 63
0.0193766658879477 -0.032349112319782033 -0.001936646651057998 244 208 63
0.010368465804734535 0.014963835890777783 -0.0020856215071894412 244 208 63
0.027394226302036747 -0.01368039952831487 -0.000521397731553127 244 208 63
-0.008390511091066678 -0.02392411583178172 -0.0041919025776085 255 0 0
0.010467979784396758 -0.027747949251931817 -0.0010428080808670623 244 208 63
-0.02621005728241406 -0.017328478355706473 -0.00014896944851967283 255 0 0
-0.010541785853379131 0.004144320317900373 -0.002085621507189444 255 0 0
-0.012481750540433049 -0.019670845935396968 -0.00026069614643156613 255 0 0
0.014206752341554274 -0.018345451478095257 -0.012451801073116851 0 0 255
-0.026522723157473272 -0.016687073443019083 -0.00044691207494644157 255 0 0
0.01241919628195094 -0.01855513056791801 -6.194978693626325e-05 244 208 63
0.02922018212361959 0.010597041452036118 -0.0005213977315531268 244 208 63
0.029555164653056205 -0.01983459289513618 -6.194978693626115e-05 244 208 63
-0.021074080167124663 -0.028318531605580333 -0.0031594144576360147 255 0 0
0.022108443174470815 -0.009548473953848951 -0.008321848593226901 0 0 255
-0.02185219746144987 -0.029144910156751642 -0.0031594144576360147 255 0 0
-0.011505449620097408 -0.025693158217682303 -0.0003475978661375168 255 0 0
-0.01202339291330939 0.0014231367293091486 -0.0005213977315531319 255 0 0
0.011498891865241589 0.026344842316628373 -0.003159414457636011 244 208 63
0.00967824171884161 -0.015425239681553758 -0.007495858395599908 0 0 255
0.00975216613371841 -0.015481022366967431 -0.012038804731174212 0 0 255
0.0040884110819399315 0.04903648809180872 -0.012451801073116853 0 0 255
-0.011982963370064985 -0.022216233410716314 -0.001042808080867065 255 0 0
0.013789952024433668 -0.03119962958676251 -0.012451801073116851 0 0 255
-0.012111399495119522 -0.01619667888612209 -0.012451801073116855 0 255 0
0.010309137715004666 -0.017891755088006667 -0.0017380182334401533 244 208 63
-0.013217979355151474 -0.011195929359021963 -0.009354336961825221 0 255 0
0.0093023572570862 -0.02716877637865264 -0.008321848593226903 0 0 255
-0.027332491514285785 -0.014014783366756154 -0.001390411354616355 255 0 0
0.010089222202565756 -0.028056613245653478 -0.004191902577608498 244 208 63
-0.02243158514744498 -0.030125900160215154 -0.0010428080808670664 255 0 0
-0.011025733045288214 -0.014165162212941843 -0.0007821064957454991 255 0 0
0.00941508122427494 -0.02734730563565859 -0.008321848593226903 0 0 255
0.012987719019235126 0.027971638904449255 -6.194978693626318e-05 244 208 63
0.021661537253013636 -0.018830029185105734 -0.0015642183369463086 244 208 63
0.02464653895148824 -0.0146033771699336 -0.00034759786613751235 244 208 63
0.018621366477670404 -0.03451671185400202 -0.0012662686246834242 244 208 63
0.00894994705156627 -0.017178397860515133 -6.194978693626367e-05 244 208 63
0.007037029373905177 -0.01645585142239761 -0.0010428080808670627 244 208 63
-0.00927973628469456 0.0016542170332083037 -6.19497869362659e-05 255 0 0
-0.0017029639806106246 0.049194657876960216 -0.003159414457636012 255 0 0
-0.007326704321339755 0.0009113404610840962 -0.012451801073116855 0 255 0
-0.024104916534357992 -0.011319117490085882 -0.0020856215071894456 255 0 0
0.015662369051863367 -0.029570187620125057 -0.009354336961825218 0 0 255
0.007980106922013284 -0.023590648925396404 -0.0020856215071894417 244 208 63
0.03554749862742922 0.011372455686352511 -0.012451801073116848 0 0 255
0.011338563013394318 -0.028262191003807224 -0.0015642183369463099 244 208 63
-0.013711491679939427 -0.024369036724623157 -0.0013904113546163535 255 0 0
0.04211967775932202 -0.00015715576470944138 -0.012451801073116848 0 0 255
-0.019162507555196433 -0.009296621956471471 -0.0031594144576360143 255 0 0
-0.013184098616233058 -0.024851054580102106 -0.000347597866137517 255 0 0
0.0025080185160253183 0.04827819920456804 -6.194978693626446e-05 244 208 63
-0.011094525823062187 -0.03918309246021058 -0.0031594144576360134 255 0 0
-0.01906622372229971 -0.03465055211006755 -0.0031594144576360143 255 0 0
-0.010901701575413597 -0.015740680220860427 -0.009354336961825221 0 255 0
-0.004784120350863985 -0.04621893290540327 -0.006256875336791874 255 0 0
0.0010702712898970086 0.04988395210225408 -0.00935433696182522 0 0 255
-0.037994939460310004 -0.01518541023474528 -6.194978693626942e-05 255 0 0
-0.018926595456943775 -0.009302625772981115 -0.009354336961825221 0 255 0
-0.022247538386050175 -0.017824019467256005 -0.0007821064957455005 255 0 0
-0.034832979820066355 0.009840498912615696 -0.009354336961825223 0 255 0
-0.007127975707512974 -0.0158088007143938 -0.0010428080808670644 255 0 0
0.013056254220650647 0.027333808236674185 -0.012451801073116851 0 0 255
-0.021806593517460116 -0.028964638529938684 -0.0031594144576360147 255 0 0
-0.01216762473450815 -0.025457846799431604 5.438689999686977e-09 255 0 0
-0.028002844429451668 -0.02030670350859607 5.438689997747722e-09 255 0 0
0.015481095960212706 -0.03837614053678473 -0.008321848593226903 0 0 255
-0.011279487527506333 0.009134648196142016 -6.194978693626615e-05 255 0 0
0.0026423721844269672 -0.05172331780652965 5.438690001500679e-09 244 208 63
-0.017716010440281316 -0.02913235952492264 -6.194978693626694e-05 255 0 0
-0.015658804751984196 -0.03831165296385923 -0.012451801073116855 0 255 0
0.023341171801933954 -0.016499196849360135 -0.0006952047449613157 244 208 63
-0.017054421088322815 -0.030983645345925823 -0.0021269263376635273 255 0 0
0.04338432795417401 0.0018372056430764787 -0.009354336961825215 0 0 255
0.013071950466463415 -0.020340355511752152 -0.008321848593226903 0 0 255
-0.009281894356887027 0.001654388585030055 -0.006256875336791874 255 0 0
-0.00990285526493822 -0.014911298269679327 -0.008321848593226907 0 255 0
-0.028419843647235175 -0.02030686064011976 5.438689997696655e-09 255 0 0
0.03230076553565089 0.01018119983611069 -0.0005213977315531265 244 208 63
0.004910344203295418 -0.04515294071464273 -0.002085621507189442 244 208 63
-0.011349694488993527 0.0006477224949927563 5.438689999787145e-09 255 0 0
-0.009308499309556557 0.0016724015263139534 -0.0013009363886623594 255 0 0
0.020630167700644134 -0.027781115937470423 -0.001042808080867061 244 208 63
0.014192913827932993 -0.018313456317461133 -0.0021269263376635233 244 208 63
-0.00023761120716548178 0.05042288140440866 -0.007495858395599909 0 255 0
0.010993443511672998 -0.025215014947116646 -0.009354336961825218 0 0 255
-0.007660172719480041 -0.016893279727267597 -0.008321848593226907 0 255 0
-0.01076298725860369 -0.030459898131370414 -0.0031594144576360134 255 0 0
0.02626511497491146 -0.01825801673569096 -0.010386824335920218 0 0 255
-0.02384940277577652 -0.020187804670327592 5.438689998256372e-09 255 0 0
-0.008581920160498734 -0.002793835785102948 -0.0020856215071894434 255 0 0
0.014436445810581356 -0.01770908074118587 -0.0017380182334401529 244 208 63
-0.043706328237343134 -0.00036756407408755095 -0.009354336961825225 0 255 0
-0.009864369975673663 -0.02615782199032321 -0.0016684968576753953 255 0 0
0.041016141079432446 -0.015226596595012024 -0.0010428080808670586 244 208 63
0.007037072634799358 -0.016464299728054296 5.438690002038875e-09 244 208 63
0.00695575707128919 0.04448936434506186 -0.012451801073116853 0 0 255
-0.0054802348798887015 0.047949734649854664 -0.0010428080808670642 255 0 0
-0.006961070205246909 -0.004214813944967972 -0.0017380182334401555 255 0 0
0.012417781103734404 -0.019586458351148302 -0.00034759786613751387 244 208 63
0.027278301028678627 0.011085965138530964 -0.0031594144576360087 244 208 63
-0.011332411015890815 0.009350603596382583 -0.006256875336791875 255 0 0
-0.013056006589325332 0.021053553618713364 -0.012451801073116855 0 255 0
-0.024869335540029264 -0.01165774686317677 -0.008321848593226908 0 255 0
-0.04178408858286356 -0.008920766335312184 -0.0062568753367918785 255 0 0
-0.023906087475696447 -0.011108723352380003 -0.0003475978661375183 255 0 0
0.007754559040052699 -0.024365189985802664 -0.007805605900682717 0 0 255
-0.011744792754785094 -0.025009739517970506 -0.0021269263376635264 255 0 0
-0.009281894356887026 0.001654388585030055 -0.009973827993977582 0 255 0
-0.042028780156376636 -0.007787594948405449 -6.194978693626992e-05 255 0 0
-0.03595557118346177 0.00867631940961448 -0.001042808080867068 255 0 0
-0.018051138167201847 -0.0290232088081429 -0.0031594144576360143 255 0 0
-0.013865444771037431 -0.01772727816283461 -0.010386824335920223 0 255 0
-0.007616641320397707 -0.014789368185308252 -0.0013904113546163526 255 0 0
-0.01769858475320463 -0.031415641673692006 5.43868999900963e-09 255 0 0
0.007013369642801542 -0.02503520079182836 -0.0020856215071894417 244 208 63
0.019495164935883744 -0.031920761841166816 -0.001936646651057998 244 208 63
0.011517019671658312 0.02075528218462824 -6.194978693626336e-05 244 208 63
0.00723787379353356 -0.04028988713295846 -0.00026069614643156375 244 208 63
0.02579752139550603 0.01332168516628432 5.4386900043363665e-09 244 208 63
0.015415076852182873 -0.010513195872093858 -0.002085621507189441 244 208 63
0.025210072265643577 -0.012197334526525551 -6.194978693626168e-05 244 208 63
-0.030115461853426152 0.013215037614347181 -0.0005213977315531341 255 0 0
-0.030992392997080172 0.013143785429876447 -0.0020856215071894464 255 0 0
-0.024690507932028958 -0.014505935735178796 5.438689998153367e-09 255 0 0
0.009564631649199648 0.011073298149814165 -0.0020856215071894412 244 208 63
-0.011203532336861322 0.0068862900202679815 5.438689999805045e-09 255 0 0
0.021969027732824185 -0.028275742105970617 -0.0013904113546163491 244 208 63
0.021186838941929412 -0.007752054880706786 -0.012451801073116851 0 0 255
0.009917141305051029 -0.015548914124738468 -0.011625811372741513 0 0 255
0.013923977258115701 -0.03837655822817682 -0.0015642183369463094 244 208 63
-0.028114582843855738 0.010683761146557287 -0.002085621507189446 255 0 0
-0.010710220901742899 0.004264092081453152 -0.0010428080808670649 255 0 0
0.0010357321897843895 0.04933349849569106 -0.0020856215071894425 244 208 63
-0.021176225602557056 -0.0283399611630012 -0.012451801073116855 0 255 0
-0.02481626884316749 -0.014142603894259018 -0.0005213977315531334 255 0 0
0.011905541287031085 -0.009512104967637651 -0.001042808080867062 244 208 63
-0.03919176850712629 0.006551249809639127 -0.003159414457636017 255 0 0
-0.012538248273729848 -0.01995741007646379 -0.0005213977315531319 255 0 0
0.02098008965887118 -0.034249262066639904 -0.0031594144576360095 244 208 63
0.0113392064570388 0.01761837209387024 -6.194978693626339e-05 244 208 63
-0.037938654550722505 0.010641388343836345 5.438689996530936e-09 255 0 0
-0.008442276977593081 -0.017155396987857355 -0.012451801073116855 0 255 0
-0.009949645651382174 -0.015622995671138958 -0.008321848593226907 0 255 0
0.005726416716618553 -0.04776891803522536 -6.194978693626406e-05 244 208 63
0.018179077040599137 -0.028430482843693705 -0.001564218336946309 244 208 63
-0.027388474094865674 -0.012996050968004016 -0.002085621507189446 255 0 0
0.002878870791009352 -0.05154511872462412 -0.0005213977315531301 244 208 63
-0.013233075915465598 0.003637899340090198 -0.012451801073116855 0 255 0
-0.012707369529380622 -0.02517977571667062 5.438689999620878e-09 255 0 0
0.02346088613292032 -0.019581782196563518 -6.19497869362619e-05 244 208 63
0.006606820665846811 -0.047427560739542796 -0.0020856215071894417 244 208 63
0.009468290135110682 0.01066108746548998 5.438690002336613e-09 244 208 63
0.01850502550192682 0.0075715256775353715 5.4386900034432935e-09 244 208 63
-0.03695756509692754 -0.015406826452685773 -0.002085621507189447 255 0 0
0.005179980903446118 0.047481025237730366 -6.194978693626413e-05 244 208 63
0.01965969755324141 -0.03088989351846782 -7.448379191297507e-05 244 208 63
-0.02256027785435466 -0.019171688809795907 -6.194978693626753e-05 255 0 0
-0.04209105197591743 -3.186575089032519e-05 -6.194978693626992e-05 255 0 0
-0.01139995967001835 0.03482313423725279 -6.194978693626616e-05 255 0 0
-0.006382897802302119 -0.002573019998538586 -6.194978693626555e-05 255 0 0
-0.00933876403442345 0.0016999641856753473 -0.0050178922779838386 255 0 0
0.041809798482550044 -0.004963752014794064 -0.0020856215071894373 244 208 63
0.013712697017956603 -0.010846049169934124 -0.0021269263376635233 244 208 63
-0.007797356495688932 -0.02768933521558176 -0.006256875336791874 255 0 0
0.010684421496758115 -0.03916961097327921 -0.003159414457636011 244 208 63
0.024396015610538935 -0.011670498384675302 -0.0017380182334401516 244 208 63
-0.010590377285325648 -0.000257713724226062 -0.0005213977315531317 255 0 0
0.021900550212600907 -0.03032281380549297 -0.01245180107311685 0 0 255
0.02477616052449367 -0.012835235804035953 -0.0013904113546163487 244 208 63
0.011062093080969683 -0.028117401266249033 -0.0015642183369463099 244 208 63
0.010915702193075144 0.031052996040059233 -0.012451801073116851 0 0 255
0.021062762719405645 -0.034010390326523296 -0.009354336961825218 0 0 255
-0.040953264601876434 0.003704089751315952 -0.012451801073116858 0 255 0
-0.042209835451801424 -0.0012169457355490946 -6.194978693626993e-05 255 0 0
0.009798570652876338 -0.0155036522898889 -0.008321848593226903 0 0 255
0.021620850133410772 -0.0279437908226366 -0.0006952047449613159 244 208 63
0.009804403414815884 -0.02323805175325335 -0.0020856215071894412 244 208 63
-0.017900600200485835 -0.009891234493708276 -0.0015642183369463133 255 0 0
0.02789032632444903 0.010642016869931109 -0.002085621507189439 244 208 63
-0.02593275793422513 -0.016638382560741117 -0.003159414457636015 255 0 0
0.00505542035780819 -0.045805967393063377 -0.012451801073116853 0 0 255
-0.024741329040406587 -0.01437612819005356 -0.0020856215071894456 255 0 0
-0.012909300443880098 -0.025051240141284632 -0.0013904113546163532 255 0 0
-0.043390987148367914 0.0015393630885457317 -0.0031594144576360173 255 0 0
0.026339225361908074 -0.020421514938241948 -0.0010428080808670603 244 208 63
0.04244676989946138 0.005517878322097534 -0.0017380182334401494 244 208 63
-0.0026383218210528333 0.04730810100140494 -0.002085621507189443 255 0 0
-0.04427998161722683 -0.0066491198753224805 -0.0015642183369463166 255 0 0
0.010138243259944136 -0.02588313818585142 5.438690002418658e-09 244 208 63
0.023888492723056296 -0.01656821736839313 -0.003159414457636009 244 208 63
-0.03502263160214168 0.012191501764586003 5.438689996888046e-09 255 0 0
-0.026992003414500094 -0.015629828903412895 -0.0003475978661375187 255 0 0
-0.02017037500523765 -0.03102394659824266 -0.006256875336791876 255 0 0
0.007132640922561299 -0.015869973607772068 -0.0020856215071894417 244 208 63
0.009580914651967972 -0.025395344255121848 -0.0013009363886623572 244 208 63
0.0397613563574603 0.005929002511550627 -0.012451801073116848 0 0 255
-0.04404075185591699 -0.008570314306818507 5.438689995783645e-09 255 0 0
0.015716222400846906 -0.010384646373661464 5.438690003101764e-09 244 208 63
-0.002315475464188904 0.05169951337519376 -0.0010428080808670638 255 0 0
-0.0113098944663472 -0.039169825785995135 -0.006256875336791875 255 0 0
-0.0016161158708489706 0.049288897011042325 -0.00935433696182522 0 255 0
0.020154496765318327 -0.036107427861572804 -6.19497869362623e-05 244 208 63
-0.010985775891118195 -0.01519954908836754 -0.0005213977315531317 255 0 0
-0.028207463486410237 -0.01784453408162753 -0.00034759786613751886 255 0 0
-0.0029907034346024685 0.05024192555931533 -0.012451801073116853 0 255 0
0.012133362106316964 0.034357770334278476 5.43869000266299e-09 244 208 63
0.010862220788331226 0.03128581921101705 -0.003159414457636011 244 208 63
0.008996794124699153 -0.02581327432800773 -0.005017892277983837 244 208 63
-0.042059144331574976 0.00019411088631172518 -0.0031594144576360173 255 0 0
-0.002107811983958816 -0.05201920243265998 -0.002085621507189443 255 0 0
0.020520145798960894 -0.009416407891696482 -0.01038682433592022 0 0 255
0.02651872525414898 -0.01542689751857903 -0.003159414457636009 244 208 63
0.005231932762092334 -0.04923740162941746 -0.001042808080867063 244 208 63
0.017106035810345414 -0.03718210007726231 -0.008321848593226903 0 0 255
-0.007767506478704186 -0.04018331217976328 -0.010386824335920223 0 255 0
0.0167441897573775 -0.037493880844371615 -0.012451801073116851 0 0 255
-0.038143601793774864 0.010498085388733331 5.438689996505838e-09 255 0 0
-0.010800100133294237 -0.027986992046618524 -0.0010428080808670649 255 0 0
-0.02408198527693223 -0.010622388358012803 -0.003159414457636015 255 0 0
0.02054173248790545 -0.027791094783728126 -0.001042808080867061 244 208 63
-0.04096774457013557 0.0036723526642919403 -0.0062568753367918785 255 0 0
0.011015615963069795 0.019722683426162013 -0.0010428080808670623 244 208 63
0.006691595609136474 0.04158959555865324 -0.00935433696182522 0 0 255
0.009678241718841608 -0.015425239681553758 -0.0008879396737809732 244 208 63
-0.0027109881892367887 0.051359071022560536 -0.002085621507189443 255 0 0
-0.019648370160489245 -0.03132757840519294 -0.000938529560137983 255 0 0
-0.00019665320972233152 0.050445015070176194 -0.008734844935169545 0 255 0
0.007892987437159688 -0.0035734388673800185 5.4386900021436935e-09 244 208 63
0.0025603990056000834 0.047487545201460236 -0.0005213977315531301 244 208 63
0.018018019217822336 0.00783560111515138 -6.194978693626256e-05 244 208 63
-0.03003571859965621 -0.017846121308917474 -0.0003475978661375191 255 0 0
0.03746507605037041 0.007651439985875409 -0.0020856215071894378 244 208 63
-0.006787917233159148 0.04587873321157879 -0.0020856215071894434 255 0 0
0.01289605266522763 -0.03854593407667611 -0.001042808080867062 244 208 63
-0.025623107393215484 0.013232192796522322 -0.0020856215071894456 255 0 0
-0.043270656225326554 -0.009428974435578517 -0.012451801073116858 0 255 0
-0.008314999946151591 -0.0023550634090034146 -0.010386824335920223 0 255 0
-0.018395829037994617 -0.009834851128292646 -0.0010428080808670658 255 0 0
-0.0122341868413477 -0.02185574584927601 -0.0015642183369463127 255 0 0
-0.013247572790281081 0.002776366091254596 -0.0020856215071894443 255 0 0
0.007784695473992021 -0.03929181554056508 -0.0013035096659886286 244 208 63
-0.01702860378227837 -0.028768140587046326 -0.0020856215071894447 255 0 0
-0.01943230238137414 -0.03220157775307582 -0.0004171192419022784 255 0 0
-0.007927392776576505 -0.045209337008601455 -0.001564218336946312 255 0 0
-0.006647687790549597 -0.0037101656693158958 -0.012451801073116853 0 255 0
0.04068155834032826 -0.01479099817624072 -0.012451801073116848 0 0 255
0.008210401071042327 -0.039476717574810354 -0.0031594144576360113 244 208 63
0.014477317907800718 -0.010359256704042256 -0.008321848593226903 0 0 255
0.019649277147512068 -0.03087400931152861 -0.0002234551051263594 244 208 63
0.01965969755324141 -0.03088989351846782 -0.0005958869932343353 244 208 63
0.011534017722309765 0.025259461289248324 -0.009354336961825218 0 0 255
0.01448091999880584 -0.021773114557880755 -0.012451801073116851 0 0 255
-0.009275390305210192 0.0016610505141080683 -0.0041919025776085 255 0 0
0.009951924058475699 -0.039217291440189636 -0.007805605900682717 0 0 255
-0.012746312290169851 -0.012243067755946193 5.438689999616108e-09 255 0 0
0.009619699286730194 -0.039245539312334723 -0.0016106802886706514 244 208 63
-0.039209351325726664 -0.01628284165878714 -0.003159414457636017 255 0 0
-0.013709146641123835 -0.02956110979387029 -0.006256875336791875 255 0 0
0.01059475707792271 -0.025864753797579555 -0.0002606961464315633 244 208 63
0.018579865854356278 -0.03461278087418281 -0.0008193475370506984 244 208 63
0.011722653121997674 -0.01790067578273774 -0.0041919025776084974 244 208 63
0.008778194340145328 -0.029065095298743054 -0.009354336961825218 0 0 255
-0.0310183117424627 -0.01827074041109669 -0.012451801073116857 0 255 0
-0.030197464618726643 0.010547405791609376 -0.0005213977315531341 255 0 0
0.013071950466463414 -0.020340355511752152 -0.0041919025776084974 244 208 63
0.04370538942621424 0.0001373844172525909 -6.194978693625941e-05 244 208 63
0.00967824171884161 -0.015425239681553758 -0.01038682433592022 0 0 255
0.018834090736642155 -0.03398353078100525 -0.0003724264183397438 244 208 63
0.00975216613371841 -0.015481022366967431 -0.012451801073116851 0 0 255
-0.011886051011073494 -0.018051897967734126 -6.194978693626622e-05 255 0 0
-0.007439742551575877 -0.02512184788760757 -0.008321848593226907 0 255 0
0.0060395127143612875 -0.003909151362249476 5.4386900019167085e-09 244 208 63
-0.022415973434413945 0.009716008976713096 -0.0010428080808670664 255 0 0
-0.0011202882180319465 0.04913401306484195 -0.0010428080808670638 255 0 0
0.019606360351478096 -0.03145624326600982 -0.0009683223931821405 244 208 63
0.04273423307152451 0.004913215334364383 -0.0005213977315531252 244 208 63
-0.012209984608686003 -0.016247458225360507 -0.00470814129213943 255 0 0
-0.007554768296686029 -0.016005413025167323 -0.0041919025776085 255 0 0
0.007471341402639175 -0.025946754573873416 -0.007805605900682717 0 0 255
0.007018444593215441 -0.0249317545460606 -0.001824919922067876 244 208 63
-0.014052850964628622 -0.04051031680361097 -6.194978693626649e-05 255 0 0
-0.04387181756688935 -0.0038416457203902946 -0.0062568753367918785 255 0 0
-0.021757986173460565 -0.031193696379988197 -6.194978693626744e-05 255 0 0
-0.007087475057281581 -0.0041924261836035846 -0.0010428080808670644 255 0 0
-0.0009525248323442096 0.05189105073555338 -6.194978693626489e-05 255 0 0
0.007026907816421844 -0.02599786408821225 -0.0013035096659886286 244 208 63
-0.011616644041188446 -0.023176408459807323 -6.194978693626619e-05 255 0 0
0.0032412310021908627 -0.05124943299915669 -0.00052139773155313 244 208 63
0.01054410602961186 -0.01569686339932683 -0.0008879396737809731 244 208 63
-0.025463849621437933 -0.008890559291637531 -0.0010428080808670666 255 0 0
0.043486829421792994 0.003153808691077999 -0.0010428080808670582 244 208 63
0.024981422030593406 -0.020299984644203302 -0.0010428080808670605 244 208 63
0.014920836550968706 -0.01923603516325075 -0.0005213977315531286 244 208 63
0.025016104339183314 0.01096156072991341 -6.19497869362617e-05 244 208 63
-0.01463579797798633 0.007255583908558193 -6.194978693626656e-05 255 0 0
0.022607673893317148 -0.010323131371143008 -0.001390411354616349 244 208 63
0.025189756551934953 0.012650116968068116 -0.01245180107311685 0 0 255
-0.006203125913404696 -0.04379045923973665 -0.012451801073116853 0 255 0
-0.027363699028294823 -0.01368151536103374 -0.002085621507189446 255 0 0
0.0037164867323828655 -0.0475882764531794 -0.012451801073116853 0 0 255
-0.01300434015313038 -0.019849504477833804 -0.009354336961825221 0 255 0
-0.013852664408942781 -0.041180870608446385 -0.0006952047449613202 255 0 0
-0.0010746697294312165 -0.04944606831486605 5.438690001045472e-09 255 0 0
-0.017134607890571026 -0.009496537012752453 -0.006256875336791875 255 0 0
0.009252735519705861 -0.017220357944360557 -0.01038682433592022 0 0 255
-0.03845598324088613 0.006667533104190465 5.438689996467582e-09 255 0 0
-0.018250838410766895 -0.03071386643180115 -0.0021269263376635273 255 0 0
-0.019573217534019038 -0.030907790600115576 5.438689998780054e-09 255 0 0
0.027017426897231998 -0.015582924149087771 -0.002085621507189439 244 208 63
-0.006946631508875327 -0.01643782406081565 -0.00034759786613751625 255 0 0
0.017040788436887635 -0.029314717619689422 -6.194978693626268e-05 244 208 63
-0.009321051930392187 0.03467016769344277 5.438690000035582e-09 255 0 0
-0.010853352802275819 -0.011036657664198006 -0.009354336961825221 0 255 0
-0.020334406392924807 -0.007100115194408888 -0.0005213977315531329 255 0 0
-0.03520054426709265 0.009092017817062618 -0.001042808080867068 255 0 0
0.009676411832742926 -0.015331828968732628 -0.0021269263376635238 244 208 63
-0.007090591830669226 -0.016972579432559275 -0.0013904113546163526 255 0 0
-0.015649197849966115 -0.031147764249904657 -0.012451801073116855 0 255 0
-0.014647621627892432 -0.02305827936710427 -0.0010428080808670653 255 0 0
-0.019671687285201033 -0.03091448161841554 -0.0004171192419022784 255 0 0
-0.012495503526769283 -0.04070284071125858 -0.006256875336791875 255 0 0
0.022644828537146902 -0.018127810394736613 -0.0021269263376635225 244 208 63
0.012121010375150862 -0.012907388014006312 -0.001042808080867062 244 208 63
0.022247514517970628 -0.028764679715511863 -0.0015642183369463083 244 208 63
-0.02550414888474814 -0.009630461801599724 -0.003159414457636015 255 0 0
0.010962120635279474 0.01915278926880713 -0.0020856215071894412 244 208 63
0.001908330531122958 -0.04878878118424609 -0.0010428080808670634 244 208 63
-0.005119132715400034 -0.04574652394094903 -0.008321848593226905 0 255 0
-0.016643083577908762 -0.007393497650199927 -0.0020856215071894447 255 0 0
0.009343843957353921 -0.030242097927481445 -0.0010428080808670625 244 208 63
-0.03263953314470249 -0.018065208400095404 -0.010386824335920225 0 255 0
0.014393529014547383 -0.01887437408789933 -0.0041919025776084974 244 208 63
0.02248875914299564 -0.017476756810891933 -0.00026069614643156185 244 208 63
0.01281366502714443 0.029232287217963695 -0.012451801073116851 0 0 255
0.00830905778884745 -0.023488831676057798 -0.0017380182334401535 244 208 63
-0.009815149023129067 -0.02780796354894869 -0.0041919025776085 255 0 0
-0.014589864853399474 -0.04039946946417669 -0.009354336961825221 0 255 0
-0.04362563821641778 0.00027791395123729105 -6.194978693627011e-05 255 0 0
0.028609284594607834 -0.017882661349698868 -0.0005213977315531269 244 208 63
0.025564654466402378 -0.009704314612237879 -0.009354336961825216 0 0 255
0.001618979791768906 0.05219141062659896 -0.0020856215071894425 244 208 63
-0.007890624000032773 -0.024196983673201233 -0.012451801073116855 0 255 0
-0.04014671047977639 -0.01534888470057632 -6.194978693626969e-05 255 0 0
0.03542927207340135 -0.01701485377945208 -0.003159414457636008 244 208 63
0.02067371302277287 -0.009419867768727632 -0.01038682433592022 0 0 255
-0.008117357827195902 -0.024039227601428577 -0.010386824335920223 0 255 0
-0.021923849436253036 -0.03296638461503974 -0.0010428080808670662 255 0 0
0.012178552336927887 -0.03908931079765314 -0.003159414457636011 244 208 63
-0.00752410328423505 -0.023862643592905786 -0.0006952047449613194 255 0 0
0.023650808419897196 -0.01092147528481582 -0.0003475978661375125 244 208 63
0.044398601994567244 -0.00439770260725304 -0.0010428080808670582 244 208 63
0.015373204284629126 0.008525896805282951 -0.002085621507189441 244 208 63
-0.024696468984896077 -0.014491496541555557 -0.0010428080808670666 255 0 0
-0.04374971642794818 -0.0008011184156088125 -0.0031594144576360173 255 0 0
0.01012700636699359 -0.039204223666637096 -0.004708141292139427 244 208 63
0.020276542212073884 -0.00941247662009426 -0.01038682433592022 0 0 255
-0.04001307310238701 -0.012064853756490936 -0.0010428080808670686 255 0 0
0.018853304540678312 -0.03107108008833012 -0.0020856215071894404 244 208 63
0.03194246588150248 0.010259085357689147 -0.0005213977315531265 244 208 63
0.00736079042519262 -0.01719509756017223 -0.0020856215071894417 244 208 63
-0.009431373177573093 -0.02333900975172823 5.438690000022071e-09 255 0 0
-0.014396212184489906 -0.022073373009588254 -6.194978693626653e-05 255 0 0
-0.00908238008544179 -0.025767568944679894 -0.006256875336791874 255 0 0
-0.023722712998542245 -0.007832126817822173 -0.001564218336946314 255 0 0
0.007682936403097313 -0.024450122557867677 -0.007805605900682717 0 0 255
0.02452942624117261 -0.01973180501056262 -0.01245180107311685 0 0 255
-0.01349550743910274 0.02686006862678514 -0.0010428080808670653 255 0 0
0.008689601995882954 0.03753936942597689 -0.0031594144576360113 244 208 63
0.01169897897059598 -0.015970230481410223 -0.01038682433592022 0 0 255
0.009547961784641982 -0.038795116827157465 -0.0006952047449613173 244 208 63
0.012575622702792109 0.012675477797091207 -0.002085621507189441 244 208 63
-0.011927724677964343 0.009790348099472043 5.438689999716357e-09 255 0 0
0.009016379872974935 -0.025667569647400194 -0.007495858395599908 0 0 255
-0.007313108963778871 -0.01538796967533952 -0.0006952047449613194 255 0 0
-0.04431976572782013 -0.006125600899277748 -0.0005213977315531358 255 0 0
0.021662237383347042 -0.01916618323944683 -0.001042808080867061 244 208 63
-0.00606891470760285 -0.00394949463233135 -0.0001737980007219011 255 0 0
-0.04190466216471366 0.0009980313150091441 -0.0062568753367918785 255 0 0
-0.006987360397617399 0.04553640130264801 -0.0020856215071894434 255 0 0
0.01646321571944149 -0.03971451922936057 -6.194978693626275e-05 244 208 63
0.012861127697828986 -0.019340694703062197 -0.0041919025776084974 244 208 63
-0.0074565118664649925 -0.04086232721879847 -0.010386824335920223 0 255 0
-0.031641658463965376 0.013071962400503187 -0.0020856215071894464 255 0 0
-0.012746512185336066 -0.012242895706872783 -0.001303509665988631 255 0 0
-0.013286415106235544 -0.01635513608273147 -0.0017380182334401563 255 0 0
0.025456663340487348 -0.009584671885490156 -0.009354336961825216 0 0 255
0.009059653695698815 -0.025559576532478534 -0.012451801073116851 0 0 255
0.024472942430922216 -0.011798190621250594 5.438690004174153e-09 244 208 63
0.009887149074092308 -0.027882961032901835 -0.01038682433592022 0 0 255
-0.019736948581705216 -0.03271547540680441 -6.194978693626718e-05 255 0 0
-0.007722817477763772 -0.027511708967585372 -0.003159414457636013 255 0 0
0.00966697598529494 -0.015403509784131913 -0.004604895936041196 244 208 63
0.03496102013280172 -0.016719269493322735 -0.0015642183369463068 244 208 63
0.02418827978019272 -0.015483209279756018 -0.0013904113546163487 244 208 63
0.007921136356224979 -0.023612549877388346 -0.0006952047449613175 244 208 63
0.007483664790460812 0.04466526015729101 -0.0020856215071894417 244 208 63
0.04109391123862642 -0.015131413677284452 5.4386900062096345e-09 244 208 63
0.007860806801657409 -0.016901729027427596 -0.002126926337663524 244 208 63
-0.011178628979362904 -0.015264366836393456 -0.00031284075225142293 255 0 0
0.024396015610538935 -0.011670498384675302 -0.0010428080808670605 244 208 63
0.0321101291952942 -0.01977895242369648 -0.002126926337663521 244 208 63
-0.01241311588868608 -0.015744811387628864 -0.0013904113546163532 255 0 0
-0.03869933024591799 0.009368359458559683 -0.006256875336791878 255 0 0
0.007126193557573389 -0.026945645636997948 -0.0010428080808670627 244 208 63
-0.015490512912097713 -0.040792493196054214 -0.0006952047449613203 255 0 0
0.010659574825948624 -0.013895297771532122 -6.194978693626347e-05 244 208 63
0.013565877499133515 -0.01730992291286451 -0.01038682433592022 0 0 255
0.006604246891268883 -0.004253655763670779 -0.0005213977315531296 244 208 63
0.011749572337714587 0.009122239778286988 5.43869000261599e-09 244 208 63
0.020205047368794412 -0.036980554035545544 -0.0010428080808670612 244 208 63
0.011120892094936238 -0.01579540574925079 -0.01038682433592022 0 0 255
0.006017740053296918 -0.04309509058819781 5.4386900019140425e-09 244 208 63
0.04404766166494615 -0.008512472999543818 -0.0015642183369463057 244 208 63
0.0010500567669006326 -0.052531156826912034 -0.0010428080808670634 244 208 63
0.03480822464356179 0.011676931826616808 -0.01245180107311685 0 0 255
-0.01151615743728464 -0.013560570829447336 -0.002085621507189444 255 0 0
0.014973688435114544 -0.02046969265680963 -0.0010428080808670618 244 208 63
0.010773785575592543 0.014209722922954688 -0.012451801073116851 0 0 255
-0.03440567356993136 0.009460968601709327 -0.0005213977315531346 255 0 0
0.010142403267308694 -0.025380878209909117 -6.194978693626352e-05 244 208 63
0.011595805218736393 -0.017818157864720338 -0.0041919025776084974 244 208 63
0.013461359178792721 0.018600877720385052 -0.002085621507189441 244 208 63
0.011835834560711085 -0.030828777311778476 -0.012451801073116851 0 0 255
0.0068206309224379995 -0.004261847487472323 -0.0015642183369463103 244 208 63
-0.014872482805314355 -0.022563482144033982 -0.0013904113546163535 255 0 0
-0.03282355007099786 -0.018022520339823767 -0.006256875336791878 255 0 0
0.007408625040116801 -0.017234338671955812 5.438690002084376e-09 244 208 63
-0.028723147268091675 0.010666406069215931 5.438689997659511e-09 255 0 0
0.018579865854356278 -0.03461278087418281 -0.0005958869932343354 244 208 63
-0.008995360050919643 0.008654989302525062 -0.0010428080808670647 255 0 0
-0.012411586342588378 -0.019479465706561033 -0.001042808080867065 255 0 0
-0.001885152015310626 -0.049391955400517426 -0.008321848593226905 0 255 0
-0.04068062350721263 -0.014731226538032584 -0.003159414457636017 255 0 0
-0.014596713003223127 -0.02013249238498168 -6.194978693626656e-05 255 0 0
0.0012919162435998347 0.04968015052702003 -6.19497869362646e-05 244 208 63
0.02630455697636457 -0.017037325576346542 5.4386900043984605e-09 244 208 63
-0.013200839090526051 0.03008441345994743 -0.001042808080867065 255 0 0
-0.026429928042203815 -0.018280589971923507 -0.004191902577608503 255 0 0
-0.007467677155176895 -0.016341654595800094 -0.008321848593226907 0 255 0
-0.002932590379297093 0.047665815887604414 -6.194978693626512e-05 255 0 0
-0.0022407502255181017 -0.05124202991648355 -0.006256875336791873 255 0 0
-0.007266203712202091 0.0450477341980083 -0.0010428080808670644 255 0 0
0.024350439512641986 0.010853168819162637 -6.194978693626179e-05 244 208 63
-0.022610128327497335 -0.008016159158918916 -0.0031594144576360147 255 0 0
0.007456416394146802 -0.025689743093300306 -6.194978693626386e-05 244 208 63
0.04328425705265567 -0.0095531202733343 -0.012451801073116848 0 0 255
-0.037882441245373655 0.010007933490645077 -6.19497869362694e-05 255 0 0
-0.018926595456943775 -0.009302625772981115 -0.006256875336791876 255 0 0
0.012008815483725437 -0.02485016748314557 -0.009354336961825218 0 0 255
0.012654265041392901 -0.024532910980786624 -0.0031594144576360104 244 208 63
0.012416079508563294 -0.01573426169646864 -0.00034759786613751387 244 208 63
0.010496743803762068 -0.017926093298449755 5.438690002462562e-09 244 208 63
-0.038934514367744436 0.009891992305233927 5.4386899964089786e-09 255 0 0
-0.009672918142599084 -0.026608831232456023 -0.0012513722081613466 255 0 0
0.02242682943259504 -0.030502542433496215 -0.0015642183369463083 244 208 63
-0.013846845570049636 -0.016891406083023076 -0.00034759786613751707 255 0 0
-0.024645331624464438 -0.014609639557305012 -0.0005213977315531334 255 0 0
-0.010058781450612196 -0.015637206128999864 -0.0021269263376635264 255 0 0
0.024981422030593406 -0.020299984644203302 -0.0013904113546163487 244 208 63
-0.03510803556877777 -0.017169936626315357 -0.006256875336791878 255 0 0
0.01964290039225949 -0.03086896320171083 -0.0002234551051263594 244 208 63
0.03692823122716302 -0.015482365940945321 -0.0005213977315531259 244 208 63
-0.042346937678738525 0.005777722148110343 -0.0015642183369463164 255 0 0
0.017619318861025645 -0.039024751620489 -0.012451801073116851 0 0 255
0.019694895014548228 -0.03295174552625029 -0.012451801073116851 0 0 255
0.009687934148144737 -0.015436261761788372 -0.009973827993977578 0 0 255
0.00979395317398711 -0.027794396534732268 -0.008321848593226903 0 0 255
-0.025136427306198153 -0.02028041281897392 5.438689998098757e-09 255 0 0
-0.02574437911639236 -0.01691698271926541 -0.003159414457636015 255 0 0
0.01708697913783295 -0.03158606373967814 -0.001564218336946309 244 208 63
-0.026468713671469354 -0.01679187818031445 -0.00044691207494644157 255 0 0
-0.017350134659883044 -0.036445312351681136 -0.0013035096659886317 255 0 0
-0.01002431395473822 -0.014726923322190737 -6.1949786936266e-05 255 0 0
-0.009788058752842062 -0.026926859469387023 -0.0012513722081613468 255 0 0
0.012473492184909436 -0.02245541941388031 -0.008321848593226903 0 0 255
-0.02489892996966218 -0.01511893365519078 -0.002126926337663528 255 0 0
-0.01693432089005042 -0.03100347375301034 -6.194978693626684e-05 255 0 0
0.010372954992696191 -0.030846075702430906 -0.0015642183369463099 244 208 63
-0.030079864601786906 -0.018327267979492922 -0.012451801073116857 0 255 0
0.037163343744750825 -0.015898279161109394 -0.012451801073116848 0 0 255
0.03455438363955531 0.009412104675854637 -0.002085621507189438 244 208 63
-0.014919602372355411 -0.022418549197998502 5.438689999349957e-09 255 0 0
0.02402170246402044 -0.02015793973579313 -0.0010428080808670605 244 208 63
-0.019147653653691046 -0.03312186725223545 -0.0006256833691965603 255 0 0
-0.009026853981883257 -0.025954304843037106 -0.008321848593226907 0 255 0
-0.03570838141762267 0.008820050995646042 -0.0005213977315531347 255 0 0
0.014962266564547501 -0.0216805183432742 -0.002085621507189441 244 208 63
0.024518816879813516 0.012581781661818814 -0.01245180107311685 0 0 255
0.023287233920168682 0.01058308857053367 -0.01245180107311685 0 0 255
0.013789952024433666 -0.03119962958676251 -6.194978693626307e-05 244 208 63
0.002210190133166804 -0.04916130621380511 -0.00935433696182522 0 0 255
0.013071665044012151 -0.020335353160080213 -6.194978693626317e-05 244 208 63
-0.04430164189941666 -0.006378754204242251 5.438689995751695e-09 255 0 0
0.029934909776678505 -0.02045665471835652 -0.0003475978661375117 244 208 63
-0.009002107755908529 -0.026225971324452705 -0.008321848593226907 0 255 0
-0.04035836465318174 0.0076846066714140165 -0.012451801073116858 0 255 0
-0.019151371107080654 -0.00979463639776417 -0.0015642183369463135 255 0 0
-0.034139226241910264 0.010124502207647677 -0.012451801073116857 0 255 0
-0.01641081633430375 -0.037317137715318506 -0.0015642183369463131 255 0 0
0.018209299996326818 -0.035316057816078564 5.438690003407078e-09 244 208 63
0.017816031616633934 -0.028546909346722334 5.438690003358916e-09 244 208 63
-0.010156694279938072 -0.025998464768214206 -0.0012513722081613468 255 0 0
0.03975046057914663 -0.013225730513984697 -0.0031594144576360074 244 208 63
0.03912506915882934 0.00673566752077024 -0.0031594144576360074 244 208 63
0.024001504101702924 -0.011206294072565692 -0.0006952047449613156 244 208 63
0.01842063592867153 -0.03495103929753739 -0.0001489694485196674 244 208 63
0.019633935939382577 -0.03086546056103716 5.438690003581545e-09 244 208 63
