ply
format ascii 1.0
element vertex 677
property float x
property float y
property float z
property uchar red
property uchar green
property uchar blue
end_header
0.03827752999503912 -0.016846672903297187 0.17073380094501223 244 208 63
0.03945036954604936 0.012711487394511072 0.172177216259334 255 0 0
0.04324655294330064 -0.017031154827201658 0.18286875342609293 0 0 255
0.04037138059745038 0.01871698840656182 0.17353618480662567 255 0 0
0.06483138325698738 -0.002973526250269609 0.17362747882444138 244 208 63
0.057134101792883814 0.018147769051861492 0.17535352852189873 255 0 0
0.03633000697105993 0.04031784210158531 0.18290725659027968 0 255 0
0.02688973239897533 -0.006161453005311372 0.17112450638765023 244 208 63
0.044408574932101465 -0.01592098006038973 0.1714318538921845 244 208 63
0.025951329694140435 -0.00385916519578771 0.1812470533318298 0 0 255
0.031073750760761906 0.01855329055612316 0.18477202474830298 0 255 0
0.03196968769984501 0.014796917768099861 0.17177341762327902 255 0 0
0.026951309830861213 0.05248372941293009 0.17962083301462783 255 0 0
0.029394571559053714 -0.00762546769758414 0.18345082134318075 0 0 255
0.03826797797590054 -0.01541775281442294 0.17109621494617394 244 208 63
-0.026753480068971863 0.023422892055549024 0.1692660193691602 255 0 0
0.029573668857945906 -0.0025126988175666913 0.1707494406171815 244 208 63
0.007693028887390251 -0.03656845311676044 0.1806634134404677 0 0 255
0.016778965429161213 0.015901068524823883 0.18369389741964706 0 255 0
0.05518333216316634 0.009526141812764486 0.17437308945536184 255 0 0
0.05770605275357595 -0.003894364324417564 0.17310860574464235 244 208 63
0.05042414427668418 -0.0157251145010848 0.17370218144532187 244 208 63
0.04159094788366727 0.014402166355490367 0.1745029472960571 255 0 0
0.060699840707826656 0.009226113063843869 0.17391465780335355 255 0 0
0.034287595547484694 0.03358498895639545 0.174177572682996 255 0 0
0.03711773164572343 -0.005008617896267159 0.17377995710944788 244 208 63
-0.03607179932414198 0.014742289062360525 0.16722212984078255 244 208 63
0.029771521918763914 0.014200019016985678 0.17189596350563352 255 0 0
0.020174338652052433 -0.01816791088584694 0.17268379630803798 244 208 63
0.029724930277957525 0.01593451045644353 0.18241340903077088 0 255 0
0.02049754971521497 -0.017534968478056957 0.1705334333524498 244 208 63
0.06665999395814855 0.0013555653670744953 0.17449189516304014 255 0 0
0.0311192164457994 0.017930918380086227 0.17186129062927008 255 0 0
0.04426401849918209 -0.01659847116879915 0.17544048981476687 244 208 63
0.0370063173272982 -0.005189529280618378 0.17505265500036402 244 208 63
0.0401854644288502 -0.0033036704512905846 0.17359132413018438 244 208 63
0.050579344357311276 -0.008302769385404678 0.17405532387962155 244 208 63
-0.03967069050945357 0.014627897255003266 0.1798612834029538 0 0 255
0.025454869149398533 0.03268324644149789 0.17390693678429256 255 0 0
-0.022891321700049663 0.02478045665592469 0.17500936450614685 255 0 0
0.029415351573682292 -0.002306420406109535 0.1729173651647598 244 208 63
0.041101791271244144 -0.016198584016780898 0.1711204999146773 244 208 63
-0.0364592464829041 0.02189627894326214 0.1739691180456367 255 0 0
0.03625328672249334 -0.0031939220711693075 0.1712289640867764 244 208 63
0.0039015554626736348 0.03567422199268373 0.17079667485215125 255 0 0
0.035055542180674366 0.02929557360698467 0.17425989750526752 255 0 0
0.0261536921038117 -0.025132347485517063 0.173835665669818 244 208 63
0.057354785049325445 -0.004057324808397697 0.17470433750087427 244 208 63
0.03658131852078442 0.021090136519980124 0.17339240141518192 255 0 0
-0.02201280729915335 0.02475627920948308 0.18150949535627195 0 255 0
0.05743649949423071 0.01018784182997192 0.17970561274922633 255 0 0
-0.004801300775762275 -0.013772827554873962 0.18088084344303187 0 0 255
0.016535429139512454 -0.0130637362606122 0.18234001004053454 0 0 255
0.06465699094710506 -0.0022415589127079884 0.17639307219003464 244 208 63
-0.0025117824326304746 -0.030766774951976487 0.16874564039523518 244 208 63
0.005220110572920026 0.04427473372551923 0.17345098153675093 255 0 0
0.05256682871229133 -0.005338227852998253 0.17432509652132924 244 208 63
0.026364648242945536 -0.004920465791294019 0.1833731805095128 0 0 255
0.04019290708704181 -0.016273968572442375 0.1734653028384382 244 208 63
0.020152775863479917 0.053729019101482554 0.17600258381375133 255 0 0
0.0487464671289388 0.02642344269346323 0.17517496545087066 255 0 0
0.06328503724490869 -0.0005704032014070513 0.1741773278028435 244 208 63
0.015392605937165064 0.053826761008408545 0.17240317546046519 255 0 0
0.0361539476432064 0.03566568116554908 0.17512142615490828 255 0 0
0.03701128582027348 -0.005980028045205491 0.17115097497054085 244 208 63
0.006285103268176546 0.04508247521903749 0.17145493000801648 255 0 0
-0.03412310848632913 0.013398325491798415 0.16831040045600504 244 208 63
-0.03316192830996462 0.012029963094795093 0.16729140661192396 244 208 63
0.039693821819638736 0.01702130301642375 0.1831300460178806 0 255 0
0.0066574597651773565 0.03704542901675476 0.17212872899559928 255 0 0
0.009902540876407497 0.05095358686678324 0.17298795610885623 255 0 0
-0.01169664947966168 0.0010021290912774362 0.17680717050725964 0 0 255
0.023624633153590823 0.02330928553832586 0.17208644232608838 255 0 0
0.006520120389152191 0.046385752365869524 0.1811946002576715 0 255 0
0.05652522970450202 0.014982863676555908 0.1766448717902744 255 0 0
-0.012276822083039539 0.02531308374394564 0.1692366232397373 255 0 0
0.04921199032042848 -0.012683131956706227 0.17159264302882793 244 208 63
0.0070323498397230795 -0.03625519576295896 0.17741245213665016 0 0 255
0.051920040515993936 -0.0060787868384874965 0.1769749907339118 244 208 63
0.033936747961528735 0.02106733213969524 0.17213006002042694 255 0 0
0.02442931707595007 0.020532994866960055 0.17797673297193484 255 0 0
0.028673611837227646 0.031843530489928926 0.172998849119318 255 0 0
0.03798250246591137 -0.015930942646477098 0.1721379220505821 244 208 63
-0.03756586844380117 0.019252620321481437 0.17699430885038467 0 255 0
0.019152063852521373 -0.012094646064977298 0.17182216694302507 244 208 63
0.009695205380384967 0.02122064796593296 0.17051652482291574 255 0 0
0.03798960107144761 -0.0031429827822496157 0.17617927823784704 244 208 63
0.02954253915787656 -0.003482567549854469 0.17070257058235008 244 208 63
0.009695067735246171 0.022802098432716623 0.17387523898714122 255 0 0
0.03201564842276813 0.01938329250338887 0.17843080686909343 255 0 0
0.03865119947350281 0.018902179233026825 0.18099969747414651 0 255 0
0.03984023859750186 -0.00890930257315336 0.18408985558983043 0 0 255
0.027435499694353334 0.01824031323213132 0.1823668370456129 0 255 0
0.05993733439969925 -0.0029147692737314735 0.17492975186966 244 208 63
0.044890126966860205 -0.01581638174771896 0.1713139484781822 244 208 63
0.010079608154198531 0.021669576358326822 0.17128595033495492 255 0 0
0.02673034393564856 -0.0010877219450383478 0.1717096536331166 244 208 63
0.030369835191971575 0.017835988577079832 0.17380290979657184 255 0 0
0.040817530753907344 -0.00435962392299443 0.1714802640741633 244 208 63
0.04666636229182477 -0.01564255186176087 0.17564523799878912 244 208 63
0.03385127145707315 0.032059422242828366 0.1855814284018791 0 255 0
0.0451455461077065 0.025722573759460035 0.18282258486446318 0 255 0
-0.0027706985041774943 -0.017884608756683427 0.16841948953099242 244 208 63
0.029381280439450774 -0.01810843972663101 0.17037785719175444 244 208 63
0.03265086783771105 0.047446428234140005 0.17543127502617017 255 0 0
0.045284394767954386 0.024319111476975495 0.1763245419863072 255 0 0
0.04169028859028426 -0.018946041963921675 0.18375003599424497 0 0 255
0.047714066062266684 -0.017055386157205917 0.17135502149193657 244 208 63
0.03525755249922696 0.021218414392236137 0.1729483319731173 255 0 0
-0.03877524935036233 0.01685881150669456 0.17680291128089679 0 0 255
0.028487281807140316 0.03380594387017634 0.18530348565786595 0 255 0
0.016914824606144442 -0.03692097990017623 0.16994091359531013 244 208 63
0.027398281361517736 -0.025685101089992942 0.17818834973777753 0 0 255
0.043120223441663025 0.014502771860994475 0.17894779457961776 255 0 0
0.0404700858765719 -0.015668485012690577 0.17480029530652766 244 208 63
0.04516783855454527 0.021832539276731414 0.17508521010880168 255 0 0
0.039752643699295626 0.011835025037942298 0.1828944740307739 0 255 0
-0.0013180482294820224 -0.032061756373663035 0.1687656421271709 244 208 63
0.025934746395260853 -0.026449670374210546 0.17161268759525783 244 208 63
0.029683045294787005 0.03498707301581162 0.1742959939002589 255 0 0
0.03484187653942376 0.01848453943363653 0.18502075961296147 0 255 0
0.007936411479320532 0.04324751717483705 0.17195839605741509 255 0 0
0.0416097255912124 -0.012165241767016749 0.18083653080213954 0 0 255
0.05031773354514869 -0.00990460633951537 0.171794878503556 244 208 63
-0.023067893032488046 0.024408222958636025 0.1706424054104232 255 0 0
0.060216510619127375 0.0058464019320600535 0.18183847822269247 0 255 0
0.01962369586385914 -0.033616723130875284 0.17193355194663607 244 208 63
0.030392523372945547 0.017796299248326826 0.17271810612254013 255 0 0
0.0038360887199443555 0.03545057046463921 0.1718664611894072 255 0 0
0.02555656621257943 -0.026252287234598576 0.16992682419925348 244 208 63
0.044624638927278096 -0.01589069764328645 0.17183500982958108 244 208 63
0.04615854260637671 0.025833682891496762 0.18611669699635516 0 255 0
0.03353933295246589 0.030881157773835467 0.17691614267770234 255 0 0
0.04119252235851376 -0.016234757000073347 0.1710474324611398 244 208 63
-0.00011405962759238487 -0.03288214460004322 0.1673622591931283 244 208 63
0.016797495549904173 -0.03696011624838362 0.17047350439754427 244 208 63
-0.02293701869851019 0.027165396924397373 0.1707784821268323 255 0 0
0.0022510148074128228 -0.004384065944178216 0.16883642377164088 244 208 63
0.017281218815383918 0.01751286543828898 0.1724791848715281 255 0 0
0.03065492445677332 -0.008205767240937831 0.18350828101798514 0 0 255
0.03628689346676857 0.04054366067320063 0.1829148027232455 0 255 0
0.03627432230826025 -0.002354875523569202 0.1722891778023536 244 208 63
0.03801107280761454 -0.005100643135745656 0.17119399252456743 244 208 63
0.030125922896700692 0.01617521759510361 0.17887215627773878 0 255 0
0.04100842866761222 -0.016243782558206875 0.17242905388039745 244 208 63
0.030816972119500612 -0.006845169398196506 0.17135547912474577 244 208 63
0.029429221504632334 -0.002949291259243471 0.17288860437507814 244 208 63
0.015476350084880047 0.017408858063626714 0.18367644424095528 0 255 0
0.03490846251554676 0.03306263638706381 0.1747630234327066 255 0 0
0.001545440530020147 -0.0049497259142968816 0.17093211422438795 244 208 63
0.05293153607730598 -0.008083608530565098 0.17211814434057854 244 208 63
0.00538845747229991 0.022579170850305558 0.17035577509793845 255 0 0
0.027707695018663905 0.0532034118979223 0.17428217862269976 255 0 0
0.01370875068175666 0.052339272795917796 0.1851713757938168 0 255 0
0.009293919915661121 0.02693387995340471 0.17081796847123976 255 0 0
-0.036282901047690795 0.02006325042644084 0.17067500120519788 255 0 0
0.02683871173172829 -0.01680004015400286 0.17180466741143116 244 208 63
-0.029049403343149868 0.008433752879689695 0.17062152603857791 244 208 63
0.01831314368219175 -0.00889249025399189 0.16976645284418365 244 208 63
0.04823464628829659 -0.014488643463199157 0.17365586371387517 244 208 63
0.0003054953764277 -0.001230794826659179 0.17102096212723786 244 208 63
0.02598004831978795 0.017806437386451164 0.17180903866459457 255 0 0
0.027830027810589568 -0.016303232875088804 0.1702671418701434 244 208 63
0.04050740349787353 0.013541543332572036 0.18087623362599015 0 255 0
0.02895321791894327 -0.005462579625467664 0.1727836731775525 244 208 63
0.006059153084493155 0.044906444752171606 0.17465295542543766 255 0 0
0.03957715779784257 0.01958061881599267 0.17424596695318018 255 0 0
0.03336628086200754 0.018158620640317924 0.17524328857563617 255 0 0
-0.037527000466681046 0.018628622345848795 0.16832437789674265 255 0 0
0.033418669435719764 0.020088676891904786 0.18070468104409698 0 255 0
-0.002794093627625405 -0.030344605545349533 0.1683847672344525 244 208 63
0.022020471719900875 -0.034876110308088605 0.16874993280732842 244 208 63
0.05252640573418714 -0.0053427775894793455 0.17405106306662269 244 208 63
0.029978741934373415 0.016061744548791584 0.17957291327133232 0 255 0
0.008280616331310055 -0.036513387384366235 0.16829801658503094 244 208 63
0.044083098517641715 0.012353528349766071 0.17349045646597222 255 0 0
0.02530312260484315 0.03249238807738322 0.1742494739995532 255 0 0
0.00945476976708667 -0.036751131402301 0.16890778231278453 244 208 63
0.030657345045672267 0.016594852670179808 0.1717687131756789 255 0 0
0.030951663083029265 0.018776723858962487 0.17182471748219305 255 0 0
0.011887149621913071 0.002638702318595679 0.17088943206181273 244 208 63
0.02970739090662692 0.034125112417172615 0.178957276505537 255 0 0
0.03917931859380276 -0.005761420915927116 0.17151269901851043 244 208 63
0.03638699537456166 -0.002320414367164917 0.17284055102543716 244 208 63
0.06269760163271142 0.002964996097962061 0.17430132223441974 255 0 0
0.04170459403887929 0.011680935121263412 0.17366188193386944 255 0 0
0.06669600709983393 0.0013804424241148988 0.1739532021971642 255 0 0
0.035791248763060404 -0.008019515250882257 0.1709752277212749 244 208 63
0.0019755031569889184 0.02439494017029187 0.17231601356141443 255 0 0
-0.005806585470008752 -0.018384408175044234 0.16982019157293837 244 208 63
0.06294744937340613 -0.0036210687608815755 0.18587885045493055 0 0 255
0.04804526540911926 0.02388455859811888 0.173962500154584 255 0 0
0.018363818136564534 0.016111603303381884 0.17248684883772974 255 0 0
0.03343283817760979 0.031499598313066667 0.1726425698338453 255 0 0
0.041072030687531805 -0.016208954202110715 0.17150534818243846 244 208 63
0.06343606202183685 0.0008848136888893209 0.1861195990435939 0 255 0
0.051930089625112974 -0.005970352766452166 0.17214878582331036 244 208 63
0.004434430576994924 0.041105373419195707 0.172709852375296 255 0 0
0.04464169136372604 -0.01586471526450356 0.1711401788818294 244 208 63
0.03606787182884964 0.035028827191118585 0.1837192357333465 0 255 0
0.04495112309297804 0.02179125447068239 0.18584929663744784 0 255 0
0.0527908391710767 -0.007778360822687111 0.17641784801789395 244 208 63
0.03271135878811717 0.01549581809232947 0.1725138399632429 255 0 0
0.029930122611507046 0.016075768804583467 0.18243365008319906 0 255 0
0.019679313526464466 0.051659681312394665 0.18553914092556684 0 255 0
0.04727299471051142 -0.01741733336302353 0.1841938519946443 0 0 255
0.020520280080726976 0.053228975891933705 0.18566783256037775 0 255 0
0.04786059318443202 0.023486161128187105 0.17479935134588975 255 0 0
-0.00883182347913109 0.024954913145912798 0.17595733802326438 255 0 0
0.030193990458334888 0.01750942289404401 0.173125377680869 255 0 0
0.060450796282558075 0.009358309596732102 0.1744463627493715 255 0 0
0.035430042116185556 0.028449962779316208 0.18068839931710876 0 255 0
0.029060112990748517 0.018292299528699273 0.1730315033690556 255 0 0
0.02554999537071543 0.05321309765710176 0.1731183176959383 255 0 0
0.004566228417077714 0.0017796170291335903 0.1714448261547863 244 208 63
0.051474069289983056 0.02249051183953771 0.17665389369368498 255 0 0
0.01414891534875832 -0.03657595167766587 0.16820962911151968 244 208 63
-0.01992028418983926 0.02768973236764455 0.17100437334451335 255 0 0
0.04391245738578675 -0.018775230941089516 0.17149926066890891 244 208 63
0.011622862306726527 0.024237854040141227 0.17295371238632987 255 0 0
0.017045462524219176 0.014729914181825733 0.18365762912399733 0 255 0
0.04136537476985847 -0.016886336199463878 0.1730859071581309 244 208 63
0.04898541007452737 0.0235770883253003 0.17325200700493043 255 0 0
0.0457034020738348 0.02668640852292491 0.17389918059206563 255 0 0
0.024814631357138982 -0.004415967882265118 0.18114534847595398 0 0 255
0.02541582282224398 -0.017663193965078147 0.1697718209641971 244 208 63
0.028333381949453083 -0.0008506840130704883 0.17291225893864312 244 208 63
0.017925839547034278 -0.008466002900734544 0.18264528806062114 0 0 255
0.02879600068660213 0.03191932941020221 0.17264903201908272 255 0 0
0.05073376360573621 -0.007903844091146129 0.17299957857757858 244 208 63
0.02939435045742227 -0.001670881047829028 0.17186081944966528 244 208 63
0.03803152529612448 0.03136875108126827 0.17396402236128097 255 0 0
0.033706623729253746 -0.006840624918480094 0.17263336159600917 244 208 63
0.06631099100287526 0.0021657919360389332 0.17559047111394815 255 0 0
0.054225217765287805 0.013396169686794706 0.17493963067062912 255 0 0
0.034413728989402044 0.02885222369022236 0.1838602887892383 0 255 0
0.05374421760859768 -0.0056410440993925155 0.17711715724440286 244 208 63
-0.0035091437881802348 -0.018814035479780042 0.1710706505234278 244 208 63
-0.026041440725092475 0.02362440737423172 0.16986517654382707 255 0 0
0.03197848136006298 0.013919491434794377 0.17311504134096997 255 0 0
0.028899117596542394 -0.016287460580215456 0.1703393419037041 244 208 63
0.042720763869991324 0.014168828076606792 0.18105317126037127 0 255 0
0.008018048105248856 -0.03655950591047331 0.1699050739595884 244 208 63
0.018780799887178627 -0.017617145281225814 0.1822798411444929 0 0 255
-0.034787193489038894 0.009841447747004281 0.179966718773903 0 0 255
0.029489541461816874 -0.004735582796373563 0.17100265863804281 244 208 63
0.011177676504460332 -0.0016904424246232466 0.1706420801469843 244 208 63
0.01603747572069938 0.0013345594949895631 0.17110666721028767 244 208 63
0.01945667951295856 0.05435999056316524 0.17486847746177564 255 0 0
0.04925044285242923 0.02625862967257306 0.17483954695182236 255 0 0
0.03898577113704336 0.020102705182344582 0.17423054124722734 255 0 0
-0.03767359087700672 0.019141435091151373 0.1673181998914827 255 0 0
0.06404396763073761 0.005917761966708549 0.1739854411254888 255 0 0
0.014670263103270464 0.00020246898876908823 0.17204747599718534 244 208 63
0.023632527700616877 0.025594141248274475 0.17815719112659525 255 0 0
0.04030854423802637 -0.009406910631721084 0.17114871980052615 244 208 63
0.0410605378732678 -0.016212203205757655 0.17165935869836538 244 208 63
0.047978338629147084 0.018743856487364728 0.17404597215037246 255 0 0
0.02488835004358993 -0.02791363831451088 0.1822126518963228 0 0 255
0.044912216826206906 0.025863107372707042 0.17471201241406017 255 0 0
0.025932986090397635 0.027687528086323156 0.17196514067210464 255 0 0
-0.0259353517454588 0.0036341869574261134 0.18027183552977877 0 0 255
0.047599302549702564 0.021108983552314674 0.17310979511516267 255 0 0
-0.005033677256820373 -0.025922749758431802 0.16735475654406126 244 208 63
0.029503201221973238 -0.002740166982522681 0.17181871637681997 244 208 63
0.018431779562324044 0.01579664335166932 0.17265759337109532 255 0 0
0.027163441730314444 -0.0042542303931626686 0.17143131883147336 244 208 63
0.030723187340838627 0.01843660883496645 0.17251673199844939 255 0 0
0.02420580822707613 0.029734582448242817 0.18160798059152888 0 255 0
-0.03190393024838665 0.009685503171476043 0.18015227145758947 0 0 255
0.01242351827709005 0.01879498672858397 0.178382350673162 0 255 0
0.03281376928055405 0.015986835516397454 0.17326635346871674 255 0 0
0.03079140499618849 0.013427413915712757 0.17373595298508263 255 0 0
0.03480162163000639 -0.0063347131578141815 0.17313437995825387 244 208 63
0.025242506629092276 -0.004120401401574554 0.1747450904455078 244 208 63
0.012395135264718636 0.01868403446736372 0.1792343316341013 0 255 0
0.009946412114078405 0.021926626074987687 0.17092741689956195 255 0 0
-0.004929760223387574 -0.014351269020940466 0.1678960793079902 244 208 63
0.027639325451441283 0.020289982595258178 0.17194428223524696 255 0 0
0.06104774218806669 0.005464615065589854 0.17758141116888387 255 0 0
0.031651017330455146 0.013581160861874605 0.1730775252070377 255 0 0
0.0413133681816567 -0.016316582606730384 0.1723686153785131 244 208 63
0.029230692090368056 -0.009082620455215885 0.17177872228709765 244 208 63
0.0412793975889237 0.015927856618688584 0.17238359378517848 255 0 0
0.039528251339986394 0.01843529922546081 0.17674176400089897 255 0 0
-0.0067276128979464 0.0006479065163250801 0.17282800030031364 244 208 63
0.04244448607345239 -0.00839317474814576 0.17140275962513787 244 208 63
0.03645166464237439 0.045964514039027 0.1767336424696577 255 0 0
0.04247699931651914 -0.013193534061079915 0.17111881934129825 244 208 63
0.020833631263389725 -0.03291753738018275 0.17204672821333586 244 208 63
0.03634450091862375 0.03672446740623994 0.17482156453603684 255 0 0
0.029538129370112225 0.016052357800168567 0.18240636310162436 0 255 0
0.01721752963067809 0.05147788468340371 0.17241670469823728 255 0 0
-0.006488547104545603 -0.0006925526484739628 0.1684870663801725 244 208 63
0.03279772887600816 -0.007219578755479283 0.17183210379686203 244 208 63
0.028987375499497783 0.033833724031174926 0.18533820122839167 0 255 0
-0.030101212828049766 0.025231292791645703 0.1680412353874114 255 0 0
0.04475258143969528 0.013714134775573393 0.18224175954530192 0 255 0
0.05219572728830776 0.02131023526348266 0.18309014576918792 0 255 0
0.028965245615495395 -0.004704641774713139 0.17067197237491236 244 208 63
0.036615875935505214 0.029948929897630643 0.18244752721471227 0 255 0
0.023491324521612914 -0.005760339244912824 0.17019284143450247 244 208 63
0.019619869916887783 -0.020350316576111492 0.1789884569938475 0 0 255
0.046202375137478234 -0.017955758708077627 0.18409741336320382 0 0 255
-0.0017524694216963644 -0.00824620505948976 0.17055940692950464 244 208 63
0.034529544992967745 -0.009064821006466689 0.18211700709620518 0 0 255
-0.03024526439665335 0.025131785252975034 0.17019599232053492 255 0 0
0.054369336632818635 0.014106301754074428 0.18290277713820507 0 255 0
0.025681303330767034 0.03240911630941002 0.18505139203878598 0 255 0
0.010379613981794718 0.04749254882220007 0.17286001766547326 255 0 0
0.01981215241843522 -0.005399463422050763 0.17050578572154307 244 208 63
0.041395683470735904 -0.016259721082134443 0.17113732410161223 244 208 63
0.02801502057558982 -0.000802742715509069 0.17180869833906645 244 208 63
0.06332544040091516 -0.0011855930069458996 0.17635281921517804 244 208 63
0.04133870293509662 -0.01625308264915639 0.17105635875849876 244 208 63
0.04576197047994738 0.019068238568888608 0.17289272187137403 255 0 0
0.02713320799172446 -0.005416449180833623 0.17266413071133416 244 208 63
0.054235740651088354 0.010693057560722433 0.1733695125317523 255 0 0
0.04688937826970733 -0.014981979149876683 0.17169270403545403 244 208 63
0.03767506369844042 -0.016792980847774128 0.17207755963366375 244 208 63
0.0500093891108283 -0.012070791621059063 0.17495992085535056 244 208 63
0.035167893427036176 0.0185010643650085 0.17372059485921879 255 0 0
-0.0034098638768645965 -0.02930548591588536 0.1673070969296891 244 208 63
0.03137668603947776 0.03389614602345198 0.1790582998259523 255 0 0
0.015542187637043315 0.01783919414934581 0.17940570588259253 0 255 0
0.06480399541268292 0.004810287769726491 0.17452735689893406 255 0 0
-0.012550301298584754 -0.000639663718851699 0.1701888145900604 244 208 63
0.023464636402349522 0.02572159584205873 0.17164490563699047 255 0 0
0.04110388706891844 -0.016335337349580557 0.17305091567019443 244 208 63
0.05414205219332151 0.01893595252571724 0.1739246554524258 255 0 0
0.055488650918551964 0.018606585731729818 0.18640669076683683 0 255 0
0.03501969631611322 -0.008507272810266569 0.18378615465961548 0 0 255
0.03683443945563438 -0.006030535554135571 0.1743580798170373 244 208 63
0.014605212755032269 0.002835275091982878 0.17216471123914828 244 208 63
0.016340928845854783 -0.036406087120771514 0.1683640157996454 244 208 63
0.05458327432031208 0.014254085030006339 0.1797026473523817 255 0 0
0.06566396704011236 -0.0021299574395536856 0.17480659440014562 244 208 63
0.016095168093977125 0.0019819704904027163 0.17168267108842075 244 208 63
0.006058722334172874 0.03925859844783896 0.17761336286079066 255 0 0
0.006821272991661668 0.039213148482496726 0.1729627819034735 255 0 0
0.03753234525995624 -0.002848786500709452 0.17294103933426808 244 208 63
0.04814989929375588 0.026673996061765726 0.17442365848737915 255 0 0
0.03433895351080437 0.049815953526387784 0.17348457145035806 255 0 0
-0.0011098648074371834 -0.03228152357761412 0.16913091040158162 244 208 63
0.048162526324636086 0.0234518655101068 0.1861406756698157 0 255 0
0.026990582740798883 -0.005514971451777767 0.17479755245223927 244 208 63
0.027739045660772496 0.030948955329422 0.17253355933538572 255 0 0
0.00764868627906448 0.021955273412494418 0.17258261703980887 255 0 0
0.03076155698429271 0.05047289215484614 0.18622521370854905 0 255 0
0.04261018825976457 -0.012781256260190183 0.17114676255126532 244 208 63
0.03627516831897044 0.047766332255058865 0.17351936053083414 255 0 0
0.05724811923984133 0.01803175313723708 0.17427130198963456 255 0 0
0.037926208029880754 -0.016191977565329193 0.17103761265362522 244 208 63
-0.004138870590448253 0.0008296064546960032 0.16871444278901787 244 208 63
0.03034407144305641 0.016315668601215916 0.17531405363509142 255 0 0
0.0414763944971493 -0.016304187585489748 0.17207022865811222 244 208 63
0.03689456026702752 0.0411514504238445 0.1733197221018239 255 0 0
0.017306336976306232 0.014542513305455251 0.1718014427581708 255 0 0
0.022569949234528222 0.05417570305834329 0.17452585592628164 255 0 0
0.03549765294015594 0.04855627221277729 0.17458835247269547 255 0 0
0.03656006128064538 0.03830443541820606 0.18175590296338237 0 255 0
-0.0015684302906496398 -0.03166668885915621 0.1673211606521076 244 208 63
0.018212119647032197 0.051642126929297094 0.17249078061425094 255 0 0
0.06319732627273462 -0.004201110140400479 0.17508828776953841 244 208 63
0.04502310672533596 0.01808482667216787 0.18246168522572404 0 255 0
0.028565574257405014 0.018985144513717647 0.17221706758679967 255 0 0
0.012334258825091805 0.0021562033773885898 0.16987698065498144 244 208 63
-0.0009890582327476485 -0.02830863116185016 0.1696839522399513 244 208 63
0.05063716630939597 -0.00869018929382606 0.17998989128516588 0 0 255
0.034567444303279814 0.030059782886946267 0.172651930194936 255 0 0
0.04491199561131197 0.024987988585678154 0.17304484371708262 255 0 0
0.023955409180241898 -0.00295266635333755 0.18330298986056767 0 0 255
0.030067581304989936 0.016229488495966057 0.1810182691856281 0 255 0
0.04596222051154545 -0.016088788091680836 0.17987256292443046 0 0 255
0.031586626294521476 0.014844594568890517 0.17948102771289853 0 255 0
0.0633055841884087 0.002204737276972437 0.17972931462049493 255 0 0
0.036476340199185504 -0.0022505260035762626 0.1712230108793307 244 208 63
0.036248750146826415 -0.008240395470360474 0.1712023022272322 244 208 63
-0.035752644939687384 0.014817612452790296 0.1693514957896647 244 208 63
0.066043690664016 -0.0016799982618855562 0.17376826062923556 244 208 63
0.03885786228039612 0.012390782313910883 0.17386585049143286 255 0 0
-0.003489361110940422 0.02341824041890321 0.1719055676105573 255 0 0
0.04542789043934575 -0.015726459550914784 0.173290639440757 244 208 63
0.05412974314491618 0.010705180629227332 0.17480897697034076 255 0 0
0.0005428883523982959 0.022318350249250926 0.17646230637649943 255 0 0
0.016572132313747028 -0.03419323616778572 0.17058621386152595 244 208 63
0.05066053810873961 0.022610497493654937 0.17451229382502734 255 0 0
0.0386302619874901 0.01334317517656581 0.17644657455481808 255 0 0
0.02506544354703762 0.025131940205713344 0.18145289777010648 0 255 0
0.03859461846550947 0.01212035406243589 0.1849777403473125 0 255 0
0.014166490845945961 0.015813198401643393 0.17273470714334338 255 0 0
0.0037575038940700503 0.03557471445401306 0.17295143178527475 255 0 0
0.03760067481202251 -0.017529439376841816 0.1724000761410994 244 208 63
0.0171204725971485 0.01786403968475388 0.17112903628590242 255 0 0
0.04678085378604149 0.022308991777484244 0.18384802164733183 0 255 0
0.027090868206447828 0.03133083431931594 0.18509582992553378 0 255 0
0.011157071163603167 0.05118008686786897 0.172062224930405 255 0 0
0.038263886905837464 0.014052115950975708 0.1742643584329899 255 0 0
0.00992795432847234 -0.034075782515531595 0.1679784734263278 244 208 63
-0.03735193075630773 0.019400403597413348 0.1737941790645613 255 0 0
-0.005565571729158184 -0.01839471904906176 0.17739504957709412 0 0 255
-0.003388014989717413 -0.019621582299354512 0.16782019550798852 244 208 63
0.026652949941102153 0.033817183391511504 0.17223191085235962 255 0 0
0.0246461698432037 0.019454256830026547 0.18116267044879514 0 255 0
0.044211571062837775 -0.016571432241412106 0.1743644790052093 244 208 63
-0.002618835261719376 -0.024636911360363382 0.16974455854808257 244 208 63
0.007719059021442126 -0.036407441990149655 0.16826536749832705 244 208 63
0.04129142614679861 -0.015576054361798479 0.17282739622215884 244 208 63
-0.03714228002173206 0.018953816604547966 0.16917848538046362 255 0 0
0.028528982446282353 0.03174604859175295 0.17443066555718326 255 0 0
-0.02882060814342611 0.008570622710288321 0.16742188236461425 244 208 63
0.005351856923183374 0.04458126628998993 0.17293170303564379 255 0 0
0.027324586755496608 -0.016526876766121815 0.16995190279167907 244 208 63
0.02534658224518279 0.05306313990122666 0.17631905382740143 255 0 0
0.030100955606051485 0.016765438442803128 0.18301379515774033 0 255 0
-0.02563339037841606 0.02375838882234751 0.1693563938941954 255 0 0
0.022561596071586358 0.05426477814979783 0.1729026704453784 255 0 0
0.02081504276327522 -0.035567025167522914 0.16917968167437625 244 208 63
-0.02631492187270695 0.006822743091010771 0.1675086767663603 244 208 63
0.035433345950716386 0.03277045410519961 0.17447476987611765 255 0 0
0.06244202793164326 0.0031707322073938737 0.17537822858239552 255 0 0
0.03726889039966214 0.020968554905089115 0.17307125696428372 255 0 0
0.058387916584590825 0.008166421029425459 0.1732333516193547 255 0 0
-0.010914198736795708 -0.0007768034644229527 0.16812287700090786 244 208 63
-0.001916515592283393 -0.014157897961569606 0.1686486950619272 244 208 63
0.012541101051698247 0.01898834484319457 0.1758221386267131 255 0 0
0.04505862748674357 0.024326335716092058 0.17953103846395443 255 0 0
-0.004697222245728694 -0.01543760185446509 0.17114714919089793 244 208 63
0.023840862399661805 -0.029459596373393404 0.17129075031860327 244 208 63
-0.03914202948657208 0.017938923894747886 0.18004953041808772 0 255 0
0.030802600350049433 -0.008108421735911843 0.1813751420660965 0 0 255
0.018421862372047463 0.015354914218070588 0.1722750315866236 255 0 0
0.06617025135240988 -0.00151859702654786 0.17324193322909068 244 208 63
-0.03941834926627502 0.01614557349258303 0.1670632077908733 244 208 63
0.06212893226061067 0.007930067683575119 0.1750348433624076 255 0 0
0.04763967971151701 0.02685905608702376 0.17367509957427843 255 0 0
0.05229932491771261 -0.00825302514413932 0.18280558079317233 0 0 255
0.06656109540725355 0.0018715423270033392 0.17396686216093377 255 0 0
0.05117634279205392 -0.00758850153991703 0.17524492894717297 244 208 63
0.005035309095358293 -0.0008481791538422455 0.1821353139546216 0 0 255
0.004513856286782993 0.03550517477374005 0.17089423358704064 255 0 0
0.017892077690606554 -0.03455863135801827 0.18143806294690992 0 0 255
0.034833691911321615 0.03326317258995591 0.17321801136148574 255 0 0
0.03982582424813958 -0.007296653481528415 0.17229839242131112 244 208 63
0.042262852289118184 -0.008931278258989029 0.1745870270403787 244 208 63
0.02266251221734197 -0.031486312146713435 0.17223508860992295 244 208 63
0.03600303159557581 0.018411638182534405 0.17431453837280184 255 0 0
0.017594471337775863 0.015463021588234368 0.17728567089019875 255 0 0
0.026750653957116798 -0.0035830386778684213 0.17615923103776038 244 208 63
0.024528070055338788 0.03019434307021185 0.17842949981841016 255 0 0
0.03425895469653172 0.029395748998381023 0.18065378561202733 255 0 0
0.041518677792266416 -0.011632560880463272 0.1840763028163995 0 0 255
0.010310318726425263 0.020955329628565323 0.17054539437506527 255 0 0
0.03455435600027615 0.021133937802026062 0.17398191140245547 255 0 0
0.05444813513546934 0.010091818861965272 0.17435006265662586 255 0 0
-0.034975365401029065 0.014300390216712242 0.1672105911013123 244 208 63
0.04589172353692259 0.021700719967436055 0.17302296527453476 255 0 0
0.05574572703883463 0.021568221828600388 0.17469567426120527 255 0 0
0.054103146320589546 0.023471610319987082 0.1746737623581115 255 0 0
0.028982263348191605 -0.003517727872181212 0.1707279222179274 244 208 63
0.0313617694418414 0.04873971467807225 0.17323583717052612 255 0 0
0.00873290220426673 0.02281782448070055 0.18347541399785702 0 255 0
0.057301361668160286 0.01578424720713855 0.17525556192960248 255 0 0
0.03141494882864698 0.019401457555253816 0.17260753530241188 255 0 0
-0.0024119037317118673 -0.030893194289668403 0.16874647947196605 244 208 63
0.05091593642809432 -0.006974396080875678 0.17413917081890642 244 208 63
0.01061102989037148 0.02078047551462365 0.17128041834119825 255 0 0
0.04404745513032232 0.015923008274299606 0.1855178859284925 0 255 0
0.028991642596883135 0.014180911522766376 0.18443091173854548 0 255 0
0.04965400107511857 0.025137161513153303 0.17987569638878337 255 0 0
0.025876274215001518 -0.001358363612976231 0.1705555670360684 244 208 63
0.009672088879553016 0.021068682224747004 0.172676944065049 255 0 0
0.03699827817760956 0.020488899522018853 0.17237245105523408 255 0 0
0.017585278078676856 0.01593624675077217 0.1751594072039582 255 0 0
0.009938554018092884 0.050978463923823644 0.17244926314298029 255 0 0
0.050277030367617166 0.02318593633365712 0.17660598325278176 255 0 0
0.03843443994325851 -0.014958929191512168 0.1725745228784057 244 208 63
-0.0018385795764073176 -0.027546122120805913 0.1675578212038142 244 208 63
0.010375728223024992 0.021205668211190253 0.17128432333126484 255 0 0
0.034086361730740984 -0.009739701666020138 0.17261524248341237 244 208 63
0.041581127867313675 0.01357920639089592 0.17880225108298214 255 0 0
0.04028876866281705 -0.01682466421444012 0.17086927428351265 244 208 63
0.0456243066818869 -0.01565626651818939 0.17338447821358877 244 208 63
0.03324663504948614 0.017190419665813708 0.17371237332659797 255 0 0
0.00488843070772133 -0.033553890466552175 0.1709513596152307 244 208 63
0.0482152056664206 -0.014527334692892649 0.17150527051535894 244 208 63
0.051396836236236254 0.0221063280924456 0.17508048409380983 255 0 0
0.029739237533967403 0.01590436023902661 0.18456048011763063 0 255 0
-0.03429620910014918 0.020596460850544743 0.1675467496774391 255 0 0
0.010385286087013406 0.020923391536407366 0.170548931240328 255 0 0
0.011785908889016124 0.052271455781578144 0.17317472427852282 255 0 0
0.02721695084659386 -0.004723834998719872 0.170554207595776 244 208 63
-0.03591667009934937 0.015044487133353192 0.168808765497249 244 208 63
0.0263869942217032 -0.0036658414349633565 0.17913760057966183 0 0 255
0.005783671330346647 0.03678862387773105 0.17748091051119594 255 0 0
0.019363612037139568 -0.03318100168461212 0.1697350863421094 244 208 63
0.030486581985770995 -0.00664083907685852 0.17170432354952703 244 208 63
-0.022923841463884462 0.024507730497306694 0.1684876484772997 255 0 0
0.033396707941952035 0.030782635668962256 0.17904956082247286 255 0 0
0.0277372743877544 0.018150770073584843 0.18023537047331523 0 255 0
0.05119847006847416 0.022285153474452955 0.17453323157412387 255 0 0
0.03034515463989715 0.017004760043366294 0.1798199162217739 0 255 0
-0.023934769018613758 0.024439750773002318 0.17814512999399718 0 255 0
0.05622522765067841 0.019529784641448274 0.17361353445952918 255 0 0
-0.040811750486470406 0.017225279226996962 0.17861644429732154 0 0 255
0.03574554214753167 -0.0035267170021961195 0.1792327954959566 0 0 255
0.05612695651085754 -0.0072876255509755315 0.17447307712280455 244 208 63
0.06488081881278429 -0.002917530698259461 0.1747178682871658 244 208 63
0.02689692869966692 -0.01677171692471713 0.17208098831388932 244 208 63
0.020671886308784138 -0.01934454159357116 0.18232649374298399 0 0 255
0.0623839553885058 0.007624639731549546 0.1755800295036871 255 0 0
0.0013606254041785403 0.024712837439775173 0.1712050966819043 255 0 0
0.040213463398026304 -0.016815162741637177 0.1708646786963294 244 208 63
0.034859313662544966 -0.009370803942024943 0.17214170306004095 244 208 63
0.03732883959039656 -0.004738460661970704 0.1712295404135843 244 208 63
0.048781929062646626 0.023414835736123588 0.18295911503804385 0 255 0
0.016682287264941857 0.014595741027827933 0.1836271536652217 0 255 0
0.05462286340526458 0.01004999578146597 0.17327532103631693 255 0 0
0.03414888528362581 -0.006408782555168993 0.1726828706796869 244 208 63
-0.035104280621026406 0.020678002765679958 0.17078218480900426 255 0 0
0.009088418171507965 0.04953472289054775 0.1782904621037259 255 0 0
0.0420880076634034 -0.012394353802962534 0.17119415198742405 244 208 63
0.05063363203503434 0.02245239079676092 0.18303846050300565 0 255 0
0.06224268318784551 -0.004124537056728621 0.17292345225159164 244 208 63
0.03767907026970089 -0.0172700100005052 0.17097130682856887 244 208 63
0.019819539343458287 -0.020452458168257234 0.17143786680041095 244 208 63
0.05440890849463175 0.017724911260641452 0.1744288185549508 255 0 0
0.04794593054097357 0.022458120359503543 0.17493832715126903 255 0 0
0.003676947645112936 -0.03487395961516958 0.1708094072387666 244 208 63
-0.0010151634816117664 -0.011084583926235944 0.17159432930002155 244 208 63
0.0367883145069117 -0.003107069108503134 0.17932188727244602 0 0 255
0.03603023514120509 -0.002526636520308644 0.17262642371105474 244 208 63
0.027026940723101443 -0.0038273530571124956 0.1731599106050585 244 208 63
0.06119036743899227 0.005563137336534 0.17544798942797876 255 0 0
0.0403140501043941 -0.009601452592999337 0.17114010385746417 244 208 63
0.024773330300089994 -0.0018397525805447339 0.1726285838782546 244 208 63
0.04823465656499641 -0.01739091314738917 0.17130989829319734 244 208 63
0.03176316718925713 -0.008215332004430954 0.18143442150513392 0 0 255
0.042341720177484395 -0.016259497479826857 0.17236253356768358 244 208 63
0.02404429619347434 0.025489338117234195 0.1717373631404177 255 0 0
0.027957957314404015 -0.02464995180853325 0.17183105666698734 244 208 63
0.02953574055387055 -0.0054097042942686645 0.1720591072347464 244 208 63
0.04115105186400928 -0.015839634601839778 0.17307696052109753 244 208 63
0.033646168542831534 -0.009849348744223297 0.1717673805457915 244 208 63
0.04099365671417261 -0.016258403185317183 0.172659782662177 244 208 63
0.040028729802234 -0.008218809186176542 0.17281162099029232 244 208 63
0.04752531914431036 0.026905989011757184 0.17330812578247232 255 0 0
0.04946133973004605 0.023246750492363213 0.17456996013800535 255 0 0
0.01909808983115701 -0.0339999765232235 0.18154448715868665 0 0 255
0.011921083074503621 0.048989289384321996 0.1719476980033912 255 0 0
0.030528399346820247 0.018073202238382685 0.1729568695451224 255 0 0
0.03802621629335075 0.013204837727527442 0.18498982295177913 0 255 0
0.039831318030554785 0.014653197176568083 0.18517738490570768 0 255 0
0.005319087903686419 -0.00031284376787771816 0.16929397513810537 244 208 63
0.05718875627186131 0.017808496388093537 0.17570301039495773 255 0 0
0.006620556788765913 0.03669538498012294 0.17247159256863165 255 0 0
0.03392862177395725 0.04908646295608847 0.17670914280129807 255 0 0
0.027934490041656518 0.01959020366761961 0.1738295602759511 255 0 0
0.04829740076205635 0.023748817790657368 0.1748406827523995 255 0 0
0.006769117922040439 0.03464200593488305 0.1725674518980457 255 0 0
0.03731261607870228 -0.00676763546813364 0.17107031635149947 244 208 63
0.03799062690108267 -0.003042361594069813 0.17457336927445655 244 208 63
0.02737232364541664 0.018047419642548572 0.18450121260120558 0 255 0
0.05456884394066109 0.01001268036716602 0.17408335677661704 255 0 0
0.0295137380946307 -0.003971323312665233 0.1706780742131796 244 208 63
0.044341414544156285 0.013231823252914655 0.17897074172755442 255 0 0
0.04922298974081235 0.023423408385835866 0.1738030347857136 255 0 0
0.008120990439552387 0.04365018327220686 0.17144708905013067 255 0 0
0.04767645015063526 0.026737852073273078 0.1754794471687545 255 0 0
0.049776069154956484 -0.011573912872921902 0.17222381938139267 244 208 63
0.05198206749339294 -0.005516549230022655 0.17400664767841473 244 208 63
0.04852237985810407 0.023674966058932302 0.17463540937767075 255 0 0
0.03785414269449955 0.030335670889840842 0.17281996448708156 255 0 0
0.04932262061734519 0.023324093722642866 0.17445580443308006 255 0 0
-0.005818726397666038 -0.0194752646069553 0.16868451253697325 244 208 63
0.03773186810529771 -0.005291044529999861 0.173335516575446 244 208 63
0.04150211788183962 -0.016286418457936155 0.1716854522753059 244 208 63
0.01947991186806429 -0.013237168140924915 0.17138687091743032 244 208 63
0.012518336647239026 0.019018756149051796 0.1758220211684638 255 0 0
0.038248116484981914 -0.002509449096740668 0.1726851141877004 244 208 63
0.045701575896097205 0.020096335630056156 0.1761574222386231 255 0 0
0.02738745679152514 -0.025044040560167957 0.18036473643833864 0 0 255
0.05363624778945618 0.01982959753372269 0.17447435926658322 255 0 0
0.05618617469324543 0.008813755691221312 0.1817060725026794 0 255 0
0.03961452599574165 -0.01703407453852516 0.17854554569938866 0 0 255
0.036510906120595744 0.03791359817650204 0.17452610416390923 255 0 0
0.05246555321208148 0.020666816635843546 0.18629973046112697 0 255 0
0.06585501094224509 0.00340021862325669 0.17344801139785732 255 0 0
0.01044964974194434 0.020776180156083093 0.1721731764232242 255 0 0
0.03885669975430994 -0.0056136734553238025 0.17312469464941851 244 208 63
0.03057856064887966 0.013751177401548399 0.1780746401722627 255 0 0
0.017233761388576272 -0.017747200899705017 0.17138993012755058 244 208 63
0.04305210129596419 -0.009775310073819 0.171857363393896 244 208 63
0.0163589578783173 0.018581815281691727 0.17219576533784012 255 0 0
0.056788506509450574 0.008620427858059037 0.17958990878814737 255 0 0
0.02706298335681838 -0.0038979094736015726 0.1727295627689645 244 208 63
0.02725446154928109 0.0181878180784696 0.18449981684422284 0 255 0
0.0201350077353245 -0.005043950771123941 0.17054378722530028 244 208 63
0.050140645807847065 0.022989984466667793 0.1734105749444769 255 0 0
-0.031076902151671696 0.007010527628846732 0.1800840291721698 0 0 255
0.03255563341420225 0.01512969171159646 0.17320951311476285 255 0 0
0.029911783733621838 -0.006741300390991188 0.1706411974024133 244 208 63
0.040471364921849426 -0.015579890813165853 0.17609298044032273 244 208 63
0.02600830352669438 -0.026190562700524517 0.171629570792831 244 208 63
0.04785822485806852 0.023018280545399665 0.17531982801606824 255 0 0
0.025482753822103334 -0.02622558573967735 0.17154986329069427 244 208 63
0.04173499945227085 0.01450167389416104 0.17234819036293358 255 0 0
0.04116133355228069 -0.015894656488776734 0.17226173671067405 244 208 63
0.022941197541348143 -0.01843559119178932 0.16993221152949073 244 208 63
0.026226646689567645 -0.0036273402474132944 0.17483365274149967 244 208 63
0.024386212394895416 0.05387042781187103 0.17517542241206344 255 0 0
0.03808886924899589 0.017071089772782065 0.17276533485885312 255 0 0
0.026726822582095095 -0.028480564117346598 0.1780143652247393 0 0 255
0.029587787194780907 0.014233555482790363 0.17296972030761082 255 0 0
0.030637280420232067 0.01655791412316058 0.1717656659620637 255 0 0
0.032993649245470304 0.016628556919450498 0.17366951346642323 255 0 0
-0.03630445801574684 0.02007679373768886 0.16745292551576074 255 0 0
0.007756725201831858 0.022029904236645994 0.1709665456555337 255 0 0
0.042331430675926776 -0.016266605232863298 0.17251644632986018 244 208 63
0.03931255491888136 -0.013400217821060122 0.17089772258362973 244 208 63
0.02882795277300647 0.034896872747291856 0.17387316350879092 255 0 0
0.005776987065592856 0.03655491842563555 0.17746967103784173 255 0 0
0.0007888340991470417 -0.03408339255396926 0.18031660966986474 0 0 255
-0.030301060138273293 0.022677293985940625 0.17119562169351266 255 0 0
0.0479423254939013 0.018718979434772652 0.17458466501992337 255 0 0
0.03425070908607606 0.018112781098613667 0.17364134742646434 255 0 0
0.03839977774727215 -0.005678936259645177 0.18414273633666672 0 0 255
0.021409054632827967 -0.003847641718498891 0.1723109474513314 244 208 63
-0.034342382811222864 0.023625035879344704 0.16876801493388388 255 0 0
0.027091508516905997 -0.0038782049434946 0.17230287677683623 244 208 63
0.055726536016294716 0.01868304362901032 0.18320486551262782 0 255 0
0.03247153777463544 -0.009854686955433008 0.18355357896051813 0 0 255
-0.0007645188763004259 -0.010883559409877928 0.16839910900944538 244 208 63
-0.040449477616140594 0.019397947904218785 0.16816452983242355 255 0 0
0.015285915113520513 0.0006143718401102546 0.17156541399416206 244 208 63
0.028087329837418067 -0.019121674445798875 0.1828325291183689 0 0 255
0.027801789342492233 -0.02788653116035885 0.17126669840550643 244 208 63
0.02453301152389738 0.020120148950397588 0.1725421437506881 255 0 0
0.02719637809342654 -0.0016126966941623615 0.1749915190631732 244 208 63
0.023851487448792758 0.021906361017498176 0.17312131921752663 255 0 0
-0.025243524197646094 0.024375060900793166 0.16839087578829456 255 0 0
0.050807804906961906 -0.007373913325031291 0.1832833414040863 0 0 255
0.03158064060521559 0.03486068530340912 0.17260953018570613 255 0 0
0.005792825159757714 0.03563925527794669 0.1774284441679316 255 0 0
0.01717678359860162 0.015026772369962502 0.18368011733770084 0 255 0
0.019309824101608624 0.05445232068741043 0.17269394112199685 255 0 0
0.0045813500815467 -0.035657637225191545 0.17727619139373574 0 0 255
0.05005421500921472 0.02293028004192173 0.17470342697235694 255 0 0
0.04160643009693591 -0.01720494853446195 0.1816773272544953 0 0 255
0.00553024234531045 0.04395559515807067 0.17779494167573434 255 0 0
0.02532271579304049 0.02741164160752234 0.18157537466851487 0 255 0
0.002429065891167795 -0.007014086886121743 0.18167633516744022 0 0 255
-0.003436233739517427 -0.02195180499847475 0.16770936133072353 244 208 63
0.025287805815690727 -0.027424377614994493 0.17796693801768393 0 0 255
0.016715752492073962 0.018318965803333566 0.171122988277682 255 0 0
0.039375546943406406 -0.014221705434701623 0.17414968850053103 244 208 63
-0.003105922047352218 -0.020865543189713065 0.1698861587183271 244 208 63
0.016964583626739315 0.015939915209557984 0.18156059351867962 0 255 0
0.057353156283131486 0.015617679502773152 0.17416684112389713 255 0 0
0.04673759757755879 0.015153281035433591 0.17379721090398534 255 0 0
0.025755336143611557 -0.026672143216577487 0.17373792606822056 244 208 63
0.04405946768164307 -0.01603486318577503 0.17287506392519286 244 208 63
-0.007629619762669319 0.00038185718206099235 0.17919792441231697 0 0 255
0.020641638495381275 -0.01768059678786202 0.17053634091944048 244 208 63
0.0634051937138746 -0.0004630283035676392 0.17364806983868555 244 208 63
0.0263794816894704 0.03361613179406388 0.17437332657046845 255 0 0
-0.004956461839372734 -0.01426620499995925 0.1808476861208778 0 0 255
0.037559404595046336 -0.006152455518520703 0.17111522411535474 244 208 63
0.0501052743271776 0.022487126371798956 0.1862260018043922 0 255 0
0.02542707065016698 0.02692953553871473 0.17833883041954252 255 0 0
0.03283891069371658 0.017433512929648433 0.17195328664923382 255 0 0
0.030006257272456763 -0.006098635099794485 0.17133575580737928 244 208 63
0.01717345334530148 -0.01760712640616101 0.17139236706128042 244 208 63
-0.004049431712853222 -0.028587762128166903 0.1694664672751541 244 208 63
0.027017930388771275 -0.0033543277253858354 0.17189265166758863 244 208 63
0.017432174123508903 -0.018151257332685106 0.1713845350895984 244 208 63
0.04120988930418207 0.014858825227201075 0.17449856114668527 255 0 0
