ply
format ascii 1.0
element vertex 741
property float x
property float y
property float z
end_header
0.04036093022693606 0.006445983162127449 -0.0010610651493217409
-0.00016767839690739035 0.024003810392104852 -0.012669802245860819
0.040997460237713 -0.00368302881817568 -0.0010610651493217422
0.026048433464192076 -0.018953266876505212 -0.0014147541227125546
0.043910535258232776 0.0020910188770240467 -0.0021221357376848995
-0.004193363210972159 -0.027210298695413894 -0.0005305261553271068
0.011045278238281548 0.018522332618992738 5.533908420766844e-09
0.020620635138615267 0.019813289613416316 -0.0005305261553271024
0.010773300597055897 0.03069832847085328 -0.000707376112686258
-0.008618995858877165 0.008018229802934755 -6.303437912690665e-05
-0.0019540041509797214 0.00921116668974189 -0.0032147282273392477
-0.016337949564633122 0.03851682962242667 -0.0021221357376848926
0.02050879539922097 0.01995146862709929 -0.0015916040484493731
0.03509481273625836 0.024967930686488317 -0.01266980224586082
0.010700845045844853 0.027309614771670352 -0.0010610651493217374
0.02059740912555572 -0.019305612816449557 -0.0005305261553271069
0.03648349511278961 -0.008039793369907136 -0.0005305261553271063
0.030204262170176435 -0.02440330826917244 -0.006366418217626868
-0.0002951100728952801 -0.011521578707635658 -0.002122135737684899
0.045257310134668494 0.02213749751278565 -0.0010610651493217394
0.010360727112720194 0.0302049911784648 -6.30343791269049e-05
0.01266951770705007 0.020661350623737203 -0.0007957993047039767
0.0012816247388221474 0.007749251447789337 -0.012669802245860822
0.014252964207592667 -0.016219448419135356 -0.0032147282273392516
0.021253540872412977 -0.004989527636112518 -6.30343791269094e-05
0.027511574976178375 0.002476798284170779 -0.000353683471104727
0.048048417815430365 0.015829162110770227 -0.006366418217626864
0.017996794641037563 -0.004879055702732331 -0.0008488495643728204
0.018248726058344447 -0.01853745034710222 -0.0010610651493217428
0.033769181782730695 -0.004916900288603302 -6.303437912690991e-05
0.02145569891372674 0.018359076746102286 -0.0005305261553271027
0.02644065427996323 -0.036114753256638855 -0.012669802245860827
-0.034852918401280894 -0.022760494636558135 -6.30343791269091e-05
0.004709801521130526 -0.007820426840518065 -6.303437912690903e-05
0.028411757517855976 -0.0009868792845761818 -0.0008488495643728204
0.01163848341243073 0.012384966669718452 -0.002122135737684897
0.0027140569099539207 -0.03974729524718561 -0.0005305261553271085
0.002389521100742878 0.017793186346426213 -0.01266980224586082
0.0001869862429272419 0.02239988361456221 -0.01266980224586082
-0.0010865218841101276 -0.013486682165983368 5.533908417591418e-09
0.0014714006809152488 0.02424879254077748 -6.303437912690521e-05
0.02093102524245111 0.015816695647699393 -0.001638879437515382
0.035339642973318715 0.021466094650415508 -0.004790569554292332
0.035088880300142324 0.021061652377599913 -0.002122135737684897
0.0430076446476234 -0.005593973805898704 -0.0021221357376849004
-0.004957491106570194 -0.014642937833247618 -0.002122135737684899
0.031497302690199055 -0.0008185817393888661 -6.303437912690934e-05
0.00468208862625301 0.03119098909930631 -0.0015916040484493712
0.022686647656246593 0.029539714930993603 -0.00151581075331606
0.011835677638648802 0.01987994847212957 -0.002122135737684896
0.04788188897569402 0.015386322829985366 -0.00426529273800225
0.004645858822884896 0.042146089729085574 -0.0010610651493217355
0.010872562670325853 0.03021427246781764 -0.000707376112686258
0.007826348526395323 0.03737653392610266 -0.002164163716676244
0.011415761469992519 0.01489336696796223 -0.010988896600204781
-0.006690834125412432 0.04303846013587084 -0.009518108966850484
-0.004347175258266612 0.044781788896626096 -0.012669802245860817
-0.025907228725310608 -0.02069324120726336 -0.002122135737684899
0.015829719419329875 -0.004068910675206218 -0.009518108966850491
0.03634515884545292 -0.007862248382798026 5.533908416670833e-09
0.02510880660845656 -0.006665617959908821 -0.00216416371667625
0.02447220294489241 -0.00522988380875346 -0.0032147282273392508
-0.04821154508465658 -0.01300559942928139 -6.30343791269074e-05
0.021788221464816557 0.0321684611737163 -0.000530526155327101
0.025938746081096548 0.029834653935229927 -0.0003031606264667198
0.012899573777349519 -0.013609638446831458 -0.0005305261553271059
0.02557523487459033 -0.004359033617516022 -0.006366418217626866
0.024073999635978387 -0.03809163554020698 -6.303437912691333e-05
0.0016451937028706114 -0.009468126107107644 -0.003845061772972171
0.0017075520097788257 0.017769768126309038 -0.0015916040484493727
-0.02095666100137509 0.030521010033942066 -0.0010610651493217357
0.03731220722508389 -0.010621436671238226 -0.0014147541227125541
0.028590977365481218 -0.033151502773299577 -0.009518108966850495
0.025858891473216027 0.0016557361303127438 -0.0017684467642940871
0.021211862100097234 0.018717988751058137 -0.0007957993047039772
0.04263028721555265 -0.005138459149224878 -6.30343791269103e-05
0.01978217476936212 -0.022024909150268192 -0.0003536834711047295
0.0019891674699349044 0.025065043322060065 5.533908421899092e-09
0.001613637529999132 -0.009544998378617185 -0.005105743537000906
0.022679297470867117 0.029524098013519927 -0.0006063195453274154
0.04097507771653946 -0.003729937938275767 5.53390841695245e-09
0.02773919223093674 -0.0006149569612305098 -0.004265292738002251
0.02173534288472246 0.031571586635619896 -0.012669802245860819
0.013901757242257649 0.018084177862200942 -0.0014147541227125498
0.0008571326131711549 -0.010852708257695567 -6.303437912690922e-05
0.04212140813301069 -0.0011949595135535428 -0.009518108966850491
5.1309582944795625e-05 -0.03289937793810054 -0.0063664182176268675
0.020579269476127586 -0.03821121680985231 -0.0032147282273392542
-0.042094387706752945 -0.008075384385804735 -0.00951810896685049
0.021552630913861583 0.01829715890905903 5.533908420300826e-09
0.029700940671300528 0.00043183038625803615 -0.004265292738002251
0.035939976591633845 0.023110120126626773 -6.303437912690678e-05
0.02661097589286177 0.03031200209361793 -0.009518108966850488
0.02996850140479444 -0.02337138140787266 -6.303437912691188e-05
0.02270235538370763 0.029555121636536542 -0.0012884379513188988
0.0028172677589497694 0.02828874447670558 -0.003214728227339246
-0.02574017649107602 -0.021127715904517366 -0.006366418217626866
-0.042850710586494554 -0.006521119241934123 -0.01266980224586082
0.042678210961903926 0.022387338452995426 -0.012669802245860822
0.010776118626718215 0.02736921014220157 5.533908421796209e-09
0.005964339561495492 0.0286096979045268 5.533908422140506e-09
0.014252964207592667 -0.016219448419135356 -0.009518108966850491
0.04788111875012928 0.011560916669396707 -0.006366418217626865
0.044932683955957675 0.011070729149262808 5.5339084184899325e-09
0.03176302724572174 -0.001071632331408221 -0.006366418217626866
0.0246594393131766 -0.038385330495794026 5.533908413647723e-09
0.005205997649497896 -0.04126222786495327 5.5339084141314674e-09
0.02343814748753887 0.03242697531576726 -0.0015916040484493718
0.0038722031847698416 -0.005731116130641697 -6.303437912690876e-05
0.014596241035230124 0.021129153635421317 -0.008467544203208817
0.02799465733978231 -0.0026619520247281097 -0.012669802245860824
0.032120787166219716 0.03048148862456128 -0.0021221357376848956
0.0229922506974905 0.023387808690640353 -0.001591604048449373
0.037700601601332685 -0.010404035798406716 5.533908416321553e-09
0.019436728458125375 0.016314298453494462 -0.0017684467642940852
0.023021582754053645 0.029655444484608544 -0.0008336923473245765
-0.017419267744710462 0.037604440849114705 -0.001061065149321735
0.02010775626777469 0.016298873816010754 -0.003214728227339248
0.03572565374798257 -0.00688191473899315 -0.012669802245860824
0.02176405342030422 0.029641223303088455 -0.010148445801206126
-0.016266059979482755 -0.020589795988547863 5.533908417409799e-09
-0.0011257208068166256 -0.035473641594217536 -0.0005305261553271079
0.020595258770714775 -0.004409405093628653 -0.012669802245860824
0.020704123325083496 0.015854837093001593 -0.003214728227339248
0.01549878408163142 -0.012413960863346774 -0.0010610651493217422
0.04157167447976147 0.002178548279188028 -0.012669802245860824
0.017188343563877904 -0.0211558821812937 -0.00035368347110472926
0.025747209065545607 -0.002702792828869553 -0.0005305261553271053
-0.02241028491000713 -0.022674284891589847 -0.0010610651493217417
0.027978924150483173 -0.030430071353218686 -0.003214728227339254
0.023352004420332296 -0.01828970786036098 -6.303437912691101e-05
0.0227961163893163 0.0301607165379408 -6.303437912690541e-05
0.0483116075524671 0.017279826673480696 -0.00951810896685049
0.03884793027588182 -0.006359798620714102 -0.001591604048449377
0.020383309409210005 0.019143321399057164 -0.007942263339260005
-0.0014752053178293295 -0.024535031866219317 -0.0010610651493217428
-0.0035631213581483632 0.04475239584431702 -6.303437912690264e-05
0.016213575641676654 -0.007764092293704783 -0.0018568698930671377
0.03522430251546099 0.02147830914485439 -6.303437912690693e-05
-0.0006059465943415168 -0.031459766462094425 -0.0063664182176268675
0.03188290071421423 -0.0011890545530446673 -0.009518108966850491
0.0012566756335667061 0.006675685614873233 -0.001591604048449374
0.016022849356836826 0.019872876746904952 -0.004265292738002248
0.010764441806835433 0.01757739506235728 -0.0014147541227125498
0.03225662253831037 0.026986373783219483 -0.009518108966850488
0.016541944494191697 -0.04197120108211715 -0.0010610651493217454
0.004336538849139662 0.018782708724538504 -0.0005305261553271019
0.022808544729213575 -0.039515144781732334 -0.0021221357376849034
0.041345369175508545 0.0029617640928325077 -6.303437912690933e-05
0.009591255018821767 0.03459213911304177 -0.0021221357376848943
-0.004197463211563531 -0.027186187618880493 5.533908416145194e-09
0.019323070951634897 0.03073498368871428 -0.0017684467642940834
0.011380649835663528 0.0146219047626017 -0.008467544203208817
0.016511681873794523 -0.03973984175016181 -0.0032147282273392542
0.038594294387090076 -0.006570674348958787 -0.0007427453768444168
0.0018696311645545023 -0.006527175161086635 -0.0005305261553271047
0.03515538069761205 0.02104923155558919 5.533908420047776e-09
0.01570639931025276 -0.015498353686298401 -0.0032147282273392516
0.040495047390289224 -0.004548908147044288 -0.0002652603107093446
0.02632344248550482 0.02982569525527849 5.5339084214276934e-09
0.022724433042630998 0.029430882580658044 5.533908421533004e-09
0.01509769982345852 -0.009589721847358517 -0.012669802245860824
0.028267029140296725 0.0026443930748507104 -0.0017684467642940871
0.024850313840334926 -0.01568617083045045 -0.011093953582526295
0.04046369822378894 -0.008497889417019231 -0.0010610651493217426
0.0008897381554052393 0.0190563125682029 -0.0015916040484493725
0.00517199880084645 0.029090394340929658 -0.003214728227339246
0.04375907855361739 -0.0010492970985442522 -0.012669802245860824
0.011387815491924235 0.014635007897608963 -0.010988896600204781
-0.021499745739610002 0.021225188674192274 -0.012669802245860819
0.020899867299226018 -0.0039353956700652355 -0.0010610651493217413
0.03509827282458476 0.021059823452211888 -0.0002652603107093414
-0.0036353253154863163 -0.029435633677341144 5.533908415862784e-09
-0.030619785731101624 -0.020975720834341845 5.5339084179665985e-09
-0.00012338309878140249 0.02647442805488529 -0.003214728227339246
0.022843042580455764 0.029614223104844788 -0.0005305261553271014
0.013460620609559128 -0.04204098368323832 -0.012669802245860827
0.02840736457347804 -0.0004823499583638285 -0.0016977082359777807
0.015342934671824172 -0.014407536765120358 -0.003214728227339251
-0.002265684300755502 -0.016200543774238258 -0.0010610651493217417
0.036253524142537734 0.02140183319781988 -0.007942263339260005
0.018756660328497647 -0.019426365461630013 -0.006366418217626867
-0.021671589407657763 0.006615341193130771 5.533908420766956e-09
0.028062181918187858 0.0004587592540364688 -0.012669802245860824
-0.04769547734559702 -0.01809157100249403 -0.0013237126646989225
0.04496301216026795 0.02165323145141097 -6.303437912690732e-05
0.04023648048774882 0.022797346992808953 -0.009518108966850488
0.012952593164649423 0.01698064821124642 -0.008467544203208817
-0.02833165101139459 0.0016921684049288818 5.533908420479361e-09
0.02289611651884455 0.029628276761067204 -0.0001515775462791491
0.00047980723721906563 -0.033699421139057335 -6.303437912691184e-05
0.011038906417756353 0.028668212593683122 5.53390842193469e-09
-0.0007605979911401802 -0.012733924568696224 -0.0010610651493217415
0.04522938174960832 0.01917466478154343 5.533908419410099e-09
0.022764548665697555 0.024143985608351803 5.533908420922912e-09
-0.001061416429908664 -0.021289992119840402 -0.001591604048449377
0.04869006888215472 0.02041953044352633 -0.0015916040484493744
0.008147949495601724 -0.04169156291674611 -0.012669802245860827
0.020899284823777092 0.018120118811601086 -0.010148445801206126
0.020574036730601264 -0.02201030066818421 -0.00035368347110472954
-0.030139045736116792 -0.020979119628448187 -0.002122135737684899
0.03060005501234025 -7.220075818603149e-05 -0.006366418217626865
0.03535919129260487 0.021016555475882985 -0.0015916040484493738
0.025214553371423472 -0.014555026728764612 -0.0015916040484493775
0.033613646967035754 -0.009616233320308119 5.533908416583396e-09
-0.003642169659044939 -0.023174973087802746 -0.012669802245860824
-0.04769744213186918 -0.015535623411089992 -0.003214728227339249
0.006126131184132734 -0.004607642919211632 -0.0012379078651664525
0.03636763896492752 -0.007973942022220959 -0.0010610651493217424
0.014366344828367208 0.019292063051565143 -0.008467544203208817
0.012899573777349519 -0.013609638446831458 -0.0015916040484493768
0.023984170582759638 -0.004875223668028242 5.533908417532322e-09
0.02968270988511293 -0.00014774475030516397 -0.0019099238209267016
0.023925920318460473 -0.020668397358618137 -0.0003536834711047295
0.016791424187645267 -0.00213578897044272 -0.0017684467642940871
0.001745666333144291 0.007894867124809656 -0.002122135737684897
0.041174952390846065 0.0066102823152465046 -0.006366418217626865
0.017802634569476113 -0.0011388087091192584 -0.0021221357376848987
0.013009811083322944 0.015844435014165107 -0.008467544203208817
0.020165738646832732 0.028170756279243845 -0.0010610651493217376
0.01501125185027292 -0.012870028708834741 -0.012669802245860824
0.007183000452305286 0.03957750582500729 5.533908423351628e-09
0.019096895649546364 0.016898548214652018 -0.0007073761126862599
0.013329357108235603 0.014441194722123886 -0.01266980224586082
0.024741071925171144 -0.019250347127727763 -0.012669802245860826
0.006251795980556194 0.04070163195530699 -0.0005305261553270994
-0.007765980099053431 -0.013958153409169645 -0.012669802245860824
0.004443814337781993 -0.03757835640335311 -0.0015916040484493792
0.01752210165616427 -0.005396426249386832 -0.00026526031070934374
0.0018344889341685882 0.029507444749893696 -0.009518108966850486
0.01098573972620309 -0.040465830940277905 -0.0032147282273392542
-0.01935980414400185 0.021631154561111685 5.533908422398133e-09
0.005026709322902229 -0.007322450810703819 -0.002164163716676249
0.003616211592110187 -0.010576733948623174 -0.001591604048449376
-0.0026853675811285595 -0.013108679210999062 -0.0010610651493217413
0.028400358649960555 -0.0037919625582043793 -0.0010610651493217415
0.020726522468983644 0.028287682546528862 -0.009518108966850488
0.01869581988144461 -0.0008730345159264251 -0.000353683471104727
-0.012208883898187336 0.014101514888055066 -0.0021221357376848956
0.022679297470867117 0.029524098013519927 -0.00151581075331606
0.0033107619381212254 0.04032678541892254 -6.303437912690343e-05
0.0022551737587300975 0.02765625043464708 -0.012669802245860819
0.02407707038247424 0.02760217248790879 -0.0021221357376848956
0.01920017464024086 0.02990381572527838 -0.0017684467642940837
-0.046180871456255795 -0.021282375854694016 -0.0010610651493217404
0.02204407088023249 0.029262570146223753 -0.0013237126646989201
0.011208204870116823 0.01637441196194287 -0.004265292738002248
-0.009749370897922566 0.007923833669113641 -6.303437912690662e-05
0.021810926179905703 0.030011919160730108 -0.01161923748221915
0.0313424857618712 -0.0012632731661485624 5.533908417639776e-09
0.017822208861890947 -0.0011234333701267106 -0.0014147541227125522
0.013316406463022016 -0.009962967844783318 -0.006366418217626866
0.024609623224072844 0.030296601616159526 -0.0011135989530345741
0.014990595754458795 -0.004440178678237266 -0.002122135737684899
-0.0016331118286522042 -0.01175442354983991 -0.006366418217626865
0.01275270678896322 -0.01096604471649992 -0.0021221357376848995
0.01802008537233615 -0.004889370803277304 -0.0006366375843699553
0.03719482901926015 -0.007624757642286176 -0.0014854926510288607
-0.017485531822388312 0.03821920479242957 -0.003214728227339244
0.043088650942038405 0.008406962234039675 -6.303437912690877e-05
-0.0034814698158018246 -0.02770409687701646 -0.009518108966850493
0.00565645230782992 0.028644896318830368 -0.0021221357376848948
-0.03216362703195114 -0.020919214534801882 5.533908418037766e-09
-0.019962054104002726 0.004897693874408552 -0.01266980224586082
0.002041688946706801 0.024020371201585042 -0.00035368347110472346
0.023631595644333325 0.029738679213374707 -0.0010610651493217376
0.04594236661240279 0.011641380214555094 -0.01056867271857748
0.022686647656246593 0.029539714930993603 -0.0005305261553271014
0.02568983940188667 -0.019030148342304692 -0.0021221357376849013
0.0394119759178818 -0.006491839055351052 -0.009518108966850491
0.022888104157110612 0.01966541107147198 -0.0007957993047039772
-0.0007682103313240855 -0.01112679385060198 -0.012669802245860824
0.018109250348854872 -0.004953851775733082 -0.0020160280084551064
-0.021088840897341008 0.03245490769112044 -0.0032147282273392442
0.01995028078322209 0.019715601312102975 -0.009518108966850488
-0.016078642137271597 0.04194302725103145 5.533908424598173e-09
0.02534306604624751 -0.03420609424576388 5.533908414100032e-09
0.010933775427744555 0.027819625987675102 -0.0005305261553271011
0.023281591134250285 0.027738786384747298 -0.01266980224586082
0.011357175351942353 0.015436933530977734 -0.009307995002207472
0.009371286980274385 0.035168809373209736 -0.0010610651493217363
0.030404108198075392 6.0333792765558955e-05 -0.010568672718577482
0.018884484662413138 -0.02186070031744513 -0.0007073761126862643
-0.019605355984994802 0.020988888098985473 -6.30343791269047e-05
0.01923543480393335 0.016648059699013302 -0.00035368347110472504
-0.014578616235269458 0.01571925676905707 -0.002122135737684895
-0.029577304110273483 0.0016641581596200318 -0.0032147282273392477
-0.035422688061075326 0.00017640874055008788 -0.01266980224586082
0.014128347749031671 0.01912039333152016 -0.008467544203208817
0.014759038711873302 0.019513598198130977 -0.0021641637166762463
0.021888815515412136 0.029466865838819162 -0.011409124529490815
0.036508418480457855 -0.00803090722536159 -0.0006366375843699565
0.017455176191143725 -0.017685075245664796 -0.0003536834711047289
0.0029427525516366035 0.020110080383480642 -6.303437912690574e-05
-0.02061406121101567 0.038059023124161 5.533908424341173e-09
0.01709030856978559 -0.02045029648531745 -0.0063664182176268675
0.023524857026239424 -0.005023452829900381 -0.0007957993047039801
-0.001061416429908664 -0.021289992119840402 -0.0005305261553271062
-0.021284423287201967 0.020675187667866256 -6.303437912690467e-05
0.0016440238369564632 -0.009446368646958954 -0.012669802245860824
0.0479695868953777 0.015612792652604844 -0.01056867271857748
0.004762337064384612 -0.005160818982299877 -0.006366418217626865
0.015765487419275772 0.02192585255102316 -0.000530526155327102
0.017423848298023143 -0.004664512264452336 -0.010568672718577482
0.025302176189829127 0.0007194730472420624 -0.001061065149321741
0.023937090443932087 0.02671480319295932 -0.009518108966850488
0.04110157437943691 -0.0034567145269164745 -0.0015916040484493768
-0.014583383477891726 -0.019392105831943132 -0.012669802245860824
0.014984583293626437 -0.01028618521795047 -0.012669802245860824
0.04952873438352839 0.019696377949429675 -0.002122135737684898
0.02303459738907276 0.020362041455922474 -0.0007957993047039771
0.02050879539922097 0.01995146862709929 -0.0013263309939395
0.015744067821414885 -0.007508896957579321 -0.00846754420320882
0.02178541137547444 -0.007090192067189959 -6.303437912690967e-05
0.044394337213819746 -0.000615049061447278 -0.0017684467642940882
0.009884319646798305 0.027940114696256166 -0.008467544203208815
0.01359300659504977 -0.042593121120788516 -0.00159160404844938
0.0008339643309060176 0.019158597662503725 -0.0021221357376848956
-0.0017208175274324412 0.00625913140193434 -0.0015916040484493738
-0.017836770460947105 0.04008646617023755 -0.009518108966850484
0.0017075520097788257 0.017769768126309038 -0.0005305261553271019
0.021473196348788123 0.0175654018378356 -0.007627092898252821
0.013402097933737991 0.014018182520624435 -0.004265292738002249
0.02673084695275481 0.029803389112029434 -0.0018189696405544217
0.008276610714482316 0.03624110170526317 -0.012669802245860819
0.028017047172072446 -0.02246415082128125 -0.008467544203208822
0.041105443882985995 -0.007163575603174794 -0.006366418217626867
0.041124203443436626 0.006557260248511414 -0.002164163716676249
0.04600366517585921 0.01173715856670641 -0.012669802245860822
0.002915570281050889 -0.005759411397275179 -0.0021221357376848987
-0.0024747175203083606 -0.018202640586580048 -6.303437912690993e-05
0.016006074210613664 -0.020242204285675067 -0.002122135737684901
0.030664252368233183 0.028649638743498542 -6.303437912690592e-05
0.03637856546073492 -0.008011915148660604 -0.0005305261553271063
0.03506751096578386 -0.0036052320512713542 -0.010568672718577482
0.0008393445401258235 -0.03719840868069466 -6.303437912691224e-05
0.03535539886699548 -0.010765517623710044 -6.303437912691066e-05
0.015687002108775928 -0.013673328686315803 -0.0010610651493217422
0.014161030790898806 0.021365562491457317 -0.0018568698930671343
0.01998190413541339 0.030927102585153316 -6.303437912690521e-05
0.025581639025851515 0.019173848522869137 -0.0021221357376848965
0.016740884805252376 0.01984165112206862 -0.008467544203208817
0.027973833040303916 0.029553726978946347 -0.0003536834711047239
0.02577492530068948 -0.002025601654730695 -0.0010610651493217413
0.020084582740144782 0.028281278288367517 -0.0017684467642940839
0.003616211592110187 -0.010576733948623174 -0.0005305261553271053
0.04502627393855503 0.00794257528458134 -0.00321472822733925
0.03533563009598451 -0.0025070764213276915 -0.0015916040484493764
0.04944695483608114 0.01978229333067228 5.5339084193033695e-09
0.026091983928032962 0.030330672982478664 -0.009518108966850488
0.02545516467938215 0.030326614858677364 -0.0021641637166762455
0.03495165668672214 0.021531844666689576 -0.01109395358252629
0.00873609614236545 0.028140582868981513 -0.002164163716676245
-0.0001150680470171566 -0.03256168468453072 -6.303437912691167e-05
0.018316494654590197 -0.003953919802630687 -0.00916792172421795
0.01794826578631166 0.018662531777502614 -0.001768446764294085
0.02664078885919984 -0.03590404667196607 -0.0032147282273392542
0.03085911898196623 -0.024816318443671756 5.533908414949558e-09
0.023152397143484268 0.022121319611902383 -0.0010610651493217385
0.01580431563126535 -0.01920392342573269 -0.012669802245860826
-0.03335096426327379 -0.02083839936773921 -0.0015916040484493757
-0.02131823485617361 0.01925587268215129 -0.0021221357376848948
0.017318103004722377 -0.002256770327650683 -0.00846754420320882
0.03735576149038436 0.02135868200173231 -0.01266980224586082
0.01027573732683608 0.032571524719961976 -0.0007073761126862577
0.03406374177535701 -0.008589474914015096 -0.012669802245860824
0.04179100584037194 0.007210032276467517 -6.303437912690886e-05
0.013077610540710325 0.017585421940612085 -0.010568672718577478
0.010532423243062243 0.027267215244696354 -0.002122135737684895
0.022693464327700086 0.02954744244435202 -0.0014400209998841355
0.02639176914454419 -0.03268833050932386 5.5339084142307705e-09
-0.04378669201176122 -0.02135775849665891 -0.006366418217626865
0.0006795787767997684 0.008254271202462147 -0.003214728227339248
0.028599927403175733 0.0021841979763419926 -0.00321472822733925
0.04788111875012928 0.011560916669396707 -0.012669802245860822
0.03625434477341479 0.02140179159618487 -6.303437912690699e-05
0.022678812243742213 0.029520158866538186 -0.0003031606264667197
0.04577437905284167 0.0113864459987361 -6.303437912690854e-05
0.0030609728546233915 0.02103239303928934 -0.0010610651493217376
0.020410441010840014 0.016002371810137347 -0.01266980224586082
0.007545670475218684 0.028103401558046373 -0.0010610651493217372
0.018240269769691366 -0.01916671844172592 -0.006366418217626867
0.019170889482195103 0.030159504483959758 -0.0014147541227125487
0.03508659748699976 0.021496501198037615 -0.009518108966850488
0.011679803635337143 0.018714844715486952 -6.303437912690627e-05
0.017878671481887015 -0.0016985924737889864 -0.004265292738002251
0.01056597847825494 0.03155182879374446 5.5339084222863425e-09
0.0015129841455555628 0.025767327899042545 -6.303437912690503e-05
0.0330924158274372 -0.002953214944280299 -0.009518108966850491
0.01856232439162266 -0.004445046607053162 -0.004790569554292334
0.0012609982235673952 0.007795800083538173 -6.30343791269071e-05
0.01930334197008787 0.01653127470787729 -0.00035368347110472504
0.030931217559113097 0.02775377587903893 -0.0017684467642940843
0.049146432760445516 0.020063746760847403 -0.0005305261553271036
0.017282234237969832 -0.0057704171345813425 -0.0018568698930671375
0.03522404210832016 0.02147833820297429 -0.01109395358252629
0.036707843283998835 -0.007932826863900413 -0.0021221357376849004
0.013188966257716256 0.020436468406615445 -0.01266980224586082
-0.002524336375446203 -0.013000254312171007 -0.002122135737684899
-0.04352252682130353 -0.02142168665547644 -0.006366418217626865
-0.028423988594406896 -0.02138915944630927 -0.006366418217626865
-0.003246832061754015 0.006161476800806397 5.533908419942998e-09
0.023150056915993988 0.02158565536863952 -0.0010610651493217385
0.01401316025777228 -0.04254174531945761 5.53390841361533e-09
0.012104491717753392 0.02018278793028641 5.533908420913562e-09
0.025833474811317182 -2.4515418690288797e-05 -0.010568672718577482
0.031041041900958594 -0.0004117547944045127 -0.006366418217626866
0.026183953100637154 0.0019049618677461693 -0.0007073761126862619
0.01888344912967263 -0.0014910407836377516 -0.010568672718577482
0.0009294682106753461 0.0065555236102541265 5.533908419813418e-09
0.03968320402979786 -0.005587566364267182 -0.0021221357376849
0.0015764338353904965 0.026062836395004077 -0.012669802245860819
0.0007558769290039617 0.04135118084128791 -0.0015916040484493699
0.02213196630782666 0.029151093946198903 -0.01266980224586082
0.023532521806122756 0.020282931223958398 -0.008467544203208817
-0.017591970971236732 0.004761684299533132 -0.0010610651493217387
0.028102138785246974 0.00261669975992965 5.533908418222004e-09
0.018214104837571358 -0.021091466532382683 -0.003214728227339252
0.03465637633272211 0.021926366656678537 -0.01266980224586082
0.03376503476840918 -0.0007901734820923243 -0.010568672718577482
-0.03980016211280268 -0.0026856490250421285 -0.0010610651493217387
-0.04726303259332687 -0.01780440664531373 -0.0007957993047039787
0.0014097274199038026 0.024739469877386445 -0.0021641637166762455
0.03510414415048085 -0.00199424222134834 -0.0021221357376848995
0.0016783793544015444 -0.007322541054695737 -6.303437912690884e-05
0.02568715885730305 0.029835869990697334 -0.0012126481978869744
0.0057995022768353175 0.03768287395934873 -0.012669802245860819
0.02343677199338235 0.01982579162547895 -0.010568672718577478
0.04409227945463762 0.0014723410740092218 -0.0003536834711047278
0.01860243845942833 -0.0013644510151203707 -0.012669802245860824
-0.04632047192455948 -0.018798582434245394 -0.00951810896685049
0.006475063452641432 -0.005317651226037234 -0.00017684078688234926
0.017455176191143725 -0.017685075245664796 -0.0014147541227125541
-0.022984948014926357 -0.022825209800719243 -0.0021221357376848995
0.04709902859930541 0.018162457637593696 -0.002122135737684898
-0.03850996018396816 -0.020215139060991455 5.5339084183846085e-09
0.01962475134536712 -0.038188883339334824 5.5339084138812106e-09
0.011357175351942353 0.015436933530977734 -0.007627092898252821
-0.0007527476991448167 0.02493610442778416 5.5339084219991e-09
-0.0010040475241555585 -0.02101039877818636 5.533908416722141e-09
0.03479459687182168 0.02114087270916048 -0.0007957993047039776
0.04560427357332149 0.011140230187969663 -0.008467544203208818
-0.022453574109159914 0.003731877080015369 5.533908420467883e-09
0.0022523447266982037 -0.03622574367322117 -0.0032147282273392534
0.04289714001124803 0.008232397917499001 -0.002164163716676249
-0.03826245323336173 -0.004891717959671685 5.533908420137648e-09
0.010510692282337041 0.031757958250849865 -0.0021221357376848948
0.01997464766063281 -0.019288192558445327 -0.001061065149321743
-0.005623418390659796 0.04312712328904791 -0.003214728227339244
0.029038936557564784 0.029109075017314825 -0.000353683471104724
0.035784437307107335 0.0232839408028965 -0.01266980224586082
0.0190443584390602 -0.01904007531512844 -0.001061065149321743
-0.021952973039772193 -0.021975610046860078 -0.006366418217626866
0.015007320236757802 -0.017936937406504688 -6.303437912691063e-05
0.013870339799011703 0.018033718623119227 5.533908420592286e-09
-0.020500356795495858 0.02496086041212721 -0.001591604048449371
0.002050786565361847 0.025603707523580554 5.5339084219585e-09
0.03407387680673431 -0.00027233285444422156 -0.002122135737684899
0.007656571593913235 0.013326992039396449 5.533908420310905e-09
0.021744578858219555 -0.019500845490319 -0.0042652927380022534
-0.0016434645014171963 -0.012409273423990794 -0.001591604048449376
0.016772260304263303 -0.04190410734229996 -0.00159160404844938
0.0020158843553981023 0.02532626745176828 -0.0007073761126862582
0.023002862077310254 0.02016929876929999 -0.001856869893067135
0.02072417188259098 0.019675046683034037 -0.001856869893067135
0.032502967914584076 0.026547633150951416 -0.009518108966850488
0.018451964213019173 -0.0041757730746653675 -0.007066792196934606
0.018185735599960767 -0.0009001454155228897 5.5339084182326405e-09
0.011685733405201907 0.018726878831793414 -0.004265292738002248
0.0113187625215667 0.015655009727586426 -0.004265292738002248
0.011415929265264687 -0.04210896727839609 -0.006366418217626869
0.02466172912350977 -0.015991854302780117 -0.011093953582526295
-0.01013739334550386 0.042150021671980155 -0.009518108966850484
0.01742983863100601 -0.005536384574135804 5.533908417730767e-09
0.0022456956685094976 0.026529119678360906 -0.00035368347110472314
0.028595753159927923 -0.018169958442055517 -0.0010610651493217433
0.027299247619626783 0.029728213159833497 -0.00035368347110472384
0.03009912877636776 -0.031220064008103787 -0.0021221357376849026
0.04435769491022211 0.00027435108621908525 -0.001414754122712553
0.02572098929161131 -0.0014891512816443422 5.5339084178492414e-09
0.02067116814940597 -0.0035575994407279444 -0.0003536834711047274
0.015948839849602832 -0.014657854626962038 -0.0005305261553271062
-0.04762006279980402 -0.01755228207144132 -0.002122135737684898
0.037309708209298756 -0.007545655628480462 -0.0021221357376849004
0.03627084732016542 -0.007202874536782138 -0.0008842224334770309
0.008196724116258351 0.028336883148393305 -0.008467544203208815
0.04392837491422394 0.0020320164543490456 -0.0007073761126862627
-0.030003112379516896 -0.02142871336163556 -0.012669802245860824
0.028707740108433705 -0.026418116623545856 -6.303437912691218e-05
-0.015852357167768744 0.04206891480888355 -0.002122135737684892
0.024850313840334926 -0.01568617083045045 -0.0016388794375153857
0.04331507737871347 0.008610380612554463 -0.004265292738002251
0.0023365339595890844 0.02157291142921203 -6.303437912690555e-05
0.0012968473894271588 -0.009654016022185265 -0.004265292738002251
0.04853176491597447 0.02052906388817359 -0.0010610651493217396
-0.020723187699415332 0.004728140702358322 -0.004265292738002248
0.03184718602226754 0.027602286836778348 -0.009518108966850488
0.029064534506228888 2.3108333101683606e-05 5.533908417883225e-09
-0.0021679880030829675 0.00622933097627605 5.533908419905618e-09
-0.00020985956160074498 0.009152766330011214 -0.002122135737684897
0.004437325097648315 -0.037573287979527845 5.533908414588184e-09
0.01125014874442635 0.0160087971535467 -0.008467544203208817
0.04205786161271967 3.9832388936892784e-05 -0.006366418217626866
-0.012554536531075074 0.01120345635932942 -0.002122135737684896
0.03228587032783697 0.0015517384081632103 -0.001061065149321741
0.0166424047421118 -0.016353350942678275 5.5339084165189415e-09
-0.02296320551981004 0.032012011177655474 -0.012669802245860817
-0.0215296672160597 0.03687388535994695 5.533908424243139e-09
0.02320200303333068 0.0287668896250221 -0.0007957993047039762
-0.01167474192881615 -0.01626419810207417 -6.303437912690932e-05
0.014977155995444493 0.02166426397958554 -0.00026526031070934054
-0.00029116616622479005 -0.01152765109078991 -0.0017684467642940876
0.006570487961931188 0.03624913112279843 -0.012669802245860819
0.02062713543876728 0.027567021631948754 -0.0017684467642940839
-0.037563420725749155 -0.004232477731491223 -0.0021221357376848965
0.0011074224318646723 0.007982084462277954 -6.303437912690707e-05
0.027490386020548593 -0.030287653230102945 -0.0021221357376849026
0.04406408545141878 0.007050697419302099 -0.006366418217626865
0.020847172806003823 0.018258999457562933 -0.0013237126646989212
-0.01644604564117181 0.03908082737117214 -6.303437912690274e-05
-0.0008918680694591939 -0.020511551313793508 -0.0005305261553271061
0.02393159412117227 0.016600424142370653 -0.000530526155327103
0.039752624119569153 -0.005513119453597981 -0.0010610651493217424
0.025929438566557925 -0.018840045527386325 -0.0001515775462791548
0.015765487419275772 0.02192585255102316 -0.0018568698930671343
0.009668564742961794 -0.04197294847404858 -0.012669802245860827
0.015139117258392084 -0.013590840655010735 -6.303437912691013e-05
0.01699468618037606 -0.002623647623686613 -0.012669802245860824
-0.04481735194567986 -0.021696262508570936 -0.0021221357376848982
-0.006258698630155239 0.010674267816860044 -0.01266980224586082
0.007453750701042895 0.01585412148527656 -0.010568672718577478
0.027673865549455532 1.6666077647788514e-05 -6.303437912690909e-05
-0.0005789480942636892 -0.01780647463735408 -0.006366418217626866
0.0279198466810662 0.032264780432110805 -0.002122135737684895
0.017563117617137133 -0.0013435548562120495 -0.0021221357376848987
0.02652257393443067 0.029816810159394327 -0.001970552689119659
-0.0275766707871945 0.004279381237305551 -0.01266980224586082
0.03172712127342633 0.030019258110300876 -6.30343791269058e-05
0.010825580140657674 0.030452790105733776 -0.0003536834711047231
-0.01974494537732869 0.03456382397513967 5.533908423902545e-09
0.015744067821414888 -0.007508896957579322 -0.006366418217626866
0.022703122058837986 0.029555695742312198 -0.002122135737684895
-0.02073941294806687 0.019420463604366788 -0.003214728227339246
0.007736949382664388 0.037585155295467854 -0.004265292738002246
0.014915604773397885 -0.01177908743430189 -0.009518108966850491
0.04590900727478606 0.01884233990658737 5.533908419343389e-09
0.024077158841101093 -0.017210034589733438 -0.002164163716676251
0.011296451954461138 0.01576840620926443 -0.01266980224586082
0.0362472315916786 -0.0068778790089569575 -0.001591604048449377
0.028654992779417278 -0.025112070107054792 -0.012669802245860826
0.0016477530258270723 -0.009448448661115508 -0.012669802245860824
0.007327796940109889 0.039361074999585466 -0.0003536834711047219
-0.001420917099200694 -0.026973855812911212 -0.002122135737684901
0.004687561658791132 0.0183977164497796 5.533908421018798e-09
0.05028741373646706 0.015434837458900195 5.533908418767865e-09
0.02567765014145785 -0.014848964035320175 -0.009518108966850493
-0.0016824434764339397 0.04274056839669773 -0.012669802245860817
0.005385274268336436 -0.040719424841986464 -0.003214728227339254
-0.0035373245380628526 -0.01368426099788179 -0.0005305261553271053
0.0217365279498325 -0.021088631621940176 -0.012669802245860826
0.008231649922109405 -0.04001982176073497 -0.009518108966850495
-0.021715200764161592 0.020030100938381458 5.533908422312542e-09
0.03679148006690083 -0.007884427895224618 -0.0012732807342706633
0.02201096337549204 -0.004790132948084792 5.533908417624763e-09
0.015342934671824172 -0.014407536765120358 -0.009518108966850491
0.021636385863875528 0.017612863156492825 -0.005105743537000904
0.028411757517855976 -0.0009868792845761818 -0.00021220641447211344
0.02562913134071012 -0.014874378959519572 -0.00794226333926001
0.006251428807888955 -0.006163162773178143 -0.001856869893067137
0.025933486258101393 0.021703713162928014 -0.0010610651493217385
0.02176405342030422 0.029641223303088455 -0.011409124529490815
0.018884484662413138 -0.02186070031744513 -0.0010610651493217433
0.0021216882524967744 0.027448454513288777 -0.012669802245860819
-0.05028487659067701 -0.0158708110967904 5.533908419377747e-09
0.00016346817790721077 -0.03200783196792186 5.533908415407664e-09
0.028773823095898755 -0.01865031381385418 -0.0021221357376849013
-0.02301063666039739 0.026184491876997194 -6.303437912690396e-05
0.014924877359839708 -0.011993993579280285 -0.006366418217626866
0.03437768916021543 0.022443042342702977 -0.0016388794375153818
0.0003832944434145239 0.006450896232731074 -0.0010610651493217394
0.026741201729452543 -0.006374879216779446 5.533908417244264e-09
0.04949974475052614 0.019727374425461373 -0.0010610651493217398
-0.017632679225834533 -0.018496873390010347 -0.0010610651493217413
-0.012978876982540672 0.04049577772608094 -0.0021221357376848926
0.025748817559360877 -0.006329067524515057 -6.303437912690974e-05
0.013537434604699432 -0.007076787279973896 5.5339084177165336e-09
-0.004699967566887662 -0.014470181770972288 5.533908417629589e-09
0.0036855706459347636 0.01969386796257184 -0.0010610651493217378
-0.017922520130043713 0.040672002063472344 -0.0010610651493217346
0.047585549547672926 0.015992161245856094 -0.002122135737684898
-0.022033384150626733 0.03601027090666976 -0.0003536834711047211
0.023631595644333325 0.029738679213374707 -0.0012884379513188988
0.03528865803070308 0.021027121325149632 -0.0005305261553271029
-0.0034017358743500723 0.006151984936243832 -0.0015916040484493738
-0.04733256625321778 -0.017760349749921297 -0.0015916040484493747
0.02334131912775986 0.029705456611028847 -0.000682109235514672
0.024526449045816936 0.026873028090649984 5.533908421163171e-09
0.007068741605038517 0.028290694308440938 5.533908422057537e-09
0.023093361245240807 0.02966850528837117 -0.0007579025938926521
0.0064832849134809235 -0.00544979796549787 -0.0005305261553271047
0.020155452268904663 0.01624196182880258 -0.0016388794375153818
0.017047594585410407 -0.017082806028992256 -0.0021221357376849004
0.011387815491924235 0.014635007897608963 -0.007206869522582859
0.022678812243742213 0.029520158866538186 -0.00022736726808873957
0.023664957348957304 0.0219318248439593 -0.009518108966850488
0.013133627188695025 0.012950253900062715 -0.008467544203208817
-0.03403228785193834 -0.02341439196078672 5.533908417828892e-09
-0.022592528978630858 0.02217362071799999 -0.0010610651493217365
0.0038941524032873663 0.028899397343980372 -6.303437912690478e-05
0.003925215297890197 -0.005694777881889242 -0.006366418217626865
-0.031072600240840607 0.00333383833675614 -0.0010610651493217383
0.022821685903444758 0.029286466126529843 -0.002122135737684895
0.005671550057053283 -0.004907013253764775 -6.303437912690873e-05
-0.0036896376915277963 -0.023643470398598126 -0.012669802245860824
-0.007702658950062266 0.04443197594275873 -0.0032147282273392434
0.013913182503198328 0.014309124587009645 5.533908420161868e-09
-0.016578974509246933 0.03897761596317304 -0.009518108966850484
0.041665211217442606 0.007090918731436685 -0.006366418217626865
0.02585784155861237 -0.00014160554757245344 -0.0021641637166762494
0.0016334937911769805 -0.009499861612792723 -0.005105743537000906
-0.025642916131166822 -0.023328964404259526 -0.0021221357376848995
0.029841844551881918 0.002633060968413102 -0.0017684467642940871
-0.04975454562786304 -0.014560004152496727 5.53390841950638e-09
0.025564326081669798 -0.019153307016690546 -0.0006063195453274212
0.008813592063500816 0.028115863704181853 -0.012669802245860819
0.0349474743493295 -0.010737534045783294 -0.009518108966850493
-0.003261937121931139 -0.020938769497140845 -0.006366418217626867
-0.0007041562022132306 -0.012600982322716416 -0.0017684467642940878
0.031181631526722806 0.030427542292066262 -0.01266980224586082
-0.017988798503847728 0.015747860299905717 -6.303437912690537e-05
0.0347317262079451 -0.011144619820970309 -0.00035368347110472883
0.024195165243343933 0.027422866349474204 5.533908421240321e-09
0.04376131727859835 -0.0007217961270395647 -6.303437912690985e-05
0.018600497784149028 -0.004526323106329807 -0.0032147282273392503
-0.016496005430492858 0.007612942142378598 -0.002122135737684896
-0.0008911695164981375 -0.034673305548508664 -0.006366418217626868
0.005705575664322772 -0.004345869022078488 -0.0007073761126862618
0.03723665792724101 -0.0100361962086617 -0.006366418217626867
-0.041680905331984944 -0.008387519308424456 -0.0015916040484493738
0.020706079799415338 0.01525072162556059 -0.0018568698930671354
0.02717975520061907 -0.004999984635003374 -0.006366418217626866
0.030116666114557027 -0.02906972303925839 -6.303437912691254e-05
0.03743340770950155 0.02084708429174965 -0.0002652603107093416
0.03225662253831037 0.02698637378321948 -0.0032147282273392473
-0.02106417454894661 0.025306666701979886 -0.009518108966850486
0.03742898735838332 -0.007461807737781243 -0.0021221357376849004
-0.021884310915397186 0.03628552174366647 -0.001061065149321735
-0.03920913874370152 -0.02223273962748617 -0.006366418217626865
0.0174755318260527 0.0214277664515627 -0.01266980224586082
-0.015066927641210648 0.04002052338154145 -0.009518108966850484
0.003980837763253621 0.028299339232502527 -0.001061065149321737
-0.031118533247380467 -0.020964433434385275 5.533908417988788e-09
0.019621168565943616 -0.001650224976434758 -0.000707376112686262
0.04328793919216303 -0.0036735244790985933 -6.303437912691017e-05
-0.04084406645138073 -0.021968674583113735 -0.006366418217626865
0.03346232633776661 -0.006592559964274716 5.533908416937697e-09
0.015182083534670406 -0.018259690024022956 -0.006366418217626867
0.02369348113958136 -0.0049746326720830555 -0.0010610651493217415
-0.046060751602466386 -0.013737459760720206 -0.0010610651493217396
0.020630532399656728 -0.0044480984629055075 -0.006366418217626866
0.00706861975707236 0.039739417880562684 -0.0007073761126862568
0.02270235538370763 0.029555121636536542 -0.0019705526891196585
0.022875582881359668 -0.005081364220956887 -0.0005305261553271054
-0.004808689604849836 -0.013963750187370167 -6.303437912690934e-05
-0.03810697548833607 -0.02074383333322486 -0.00321472822733925
-0.0027559667448471764 -0.019043859057961385 -0.009518108966850491
0.02188687532695436 0.015553762890471995 -0.0007957993047039777
0.030307365798562004 0.00012134608310452344 -0.00846754420320882
0.014881815378848874 0.02163019817872458 -0.0015916040484493727
0.015582624823201278 0.021389963989422167 -6.303437912690613e-05
0.022679478541532256 0.0295122452633301 -0.0010610651493217376
0.02301359904242014 -0.005558976727936778 -0.006366418217626866
0.004721020448402227 0.03826163363916651 -0.0021221357376848935
0.007901181771832811 -0.041630265818078944 -6.303437912691306e-05
0.03067612817932027 0.03074726695699297 -0.009518108966850488
0.00666005483929244 0.02843386322408241 5.533908422091131e-09
0.025370797412998126 -0.004589989794191373 -0.0032147282273392508
0.01834451039044463 -0.018614925435294923 -0.0014147541227125541
0.027431384467341672 -0.015489028479680473 5.533908416166506e-09
-0.014909436162935856 0.04010992301145413 -0.012669802245860817
0.023433783334095765 0.029716974955063594 -0.00022736726808873957
0.008884032645017163 0.02758455363421665 -0.0018568698930671334
0.0361797692556444 0.02349193193816008 5.533908420285973e-09
0.016648818625138433 0.01935690526017542 -0.0017684467642940847
0.048177042665374606 0.016226564713399918 -0.008467544203208818
0.0049040995857704975 0.031217103061216913 5.5339084224849725e-09
0.0438104859957452 0.0024177136807437163 -0.0007073761126862626
-0.012682937768628597 0.04288289577847592 -0.012669802245860817
0.005522280187101002 0.029076307627122086 -0.012669802245860819
0.040509830037274715 0.003937586774414252 -0.002122135737684899
0.047873882959631485 0.020934302408717204 -0.0005305261553271034
0.02160403500913604 0.01593290536433225 -0.007942263339260005
0.04437494889032742 -0.0009427228096531177 -0.00035368347110472807
0.01310068115626578 0.02091133035474065 -0.000530526155327102
0.021117302651078466 0.015821647006521986 -0.007942263339260005
0.037309708209298756 -0.007545655628480462 -0.0019099238209267027
0.02109855206639033 0.026964379601525423 -0.0015916040484493725
0.001228561334111207 -0.03763951457777489 -0.009518108966850495
-0.005050923925211094 0.04477180625053683 -0.003214728227339244
0.007548157133234277 0.013899775206684535 -6.303437912690665e-05
0.013434433175547844 0.013499783062344112 -0.008467544203208817
-0.03898883894517031 -0.0019516388771237646 5.533908420506414e-09
-0.0020642389357213614 -0.012691074912659816 5.5339084177239285e-09
-0.025489391162921808 -0.020634736424308932 5.53390841779095e-09
0.050530895094103655 0.016386751428063524 5.533908418867212e-09
0.036300872269929056 -0.007524561666293713 -0.0021221357376849004
0.02638133724380687 -0.03352235839992156 -0.012669802245860827
0.0206011116610742 -0.003427045168725759 -0.002122135737684899
0.013454815201670819 0.016929666096283692 -0.0007073761126862596
-0.02041009098296539 0.023131150113396948 -0.0032147282273392455
-0.044068375422368244 -0.007006247428755032 -0.001061065149321739
0.001404361322953739 0.008354510417745216 -0.0010610651493217391
-0.04505867371314782 -0.021628585897893807 -0.0021221357376848982
0.007526713246751506 0.03804284287624613 -0.010568672718577476
0.0183449774009387 -0.003990751578014857 -0.007066792196934606
0.005598259434839722 0.016885831172756376 -0.008467544203208817
0.017977119263435433 -0.004874715043707793 -0.0016977082359777807
0.02205140327089542 0.01842739788156419 -0.0007957993047039774
0.02646705991569315 0.0015432532520322205 -0.012669802245860824
0.01938754853384168 0.020995329047180687 -0.0005305261553271022
0.009190352584299769 -0.041901725567215026 -0.0032147282273392542
0.050296647985820855 0.015463136307814318 -0.001591604048449375
-0.022795232182631884 0.004128652557760044 -0.008467544203208817
-0.014087909017306806 -0.019176721561721607 -6.303437912690955e-05
0.010832149368830998 0.02745510026783692 -0.0007957993047039758
0.006759156078125746 0.031166486713425312 5.533908422401448e-09
0.022343875730017226 0.0186892665538029 -0.0013263309939395003
0.01015915854941095 0.027281079912211993 5.533908421811908e-09
0.04047359254041892 0.0040803564660977995 -0.0017684467642940876
0.014999486714543197 -0.005298626465199763 -0.009518108966850491
0.01137264411903573 0.01461140553854407 -0.0004832616759662636
-0.006672804906613559 -0.015179768512205075 -6.30343791269094e-05
0.03464942777075317 0.02603408596202713 -6.303437912690639e-05
0.027171180751517036 -0.02152923961030717 -0.0021221357376849013
0.025325110337618542 0.0008201576612196285 -0.0010610651493217409
-0.01605063337538842 0.01628868203009743 -0.01266980224586082
0.008965031583552979 0.027558369938986416 5.533908421893835e-09
0.021285812749774317 0.017557276566859643 -0.010148445801206126
0.013512808930640077 -0.008855930011446538 -0.009518108966850491
0.02504332704630377 -0.004213608540197557 5.533908417564097e-09
-0.019391723808237473 -0.02171989043189224 -0.0010610651493217417
