ply
format ascii 1.0
element vertex 749
property float x
property float y
property float z
end_header
0.006307051646755314 0.011643411258590352 6.356286105475778e-05
0.007806948424019832 0.0015568522447235338 0.0021823081234113267
0.012792537118175138 0.02477912910627341 0.00035664876282722775
-0.03269511243371859 -0.010616564728335302 0.003241680595152329
0.020576603988290604 -0.036304155706716475 0.0010699611480363283
0.0010305662612252074 -0.019727237208065136 0.0007133067730167882
-0.03485978258386567 0.030639410465205637 6.356286105475778e-05
-0.0051439249559954835 -0.029863315693194514 6.356286105475778e-05
0.004862085974633214 -0.0399542244763122 0.01277602620823044
-0.014145745812868704 0.03562197808580964 -5.580304855937298e-09
0.039765049518380634 0.023127016512265376 0.0016049480995457563
0.017284514422010632 0.02911301954615548 0.009597909048107083
0.02969122468315705 0.0005920893223744242 0.003241680595152329
0.0051016489061519055 -0.03746007842018146 0.0008406820463594613
0.0019913880556010084 -0.019378133371304795 0.004724800116832389
0.006829453422161818 -0.04171303779430599 0.0016049480995457563
0.006228889810107362 0.010213185011270566 0.00641979443898023
0.018270120987206432 -0.004811363714007513 0.00021398555875140358
0.033655055622826544 -0.03914440426888606 0.01277602620823044
0.0014358283132245558 -0.03622305517670477 0.0017832734694705162
0.03375653299030808 -0.009182360932447915 0.0021399277807151434
0.00698635737841368 0.019314495159228822 0.0010699611480363283
-0.005136425495511128 -0.004955682075129967 6.356286105475778e-05
0.03343503472387588 -0.009689298978684474 0.0016049480995457563
0.005481337789616874 -0.03776655006104564 0.0009171071593451351
0.023956903993975064 -0.008815944981789652 0.0010699611480363283
-0.026146621410043102 0.012779023563959428 0.009597909048107083
0.018017331184108774 -0.0040384857113944265 0.0005349741008645313
-0.018073463220020715 -0.006167171693128626 0.0021399277807151434
0.0178974048486273 0.0041772297098900705 0.009597909048107083
0.005189871412260242 -0.02770908545365455 0.003241680595152329
0.017586693320213988 -0.004914399203413735 0.004301053066893332
0.008698739324669805 0.02250780189821709 6.356286105475778e-05
-0.007892192876522701 -0.0340322596333206 0.0014266154592809557
0.03450341934581222 0.02939106189414317 0.0021399277807151434
0.010285241166320035 -0.02370820437213683 0.0021399277807151434
-0.007094944999308516 0.029998602143867677 -5.580304855937298e-09
0.023828466111861415 0.00893157700944046 0.003241680595152329
-0.0037469326316162547 0.021844912014466353 0.0010699611480363283
-0.024634329873286835 -0.006792444127385375 0.01277602620823044
0.027627728765937824 -0.017040302642264235 0.009597909048107083
0.002929141011161714 -0.03498546865760449 0.0010699611480363283
0.015847034124585 0.030168019693636732 0.00641979443898023
0.03968894372394424 0.017654569436321266 0.009597909048107083
0.032059773929208474 -0.00013816118582181728 0.0021399277807151434
0.0229587508106484 -0.0073642156445128774 0.0013374509886210219
0.018459039052015208 -0.007576228246432442 0.0013348107072377556
0.029973176150340154 0.03226887023560227 0.0005349741008645313
-0.021840562343509652 -0.006052645232940508 6.356286105475778e-05
0.032911549342316236 -0.04164926914279348 6.356286105475778e-05
0.002637317799880781 -0.021652633025479085 0.00853853632126643
0.025086831467208557 0.009780979395428026 0.0014266154592809557
0.023851231015230834 -0.011680828113715312 6.356286105475778e-05
0.008270359808177013 -0.04230986262849008 0.0005349741008645313
0.026393693364204853 -0.007527102283645517 0.0017832734694705162
0.022427638819398427 -0.03721009356972282 0.0010699611480363283
0.04011225270466334 0.008131192077247865 0.01277602620823044
0.008096141239819853 0.0031492573537363327 6.356286105475778e-05
-0.03219087956249279 -0.032511450093621226 0.0016049480995457563
-0.02686141718129562 0.010304225180260486 -5.580304855937298e-09
0.03379343886724647 -0.038802725329812195 0.00853853632126643
-0.00891149193365996 -0.03198477008260189 0.004301053066893332
-0.034576421559363565 -0.0192056794591849 -5.580304855937298e-09
-0.020079737904676393 0.0031568300552711342 -5.580304855937298e-09
0.03200730401657507 -0.02604854911742554 0.0005349741008645313
0.01564242408682121 0.0005416118575796713 0.0010699611480363283
-0.013142925300085082 -0.026990161628341683 6.356286105475778e-05
0.03596915158533619 -0.011444147017683415 -5.580304855937298e-09
0.019605591884832484 -0.03833445154480192 0.004301053066893332
0.037292188756789 -0.023965399078546154 0.0021399277807151434
0.005337497567518255 -0.03396555985689464 -5.580304855937298e-09
0.02202379719482221 -0.004144155811081044 0.0014266154592809557
0.023918246633881673 -0.0076465957070047256 0.01277602620823044
0.018659200496735955 -0.004701317745556167 0.0009629673801494806
0.027300946989699194 0.030815425327210808 0.01277602620823044
-0.0037454374069020454 -0.0075379154478086635 0.01277602620823044
0.03351988905264347 -0.014381566895229196 -5.580304855937298e-09
-0.03226730125258962 0.028780615660448098 -5.580304855937298e-09
0.03413588045779519 0.026719316490915627 0.00641979443898023
0.03655326939224565 -0.007981400324336335 0.0021399277807151434
0.00976325369634688 0.025501955637533415 0.0016049480995457563
-0.002713186060861097 -0.007330713486196088 0.009597909048107083
0.031225145914625385 6.63999450402698e-05 0.01277602620823044
-0.027076308498113606 -0.03455014824233914 6.356286105475778e-05
-0.019141492626754766 0.03817670340609818 0.0021399277807151434
0.003817660706635837 -0.036991042849661745 0.0013348107072377556
0.032704652906974 0.0036579084861047477 0.00035664876282722775
0.0301720260396182 0.006787285043596033 0.00641979443898023
0.0014642856305139553 -0.0200544701673486 0.0021823081234113267
-0.002231422213559166 -0.0065274592988305786 0.0021399277807151434
0.039806974902709805 -0.016450891426853638 0.01277602620823044
0.01768443484770381 -0.008061774516784817 6.356286105475778e-05
0.018118973714319895 -0.004753067667228142 0.0016049480995457563
0.03651313667257434 0.023956613462374064 0.01277602620823044
0.023388622318796827 -0.015962271730545746 6.356286105475778e-05
0.02193277831439063 -0.0069473428158259905 0.0018724379401304499
-0.02948250278270195 0.0390101145351216 0.0016049480995457563
0.031807927841235054 -0.012893636329157914 6.356286105475778e-05
0.02590626067062994 0.030593621955738247 0.0005349741008645313
-0.036111052892853115 0.03571365366652292 -5.580304855937298e-09
-0.034948566438477525 -0.02891617444037285 0.0010699611480363283
0.03858416655192987 0.023877841426127658 0.009597909048107083
0.029390225376808327 -0.0422991466596938 0.0010699611480363283
0.008491483466979671 -0.039584962146586425 0.00015284837649888095
0.041577285982078604 0.016767814696035367 0.01277602620823044
0.03891859949831418 0.009659203311543383 0.003241680595152329
0.03269979874997309 -0.011861837206719648 0.01277602620823044
-0.033580719550314705 -0.014647927523031408 0.003241680595152329
0.01039304137164924 -0.023758084556472252 0.0010699611480363283
-0.018041359200683532 0.001511351231877341 -5.580304855937298e-09
0.02157296659613187 -0.0045883753787329005 0.0021823081234113267
0.03115698634031549 -0.039625306703703546 0.0005349741008645313
-0.021511745894995323 -0.006510027825688145 0.0010699611480363283
-0.0360115797689046 0.03868295571858169 0.0021399277807151434
0.0017310848071774452 -0.02596451325402809 0.0010699611480363283
0.02916613108421447 0.0020357999306832722 0.0002674842602798377
-0.03187031758476597 0.02705098719248692 0.0021399277807151434
0.034794921159160455 -0.02247878209391262 0.0016049480995457563
0.01057399354797506 -0.02870633822893472 0.004301053066893332
0.026724777540931458 -0.008485160455816251 -5.580304855937298e-09
0.0163745244956153 -0.007224479464734586 0.00641979443898023
0.022282210911656865 -0.015460534246482395 0.0007133067730167882
0.019637327789887592 -0.03600011793449318 0.0014266154592809557
0.03741012855777375 -0.01488902622423766 0.0012839559541500645
0.002320043911391718 -0.01896835956123249 0.0030298017130901394
0.007325544045941518 0.0014529364102971092 6.356286105475778e-05
0.005046209170500057 -0.03807971692969967 0.004301053066893332
0.020466392061631828 -0.038595671039417294 0.003241680595152329
-0.03382087435081572 0.03653582602770312 0.01277602620823044
0.0025608400240126014 -0.01848263063346688 0.012352276097095577
0.018410930132593817 -0.0047814635101756636 0.0007489725740357443
0.005909331234364208 0.012867068464611147 0.0010699611480363283
0.024195624811561782 -0.011107593636267891 0.00641979443898023
-0.004745513322059111 -0.005225736891405964 0.01277602620823044
0.003274192052040908 -0.0238757192909191 0.0010699611480363283
0.008473657782149134 -0.027481638973597414 0.0002674842602798377
0.039303920718394426 -0.02138755030677884 0.0021399277807151434
0.004636103387720684 -0.03778521330180191 0.003241680595152329
0.024415993612316424 -0.010554984437878098 0.01277602620823044
0.02701681583828312 -0.01766664067665673 0.0021399277807151434
0.03666588563252032 -0.02375097327072996 0.009597909048107083
-0.03319927784776288 0.03425701000821851 -5.580304855937298e-09
0.006240125320304895 0.00828590597121573 0.008962286432401292
0.03630326936785798 -0.008424531935660118 0.01277602620823044
0.03202006861322107 -0.02612247590212791 0.0016049480995457563
-0.005849446512394525 0.027854214399529297 6.356286105475778e-05
-0.031241735797842073 -0.03358810131244589 0.0010699611480363283
0.01821564418591069 -0.007748329421885869 0.011504778936021656
0.004751517011650257 -0.03987518888610649 0.009597909048107083
0.022935930167476748 -0.012638996831916457 0.00853853632126643
0.01934110226328832 -0.007641664605841274 -5.580304855937298e-09
0.026895183192834262 0.006879846820937871 0.0021399277807151434
0.010155825675171811 -0.028007970165873093 0.0010699611480363283
0.03397908232731354 -0.03804901709670131 0.010657280754549133
0.005527975899465634 -0.018495590107166615 -5.580304855937298e-09
-0.024778848734543335 -0.038293955123634135 0.0016049480995457563
0.004293291172026726 -0.03542699363154241 -5.580304855937298e-09
-0.026315037365554638 -0.00813662688511783 0.0021399277807151434
0.008503979899203313 0.022074736666571615 6.356286105475778e-05
0.03722153828568073 -0.01939484520313459 0.0010699611480363283
0.02535821209784616 -0.013399580130007723 0.001711941867432604
0.006011101741540529 0.0036110290525200517 0.00641979443898023
-0.008090907742557385 -0.02826987553853775 0.0021399277807151434
0.010582597185083581 -0.03266061462279563 0.003241680595152329
0.029070255670879456 0.005700147033580605 0.0021823081234113267
0.002549231615742436 0.015207694249981862 6.356286105475778e-05
0.03263460123590081 0.0036117292131600015 0.0021399277807151434
0.033511235005321334 0.004243128439779666 -5.580304855937298e-09
-0.01287861007974866 -0.034621321128470904 -5.580304855937298e-09
0.0021873121748099576 -0.018295202938928376 0.0021823081234113267
-0.014496691001552015 -0.03608032424894914 0.003241680595152329
-0.03234826671900733 0.03986103375354117 0.003241680595152329
0.009175863000018464 -0.034927176033044086 0.0016049480995457563
0.0362676966137026 -0.021764282273466846 0.009597909048107083
0.022751361771637342 -0.04039986460801178 0.0021399277807151434
0.0035533188464861296 -0.024329359381803903 0.0017832734694705162
-0.01003671667242605 -0.021038757525025677 0.010657280754549133
-0.006372769496839997 0.029191185487294567 0.0010699611480363283
0.023366503360924436 -0.00449020363372479 0.0010699611480363283
0.0016643423213826877 0.01803019922409267 0.0010699611480363283
0.002954193265274112 -0.03921120914015821 0.0021399277807151434
-0.00025047985246856477 0.017065428636720587 0.00641979443898023
0.0002645761980861713 -0.022122654541670488 0.00035664876282722775
0.018270120987206432 -0.004811363714007513 0.0013909497220369123
0.006635105736488904 0.002329508975889419 0.01277602620823044
-0.029180929433807245 -0.035594982713865145 0.0005349741008645313
0.005139275213774085 -0.03709357113226143 0.0010699611480363283
-0.03332614501858875 0.035562950639479694 0.0021399277807151434
0.00469514740533289 -0.025263706651298335 0.00035664876282722775
0.02413525403405914 0.009028311840267405 0.009597909048107083
0.024031280736878935 0.007192146207620653 6.356286105475778e-05
0.024407860823911536 -0.010581051246411238 0.00641979443898023
-0.009874051642219238 -0.03060234300506737 0.0010699611480363283
-0.03230409169370149 0.03986329224215276 0.01277602620823044
0.017051288130060283 -0.03754242891542283 0.00035664876282722775
0.03585644847552492 -0.011326421622141392 0.000855966341922592
0.025532305864075306 0.007539425791237555 6.356286105475778e-05
0.007374902061979814 0.0008983322975276387 0.0001783234247899243
0.018354429655133786 -0.036602147456299826 0.0014266154592809557
0.026806831720299493 -0.010528488645223478 0.0010699611480363283
-0.003432604277432737 -0.008034463550323313 0.0005349741008645313
-0.03397385545411133 0.024374386606146048 -5.580304855937298e-09
0.010644345026526426 -0.027814637446935922 0.00853853632126643
0.03834052092941872 -0.021809914747260954 0.009597909048107083
0.0049890688515667105 0.005940360529914335 0.01277602620823044
-0.0323417977732987 -0.031485528235377175 6.356286105475778e-05
-0.030130604048771315 0.014740524698629706 0.0010699611480363283
0.01540949658255017 -0.03872003710567877 -5.580304855937298e-09
0.02174740372472093 -0.014483778043985434 0.0007133067730167882
0.01564242408682121 0.0005416118575796713 0.0005349741008645313
-0.03345258204352145 -0.030983898155455776 0.0010699611480363283
-0.033568667055056595 0.03350802732599972 6.356286105475778e-05
0.03614265179090673 0.006484618024879859 0.00035664876282722775
-0.0028420076169156055 -0.017533027312407277 0.004301053066893332
0.005073998523586525 -0.03645028343967121 0.01023353064341427
0.026255514307460214 -0.010212654512967453 0.00641979443898023
0.0391193770471838 -0.011763068389854152 0.0010699611480363283
0.02322189042243655 -0.016454001683965217 0.0021399277807151434
0.0020219144341754227 -0.02631175025257837 0.0008024713074516347
0.0038578792205747055 -0.03696476290199468 0.011504778936021656
-0.03193715525281212 -0.028555304648226438 0.0021399277807151434
0.024560518094175338 -0.013419538786259785 0.01277602620823044
-0.03261572816170481 0.03983953994162149 0.01023353064341427
0.02183949457391511 -0.006935619503061622 0.0013374509886210219
-0.010310297156307519 -0.03521665148688313 0.010657280754549133
0.007828884945412175 -0.02522604519654093 0.010657280754549133
-0.03536814323360246 0.0406384388069762 -5.580304855937298e-09
0.009790514162462538 -0.04039343261919105 0.01277602620823044
0.0015100532073549372 -0.025026182166995575 0.010657280754549133
0.017947719209643023 -0.005795958007755798 0.0014760583633526383
0.038145371539149285 -0.01608342897951793 0.01277602620823044
-0.018829483532542764 0.0021302346649094066 0.0021399277807151434
0.018448720106314997 0.0002938329942434307 -5.580304855937298e-09
0.03966359508035634 0.022211225958390576 0.01277602620823044
0.010149097626380787 -0.027906368140874785 0.0018724379401304499
-0.006099843093992466 -0.031518280802626725 6.356286105475778e-05
0.03156368913002412 -0.00039785028083309126 0.0010699611480363283
0.020497788794844797 -0.004680135454436195 0.008008851488444005
-0.03458814237348073 0.02931083855179314 0.01277602620823044
0.006221025291048507 -0.0258616866852801 6.356286105475778e-05
-0.03545476730325643 0.03451896553256285 0.01277602620823044
0.0358358185993332 -0.039866004086509726 0.0016049480995457563
0.03652453720927743 -0.011500347770424272 0.003241680595152329
0.03486163369652168 -0.028184055489553182 0.00641979443898023
0.018853530204062958 -0.004625072523376688 0.001711941867432604
0.04159203109859368 0.016654423160321768 0.009597909048107083
-0.017064712156343254 0.03424086595910811 0.0021399277807151434
0.04224411186037437 0.013832701575767787 0.0021399277807151434
-0.03338997345923991 -0.027258257353933855 6.356286105475778e-05
0.0092017483428045 -0.030761729462861827 0.0016049480995457563
-0.03336695165062313 -0.015391642427832834 -5.580304855937298e-09
-0.013447646282446065 -0.027538816844141233 0.0021399277807151434
0.02587790140061304 0.009806139981740018 0.0007133067730167882
0.030829140107642608 0.006852558744653307 -5.580304855937298e-09
0.02268260862699258 -0.03734435863379836 -5.580304855937298e-09
0.02368666036070728 -0.005321232802282945 0.010657280754549133
0.0385306984238908 -0.022691051103384915 0.0021399277807151434
0.03322553415875301 -0.03006253080340752 0.0021399277807151434
0.019901510208685854 -0.006647230467653678 0.00641979443898023
0.0018448291349384448 -0.03564300013683215 0.0010699611480363283
0.014860927271153339 -0.041518831447423146 0.003241680595152329
0.01894568763805205 0.032491103206895855 0.0016049480995457563
0.025246503239758984 -0.03901612476443915 0.01277602620823044
0.023256483085647303 -0.005072750731806543 0.004301053066893332
-0.00816126057415398 -0.0334057924232172 0.01277602620823044
-0.01831794258363729 0.037796717915881496 0.0021399277807151434
0.008935528552912046 0.015207976090924648 -5.580304855937298e-09
0.018451378433352424 -0.005477177919651315 0.0016526198467436207
0.009895910379083528 -0.026166236843871735 0.005148550227967253
0.03727502213865408 0.006977096746156493 0.004301053066893332
-0.017467060078479018 -0.006153966241362525 -5.580304855937298e-09
0.01893437295110346 -0.036785946839716144 0.0016526198467436207
0.007493285998610001 -0.039642727579116764 0.003241680595152329
-0.006069677472844898 -0.032240238245838604 0.0014266154592809557
0.005560344589946044 -0.03782506190785095 0.000764256869598875
-0.0028293678136940867 -0.007443749739712482 6.356286105475778e-05
0.03214282094750087 0.0033793356276109114 -5.580304855937298e-09
0.018114668367599788 -0.0010507556231459459 0.0005349741008645313
-0.007383763276225667 -0.01891834369885979 0.010657280754549133
0.04021415018750572 -0.01869120631351951 0.0010699611480363283
0.03615637611517743 -0.011759008570824936 0.00021398555875140358
0.04083601420081397 0.008157109091795348 0.0010699611480363283
0.0022009931456369973 -0.01912466539783525 0.0076910386499932076
-0.010079543021512639 -0.02748079546609629 0.0021399277807151434
0.03981503516383252 0.012690801743787483 0.00641979443898023
0.0045562713627605505 -0.037726149779267755 0.01277602620823044
-0.004277705994391983 -0.007966638263437749 0.0010699611480363283
-0.013400667197507217 0.035168378816874644 0.0021399277807151434
0.0101283897772388 -0.03320422960704693 6.356286105475778e-05
0.011039349481775108 -0.0243476837065638 0.0016049480995457563
0.03481566196804968 -0.007948331908037943 0.0010699611480363283
0.038401900129917524 -0.022846306411447047 0.0007133067730167882
0.010199666464621044 -0.033123798787109575 0.003241680595152329
-0.026868600184198413 0.0405482694541108 0.01277602620823044
0.0044076349404508375 -0.02010226911102426 0.0010699611480363283
-0.02597037091816462 -0.037762416658414136 0.0010699611480363283
0.03240117688178677 8.764899665003098e-05 -5.580304855937298e-09
0.008566703856109364 0.0022302844222932485 0.0013374509886210219
-0.0035371710434858182 -0.008032592778498144 0.0016049480995457563
-0.019353106366632022 -0.036529531223293873 -5.580304855937298e-09
0.005876197710589526 -0.02768656758747796 0.011186965587371556
0.005618433126198127 -0.03786740710876103 0.0021399277807151434
0.037481885315809836 -0.019997572176030706 0.003241680595152329
0.035882936641405995 -0.011343066879858608 0.0004279803648651399
-0.028656219536953846 0.013419734606098266 6.356286105475778e-05
0.005580669677334557 -0.04106449093518852 0.0021399277807151434
0.027155153998403445 0.009654841551284642 0.0021399277807151434
0.01789642083026375 -0.03749317955680171 0.0016526198467436207
0.029165725458263892 0.001981309651838563 0.0021399277807151434
0.018052305430627455 -0.0016332532268620826 -5.580304855937298e-09
-0.0033093292015970153 -0.015840494055709482 6.356286105475778e-05
0.02230464717808483 -0.006492311085110673 0.003241680595152329
0.01633519777536016 -0.008383018092873989 0.0010699611480363283
0.04187967169072142 0.011392010264874068 0.0021399277807151434
0.020128704012968023 -0.004760269981563164 0.00641979443898023
0.006950480026285625 -0.027452119973183812 0.011186965587371556
0.011209153482872141 0.026247960770613615 0.01277602620823044
0.033770608182932094 -0.04138668546137221 6.356286105475778e-05
0.03200730401657507 -0.02604854911742554 0.0008024713074516347
0.019063967589226495 -0.004532631298689422 0.0018189356353194518
0.03296514750173366 -0.011479623929834667 0.009597909048107083
0.027010797253064607 -0.04132419720492581 0.009597909048107083
0.002262827187978671 -0.01904493959601287 0.004724800116832389
0.0025608400240126014 -0.01848263063346688 0.00853853632126643
0.03524081115177951 -0.008359233608755482 0.003241680595152329
0.037602603753543816 -0.0236716717000677 0.0014266154592809557
0.005215370376342135 -0.019135574717291232 0.0005349741008645313
0.03376728118353627 -0.034462299699912095 0.0010699611480363283
0.029158013579721587 0.0039071976051514145 0.0005349741008645313
0.025475776232411422 -0.017555774056795214 0.0021399277807151434
-0.025172410594249402 0.008302094193183736 0.0010699611480363283
0.031931343568052425 0.0040362775730977 0.0006114029446825943
0.015647552719243896 0.027408338788853556 0.0005349741008645313
-0.004866167362081921 -0.004459151350402105 0.0016049480995457563
0.025152010371673597 -0.01453477332256819 0.00021398555875140358
0.008572621954527323 -0.039620069018902616 7.642323162575088e-05
-0.02729653891926167 -0.006114695005359146 0.003241680595152329
0.02112916481354861 0.00458258235901998 0.0010699611480363283
0.035845118837694666 -0.01132357768137541 0.0010699611480363283
-0.03193159416876599 0.03937883916515713 0.0010699611480363283
-0.01289555014544274 -0.03521336465762175 6.356286105475778e-05
-0.0041847336827404566 0.022490140268142146 -5.580304855937298e-09
0.0051016489061519055 -0.03746007842018146 0.0004585489559914012
0.03340057514938257 -0.013596337578462334 0.004301053066893332
-0.0004553616267338344 0.02168484376028871 0.0021399277807151434
0.025918085708361994 -0.01707234971517812 0.00641979443898023
-0.004541844814681105 -0.029978546091200403 0.0016049480995457563
0.02401778640272383 0.007186664093674364 0.003241680595152329
-0.0022415395026228802 -0.0065086243295242995 0.0005349741008645313
0.005022769834950437 -0.01814123978826085 0.004301053066893332
-0.005209121875573765 -0.028814638563707164 0.0008024713074516347
0.01968212412775883 -0.03642610443375682 0.004830733818121346
0.024198193574870505 -0.013887472158688574 6.356286105475778e-05
0.006213406661988619 0.007453678536543947 0.0013348107072377556
0.013900454338709902 0.02591772516881047 0.0010699611480363283
-0.010422298909982234 -0.027844419755245625 6.356286105475778e-05
0.004367209954376551 -0.037583170284933 0.011716653481389786
0.03743172153100078 -0.023834186943683958 -5.580304855937298e-09
0.008587370958045 0.0029407459994457456 -5.580304855937298e-09
0.009160027357918656 -0.02385431892714687 0.0017832734694705162
0.020438414733825714 -0.006466126306010856 0.00641979443898023
0.029181469319054448 0.0035783667996649136 0.0021399277807151434
0.01913835804414649 -0.03666253916992506 0.004830733818121346
0.026956366222380096 0.009163843939109913 0.009597909048107083
-0.014132775538690407 -0.023601441364168887 0.0010699611480363283
0.01047100338264066 -0.02913022317372281 0.010657280754549133
0.007502316145359845 -0.04147833623921438 0.01277602620823044
0.026281343792993392 -0.012124854513610773 -5.580304855937298e-09
-0.002179164384263793 -0.007131272207272416 0.0010699611480363283
0.02440712687273957 0.00674274753878332 0.00035664876282722775
-0.03606826436201618 0.038255116796682545 -5.580304855937298e-09
0.02811385807571604 0.032918742299746465 0.0021399277807151434
0.03589182291180587 -0.03270960029305979 0.009597909048107083
0.0284775195486343 0.009213410214105584 0.0010699611480363283
0.025411557945865745 0.032829214989428736 6.356286105475778e-05
-0.030104549843701603 -0.03169783882102788 0.009597909048107083
0.04221954471483371 0.013508592266292785 0.0010699611480363283
0.019559183472250496 -0.038353033991922754 0.004301053066893332
-0.005133957845331207 -0.02884077755346721 0.0013374509886210219
0.006551777555939548 0.0024865499096415875 6.356286105475778e-05
0.017596733363051984 -0.00501015845315001 0.0021823081234113267
-0.027422354906759885 0.04071450350991818 6.356286105475778e-05
0.012782483710773148 -0.027572012068543976 0.0021399277807151434
0.008585251993099122 0.002784788166062621 0.0008024713074516347
0.030468739506093568 0.03204909841289178 0.0010699611480363283
0.016862942751657305 0.02885329666200347 0.01277602620823044
0.002282060139826499 -0.02661721588893315 0.0002674842602798377
0.03320726819618685 -0.042206363171012104 0.0021399277807151434
0.03750112576587732 -0.015256291694444132 0.0021399277807151434
0.005395895648706525 -0.02771957330925841 0.003241680595152329
0.007691491401577973 -0.03975185718395028 0.0011229353965706733
0.006677445574148857 0.015070892648638387 0.00641979443898023
0.010440524595740349 -0.042277146837692 0.009597909048107083
-0.008564149055743693 0.03152176758488409 -5.580304855937298e-09
0.033960668281941206 -0.03120317868744979 0.00853853632126643
0.030468739506093568 0.03204909841289178 0.0005349741008645313
-0.030262203407938643 -0.007432166358986903 -5.580304855937298e-09
0.025207799724473477 -0.014580425092454692 0.0014979470613188679
0.016707842584508782 -0.008006225085292099 0.01277602620823044
0.03047708285873562 0.007367644783787927 0.0017832734694705162
-0.0338294906200218 0.03722527746958003 0.009597909048107083
0.025791139767479588 0.007540872714157359 6.356286105475778e-05
0.03371693469665673 -0.04202764370005866 0.0010699611480363283
0.022024561067483895 -0.004641920007064013 0.00641979443898023
-0.008556531865790931 -0.0020156781796936674 0.0010699611480363283
0.02216170524704224 -0.01380650688878731 0.0021823081234113267
-0.007865189923133929 -0.01656409411365328 0.0016049480995457563
0.033684587340869335 -0.03257039327193617 0.0021399277807151434
0.03254738577563275 -0.02477294118539833 0.0007133067730167882
-0.03088192466754904 0.02151910925431749 0.003241680595152329
-0.003288184001220261 -0.007554389485380968 0.009597909048107083
0.006738581450595987 -0.028053228974240823 0.0016049480995457563
-0.02198839497277663 0.007887678773426715 0.010657280754549133
0.006630176469343896 -0.0339151939170236 0.009597909048107083
0.010864024497885975 -0.042308366320003385 0.003241680595152329
0.005549647150648165 0.00873753167258027 0.00641979443898023
0.016148902892480894 0.000507638450713086 0.01277602620823044
0.02698000606025229 -0.03954165698938304 0.01277602620823044
0.008205150165121538 0.0012317173814645585 0.00035664876282722775
-0.03073304044219866 -0.034128670850218285 -5.580304855937298e-09
-0.021101539783544097 0.038391641077808306 0.01277602620823044
0.002262827187978671 -0.01904493959601287 0.01192852904715652
0.025086231062086087 -0.013820371728557837 0.001711941867432604
0.004924197016475849 -0.03725642566315001 0.0006114029446825943
-0.009625373592675632 -0.02780206987677355 0.0007133067730167882
-0.01227467132654601 0.0005369549973293019 0.0021399277807151434
-0.028037997928973532 -0.0065967268196898575 0.009597909048107083
0.03631044025154679 -0.037731904151045194 0.0016049480995457563
0.006939206620646959 -0.03931810449649902 0.010657280754549133
0.029730217697793288 0.0004385737610272731 0.008008851488444005
0.009937661093084546 -0.02366331185303582 0.0014266154592809557
0.005313353094037139 -0.02771777595607153 6.356286105475778e-05
-0.02563785083281024 0.037869837881594676 -5.580304855937298e-09
0.04024355302420117 -0.015302515355439429 0.0010699611480363283
-0.011421812003663526 -0.0255575794597219 0.0007133067730167882
0.018525693691458307 -0.005425446995383803 0.009597909048107083
-0.006772211734986444 -0.019092279054710084 0.0021399277807151434
-0.03655104997674059 -0.025310673144391765 0.0005349741008645313
0.017775511598535534 -0.037007840721521156 0.0010699611480363283
-0.002358669684914219 -0.015307287693118385 0.0005349741008645313
0.023403093642530418 -0.007835161783237189 0.0021399277807151434
0.011979137688326811 -0.026581600837636523 0.004301053066893332
-0.016238659936894474 -0.0034666444984582465 0.0021399277807151434
0.03211067199692253 -0.012583077549700594 0.009597909048107083
0.026858817384209255 -0.00982516079261774 0.0007133067730167882
0.014957679420400046 -0.03901128498390059 0.0021399277807151434
0.001967761002054806 -0.0355424135533744 0.0007133067730167882
0.0025102206121904156 -0.026877124178459454 0.0005349741008645313
0.006913595788445376 -0.03633726582531583 -5.580304855937298e-09
-0.004759658427204255 0.023306567897152106 -5.580304855937298e-09
0.03676792025977754 -0.013091557512944276 0.0003209866288657485
0.03615637611517743 -0.011759008570824936 0.0005349741008645313
0.025557904575474452 -0.017572070522844534 0.0017832734694705162
-0.006787942916249307 -0.0031844600335782475 0.0005349741008645313
0.008498091548981462 0.006473183527368153 0.0005349741008645313
0.009218345878263229 -0.02627936326383553 0.008962286432401292
-0.0014842639263951262 -0.017603306826649023 0.004301053066893332
-0.016849184034867452 -0.0061529239888997965 0.0021399277807151434
-0.03025830899102601 0.03964852514790511 0.00641979443898023
0.028325923642996107 0.00928479136683422 -5.580304855937298e-09
0.03907351132337885 0.005714034115764273 0.0021399277807151434
0.019835419263151195 -0.03602677823232283 0.0016049480995457563
0.03930462011943145 0.022803820191385916 0.009597909048107083
0.0024345746778001213 -0.03524016989276776 0.0017832734694705162
0.003580714545356037 -0.02775655477567613 0.0008024713074516347
0.03713192045980806 -0.014032891914727078 0.0021399277807151434
0.013586125316993825 -0.04026800974504689 0.004301053066893332
0.009895910379083528 -0.026166236843871735 0.0076910386499932076
0.031706541379674005 -0.03962483586844354 0.0016049480995457563
0.03203688668209697 -0.02549040050261045 0.00035664876282722775
0.0004105546137978764 -0.02121563233337156 0.0021399277807151434
-0.01837232591643678 -0.006178329354245474 0.0021399277807151434
-0.012248960718995247 -0.020877653871032582 6.356286105475778e-05
0.017723735700959864 0.031982568358554696 0.0021399277807151434
0.037593332855529626 -0.015799755992778924 0.0016049480995457563
0.03788210608771494 -0.014808719828231244 0.00641979443898023
-0.0370515185079734 -0.023458742510551103 -5.580304855937298e-09
0.0051016489061519055 -0.03746007842018146 0.0005349741008645313
0.0050565217092635945 -0.03741800383954326 0.0006878280576682681
-0.033913813149101774 -0.03039274086497508 -5.580304855937298e-09
0.03433189833789181 -0.008391711973556112 0.0016049480995457563
0.01778850882698758 -0.0058013948873295255 0.00712604037254416
-0.004521691954581478 0.027022854551198836 0.0021399277807151434
0.00567214726363862 -0.03381097913019133 0.0010699611480363283
0.0022683982416835773 -0.037741382499218205 6.356286105475778e-05
0.02909456969022763 -0.0394666374323211 0.0021399277807151434
0.0007752762711910158 -0.02209267406615093 0.00853853632126643
0.018852654749219735 -0.007262718454540853 0.01277602620823044
0.005911811609378869 -0.038074237385680706 0.00022927352137201102
0.010464300589219518 -0.024464001081328682 0.009597909048107083
-0.03329790050443287 0.0352201969033494 0.0005349741008645313
-0.011889649962025513 -0.02582656116712367 0.009597909048107083
0.022219922158774576 -0.014418722477305823 6.356286105475778e-05
0.00934206373460015 -0.0243717514370554 0.004830733818121346
-0.024085694864267163 -0.036117587434066414 0.003241680595152329
0.0006590256533475935 0.019861923002615505 0.0010699611480363283
0.0031536183938753607 -0.027500108575087844 0.0018724379401304499
0.02064206827110013 -0.03869193849308369 6.356286105475778e-05
0.008106631483425625 0.0011470589985082536 0.0010699611480363283
-0.005565419563605173 -0.029312440802215112 0.010657280754549133
0.03221656954178902 0.003382451291628245 0.0010699611480363283
0.010612608313782402 0.025594138567237013 0.00641979443898023
0.03389104141333055 -0.03846091492114733 0.0021823081234113267
0.017937835626598165 0.029484944841860004 0.00641979443898023
0.007594385780716727 -0.039698978690211544 0.0021823081234113267
0.029337779091543826 -0.039497547608230224 0.0016049480995457563
-0.020607935426633084 0.03641581113304961 0.01277602620823044
0.035931416743520905 -0.011393972695688629 0.0016049480995457563
0.03914447234914996 -0.013250472178715451 6.356286105475778e-05
0.031100611224684518 -0.016316858300468775 0.0016049480995457563
-0.03125799675493118 0.03933284722798386 -5.580304855937298e-09
0.03161057218347831 -0.03962762064969856 -5.580304855937298e-09
-0.017912408628886427 -0.03646002572238418 -5.580304855937298e-09
0.008574064691956818 0.004243977006123502 0.0002674842602798377
-0.022740896981104437 0.008717705656750173 6.356286105475778e-05
0.03750961527652052 -0.013703921401791684 0.003241680595152329
0.004870047817782881 -0.025330867396779498 0.00035664876282722775
0.009175863000018464 -0.034927176033044086 0.0005349741008645313
0.008473657782149134 -0.027481638973597414 0.0010699611480363283
0.038426928065995576 0.024097881801383215 0.003241680595152329
0.015297976949692121 -0.003231089430320929 0.00035664876282722775
-0.01143868950305159 -0.024414665824621103 0.0014266154592809557
-0.01901742664064962 0.002280623554381304 -5.580304855937298e-09
0.027277693577117054 0.00962789887358157 0.0007133067730167882
0.03695490448559496 -0.009089372880380123 0.00641979443898023
-0.011414635264336441 -0.024299775510335877 0.0014266154592809557
-0.004929251914094704 -0.015566885229261555 0.0021399277807151434
0.033503754425456625 -0.04211168223993273 0.0016049480995457563
0.007818384072710322 0.021851126890024573 0.0010699611480363283
0.003280393976421525 -0.03482413580670842 0.0007133067730167882
0.030049019792892415 -0.014350367429018126 0.003241680595152329
0.02902409359967166 -0.016697933569648556 0.01277602620823044
-0.035614964936901417 0.04015226931224973 0.0010699611480363283
0.03657568655268851 -0.007994127372247087 0.00035664876282722775
-0.00790640416347605 -0.028299510975061847 0.0010699611480363283
0.0007752762711910158 -0.02209267406615093 0.0021823081234113267
0.03352760814335008 -0.031440356892706675 0.0010699611480363283
0.028697612128202248 0.005508669237521926 0.0021399277807151434
0.00870629434769472 0.022524060985655146 0.00641979443898023
-0.02665349486572912 0.010053877205650007 0.0021399277807151434
-0.010825447551339892 -0.027539538814631205 0.01277602620823044
0.01800177881625522 -0.0026310980380149685 0.0018724379401304499
-0.005325547038896969 -0.007278482462091285 0.01277602620823044
0.022362065930142647 0.008879853600035861 0.0005349741008645313
0.0057546711267455666 -0.03620916714890521 0.003241680595152329
0.03314295637951593 -0.011206039065549898 0.009597909048107083
0.03386752210217945 -0.03855337379154286 0.00853853632126643
0.0037199601953508917 0.008850349905078998 6.356286105475778e-05
0.008143873544670529 -0.03284945481289862 0.01277602620823044
0.003783717659394051 -0.037035913816238955 0.00853853632126643
-0.00433924092222939 -0.007460892818617588 0.01277602620823044
0.00808846516706309 0.00269772093936072 0.010657280754549133
-0.005377860364990893 -0.004117881779225607 -5.580304855937298e-09
0.003982690943066278 -0.027907647444922922 0.0010699611480363283
-0.01128306758281218 -0.03343980211224151 -5.580304855937298e-09
0.016228102625641325 -0.00821773413722155 0.0021399277807151434
-0.014488500307633266 0.03329683771528515 0.00641979443898023
0.005738384765706747 0.011359293701039027 0.0010699611480363283
0.036794930143109764 -0.01205772386166179 0.01277602620823044
0.007769048427418934 0.0009641860528889605 0.0007133067730167882
-0.002385487403544454 -0.007698999721149453 0.0005349741008645313
0.002507993460359301 -0.03800530930293554 0.009597909048107083
-0.0032357550036949305 -0.006346407528618138 0.01277602620823044
0.011240120286168376 -0.025321450994671833 0.004830733818121346
-0.004406779415650963 -0.029277539894049343 0.0018724379401304499
0.01778850882698758 -0.0058013948873295255 0.009244785826225467
0.041417998350024375 0.017692601452500636 0.00641979443898023
0.017956697246276333 0.005164238940018422 0.0010699611480363283
0.0357961445738665 -0.03769539340631169 0.003241680595152329
0.024624966339232807 0.030685406971793238 0.0016049480995457563
0.027912788823931063 0.009447332735760866 0.0021399277807151434
-0.019721706269623687 -0.03651985531168989 -5.580304855937298e-09
0.006037883345136648 -0.03363096652651195 -5.580304855937298e-09
0.0022009931456369973 -0.01912466539783525 0.007267292110253451
0.03032339264210143 -0.039586576627252304 -5.580304855937298e-09
0.006227111526082848 0.00887749751743029 0.01277602620823044
0.03733114588973661 -0.014622792453964414 0.0003209866288657485
0.02547770523156173 0.009805732807375565 0.0014266154592809557
0.01100101382929485 -0.02500578007647227 0.009597909048107083
0.03914622184872374 0.019528605234644857 0.00641979443898023
0.0351663458571783 0.025000223011182845 0.0010699611480363283
0.003511469225874923 -0.03528755501506145 0.003241680595152329
-0.017161164943612053 -0.038582930077493124 0.01277602620823044
0.034127549668067 -0.03208473476578934 6.356286105475778e-05
0.02853384764835911 0.006395729896366108 0.010657280754549133
0.023199273134592475 -0.012410230771990736 0.01277602620823044
0.008587417245625688 0.002944729330271531 0.0018724379401304499
0.02785393911471602 0.03238129414691214 0.009597909048107083
0.0359658075837558 -0.03606007821434893 0.01277602620823044
0.018410930132593817 -0.0047814635101756636 0.000855966341922592
0.026785086255369427 0.007386165316125197 0.010657280754549133
0.006493711670531509 0.0014359641124200085 0.0016049480995457563
-0.02404619886812889 0.03779625312604184 0.00641979443898023
0.007998558236480106 -0.02706497437875964 6.356286105475778e-05
0.00898322978504294 -0.039768759674066324 0.00035664876282722775
0.0025247171947475468 -0.03519032488075939 0.00035664876282722775
0.02445914047595103 -0.01040287682380306 0.00641979443898023
-0.002753847962006622 -0.007381702439502154 0.003241680595152329
0.017485756920210094 -0.002551135500625849 0.004301053066893332
0.014588289183921788 0.026549764343530093 0.0007133067730167882
0.004367209954376551 -0.037583170284933 0.00853853632126643
0.004222217209460632 -0.02797884923306531 0.0018724379401304499
-0.014505566491386766 -0.03551545717102294 -5.580304855937298e-09
0.026121946121875857 -0.01240100765704429 -5.580304855937298e-09
-0.004606903025090488 -0.02908655449399904 0.0008024713074516347
-0.005586181785077829 -0.03168686770672125 0.0017832734694705162
-0.021851728813818264 0.03694024904187575 0.01277602620823044
-0.03207678918399297 0.042164094234672864 -5.580304855937298e-09
0.021669328551195435 -0.01415744592984147 0.0021399277807151434
0.00491801868477957 -0.03722587937141268 0.00038212381111827113
0.02564445750216801 -0.014769471309379573 0.001711941867432604
-0.03378168176366706 0.03572566174401319 0.003241680595152329
-0.015687776312124497 -0.038865107025233096 0.0005349741008645313
-0.010974766497461633 -0.018719511418229234 0.0005349741008645313
0.006204375389098664 0.007421973900847695 0.005148550227967253
0.0414133002298383 0.009755999940771231 0.0021399277807151434
-0.0286001421142626 0.016362618937680776 6.356286105475778e-05
-0.03306781841654031 0.04149719356160403 6.356286105475778e-05
0.010833261657397703 -0.024806568035673753 0.0016526198467436207
0.006338435638718084 -0.038359649247051084 -5.580304855937298e-09
0.009829784647827907 -0.029445443969366675 -5.580304855937298e-09
-0.0010881802972408244 0.017472410666030544 -5.580304855937298e-09
0.04142815867571619 0.012232989588836873 6.356286105475778e-05
0.03419384463611378 0.0041030829695240705 6.356286105475778e-05
-0.010913633652226933 -0.022919974488301274 0.0010699611480363283
0.03205645297875481 -0.03959927872560079 -5.580304855937298e-09
0.016884976192636007 -0.008164017845457625 0.01277602620823044
0.008524846276690454 0.016135911807936158 0.00641979443898023
-0.0025850618363791053 -0.006106281844428425 -5.580304855937298e-09
0.03567619867037332 -0.008216379381424633 6.356286105475778e-05
0.022740046267568967 -0.012822970506666705 0.00641979443898023
-0.01068400718172848 -0.01924118821413556 0.01277602620823044
0.032220961346284244 -0.015550960580657545 -5.580304855937298e-09
-0.0036471087019542712 -0.008028086677709923 0.0016049480995457563
-0.018515424033031417 -0.03926789342520564 0.0010699611480363283
0.029590311082471853 -0.01647561443773563 0.004301053066893332
0.009168842383744418 0.01675077481225602 -5.580304855937298e-09
-0.017418009920873473 0.004427522868674307 0.0021399277807151434
0.004937354487826369 -0.037281691200831635 0.0014520941746294757
-0.0058201336432729955 -0.018065528643600753 0.010657280754549133
-0.008544494036337074 -0.0316121785862336 0.01277602620823044
0.019926994878757865 -0.03605278098503307 0.0010699611480363283
0.002966627493777508 -0.03844406470925432 0.01277602620823044
0.03979177865870674 -0.02022436853227138 0.0010699611480363283
0.006055593840517398 0.014245984355855475 0.0021399277807151434
-0.03330337802021843 0.038449735626337224 -5.580304855937298e-09
0.018526106243571303 -0.039110347419625956 0.01277602620823044
0.02443013715079641 -0.005887774119306426 6.356286105475778e-05
0.029604980132940134 0.0017179250272475633 0.008008851488444005
0.004222217209460632 -0.02797884923306531 0.0008024713074516347
0.027614914914513195 0.008959778306976616 0.003241680595152329
0.002043938563465575 0.01620226385728453 0.00641979443898023
0.03281046871873883 -0.02719966809402304 0.004301053066893332
-0.03370783168598002 0.0386861817849685 0.003241680595152329
0.025774449426326375 -0.007642916319187642 0.0021823081234113267
0.0061034566096082 -0.03606830550375194 0.003241680595152329
-0.02814198815282816 -0.006670390221069268 0.01277602620823044
0.00791071752665311 -0.03580934190667178 0.0005349741008645313
0.008856087247239167 -0.023992282337796208 0.0014266154592809557
0.037591121198611084 0.026072721000741213 -5.580304855937298e-09
0.004611761251587388 -0.025225373441561564 0.0014266154592809557
0.0029796358484032066 -0.03923397730285252 0.0016049480995457563
0.03435360925443377 -0.009269946434759023 0.01277602620823044
0.039041780199577734 0.01845920996710272 -5.580304855937298e-09
0.022432757835831034 -0.013181877670528905 0.00853853632126643
0.0375426092701646 -0.018353578537376482 0.0010699611480363283
-0.010842684923027375 -0.02180818112812013 0.004301053066893332
0.004074931763647455 -0.03734876271719775 0.010657280754549133
-0.006802042328600333 -0.01855259599275911 0.01277602620823044
-0.013917692620096596 -0.0009936242421123285 6.356286105475778e-05
0.029582785910773363 -0.014627423313625364 0.01277602620823044
0.02199080969259295 -0.012915374373961851 0.0017832734694705162
-0.02998546188103138 -0.010356004945291448 0.009597909048107083
0.03811442884824237 -0.017863481624141028 0.009597909048107083
0.019795225179953507 -0.03601721391007488 0.0016049480995457563
0.007855938921177686 0.0016125892357009568 0.00853853632126643
0.0021145837119236964 0.016065198770269164 0.01277602620823044
0.036912644690669 -0.009035336239174688 0.01277602620823044
0.012820525108610112 -0.02859441917284709 0.0021399277807151434
0.02009045554579105 -0.03610802044671961 0.0016049480995457563
0.00421036809356168 -0.024977650362131575 0.0010699611480363283
0.03793450184865529 0.02197614746320599 0.003241680595152329
0.0031586365356097387 -0.03487879670656508 0.00035664876282722775
0.022272686736178254 -0.013452892110416385 0.004301053066893332
-0.014133216026392755 -0.03592354015963947 0.01277602620823044
-0.0039393915422485885 -0.008005919934293133 0.0021399277807151434
-0.034948566438477525 -0.02891617444037285 0.0005349741008645313
0.032050717763514536 -0.02627766465387417 0.0008024713074516347
0.005886995223830932 0.008010657453173302 6.356286105475778e-05
0.02201148540084257 0.008694193237408566 0.0016049480995457563
0.019835419263151195 -0.03602677823232283 0.0018724379401304499
0.041577285982078604 0.016767814696035367 6.356286105475778e-05
0.018770446274330582 -0.005276140579067284 0.003241680595152329
0.03776297245306556 -0.022572541982945147 6.356286105475778e-05
0.017915770709864647 -0.005804230704350008 0.005713544934021192
0.025927850907199103 -0.007984032851149623 0.00641979443898023
0.010334491085220462 -0.04283493749991515 0.0016049480995457563
0.02830320645261437 0.008605140871888989 6.356286105475778e-05
-0.030344000079658116 -0.03452293916705684 0.0021399277807151434
0.037372629584056315 -0.014758899675513987 0.0020329304414331882
0.009269735672101232 -0.024400656849997766 0.011186965587371556
0.0048347286871055824 -0.03792952928614046 0.003241680595152329
-0.01003671667242605 -0.021038757525025677 0.0021823081234113267
0.013303485995687606 -0.03975703706726741 0.0010699611480363283
0.02153252080245326 0.030876228137427103 0.01277602620823044
0.03592304458060587 -0.033073427604871856 0.00641979443898023
0.019286296696198094 -0.03851107428791469 0.00853853632126643
-0.0022040592347717944 0.01940395141321894 0.0021399277807151434
0.018506503200004035 0.029778599024469665 6.356286105475778e-05
0.02313726190698788 -0.007535652804305503 0.0016049480995457563
0.03794392018273316 0.00786099324069263 0.009597909048107083
0.0054063975327764075 -0.03770987153597433 0.00038212381111827113
0.0019394344626897028 -0.03726903556221661 6.356286105475778e-05
-0.012672538033117704 -0.02864230597655794 0.0010699611480363283
0.03762977339168876 0.007406773136878891 0.00641979443898023
0.010494262048798345 0.022164076144545457 0.00641979443898023
0.03407508956410673 0.026177849637641828 -5.580304855937298e-09
0.006224201296771502 0.007552310721234181 0.008962286432401292
0.03862815196132256 0.009043904191037061 0.003241680595152329
0.023792124306109084 -0.010748303899544936 0.0021399277807151434
-0.022384500420301903 0.008321493815345438 0.0021823081234113267
-0.01316455894256116 -0.03736097503053461 0.01277602620823044
0.029736810033695438 -0.01640722076635798 0.00641979443898023
-0.032971951916787826 -0.03157645151809161 0.0010699611480363283
0.005340011562139446 0.010620344426850233 -5.580304855937298e-09
0.01378440165682867 -0.04020400042653251 0.01277602620823044
0.004919158648600314 -0.036506201614095034 0.0013348107072377556
0.03671537669749196 -0.011891330907124999 0.01277602620823044
-0.011456731632546612 -0.029734072653118462 0.0021399277807151434
0.008491483466979671 -0.039584962146586425 0.0013756654264737815
0.0037861416016415615 -0.0370458095995794 0.0011229353965706733
0.03902473085969715 -0.021947373285395762 0.0021399277807151434
0.0009589982282601481 -0.024960012409623134 0.0018724379401304499
-0.005104879494846455 -0.007322713617887802 0.01277602620823044
-0.007606930428875255 -0.01907178678216031 0.0021823081234113267
-0.022381397408305533 -0.03664600826105115 0.01277602620823044
0.006115353320409518 0.007550589131068155 0.01277602620823044
-0.010327900570238663 -0.022006061566533935 0.0014266154592809557
0.009600634922345213 -0.04036396279716684 6.356286105475778e-05
0.03262492105944005 0.0036054447900293043 0.0007133067730167882
0.03427185927799206 -0.03398971366177187 0.00641979443898023
0.01763035186759509 0.0037938534880243803 0.003241680595152329
0.007165097176410699 -0.038874833640359034 0.0006878280576682681
0.011506611764126474 -0.02491392391457561 0.0010699611480363283
-0.022971450335219773 -0.036490166228238474 0.009597909048107083
-0.03539281250096022 0.03043988259964026 -5.580304855937298e-09
-0.014620115137832363 0.03283388448459895 0.0021399277807151434
-0.0033524050229610494 -0.00755607983421313 0.003241680595152329
-0.03066992548498171 -0.03339811983339202 0.003241680595152329
