ply
format ascii 1.0
element vertex 643
property float x
property float y
property float z
property uchar red
property uchar green
property uchar blue
end_header
0.032952128869764855 -0.01843321300552641 -0.008466823344618464 0 0 255
0.014858468319859883 -0.020615377065165284 -0.008466823344618466 0 0 255
-0.010452845454367865 -0.025803764651763914 -0.00846682334461847 0 255 0
0.0035535144993226156 -0.05191915630338215 -0.0015914685520854667 244 208 63
-0.025321551455355747 -0.013358917180998449 -0.0015914685520854702 255 0 0
-0.026571463245968385 -0.017895498990257493 -0.00030313481780997674 255 0 0
0.027820334876845935 -0.012664536694346463 -0.0021219550761212 244 208 63
-0.0408769298332078 0.004339104245701952 5.533437301650578e-09 255 0 0
-0.0077100297324615395 -0.0401878584108846 -0.0018567118141033362 255 0 0
-0.00916499920010927 -0.0237740791051973 5.5334373055341694e-09 255 0 0
-0.012626353320880626 -0.03152671339591305 -6.302901288699499e-05 255 0 0
0.019854382846840844 -0.03142361818637244 -0.002121955076121201 244 208 63
0.030299100282578425 -0.018659941520232877 -0.004264929625293678 244 208 63
-0.006508755527749461 -0.002540464939162366 -0.012668723640828739 0 255 0
0.01994792234768677 -0.032004241826199195 -0.001212544962775407 244 208 63
0.01320823263992065 -0.020072818414865645 -6.302901288699183e-05 244 208 63
-0.008614672742138186 -0.017458376920730944 -0.006365876231998941 255 0 0
-0.007910169416897043 -0.015762599850211542 -0.010567772986809337 0 255 0
0.014788419430307455 -0.03943700069083455 -0.003214454551241112 244 208 63
0.0197774251920441 -0.032689719233562266 -0.00060626792815929 244 208 63
0.025609329656614797 -0.012301900382503027 -0.012668723640828735 0 0 255
-0.010894955838577263 -0.014860269374654095 -0.0015914685520854684 255 0 0
0.045140241038758036 -0.00560074009356208 -0.0005304809905984243 244 208 63
-0.00810273101151162 -0.0035763479279819375 -0.0007957315567535438 255 0 0
-0.001062526963745748 0.050713943050179136 -0.00951729867162817 0 255 0
0.014549066330956388 -0.024056498662529298 5.5334373084383054e-09 244 208 63
-0.003696254668649427 -0.04845208535138197 -0.004264929625293682 255 0 0
-0.011218742993778124 0.006279818697263013 -0.0005304809905984312 255 0 0
-0.04115271786631437 -0.011468382342026922 -0.001060974818771416 255 0 0
0.024787388958248453 -0.015482579338338577 -0.0021219550761212005 244 208 63
-0.011177013161293346 0.006110427470210272 -0.0005304809905984312 255 0 0
0.02222586407289337 -0.029352040914755274 -6.302901288699072e-05 244 208 63
-0.013540872282983625 -0.03226346217885608 5.53343730499828e-09 255 0 0
0.007595885355306993 -0.045734682209073424 -6.302901288699251e-05 244 208 63
0.01322734506913856 0.019376140065608234 -0.012668723640828737 0 0 255
-0.044635334551942796 -0.0034191305159609743 -0.009517298671628175 0 255 0
-0.012094354113183456 -0.023382584431676488 -0.009517298671628172 0 255 0
0.020512124010373042 -0.028340171905539488 -0.00035365336133944903 244 208 63
-0.03912999572373302 0.009733304839337856 -0.012668723640828744 0 255 0
-0.01645033059972445 -0.03164557491770278 -6.302901288699546e-05 255 0 0
-0.013693566315534068 0.0192587031983973 5.53343730497958e-09 255 0 0
-0.021822903358401764 -0.028952866462645655 -0.0032144545512411164 255 0 0
0.010601442593175745 0.033499107187110064 -6.302901288699214e-05 244 208 63
-0.023138923978247353 -0.018126080548029333 -0.011093009132571385 0 255 0
-0.022740257464062844 -0.029552065250737666 -0.002121955076121206 255 0 0
-0.0288460032036367 -0.020254063213218498 -0.006365876231998944 255 0 0
-0.008673071437926253 -0.017970959138820845 -0.0017682962129640884 255 0 0
-0.025320286669685655 -0.014039130044488323 -0.001060974818771414 255 0 0
0.010308519243810758 0.032571802759625235 -0.0021219550761212022 244 208 63
0.009878524494492318 -0.025834149862702226 -0.005105308875072906 244 208 63
-0.011231047840605324 0.008320487642588716 -6.302901288699481e-05 255 0 0
-0.012443580661438301 -0.019510767899647067 -0.0005304809905984314 255 0 0
-0.018599084081102148 -0.036715582612894856 -6.302901288699572e-05 255 0 0
-0.04116286853018827 -0.015259254614827465 -0.006365876231998946 255 0 0
0.02768678160471241 -0.020820869322556623 -0.0003536533613394481 244 208 63
0.022635088006023277 -0.02926578860302615 -0.0015914685520854643 244 208 63
-0.011656301161403721 -0.0130830987930358 -0.006365876231998942 255 0 0
-0.008200371959328526 -0.015208986973155291 -0.0021639794771885473 255 0 0
-0.02233352060547461 0.010248374131969428 -0.006365876231998943 255 0 0
0.01927547526821127 -0.03849116765919712 -6.302901288699108e-05 244 208 63
0.0008998019160457992 -0.05109681087360138 -6.302901288699333e-05 244 208 63
-0.01909256702374511 -0.03476595091644537 -0.0005304809905984322 255 0 0
0.011184741507651882 -0.018380197237550258 -0.0007073158923750097 244 208 63
0.04295962102946521 -0.006824006897420001 -6.302901288698818e-05 244 208 63
-0.01118046046111575 0.015810628315333385 -0.01266872364082874 0 255 0
0.02657884352331051 -0.016610619417266666 -0.009517298671628167 0 0 255
-0.005941048385099963 0.04823569974797126 -0.0010609748187714117 255 0 0
0.019714094843971207 -0.037958747530828944 -0.009517298671628168 0 0 255
-0.00936438203679979 -0.018082183378820282 -0.002121955076121205 255 0 0
-0.02466100347946448 0.013328313415096344 -0.0005304809905984329 255 0 0
0.010087057296634559 -0.015154050754617671 -0.002163979477188545 244 208 63
-0.021836109744454605 -0.010166849083160847 -0.0017682962129640899 255 0 0
-0.009440292449061694 0.0016834714648207999 -0.01266872364082874 0 255 0
-0.018596188227831902 0.007601060858269014 5.533437304379182e-09 255 0 0
-0.025762061126821074 -0.013545107797235632 -0.010567772986809339 0 255 0
-0.002840526485892222 -0.05241249556637299 5.533437306308694e-09 255 0 0
0.006968601748453437 -0.041869744087432235 -0.0021219550761212027 244 208 63
-0.023859556356267787 -0.010931917935000058 -0.0021219550761212066 255 0 0
-0.019744664207703086 -0.009963654688374932 -0.0005304809905984322 255 0 0
-0.025357127346684123 0.010646267609152374 -0.0017682962129640903 255 0 0
-0.009556086106730043 -0.027813583956853245 -0.006365876231998941 255 0 0
0.011079813876632436 -0.02627636142976523 -0.0005304809905984284 244 208 63
-0.008327844647874512 -0.02977371640985011 5.533437305636692e-09 255 0 0
0.01137266336251429 -0.031136194125101015 -6.302901288699205e-05 244 208 63
0.018861930827232323 -0.03530913285312323 -0.0009851915174693476 244 208 63
-0.037467221464574756 0.008880820072953037 -0.009517298671628175 0 255 0
-0.010728357258284086 -0.015224419381987497 -0.0018036588614284846 255 0 0
-0.019979742331489237 -0.031441756224710106 -0.002121955076121206 255 0 0
0.010241728442144491 -0.015865156766970968 -0.00048322053495510997 244 208 63
0.006450027481772903 -0.0034897465354078706 -6.302901288699266e-05 244 208 63
0.009884357686002786 -0.015727823303426668 -0.0034245465811574448 244 208 63
0.024612281911795427 -0.020041777539035955 -0.012668723640828735 0 0 255
-0.030891776823926898 0.013427511061116 -0.0015914685520854708 255 0 0
0.02622782806220389 -0.020735446710227083 -0.0010609748187714078 244 208 63
-0.007630366954073602 -0.01646652187995871 -0.00846682334461847 0 255 0
0.027520649477374363 0.010817899024583985 -0.0015914685520854637 244 208 63
0.04315760754277595 0.00450526672789608 -0.012668723640828734 0 0 255
0.013866279375670743 -0.008577032720596222 5.533437308354688e-09 244 208 63
-0.027132058751752085 -0.015173060989153437 -6.302901288699676e-05 255 0 0
0.019920621190126414 0.011620173823523186 -0.002121955076121201 244 208 63
-0.01391998925802264 -0.023931527720038755 -0.002163979477188548 255 0 0
0.007652581649583115 -0.003977892588437308 -0.0015914685520854663 244 208 63
0.01934863654234066 -0.010058474152318995 -0.0021219550761212014 244 208 63
-0.014844034585792781 -0.04110326778209934 -0.006365876231998942 255 0 0
-0.011583445459492223 -0.013955684545118271 -0.000265237728580563 255 0 0
0.04209599704272675 0.007502591222881063 -0.001768296212964082 244 208 63
-0.012534588567286972 -0.025830426333689472 -0.00035365336133945304 255 0 0
0.019455746687512418 -0.03519501478351062 -0.0021639794771885442 244 208 63
-0.009815293305615959 -0.01565266872708121 -0.010567772986809337 0 255 0
-0.010529773766137063 -0.018225409731758676 -0.0017682962129640886 255 0 0
-0.009648228272367651 0.0018831747982001226 -0.007626443588924976 0 255 0
0.0186789982988813 -0.031182766568959446 -6.302901288699115e-05 244 208 63
0.0036485373408024296 0.047592779848835476 -6.3029012886993e-05 244 208 63
-0.015616914753930487 -0.04155992218968627 -0.001060974818771413 255 0 0
-0.010183179995733085 -0.025837203561224098 -0.006365876231998941 255 0 0
0.011564760021916538 0.01823531350946977 -6.302901288699202e-05 244 208 63
-0.009195121335628203 -0.026353495142727248 -0.004264929625293682 255 0 0
-0.01950345035567418 -0.035002131933335845 -0.01266872364082874 0 255 0
-0.0214825647120078 -0.028819430562622317 -6.302901288699607e-05 255 0 0
-0.013118281083063638 0.018720507552745215 -0.01266872364082874 0 255 0
-0.04464480526704045 -0.009507319006776867 -0.0015914685520854726 255 0 0
0.02517136372208916 -0.015642050598423645 -0.012668723640828735 0 0 255
-0.0145217166056263 -0.018905113645494905 -0.002163979477188548 255 0 0
-0.02297066701098355 -0.019519465577743162 -0.0032144545512411164 255 0 0
-0.003146990630641223 -0.05215304249315281 -0.0010609748187714115 255 0 0
-0.007833459154177371 -0.015924733231175024 -0.010567772986809337 0 255 0
0.027860682551550435 -0.012991145839334436 -0.0010609748187714076 244 208 63
-0.019901285146802034 -0.03766570579752524 -0.006365876231998943 255 0 0
0.009337871117326108 -0.013329244297349533 -0.012668723640828737 0 0 255
-0.010845314518768918 -0.018291909126806557 -0.0014146336819285288 255 0 0
-0.005512129715429638 -0.048943433335813816 -6.302901288699412e-05 255 0 0
0.007962900355140292 -0.028150854739125833 -0.012668723640828737 0 0 255
-0.019987944213602657 -0.03360207085894099 -0.01266872364082874 0 255 0
-0.01755434278640638 0.006807803981157575 -0.0015914685520854693 255 0 0
-0.008067983301840024 -0.02397007231629197 -0.0007073158923750121 255 0 0
-0.02613029790961168 -0.009252358452256856 -0.0021219550761212066 255 0 0
-0.005283757991180586 -0.04642936725611477 -6.30290128869941e-05 255 0 0
0.019573169389123846 -0.033379474651975855 -0.0005304809905984275 244 208 63
0.019832027507164816 -0.028507585007804204 -0.0010609748187714086 244 208 63
-0.021417139878865232 -0.028808071775476347 -6.302901288699607e-05 255 0 0
-0.04391003157339984 -0.011752141560340683 -0.0021219550761212088 255 0 0
-0.020029864269852215 -0.03150761614412319 -0.0019097612253783135 255 0 0
0.007208449126044375 -0.017076933751887496 -0.0015914685520854663 244 208 63
-0.023189132933864435 0.010584363939315345 -6.302901288699629e-05 255 0 0
0.012847428749556047 -0.029844216574929628 -0.012668723640828737 0 0 255
-0.016389488338021764 -0.030022887281486707 -6.302901288699545e-05 255 0 0
0.008232637653601134 -0.04026173403596046 -0.01109300913257138 0 0 255
-0.008634934608573076 0.006839715535442555 5.533437305599084e-09 255 0 0
-0.03826494708241576 0.010377096934671733 -0.0032144545512411186 255 0 0
0.009173454039356708 -0.026114723844784426 -0.008887014487250882 0 0 255
-0.021042386920302306 -0.028793817135060133 -0.009517298671628172 0 255 0
-0.026933940700731657 -0.011354960410447132 -0.012668723640828742 0 255 0
0.009361026813374168 -0.04172166095752068 -0.00426492962529368 244 208 63
-0.04125877773346568 -0.01124209093724804 5.533437301603816e-09 255 0 0
-0.027835805735162512 -0.012569324640930404 -0.001414633681928531 255 0 0
0.017044893189464165 -0.00745309408863911 5.533437308743956e-09 244 208 63
0.009835384173028254 -0.015671854007953716 -0.007626443588924974 0 0 255
-0.008945005416138912 -0.013939277745405826 -0.01266872364082874 0 255 0
-0.042108134937845494 -0.010320720884127279 -0.003214454551241119 255 0 0
-0.02682806701003098 -0.01728668783107278 -0.00045469772091601384 255 0 0
0.0074581871275754405 -0.028294151920061756 -0.0018567118141033345 244 208 63
0.022857277457916915 0.012277435380329285 -0.012668723640828735 0 0 255
-0.0029033028578416145 0.051267061143081244 -6.30290128869938e-05 255 0 0
0.022558029168372927 -0.019877100421132783 -0.0018567118141033325 244 208 63
-0.011566835282244028 -0.01802144331179974 -0.006365876231998942 255 0 0
-0.021856866395043636 -0.007353504359061725 -0.002121955076121206 255 0 0
-0.01959515642321274 -0.029108105243964327 -0.01266872364082874 0 255 0
0.020153720177296004 -0.010053819741053053 -0.00035365336133944903 244 208 63
-0.020799906258946232 -0.010017427304096067 -0.0015914685520854698 255 0 0
-0.01864360453668942 -0.00787379468693944 -0.003214454551241116 255 0 0
0.02500697598714731 -0.012224564303833793 -0.0017682962129640842 244 208 63
0.021750298589967215 -0.010116013805679934 -0.001414633681928525 244 208 63
-0.011454605284679733 -0.014112611056435114 -0.0005304809905984312 255 0 0
-0.01236617173111447 -0.015880604353231215 -0.0010609748187714126 255 0 0
0.023218518458209103 -0.01815346872284379 -0.010567772986809332 0 0 255
-0.01357595541381493 -0.01129919449250993 -0.01266872364082874 0 255 0
-0.00897620413722023 -0.024247926503269204 -0.004264929625293682 255 0 0
0.014684785927985649 -0.008190251144396444 -0.000530480990598428 244 208 63
0.008443802727679972 -0.017353638501647745 -6.302901288699241e-05 244 208 63
0.04477091552846261 -0.008894288522596723 5.533437312139414e-09 244 208 63
0.008012149591390905 -0.029311881440158484 -0.0005304809905984289 244 208 63
0.034871448206930625 -0.01969531530634167 -6.302901288698917e-05 244 208 63
0.007772767654926562 -0.014943961760186947 5.533437307608448e-09 244 208 63
0.023982977177441064 -0.020416370628690183 5.533437309593626e-09 244 208 63
-0.009325809109347563 0.040824626392521046 -0.01266872364082874 0 255 0
0.007766760428907888 -0.017678967683537584 5.533437307607712e-09 244 208 63
-0.009218495586640056 -0.026271241577372692 -6.302901288699457e-05 255 0 0
-0.03629061867505778 -0.01911006761010505 -0.006365876231998945 255 0 0
-0.010937486027434076 -0.015366974892606475 -0.0016975637067569765 255 0 0
0.006893782087353422 -0.0038509435211587406 -0.012668723640828739 0 0 255
-0.009932409423180957 -0.01583942697912713 -6.302901288699466e-05 255 0 0
0.021871604689500095 -0.010133148110109819 -0.0010609748187714084 244 208 63
-0.03635846784937278 0.012093586135324578 5.53343730220393e-09 255 0 0
-0.0277556486785347 -0.011987101300188114 -0.0007073158923750145 255 0 0
-0.018365606670060066 -0.029528821525606964 -0.006365876231998943 255 0 0
0.025075905794338837 -0.014857782300112423 -0.0014146336819285245 244 208 63
0.013283721119683014 -0.021368823042610608 -0.012668723640828737 0 0 255
0.022558029168372927 -0.019877100421132783 -0.0005304809905984271 244 208 63
0.009730180312818458 -0.02672986297963375 5.533437307848162e-09 244 208 63
0.04090504652456824 0.005348034904848977 -6.302901288698843e-05 244 208 63
-0.013661698775790406 -0.011239166752778784 -0.009517298671628172 0 255 0
-0.018611897877682995 -0.035757963802469234 -0.0015914685520854695 255 0 0
0.027064691207820256 -0.01171291296799708 -6.302901288699012e-05 244 208 63
0.045157231663535795 -0.0021188189135736414 5.533437312186724e-09 244 208 63
0.010314861385074873 -0.0263340477982639 -0.0021219550761212022 244 208 63
0.010921112618063321 -0.023960909197069283 -0.008466823344618466 0 0 255
0.02067774819978598 -0.030532124394436345 -0.012668723640828737 0 0 255
-0.01115843902485663 0.03087218579981143 -0.006365876231998942 255 0 0
-0.040379502782931224 0.006006401378416469 -0.012668723640828744 0 255 0
-0.009234466288253453 -0.0013838873746814034 -6.302901288699457e-05 255 0 0
0.011341188412242624 0.008675124438025948 -6.302901288699206e-05 244 208 63
-0.02183501899329272 -0.033236321150692055 -0.006365876231998943 255 0 0
0.006811442516573298 0.0006448105007554362 -0.000530480990598429 244 208 63
0.02113697872282575 0.009123460603217809 -0.002121955076121201 244 208 63
-0.010781024957243828 -0.015279312091898067 -0.0008487773001500766 255 0 0
0.011933636280341945 -0.02291800133568088 -0.0010609748187714095 244 208 63
-0.043001069573616955 -0.002242277298881319 -6.302901288699871e-05 255 0 0
0.009833740963485667 -0.027192626807921495 -0.0010609748187714097 244 208 63
0.007440602559447006 -0.04604508692005616 -0.012668723640828737 0 0 255
0.01153854961551807 -0.018562969896992583 -0.0017682962129640857 244 208 63
-0.042305498164778015 0.0021347457271242865 -0.003214454551241119 255 0 0
-0.006549917724425502 -0.0036504982645053415 -0.006365876231998941 255 0 0
-0.004082847032912959 0.046049988217484905 5.533437306156554e-09 255 0 0
0.011352315490653834 0.022570636551932415 -0.0010609748187714097 244 208 63
-0.008546616142973291 -0.02918449627478087 -0.0032144545512411147 255 0 0
0.02145790037961245 -0.009599155600196583 -0.004264929625293679 244 208 63
-0.001331188309037042 0.05259877319986427 -0.012668723640828739 0 255 0
0.01523396294873975 -0.02148170870506628 -0.000530480990598428 244 208 63
0.012575232707752541 -0.022100947769143776 -0.0007073158923750096 244 208 63
0.04463052634273937 -0.002730481279094447 -0.009517298671628165 0 0 255
-0.011403799350226366 -0.01793895904953896 -0.009517298671628172 0 255 0
-0.009622236420932974 -0.027901246757561653 -0.01266872364082874 0 255 0
0.04445479196259398 0.00023510594907089397 -0.009517298671628165 0 0 255
-0.020031493313795296 -0.031557272641359574 -0.0010609748187714134 255 0 0
0.015194720190796642 -0.01972011522376085 -0.0015914685520854652 244 208 63
-0.009458139080780975 0.001691529414324962 -6.30290128869946e-05 255 0 0
0.02283016652412134 -0.030284916470159736 -0.002121955076121201 244 208 63
-0.012874681339346671 -0.03215623668523121 5.5334373050798645e-09 255 0 0
-0.008481120481833197 -0.017435177716055832 -0.008887014487250886 0 255 0
0.008472281653656322 -0.040124631269322385 -0.009517298671628168 0 0 255
0.014729526962193786 -0.010539725099789354 -0.010567772986809333 0 0 255
-0.011488728190230304 0.037353803580309104 5.533437305249595e-09 255 0 0
-0.026700914565216664 -0.017553573796718965 -0.001515681709383533 255 0 0
-0.01676294716788705 -0.041035661446633 5.53343730460369e-09 255 0 0
0.01431740818762217 -0.03012087680423429 -0.012668723640828737 0 0 255
-0.01660823150192153 -0.0299910774159696 -6.302901288699548e-05 255 0 0
-0.027455730558499834 -0.018639652334427513 -0.008466823344618471 0 255 0
0.020408302307943525 -0.028362179176199105 -0.001414633681928525 244 208 63
0.00329769642011828 -0.052142248306329964 -0.0005304809905984294 244 208 63
-0.014095096304475667 -0.010954768058830226 -0.0032144545512411155 255 0 0
0.016167463814179505 0.006252416356849049 -0.012668723640828737 0 0 255
0.023039323624470337 -0.018443614602877252 -0.004264929625293679 244 208 63
-0.014581249561203305 -0.023994639513147856 -0.0010609748187714128 255 0 0
-0.018762061327064716 -0.03549164648446032 5.533437304358868e-09 255 0 0
0.01894576891607437 -0.0351180267738578 -0.000909404611528127 244 208 63
-0.01331133695591809 0.022446829212258358 -0.006365876231998942 255 0 0
-0.0223895050783756 -0.03320445259911986 5.533437303914635e-09 255 0 0
0.007121338783716665 -0.003770349354603347 -0.012668723640828737 0 0 255
-0.009839481066770817 -0.015587797364147876 -6.302901288699465e-05 255 0 0
0.008407541828432676 -0.0401444590613153 -0.0016387399165051892 244 208 63
-0.010142570257437741 -0.015898465150549997 -6.302901288699469e-05 255 0 0
0.012754820130963304 -0.02032441767498882 -0.001414633681928526 244 208 63
-0.0028842053530946134 0.052136096388830634 5.533437306303345e-09 255 0 0
0.013757700055464605 -0.03912679834555902 -0.0005304809905984281 244 208 63
-0.028013152969994404 -0.02065988335515305 -0.0010609748187714145 255 0 0
-0.015414637075798257 -0.02092544787273112 -0.0003536533613394534 255 0 0
0.027234577219027136 0.011274264049209596 -0.012668723640828735 0 0 255
-0.03638700546140422 0.008941502465747023 5.5334373022004355e-09 255 0 0
-0.007655180531178022 -0.02427835421100603 -0.0007073158923750121 255 0 0
-0.019969239551284785 -0.031441756224710106 -0.0019451238738427096 255 0 0
-0.016480962696825564 -0.041174710971374484 -0.0021219550761212057 255 0 0
-0.04229432757773975 0.00020392139358908274 -0.0010609748187714162 255 0 0
-0.011212256161033352 0.00824738404268588 -0.006365876231998942 255 0 0
-0.012566806199704114 -0.041998744131153426 -0.0007073158923750127 255 0 0
-0.037843051008700064 -0.018878656352933634 -0.0010609748187714156 255 0 0
-0.026700914565216664 -0.017553573796718965 -0.002121955076121207 255 0 0
-0.009979229765030725 -0.0158582044930996 -0.006365876231998941 255 0 0
-0.005782841910684987 -0.045581305192261126 -6.302901288699415e-05 255 0 0
0.022328261120744094 -0.030307547027197575 -6.30290128869907e-05 244 208 63
-0.007036318373230211 -0.042877019395094244 -0.004264929625293682 255 0 0
-0.01139870884086138 0.007006255935594907 -0.0015914685520854684 255 0 0
0.014971773891158023 -0.0233664821923534 -0.0013262180807892777 244 208 63
-0.009218014968085421 -0.002241244474903121 -0.0005304809905984309 255 0 0
-0.008258275870962454 -0.015104946715761984 -0.004264929625293682 255 0 0
-0.03675108160525449 0.011907118278068509 -0.0010609748187714156 255 0 0
-0.001457773750435459 0.05034211225242839 -6.302901288699362e-05 255 0 0
0.008511320528149409 -0.02444342594203827 -0.003214454551241113 244 208 63
-0.01667185123295574 -0.03798607499593124 -0.0021219550761212057 255 0 0
-0.010739164598877896 -0.015241422148707691 -0.0013792674920642563 255 0 0
0.042649843652174835 -0.008764605494613683 -6.302901288698823e-05 244 208 63
0.04463291021077036 -0.0029295593024384757 -0.012668723640828734 0 0 255
0.036617463576094654 0.008832123800997387 5.533437311140905e-09 244 208 63
-0.010895276588223198 -0.015971888488270233 -0.004790161723741586 255 0 0
-0.01108927750893034 -0.015431365636985174 -0.0006365833861679006 255 0 0
-0.009883159681016074 -0.015813231750156705 -0.004965243980395477 255 0 0
-0.019485951792971308 -0.007203937888516288 -0.0015914685520854695 255 0 0
-0.009883159681016072 -0.015813231750156705 -0.01196840574432707 0 255 0
0.020474947406300598 -0.010053935089506166 -0.0007073158923750087 244 208 63
0.012808360026121143 0.0310105675177191 -0.012668723640828737 0 0 255
-0.044295258980968207 0.0008512627304703749 -0.009517298671628175 0 255 0
0.032030541273508836 -0.01855056285548324 -6.302901288698953e-05 244 208 63
0.021004734756817908 -0.010062764305311951 5.5334373092288965e-09 244 208 63
-0.007967040757509907 -0.02467640958075475 -6.302901288699442e-05 255 0 0
0.007974026927637233 -0.024711491699757518 -0.0016387399165051892 244 208 63
0.002761144489923047 -0.051796498400925074 -0.00951729867162817 0 0 255
-0.00985184459965311 -0.026878992340251602 -0.0010609748187714123 255 0 0
0.042049481261266335 -0.015091477254289762 5.533437311806135e-09 244 208 63
0.0006129592767469202 0.05110843071250965 -0.010147581844176919 0 0 255
-0.04454922794352287 -0.00618789407476066 -0.006365876231998946 255 0 0
0.019306485789184875 -0.0392799729966641 -0.0021219550761212014 244 208 63
0.008179402824746922 -0.04035582599518708 -6.302901288699244e-05 244 208 63
-0.03228997613381537 -0.01804156048675397 -0.0014146336819285314 255 0 0
-0.010206903327589886 -0.0277450042423352 -0.0019097612253783124 255 0 0
-0.013753390677729464 -0.02499058234120583 -0.0007073158923750129 255 0 0
0.01050567808137899 -0.03941329152457726 -0.0010609748187714097 244 208 63
0.02922308741514674 -0.02084226544878045 -0.0021219550761212 244 208 63
-0.01957185603568402 -0.031514247668348615 -0.0010609748187714134 255 0 0
-0.007195964679652022 -0.04124955795184497 -0.00026523772858056245 255 0 0
0.011647245296005857 0.01945349030987697 -0.008466823344618466 0 0 255
-0.013915421864010801 -0.009105018004490782 -0.0032144545512411155 255 0 0
-0.012690118755224031 0.0060074192779237595 -0.0017682962129640888 255 0 0
-0.020597702444297136 -0.028281467637533527 -0.0015914685520854698 255 0 0
-0.020355569851957474 -0.0322540805046696 -6.302901288699594e-05 255 0 0
0.02067774819978598 -0.030532124394436345 -0.008887014487250882 0 0 255
0.008684115546397505 0.037178097531362725 -0.0021219550761212027 244 208 63
0.004582648338849437 -0.04657925144082053 5.533437307217771e-09 244 208 63
0.007739429928319984 -0.04661016077894053 5.533437307604365e-09 244 208 63
-0.04433795005056226 0.0005987027391521985 -0.012668723640828744 0 255 0
0.022332450090883443 -0.01974677690568641 -0.0015914685520854643 244 208 63
0.00823592508451484 -0.0034237120755723186 -0.00106097481877141 244 208 63
0.04389731086504431 0.004070980813756148 -0.0005304809905984244 244 208 63
0.0004454731963490397 0.05121967114176567 -0.011408153248417097 0 0 255
-0.014309650498236084 -0.018405737813457848 -0.01266872364082874 0 255 0
-0.031139913606799626 0.013407991876826592 -0.001060974818771415 255 0 0
-0.010811467842408697 -0.015299937204777406 -0.0005304809905984311 255 0 0
-0.027234368782348705 -0.012905970113167698 -0.006365876231998944 255 0 0
-0.025333462700882416 -0.013471655116487851 -0.001060974818771414 255 0 0
-0.015299527414220295 -0.019619826826579305 5.533437304782907e-09 255 0 0
0.020383544887322858 -0.0369521724085139 -6.302901288699095e-05 244 208 63
-0.022713800171501573 -0.010393038293257585 -0.000707315892375014 255 0 0
-0.027545137751604436 -0.011249449966190908 -0.001414633681928531 255 0 0
0.013364213091556262 -0.029463732619538375 -0.0015914685520854654 244 208 63
-0.024604247993219 -0.016504629366284343 -6.302901288699645e-05 255 0 0
0.01523396294873975 -0.02148170870506628 -0.001060974818771409 244 208 63
-0.019239326681931478 -0.03159901663944385 -0.0021219550761212057 255 0 0
0.024764655194699937 -0.0117910929116654 -0.0017682962129640842 244 208 63
0.007851805123279206 -0.024831794065382613 -0.009517298671628168 0 0 255
0.04292922165292739 -0.0008018677909105657 -6.302901288698818e-05 244 208 63
-0.02778588818616382 -0.014444878346596813 -0.002121955076121207 255 0 0
0.020745310014796733 -0.03070132640955284 -0.010567772986809333 0 0 255
-0.009648228272367653 0.0018831747982001226 -0.003844734435347122 255 0 0
-0.042224993039133796 0.002372586142813921 -0.003214454551241119 255 0 0
0.022701486218217548 -0.010366508149041715 -0.0014146336819285247 244 208 63
-0.022811486145688335 -0.01935826307903287 -6.302901288699623e-05 255 0 0
0.01938082483173026 -0.03537044156778105 -0.005315401410903505 244 208 63
0.008090110980095435 -0.01723996766024808 -0.012668723640828737 0 0 255
-0.012778960336176965 -0.021039612486456388 -0.0005304809905984314 255 0 0
0.04516415661803669 -0.002408076028716729 -0.0010609748187714054 244 208 63
-0.022809857101745254 -0.03083160540454363 -0.0010609748187714139 255 0 0
-0.0074768437280378465 -0.01752670974908619 5.533437305740909e-09 255 0 0
-0.009237360117866626 0.03594424548327466 5.533437305525308e-09 255 0 0
0.03472621438617666 -0.017378567933119544 -0.0015914685520854628 244 208 63
-0.008741665318043806 -0.0445317799722468 -0.0015914685520854682 255 0 0
0.04114768705483301 0.008628027866985832 -0.0007073158923750062 244 208 63
0.016742632686368285 -0.01031072806550501 -0.0021219550761212014 244 208 63
-0.005813604533667255 0.04842923826303741 -0.0021219550761212044 255 0 0
-0.017369503973093392 -0.03802877820746772 -0.003214454551241116 255 0 0
-0.014658135376173987 -0.041145197956634266 -6.302901288699523e-05 255 0 0
-0.013676621223040432 0.018971641371741794 -0.0010609748187714128 255 0 0
-0.0066046799084549185 -0.047443170881491525 -0.0032144545512411147 255 0 0
0.018988502482466935 -0.03501624087044286 -0.00022734791186875038 244 208 63
0.024619656118166338 -0.01091181593747387 -6.302901288699043e-05 244 208 63
0.0074581871275754405 -0.028294151920061756 -0.0010609748187714102 244 208 63
-0.01471870039685779 -0.031722969682427105 -0.006365876231998942 255 0 0
-0.01190281092399044 -0.02949452458554819 -0.01266872364082874 0 255 0
0.006304082345558077 -0.004117408566133919 -0.0015914685520854663 244 208 63
-0.014106994396231363 -0.018036104707287455 -0.00846682334461847 0 255 0
-0.027717292282389196 -0.011804299297718243 -0.0010609748187714145 255 0 0
-0.027317116120028864 -0.018081471051530885 -0.002121955076121207 255 0 0
0.0196175603306585 -0.034777267206792827 -0.009517298671628168 0 0 255
0.009688726709524028 -0.025840593186819947 -6.302901288699225e-05 244 208 63
-0.020146354065553384 -0.03826705573308494 -0.002121955076121206 255 0 0
0.019684264115070665 -0.03146697706280029 -0.001856711814103333 244 208 63
0.015218210802090145 -0.022169381780352628 -0.000795731556753541 244 208 63
-0.00985184459965311 -0.026878992340251602 -0.0019097612253783124 255 0 0
0.005842786680476175 -0.003463812864114017 -0.0015914685520854665 244 208 63
-0.000553014380477163 0.05109708609096319 -0.005105308875072907 255 0 0
0.017199652364056735 -0.037436461877078095 -0.0007073158923750091 244 208 63
0.022108309833572252 -0.031940112133582804 -6.302901288699073e-05 244 208 63
-0.027243590587626487 0.012925126051012656 -0.006365876231998944 255 0 0
0.02001247296097417 -0.0314665844733283 -0.0020461682334192636 244 208 63
0.014503657489914445 -0.0113257246367258 -0.002121955076121202 244 208 63
0.014971773891158023 -0.0233664821923534 -0.00026523772858055974 244 208 63
0.007152378141803549 -0.0001621189624068414 -0.012668723640828737 0 0 255
-0.017652390995209054 -0.03708022538072533 -0.000530480990598432 255 0 0
0.017701207674760498 -0.03206281455649547 5.533437308824331e-09 244 208 63
-0.007208720802006311 -0.016196071242379935 -0.0021219550761212044 255 0 0
0.007037443020648059 0.0014078430476657986 -0.0010609748187714102 244 208 63
-0.04464480526704045 -0.009507319006776867 -0.0010609748187714165 255 0 0
-0.013317387690563814 0.022842106100847016 -0.006365876231998942 255 0 0
-0.011373371642489541 -0.015530287053814483 -0.0014853661881356409 255 0 0
-0.034221352419817004 -0.01984321023614551 -0.006365876231998945 255 0 0
-0.042837962813601776 -0.007363278622720203 -0.012668723640828744 0 255 0
0.019833757733961503 -0.031428474963345596 -0.0010609748187714086 244 208 63
-0.022797478391434922 -0.03096750004790963 -0.002121955076121206 255 0 0
0.01092275683943444 0.03870433969517726 -0.0021219550761212022 244 208 63
-0.009184242155208331 -0.039524272925728035 -0.0010609748187714121 255 0 0
-0.03237167521713216 -0.018510739307960426 -0.0042649296252936855 255 0 0
0.04256396774066113 -0.003221245185503843 -0.0010609748187714058 244 208 63
-0.01755434278640638 0.006807803981157575 -0.0010609748187714132 255 0 0
-0.037068152242632886 0.011106995638425538 -0.003214454551241118 255 0 0
0.04142907657071528 -0.011877402897621077 -0.009517298671628165 0 0 255
-0.023583244195979534 -0.017564934607522006 -0.006365876231998943 255 0 0
0.00718551147904584 -0.00373241590278592 -0.012668723640828737 0 0 255
-0.01332476290876326 0.006623169051294605 -0.0021219550761212053 255 0 0
-0.007332542307279872 -0.003609946706350822 -0.00846682334461847 0 255 0
-0.030689178396148733 -0.018642633181294787 -0.008466823344618471 0 255 0
0.04305425128147303 0.005883001299728182 -0.00035365336133944626 244 208 63
0.006561471288564668 -0.004277796542872671 -0.0005304809905984291 244 208 63
-0.016401532133086656 -0.04056226330043111 -6.302901288699545e-05 255 0 0
-0.019372790913153828 -0.03401657451337214 -0.0018036588614284857 255 0 0
0.008453809711901747 -0.02389803012452348 -0.0007073158923750101 244 208 63
-0.021873171000073938 -0.007356107793885044 -0.0010609748187714136 255 0 0
0.02256903988650249 -0.032636310876114114 -0.0005304809905984271 244 208 63
-0.019445836838830107 -0.007843497505083766 -6.302901288699583e-05 255 0 0
-0.008591749766653422 -0.04487144676449281 -0.0010609748187714121 255 0 0
0.012157949560332802 -0.012625309113831397 -0.002163979477188545 244 208 63
0.02208396119168016 -0.034332742599696355 -0.0005304809905984271 244 208 63
0.019426962189318175 -0.038316772940033494 -6.302901288699106e-05 244 208 63
-0.008113785238268232 -0.01734619144362224 -0.01014758184417692 0 255 0
0.008128029760399088 -0.01782680190362926 -0.001591468552085466 244 208 63
-0.020029864269852215 -0.03150761614412319 -0.0012731723373927493 255 0 0
-0.026571463245968385 -0.017895498990257493 -0.0016672518533875315 255 0 0
-0.011838929129365386 -0.015664799539400205 -0.0017682962129640888 255 0 0
0.010620685548274809 -0.0159506380653556 -0.010147581844176917 0 0 255
0.027351649827965084 -0.013186805147012204 -0.009517298671628167 0 0 255
-0.007121363067601529 -0.025470945915050055 -0.0017682962129640881 255 0 0
-0.020327732425273 -0.007849606419870314 -0.0032144545512411164 255 0 0
-0.008614294318265695 -0.023801714166174562 -0.0021219550761212044 255 0 0
0.0017426285260966558 -0.052503839399295635 -0.012668723640828739 0 0 255
-0.010152868648277906 -0.01817035614111087 -0.0014146336819285288 255 0 0
-0.042902031796506 -0.006753681778677226 -6.30290128869987e-05 255 0 0
0.008461009377850185 -0.0137364476088929 -0.0005304809905984288 244 208 63
0.02000218873573351 -0.03142802571147558 -0.001894601630815142 244 208 63
0.015565023127457916 -0.03177383227927849 -0.012668723640828737 0 0 255
0.024911574721795 -0.020586432698062342 -0.0014146336819285245 244 208 63
-0.017935160645214537 -0.03751496358222089 -0.006365876231998943 255 0 0
-0.004338039802082002 -0.046891667666932986 -0.0010609748187714115 255 0 0
0.017170315407481797 -0.007428237002907639 -0.0010609748187714089 244 208 63
-0.04143341933879211 0.003164679670066009 -0.0021219550761212088 255 0 0
-0.01221391480849161 -0.025970101168466247 -0.0017682962129640888 255 0 0
-0.009872687255667706 -0.015806351316111397 -6.302901288699465e-05 255 0 0
0.01171604255365916 0.02637265108057221 -0.009517298671628168 0 0 255
0.0329806806473958 -0.020100613344751606 -0.008466823344618464 0 0 255
-0.009166453197715608 -0.026840069320125896 -0.0021639794771885477 255 0 0
0.010025400512960332 -0.015796795607416713 -0.005105308875072906 244 208 63
0.02227141861724451 -0.01970814529217909 -0.0010609748187714082 244 208 63
0.01775937364998527 -0.02915531918711463 -0.0010609748187714089 244 208 63
0.03309240068337791 0.010302742714698311 -0.0021219550761211996 244 208 63
0.013323559844633867 -0.024682954087726076 -0.0016387399165051885 244 208 63
-0.012780589380120045 -0.02065614566054079 -0.0005304809905984314 255 0 0
-0.0423782526838359 0.005931523537175627 -0.009517298671628175 0 255 0
-0.009814595143926068 -0.015745001116483602 -0.0035646117287920125 255 0 0
0.02484228267998756 -0.01538842869305686 5.533437309698861e-09 244 208 63
0.010784724202371717 -0.011510737484546993 -0.012668723640828737 0 0 255
0.020710169209738873 -0.03053203535352517 -0.005105308875072904 244 208 63
-0.03773675639732838 0.011375613854525481 5.533437302035138e-09 255 0 0
-0.0033984305277699653 0.05161314292824597 5.533437306240371e-09 255 0 0
-0.012677944434277982 -0.022783211609076273 -0.01266872364082874 0 255 0
-0.045028183052044875 -0.007025383036326589 -0.0015914685520854726 255 0 0
0.018526406461013 -0.03181999999172249 -0.0010609748187714089 244 208 63
0.03836659132983565 0.00822626465156667 -0.009517298671628165 0 0 255
-0.027234368782348705 -0.012905970113167698 -0.0032144545512411173 255 0 0
0.020016095307133316 -0.03154307668699845 -0.0009094046115281268 244 208 63
-0.010888192776642141 0.029850833933555553 -0.0010609748187714123 255 0 0
-0.010932758764513535 0.0007946243633779435 -0.006365876231998942 255 0 0
-0.021906652406332636 -0.029015919569699667 -0.012668723640828742 0 255 0
0.006975422990529382 -0.0007983478923906971 -6.302901288699259e-05 244 208 63
-0.00867529644887708 -0.039610480717001566 -0.0021219550761212044 255 0 0
-0.012391204369096949 0.01102574783063584 -0.0010609748187714126 255 0 0
0.0068927201733048095 -0.042047749010812575 -0.000795731556753542 244 208 63
0.007724492303641918 -0.01503715218018793 -0.0015914685520854663 244 208 63
0.019625618533119796 -0.03148299026121221 -0.002121955076121201 244 208 63
-0.0099490489434567 -0.026697178894261476 5.533437305438151e-09 255 0 0
0.006819645916429521 0.04229271674671032 -6.30290128869926e-05 244 208 63
0.019973900033521945 -0.0314028473701839 -0.001894601630815142 244 208 63
-0.025344633287920675 -0.009270307278658279 -6.302901288699655e-05 255 0 0
-0.010733812025922062 -0.015159315298490865 -0.0018567118141033366 255 0 0
0.04016636312546423 -0.013825114143509095 -0.009517298671628165 0 0 255
0.030761981482976354 -0.020799212144570485 -0.0010609748187714073 244 208 63
0.007465416136551423 -0.01747361910579837 -0.0015914685520854663 244 208 63
0.007129396986177959 -0.025884431669973906 -0.000795731556753542 244 208 63
-0.024887861508223565 0.011064815542242206 -0.012668723640828742 0 255 0
0.014315487737060699 -0.029623407257159194 5.5334373084097e-09 244 208 63
-0.0009691187476523761 0.05279504365197783 -6.302901288699356e-05 255 0 0
0.022169385827666775 -0.019635769196993693 -0.0015914685520854643 244 208 63
0.02080613709907138 -0.02828801416816193 -0.0007073158923750086 244 208 63
-0.02753596046678224 -0.015661526274086006 -0.0007073158923750145 255 0 0
-0.0038500976325025822 -0.05081562777074046 -0.0032144545512411142 255 0 0
-0.007496188877819052 -0.01554008964867197 -0.000707315892375012 255 0 0
-0.00959877515266702 -0.0017542330610983239 -0.0018567118141033364 255 0 0
0.013470378188875328 -0.03167801009325518 -0.012668723640828737 0 0 255
-0.020289129142964688 -0.007204810590628652 -0.0015914685520854695 255 0 0
-0.011060463667708551 -0.017795224758675454 -0.006365876231998942 255 0 0
0.03067946686585949 -0.020176785820604354 -0.012668723640828735 0 0 255
-0.011086237976007973 -0.028545678328530333 -0.002121955076121205 255 0 0
-0.025245494327956114 -0.011760068225092289 -0.010567772986809339 0 255 0
0.025716192915623753 -0.014315718433966925 -0.009517298671628167 0 0 255
-0.03237167521713216 -0.018510739307960426 -0.008466823344618471 0 255 0
-0.01887360530488155 -0.03526960273587588 -0.0020158563800498214 255 0 0
0.009149818736582545 -0.026353262422163952 -0.001323599974452186 244 208 63
-0.026317275728449933 -0.010220738059163629 -0.006365876231998944 255 0 0
-0.043697357357059444 0.0030612644697508608 -6.30290128869988e-05 255 0 0
0.009856707447597484 -0.01570517655713225 -0.012668723640828737 0 0 255
-0.03742011072793513 0.011556757470024727 -0.0015914685520854717 255 0 0
0.008370088489255616 -0.003277825625412584 -0.0021219550761212027 244 208 63
0.019480589101730117 -0.010057760813201063 -0.0015914685520854648 244 208 63
-0.014044029318259994 0.0034278284470142034 5.5334373049366605e-09 255 0 0
-0.03551725788836543 -0.017566824703227395 -0.003214454551241118 255 0 0
-0.024722660263138706 -0.016355717548801746 -0.004264929625293684 255 0 0
0.04449703378031801 -0.00012466549675121456 -6.3029012886988e-05 244 208 63
-0.02363858919324573 0.013140537263543133 -0.0021219550761212066 255 0 0
0.00668840619024373 0.00022707708963714407 -0.0010609748187714102 244 208 63
-0.012102120909026364 -0.015762047391830847 -0.001414633681928529 255 0 0
0.020300785407700264 -0.02838651162883462 -0.00035365336133944903 244 208 63
-0.007644140975935182 -0.02523930193731534 -0.006365876231998941 255 0 0
-0.009857153663981892 0.0033590595205599105 -6.302901288699465e-05 255 0 0
0.007703344075409429 -0.025076223508499165 -0.0016387399165051894 244 208 63
-0.012122367598033212 -0.039809936405346684 -0.003214454551241115 255 0 0
0.014853508336376045 -0.021181250268593146 -0.0042649296252936795 244 208 63
0.02297789956135941 -0.020099391055880027 -0.0007073158923750083 244 208 63
-0.012783192814943365 -0.020868546683176444 -0.0021219550761212053 255 0 0
0.007797523051890158 -0.01616919201731912 -0.012668723640828737 0 0 255
-0.018691385103819923 -0.03175592898516119 -0.0017682962129640897 255 0 0
0.009437810433662708 -0.030034102388980556 -0.009517298671628168 0 0 255
0.02522484695484898 -0.013295195255282095 -0.0014146336819285245 244 208 63
0.017540776189394695 -0.04067385179870354 -0.0010609748187714089 244 208 63
-0.011684286315054464 0.004271091155164107 -0.009517298671628172 0 255 0
-0.02552122569866466 -0.008727224501176953 5.533437303531109e-09 255 0 0
0.02001247296097417 -0.0314665844733283 -0.000151564642186331 244 208 63
0.003376705051357645 0.04719313995559927 -0.0015914685520854667 244 208 63
0.019929100313258716 -0.03209079768648914 -0.0015156817093835275 244 208 63
0.022095510202590915 -0.019570358529450632 5.533437309362478e-09 244 208 63
0.009833930175421913 -0.015660973815705307 -6.302901288699224e-05 244 208 63
-0.011127822105183555 -0.01838233624307552 5.533437305293793e-09 255 0 0
0.012431454908261986 -0.029160831628979162 -0.002121955076121202 244 208 63
-0.007655529612022967 -0.02520436349796469 -6.302901288699438e-05 255 0 0
-0.03310515174658952 -0.018400662481520898 -0.0021639794771885503 255 0 0
-0.009626890832198918 -0.03089548821099722 5.533437305477604e-09 255 0 0
0.007861826779014754 -0.04103420441354105 -0.007941587198856419 0 0 255
-0.04456781725738762 -0.005917312911300731 -0.009517298671628175 0 255 0
0.0217819789414317 -0.02832748964666833 -0.001414633681928525 244 208 63
-0.0009711405075460196 -0.05040125160670486 -0.00053048099059843 255 0 0
-0.03132751673567317 -0.01860587749789335 -0.012668723640828742 0 255 0
0.0076488292834570835 0.003461485658481046 5.53343730759327e-09 244 208 63
0.022340477938488656 -0.019751692368714657 5.533437309392478e-09 244 208 63
0.015132744681133554 -0.02289945654227171 -0.001060974818771409 244 208 63
0.0062120125256607955 0.047858198663104354 5.533437307417311e-09 244 208 63
-0.009160883081624518 -0.026761614159095764 -0.0021639794771885477 255 0 0
0.045145713007481124 -0.005472074965086331 5.533437312185314e-09 244 208 63
0.017449709597490932 -0.04072622809104489 5.5334373087935315e-09 244 208 63
0.004863905811107754 -0.04615023209421087 -0.0015914685520854665 244 208 63
0.0043091875113758435 -0.05037538926932281 -0.012668723640828739 0 0 255
-0.01117715886460254 -0.0154643401171473 -0.0008487773001500767 255 0 0
0.013762835085285183 0.027989854606122758 -0.002121955076121202 244 208 63
-0.00654440528256097 -0.0003003113418996998 -0.0021219550761212044 255 0 0
-0.012717274209475193 -0.020082200089052125 -0.0015914685520854687 255 0 0
0.020335940378357634 -0.007804560319358553 -0.009517298671628168 0 0 255
0.022577199271817394 -0.029138694844266927 -0.002121955076121201 244 208 63
0.019977840093841417 -0.0314036325491279 -0.0008336213734653492 244 208 63
0.008150312754334785 -0.023990580057061128 -0.00106097481877141 244 208 63
-0.027252375282976686 -0.013608204412916693 -6.302901288699678e-05 255 0 0
0.00906420691231676 -0.040011557406759005 -0.01109300913257138 0 0 255
-0.01994490709864927 -0.03209126312761573 -0.0012731723373927493 255 0 0
-0.011016524001700986 -0.014682864465595644 -0.0005304809905984311 255 0 0
-0.014759513512688883 -0.018076308702339835 5.533437304849039e-09 255 0 0
-0.013773418811772518 -0.011162863751044883 -0.01266872364082874 0 255 0
-0.0010189791283387796 -0.05036526693664792 5.533437306531769e-09 255 0 0
0.008246426346976487 -0.023958494974182207 -0.0007073158923750102 244 208 63
-0.007873865009022697 0.040154799948953976 -0.0032144545512411147 255 0 0
-0.022282148047041043 -0.030290311539914083 -0.012668723640828742 0 255 0
0.00873080536236612 -0.030137590187993165 -0.0021219550761212027 244 208 63
0.009149818736582545 -0.026353262422163952 -0.005105308875072906 244 208 63
0.008125818915047765 -0.015443133202859718 -6.302901288699245e-05 244 208 63
0.04179433048298154 -0.00973051219257829 5.533437311774887e-09 244 208 63
-0.012426998815389114 -0.013001225675210809 -0.0015914685520854687 255 0 0
0.012834599775547158 -0.016125716780609613 -0.0017682962129640857 244 208 63
-0.010932380340641043 -0.014803950998336196 -0.0013262180807892807 255 0 0
0.029483210318857807 0.011241247072248953 -0.012668723640828735 0 0 255
0.007131389782479757 -0.025600935527079524 -0.0021219550761212027 244 208 63
-0.04238991704319977 -0.009497195662273444 -0.009517298671628175 0 255 0
-0.01948122453005077 -0.033698882613272585 -0.00031829074449469944 255 0 0
-0.024777013668439547 0.010542823318766813 -0.0021219550761212066 255 0 0
-0.0024086990621378147 -0.04979673262417018 -0.012668723640828739 0 255 0
-0.019584888387228657 -0.03337995425870195 -0.0009548796640999053 255 0 0
-0.026571463245968385 -0.017895498990257493 -0.0001515646421863367 255 0 0
0.010162196695551977 -0.015842612215358695 -0.011828344391049512 0 0 255
-0.007240079897910594 -0.0036734068214334665 -0.006365876231998941 255 0 0
0.04441104049669412 0.002739761011555919 -0.0015914685520854617 244 208 63
0.025748555239521555 -0.012758177378045998 -0.0032144545512411108 244 208 63
0.035570075337948516 -0.017010535539693224 -0.0005304809905984255 244 208 63
-0.008549045543288405 0.03762384442733077 -0.0021219550761212044 255 0 0
-0.03158057100523122 -0.020643390550015038 -0.001060974818771415 255 0 0
-0.007639995514422886 -0.04031022895403743 5.533437305720929e-09 255 0 0
0.012699142242108741 -0.02175007801134635 -0.0017682962129640857 244 208 63
-0.012855583075728268 0.01310001454250189 -0.0021219550761212053 255 0 0
-0.020931771801081585 -0.007241551096602047 -0.002121955076121206 255 0 0
-0.027381725419371356 -0.016133193181662668 -0.0010609748187714143 255 0 0
-0.011052871918202384 0.004473267650442729 -0.0014146336819285288 255 0 0
-0.0032983025054113876 -0.0488893976446733 -0.008466823344618468 0 255 0
-0.008028086396748343 -0.024618518822891792 -0.01266872364082874 0 255 0
0.01959811298619515 -0.009572291552563809 -0.008466823344618466 0 0 255
-0.011723834645215467 -0.018110779676906816 -0.003214454551241115 255 0 0
0.012678182213983962 -0.03926411966716089 -0.002121955076121202 244 208 63
-0.04144749994470012 0.008253027516345835 -0.0015914685520854721 255 0 0
-0.01644067269634762 -0.0386872478875459 -6.302901288699546e-05 255 0 0
-0.019584888387228657 -0.03337995425870195 -0.00031829074449469944 255 0 0
0.0220389024433117 -0.019158066732199348 -0.0018567118141033327 244 208 63
-0.030868779984959002 -0.01814766689801794 -0.0014146336819285312 255 0 0
0.005392239669932993 -0.045267176952265634 -0.0005304809905984292 244 208 63
0.0198347897990683 -0.032476852769800016 -0.001970384932117203 244 208 63
-0.023889694681043298 -0.016557078510280293 -0.0010609748187714139 255 0 0
0.01127486305170295 -0.023836053603031853 -0.002163979477188545 244 208 63
0.009747823567001986 -0.025837756019604797 -0.0013235999744521858 244 208 63
0.02608672654919125 -0.009182585791894777 5.533437309851261e-09 244 208 63
-0.024322554928775903 -0.011302248191031802 -0.0007073158923750141 255 0 0
-0.008257504857617965 -0.002647036538595798 -6.302901288699446e-05 255 0 0
0.031141285646294543 -0.018161790000724466 -0.0010609748187714071 244 208 63
0.013364969939301245 -0.031662344963859675 -0.003214454551241112 244 208 63
0.009835384173028254 -0.015671854007953716 -0.009727393737030108 0 0 255
0.019074987514759355 -0.034801980106957904 -0.0016672518533875258 244 208 63
0.007236055349908359 -0.027318949553336233 5.5334373075427195e-09 244 208 63
-0.007249548589351179 -0.01731563219817572 -0.0014146336819285284 255 0 0
-0.027751386856740758 -0.020220711321012413 -0.0032144545512411173 255 0 0
0.010352562116329003 -0.02798502616034861 -0.0010609748187714097 244 208 63
-0.0010692176799405404 -0.05032644914668996 -0.0010609748187714112 255 0 0
0.0438352898230971 0.004214220320465512 -0.0021219550761211983 244 208 63
0.0072647093222214494 -0.003678570435410188 -0.009517298671628168 0 0 255
-0.007798579906796085 -0.04110051560848122 -0.004264929625293682 255 0 0
-0.011684416840935618 -0.018721424269398896 5.53343730522563e-09 255 0 0
-0.020218643143484677 -0.032785411905532955 -0.01266872364082874 0 255 0
0.024764655194699937 -0.0117910929116654 -0.001060974818771408 244 208 63
0.019162199039940674 -0.034575557164469334 -0.001364111565379529 244 208 63
