ply
format ascii 1.0
element vertex 841
property float x
property float y
property float z
end_header
4.009556770324708 3.265092372894286 3.712649345397949
27.035470962524414 19.9856014251709 -3.4893038272857653
2.5725073814392103 17.058691024780273 -4.725059509277343
-34.71587562561035 -1.4897013306617712 -2.7010793685913086
-25.052982330322266 -12.59861087799072 -4.364102363586427
22.927021026611328 -4.399972915649416 -6.497273921966553
19.00002670288086 -1.5795412659645087 -8.66812801361084
33.60368537902832 23.53586959838867 3.5695755481719984
-4.622404575347902 -26.469730377197266 -10.93087673187256
16.65304756164551 31.087356567382812 -4.698535442352293
-34.82919502258301 1.126844644546511 0.4678588807582856
-13.009893417358398 -9.69782543182373 1.4209697246551507
28.911426544189453 28.26750373840332 0.46477007865905934
-19.61590003967285 -4.238516092300414 1.3898786306381223
27.50613784790039 20.444923400878906 -3.084440231323241
8.172096252441406 20.82921600341797 5.166034221649171
3.4611444473266606 3.385341167449951 2.592949151992798
32.959238052368164 23.334772109985348 -3.084440231323241
-27.227909088134766 -4.708213567733763 -0.98798942565918
-16.96328735351563 -30.002729415893555 7.228810310363768
-25.8209285736084 -27.623884201049805 -3.127291917800905
34.38191795349121 24.464673995971676 -2.1810653209686266
-34.8735294342041 1.1828446388244651 -0.5238038301467894
2.102613210678099 -27.364351272583008 -10.276801109313967
-23.600210189819336 -2.8779714107513414 2.109279155731201
22.617582321166992 -15.524828910827638 6.498810291290282
3.4057192802429204 3.431248664855957 2.1186912059783936
3.5127878189086914 3.3752622604370117 -2.522930383682251
-28.214160919189453 -3.01119554042816 1.6162120103836057
-34.81005668640137 -0.20325613021850386 2.3559179306030273
13.044145584106444 -29.08966064453125 4.986288547515867
25.438161849975586 19.611928939819336 1.0753631591796886
-28.541610717773438 -3.8021202087402326 1.0896193981170652
-34.81783866882324 0.38724660873413286 1.7685887813568115
-8.538225650787354 -12.156927108764648 8.590018272399902
-12.33576011657715 -13.685465812683105 -8.181450843811035
14.18375778198242 -28.614274978637695 -4.795693397521974
-31.239282608032227 -4.051185369491575 1.209316849708557
-34.126237869262695 0.5197792053222676 1.2609647512435913
2.6571631431579594 9.498229026794434 -3.444325685501098
-1.541383683681489 -16.663826942443848 12.058801651000975
-18.759389877319336 -5.122142553329467 1.5927329063415525
0.6685369014739982 -12.082818031311035 -11.39395809173584
2.221028327941893 -19.86105728149414 12.343694686889647
-16.445239067077637 -32.57391357421875 -4.863112449645998
3.4575963020324707 1.4253523349761958 5.2685370445251465
-12.960021018981934 -9.935105323791504 -2.5713996887207036
-29.269765853881836 -1.936398983001707 -1.9359527826309206
-16.23058032989502 -20.422651290893555 -9.645502090454103
22.420587539672855 31.992603302001953 -1.1395505666732768
-34.27024269104004 -4.851802349090574 -1.280370116233826
-15.680380821228027 -13.30127429962158 7.276707649230956
17.75519371032715 16.648744583129883 1.1801946163177501
3.954712390899658 2.861912727355956 4.119431495666504
13.408120155334474 34.41389083862305 0.38809484243393155
3.606461524963379 3.3558425903320312 -2.7745394706726074
3.053762912750244 4.89617395401001 -2.6406106948852535
28.65730667114258 21.268999099731445 -5.088177204132079
13.645704269409178 -30.292858123779297 -0.0014223873149622154
-13.680645942687988 -9.65286636352539 1.7888706922531121
-22.331064224243164 -27.551776885986328 -6.257282733917238
13.694604873657228 25.674652099609375 2.6105241775512713
4.508378982543946 17.731813430786133 -5.763248920440673
22.184200286865234 -5.242340087890628 7.31375789642334
26.856719970703125 22.13790512084961 1.6564772129058851
-23.656965255737305 -5.371856212615965 -2.920050144195557
-33.814836502075195 -0.0999659299850444 1.2693467140197754
14.93501567840576 -13.071413040161135 -11.181740760803223
16.872982025146484 -20.623779296875 -9.180121421813967
22.257001876831055 5.3720145225524885 -4.744569301605225
-4.900964498519899 -18.259265899658203 -11.852105140686037
34.47732734680176 24.325181961059567 -2.189750194549559
30.22201156616211 23.882764816284176 3.4488434791564955
-23.814493179321293 -29.99111557006836 3.3585264682769758
-1.9250415563583394 -31.97294044494629 -6.873086929321291
-10.495458602905273 -8.397546768188477 0.05507576465606638
7.709874153137208 8.4307861328125 6.695386409759522
-4.897094488143921 -6.094150066375732 5.547548294067383
17.535697937011722 34.29446029663086 1.2696421146392842
14.995752334594727 -0.48041826486587563 -9.516648292541504
32.695138931274414 23.147602081298825 4.465172290802004
-0.9805805981159226 -25.23509407043457 -11.418175697326662
-8.182559013366701 -33.12434196472168 -5.41535806655884
31.4218921661377 22.577234268188473 -5.130837440490721
0.1656199693679806 -5.8877344131469735 8.712545394897461
2.121521234512329 2.551298141479492 0.9607475996017457
1.225294828414918 15.62272834777832 3.188035964965821
16.507246017456055 29.584821701049805 4.923925399780275
14.942631721496584 34.644351959228516 -0.7822226285934427
-13.432697296142578 -9.762939453125 1.8655266761779778
-27.15765953063965 -5.419575691223143 0.0015817727544341644
-28.033588409423828 -21.161373138427734 1.8666076660156237
13.202679634094238 0.251837611198425 -9.433448791503906
15.45845413208008 25.789459228515625 -3.2975592613220197
19.372386932373047 29.23665428161621 4.575759887695314
-31.63738250732422 1.1256849765777608 1.1257948875427246
3.357482433319092 3.394256591796875 -2.134662389755249
24.726526260375977 -3.1844127178192156 3.8319339752197266
-17.11136245727539 -22.729591369628906 -9.465258598327638
33.03774452209473 23.28262138366699 -3.1293892860412584
-4.601454496383668 -7.649003028869628 -7.3173160552978525
25.671695709228516 19.444494247436523 -1.3324118852615345
1.208005666732788 1.4117777347564695 2.1568830013275146
-34.07464790344238 -3.5487151145935036 2.141728639602661
-0.5454992949962633 -26.30571746826172 11.006114006042479
9.833261489868162 -22.005634307861328 -11.107195854187013
17.072799682617188 16.746623992919922 -2.2516839504241934
-13.111636161804201 -19.37688446044922 -10.354968070983888
15.445051193237305 -21.648101806640625 9.46257972717285
10.5558385848999 -11.84587287902832 -11.870315551757812
8.30499267578125 12.652701377868652 6.664738178253175
-23.801105499267578 -11.551642417907713 -4.820322036743165
19.164121627807617 24.938352584838867 2.562294960021974
8.216275215148928 1.678175210952758 8.042643547058105
3.2096085548400883 3.508502960205078 -1.069244861602783
-19.194894790649414 -4.57104730606079 1.3393704891204832
-8.40555477142334 -7.0563621520996085 1.8172191381454463
27.828947067260742 22.61456871032715 -3.0896561145782457
5.357753276824952 16.941373825073242 6.064736843109132
28.592323303222656 20.94274139404297 4.894026756286622
1.6398606300353988 -26.976736068725586 10.53706359863281
6.279556751251222 20.429658889770508 -5.636391639709472
15.644853591918947 24.893056869506836 1.9870997667312638
-17.231101989746094 -13.521946907043455 -7.209721088409425
3.121561050415039 3.429898262023926 1.1768953800201418
14.144478797912598 17.885635375976562 3.202134609222413
-20.43914604187012 -33.005584716796875 1.2844610214233378
9.11518955230713 6.397320270538328 7.31847620010376
24.477853775024414 -17.963695526123047 -1.3685745000839245
18.355363845825195 -21.99835968017578 -7.6940441131591815
-31.060962677001953 -4.409657955169676 0.3496818542480466
3.816603660583496 0.6369556188583368 6.285055637359619
-25.98906898498535 -16.382734298706055 -4.455912590026856
8.780442237854002 -31.651159286499023 3.3781795501708967
24.90968894958496 -7.119789123535158 -4.078812599182129
26.50815200805664 19.916044235229492 -1.1281503438949574
6.746849060058594 2.3428356647491446 6.994913578033447
10.30586910247803 21.41913604736328 -3.3572783470153795
4.880777359008791 18.884889602661133 5.772605895996095
-26.317384719848633 0.3094375133514421 -0.7542818784713745
-32.262298583984375 -3.887772083282469 -1.7984763383865359
13.479527473449709 27.80684471130371 4.356598377227785
-34.71801567077637 -1.4875047802925085 -2.7168617248535156
13.422719955444336 -3.7491052150726323 -10.461614608764648
-34.69757652282715 -0.5974242687225322 2.2690258026123047
-14.885390281677248 -10.132899284362791 4.416456699371337
-34.56106376647949 -2.378801107406614 -2.538804292678833
-26.28323745727539 -20.378517150878906 -4.602681159973145
13.805177688598631 -21.72781753540039 -10.086091041564943
19.34242248535156 -13.104733467102053 9.452065467834473
18.982086181640625 12.815087318420408 -4.306584835052489
-23.52937889099121 -5.939462184906004 -3.1424822807312016
-12.24770832061768 -32.23572540283203 6.203817367553709
19.828496932983395 -24.922494888305664 3.721654891967772
2.6809575557708754 24.495716094970703 1.1944813728332535
-25.964101791381836 -20.31424903869629 -4.910136222839356
1.503219366073609 10.561141967773438 -1.8698849678039544
30.618312835693363 25.841299057006832 -3.176337480545042
11.769427299499513 33.63565444946289 -0.9480328559875467
-34.88176155090332 1.0323867797851585 -1.0473191738128662
-3.4437322616577153 -8.363675594329834 -8.5081148147583
-22.22339248657227 -32.26465606689453 -0.7230572700500508
-30.24584197998047 1.0042085647583026 1.0131564140319824
-22.93843269348145 -28.333101272583008 5.469704627990721
-30.027076721191406 -3.9200680255889875 0.9556577801704405
31.613805770874023 23.052619934082028 4.982494354248049
31.501203536987305 22.832761764526364 5.092465400695803
6.996929168701173 23.533233642578125 -4.674211025238035
-9.088471412658693 -8.056005954742432 3.277056455612182
1.6212444305419935 22.286033630371094 1.8246783018112196
-3.759708404541017 -21.771196365356445 -12.05703926086426
-33.951189041137695 0.4220399856567403 1.1690069437026978
33.07674980163574 25.10270500183105 0.0013141632081969503
-15.147190093994142 -20.307880401611328 -9.945649147033693
-17.948108673095703 -12.311435699462889 -6.513399600982667
4.491425514221192 3.020489215850829 4.600800514221191
0.6754602193832406 14.13322639465332 1.518509030342103
31.631803512573242 22.48757743835449 4.931264877319338
34.31868553161621 24.13419723510742 2.5872197151184095
25.548654556274414 -7.431778907775881 -2.484120845794678
3.3813548088073735 7.131404876708984 -3.773868322372436
2.088600873947145 23.693769454956055 0.859897911548616
11.614360809326172 -6.114394187927248 11.045172691345215
-24.682785034179688 -12.335452079772947 4.545057296752929
-33.75127983093262 -4.836774349212645 -1.0780067443847658
-24.51007843017578 -13.576486587524412 4.974853038787841
2.753500938415528 3.788026809692383 0.06934338063001656
12.90316677093506 28.206785202026367 4.374221324920656
-24.178455352783203 -8.975384712219237 -3.8577277660369877
1.9448790550231936 1.814963817596435 2.801849842071533
19.716590881347656 -6.424628257751467 9.114109992980957
-3.0950653553009038 -6.898519039154054 7.676685333251953
-33.577497482299805 -4.916383504867552 0.6010648608207699
4.513701438903809 1.400152683258056 6.153341770172119
12.111821174621584 27.832075119018555 -4.02488851547241
19.42054557800293 13.606422424316404 3.3580195903778085
16.744647979736328 -7.6245903968811035 -10.450763702392578
-21.046329498291016 -22.51805305480957 -7.981326580047609
11.0738582611084 26.129884719848633 -3.206037998199461
-14.872511863708496 -10.770386695861815 -5.153113842010499
1.0919268131256104 0.19347894191741963 -4.248928546905518
-29.55320930480957 -1.2289042398333534 1.9953017234802246
-29.15616226196289 -3.7764127254486066 -1.0457671880722048
-2.7364314794540405 -2.143852949142456 2.0359158515930176
-0.5954849421977999 -4.332403182983399 7.290005683898926
3.032299041748047 3.3863067626953125 0.8959605693817141
3.6108708381652836 3.35916805267334 2.7798731327056885
3.6800847053527836 3.3348951339721675 3.020740509033203
15.287221908569336 -16.761590003967285 10.771618843078612
-22.43556022644043 -23.709407806396484 -7.209613323211672
-21.931636810302734 -31.539386749267578 -3.1937859058380145
-21.904949188232422 -16.772690773010254 -6.998682975769044
23.9481201171875 -11.74354648590088 -5.550063133239747
29.92819976806641 21.663385391235348 -5.240034103393554
14.816798210144045 24.892698287963867 -1.5922384262084945
9.19081974029541 -6.25095844268799 11.016146659851074
-10.340814590454102 -15.040778160095215 9.66721439361572
11.126195907592775 21.746458053588867 -1.7208184003829943
1.7590250968933085 -29.88667869567871 -8.56398677825928
12.759230613708498 29.249696731567383 -4.530465602874754
11.415735244750978 23.120389938354492 1.093959212303163
11.475674629211426 0.5665340423583983 -9.238755226135254
20.656183242797855 24.8833065032959 -2.825069189071654
17.503053665161136 33.8692741394043 2.298790216445925
31.58057975769043 22.66851997375488 5.068854808807375
0.08985972404479946 -5.751311779022216 -8.609033584594727
-12.190560340881348 -16.54738712310791 9.81687831878662
0.5199022293090821 0.7959237098693849 -2.1362788677215576
18.073656082153317 -8.92464065551758 10.085947036743164
-23.60392951965332 -7.802796840667723 3.741535663604736
-23.27154541015625 -2.6959788799285875 -2.009390115737915
3.250954627990723 4.0445356369018555 2.7057359218597417
3.06069564819336 3.542520046234131 -1.5016301870346067
3.631117820739747 9.915688514709473 -4.497337341308593
12.063549041748047 -1.0531401857733727 -9.79013729095459
-23.241363525390625 -9.356571197509764 -4.38090467453003
-25.63739013671875 -22.524700164794922 -5.136740207672121
-30.766433715820312 -1.806258499622343 -2.1851072311401367
2.6682624816894513 -27.52223777770996 -10.115278244018556
-2.3506443500518808 -12.27521800994873 10.817891120910645
5.5777602195739755 12.217426300048828 5.929352760314942
3.3001956939697266 3.471713066101074 1.6633905172348025
9.850218772888182 -26.434520721435547 -9.138393402099611
-21.777107238769535 -21.157028198242188 7.635593891143798
33.49626350402832 23.728549957275387 2.163291931152345
15.132238388061525 31.325572967529297 4.627559185028078
-4.259514331817628 -16.05243492126465 11.553431510925291
7.274449348449708 20.23401641845703 -5.59816551208496
19.852903366088864 -21.741945266723633 6.632336616516112
-33.50193214416504 -4.728592872619627 0.5317685604095456
9.59312152862549 24.873546600341797 -3.648881673812865
3.8523092269897465 6.408492565155029 -4.157939910888672
3.418273448944092 3.394827365875244 -2.2384066581726074
-12.213186264038086 -9.530914306640625 -1.7596266269683845
-14.862401008605957 -8.35236358642578 -0.5647448301315313
-34.88447380065918 1.0711011886596702 0.9743301272392274
24.62220573425293 3.6979556083679186 0.026277912780642735
-27.717649459838867 -18.12138557434082 2.403974771499633
-34.69146537780762 -0.6847376823425271 -2.3006672859191895
4.49156093597412 -13.30977725982666 -12.064229965209961
-0.050232768058778354 -24.468229293823242 -11.631412506103517
32.46473503112793 23.138128280639645 -4.660555362701414
-34.74466514587402 -0.6580536663532235 -2.3810768127441406
-27.922021865844727 -4.585653543472288 0.0016213475901165032
19.49938201904297 5.532648086547851 -6.744198322296143
17.806711196899414 26.656038284301758 4.117775440216066
-34.135698318481445 -5.736034870147703 0.001328357235251691
4.92310094833374 -0.8256670534610747 -7.938417911529541
-34.50253486633301 -4.168598890304564 2.38642406463623
-34.486833572387695 -1.3214492350816707 2.9670073986053467
8.298705101013185 17.547897338867188 -6.155783176422118
0.4021600484848022 -0.6066709160804751 4.493471145629883
19.929649353027344 -0.7009498178958901 -8.03508186340332
14.850138664245605 0.7602446079254147 -9.209236145019531
17.531053543090824 34.234779357910156 1.4649335145950337
17.2698974609375 -14.164061546325685 -10.351454734802246
-22.61184692382813 -19.784008026123047 7.134379386901855
4.791433811187746 27.310672760009766 0.020855147391559366
2.2558517456054665 -29.263731002807617 9.004834175109862
22.48237419128418 -10.986885070800783 7.310089111328124
33.81783485412598 24.016132354736325 -1.1142803430557235
34.40517997741699 24.177284240722653 -2.4164404869079577
21.191486358642578 9.47832679748535 4.143500328063966
0.288440227508546 16.526777267456055 -1.0435483455657948
2.224276065826416 -3.5917127132415767 -8.324607849121094
-26.636287689208984 -7.349745273590086 0.33235052227973894
22.109811782836914 -8.95172452926636 7.6661314964294425
7.989130973815919 13.23625659942627 -6.539497852325439
28.91505241394043 28.270811080932617 0.42374765872955494
12.94418525695801 25.75806427001953 2.3420116901397723
19.850902557373047 0.4629012346267683 7.844258785247803
18.280731201171875 3.7149357795715314 7.768747806549072
-6.672338485717774 -17.044416427612305 11.33048343658447
-25.88580131530762 -23.822250366210938 4.714843749999998
0.053197860717773396 -0.6541166007518766 -4.140071868896484
-9.2071008682251 -14.752935409545898 -9.870508193969728
-20.075979232788086 -32.38320541381836 -3.3506183624267596
3.2224159240722656 3.497464656829834 1.230139493942261
18.03894805908203 16.318450927734375 -1.5306253433227528
-8.11700773239136 -13.70517635345459 -9.698084831237793
7.774069786071778 20.14565086364746 -5.513442993164062
-16.93581771850586 -6.5529747009277335 1.233250498771667
-13.28448009490967 -32.93333053588867 -5.094004631042482
18.581333160400387 -21.438302993774414 7.815422058105468
3.5670275688171373 -21.960721969604492 12.019954681396483
-33.802785873413086 -0.4306247830390911 1.613425612449646
-22.632112503051758 -30.169614791870117 -4.301875591278078
12.497349739074709 33.28379440307617 2.541442871093752
24.00434684753418 -9.625087738037111 -5.616634368896485
16.508169174194336 17.554794311523438 0.018114410340787056
14.836112022399904 18.24751091003418 0.012103117071093246
20.088241577148438 32.42787170410156 2.7959218025207537
11.896309852600098 1.1313607692718493 9.138862609863281
-27.990337371826172 0.8409532308578508 -0.5967245101928711
-25.925359725952152 -26.969127655029297 3.4596309661865217
11.754435539245607 33.71861267089844 0.4050799906253835
30.315671920776367 22.188131332397457 5.326412677764894
-18.223663330078125 -15.185045242309569 -7.735839843750001
-18.462299346923828 -30.1273250579834 -6.6321263313293475
16.63854217529297 33.89579391479492 2.553059816360476
3.258542060852051 3.2598252296447754 -2.1870405673980713
-25.997068405151367 -21.4851131439209 -4.873229980468751
-33.9272518157959 0.08009922504425247 1.5028109550476074
11.70081615447998 17.008769989013672 5.562593936920167
19.549110412597656 -2.8772854804992694 8.681775093078613
-5.179184913635255 -4.410383701324463 2.1749904155731197
-27.384225845336914 -23.964969635009766 -2.6836171150207533
25.311037063598633 -14.817737579345705 -0.8807487487792978
-14.13255023956299 -10.703622817993164 4.771105289459228
6.355041503906251 21.46951675415039 -5.351565361022948
2.143979549407959 2.532377004623413 1.184019207954407
-31.95743751525879 1.315305233001711 -0.868691861629486
20.200389862060547 32.92628860473633 1.9850575923919698
-24.85421943664551 -23.127208709716797 5.722207069396971
16.4356632232666 1.4166059494018548 -8.799057960510254
1.4026310443878176 1.798149824142456 1.4522591829299927
-0.9378236755728739 -29.217605590820312 -9.402255058288576
-13.543695449829102 -17.78982925415039 9.878538131713865
0.9489831924438458 -32.36015701293945 -5.842965602874758
-34.66739082336426 0.7015765905380271 -2.0213534832000732
-13.401617050170898 -10.066356658935547 -2.987934827804566
9.770679473876953 -2.1185285449028024 9.91713809967041
32.982534408569336 23.712020874023434 -4.194302082061766
13.186717987060549 25.346172332763672 -1.434650063514708
2.466493606567383 -0.5138925313949583 -6.29105281829834
28.20359992980957 20.837974548339844 4.797167778015138
23.682472229003906 -4.332616567611696 5.653524875640869
11.458590507507324 0.769236922264099 -9.170478820800781
-10.707534790039062 -8.929084777832031 -2.58751916885376
10.281155586242676 -1.776869773864746 -9.864282608032227
12.727451324462892 26.14248275756836 -2.8700518608093244
-18.333114624023438 -6.9201622009277335 3.131479978561401
-26.75468635559082 -1.1871376074850544 1.7082161903381348
32.31480598449707 25.03039741516113 0.001314163208196807
34.71308708190918 24.05972290039062 -1.0632658004760727
3.233104228973389 3.4930872917175293 -1.272324204444885
-34.91777229309082 1.366182088851931 0.0013141632083017423
-33.8807315826416 0.6828513145446798 0.0013141632082927053
-18.628490447998047 -4.859728813171386 -0.9071658253669742
26.674623489379883 22.002840042114258 -1.7832583189010607
6.695146083831786 -9.756685256958008 -11.601938247680664
5.248404502868651 -21.51846694946289 -11.95087242126465
24.065898895263675 29.9197998046875 -2.8429360389709455
-14.057212829589844 -9.999510765075684 -3.532194614410401
-8.36434030532837 -7.119949340820312 -2.188230991363526
11.560610771179201 20.320735931396484 1.922793269157411
23.09440803527832 8.95723533630371 -0.608043491840362
0.08720779418945263 -8.353781700134277 9.925751686096191
-14.01041030883789 -9.555986404418945 -2.3857638835906987
-34.518293380737305 -4.154437780380247 2.3593912124633785
-27.51773452758789 -14.24757957458496 -1.2766988277435312
2.7400214672088623 1.0838508605957027 4.952351093292236
14.326146125793459 25.127647399902344 1.8906016349792496
13.443616867065431 34.1685791015625 1.548189640045168
10.552365303039553 29.68355369567871 3.7274253368377703
-13.302357673645021 -11.088555335998535 5.13752794265747
25.749897003173828 19.649259567260742 2.0081365108490004
12.626585006713869 13.109366416931152 -6.615651607513427
10.266336441040039 -16.37786102294922 11.939140319824217
-14.575057029724121 -9.677462577819822 -3.5146083831787114
14.953545570373537 17.50130271911621 -3.219346046447753
-14.79581642150879 -21.727388381958008 -10.142044067382814
-34.27148246765137 -4.907822370529173 1.9357454776763914
34.848012924194336 24.629468917846676 -0.004368650261311215
-5.091670989990236 -28.18187141418457 -10.11112976074219
17.17557907104492 -20.95323371887207 8.891769409179686
18.588541030883793 32.84135055541992 -3.2220292091369607
-2.525512337684632 -8.948585987091064 9.267766952514648
-17.756172180175785 -19.890317916870117 9.103358268737791
3.163528442382813 3.5205273628234863 -0.7021017670631406
-34.85632133483887 0.6689375638961814 -1.5614680051803589
14.947696685791017 34.56373977661133 -1.1690798997879006
-25.97556877136231 -20.961721420288086 4.903872489929198
-19.600515365600586 -4.208884716033935 -1.3254840373992922
-11.397460937500002 -16.37028217315674 -9.956130981445314
23.79228973388672 0.811786890029906 -4.323425769805908
-29.048450469970703 0.11133873462677189 -1.5475226640701294
0.1164888143539419 -15.94425106048584 -12.122481346130373
-33.96861457824707 0.6710200309753439 0.7977070808410645
17.792570114135746 34.335548400878906 -0.8415421843528726
23.69723129272461 -20.077035903930664 -1.3990267515182508
-26.59586524963379 -4.275719642639158 1.6277493238449094
14.382039070129396 3.294725894927977 8.636073112487793
32.55177116394043 23.48551559448242 4.518068790435793
32.14871025085449 22.853290557861325 -4.799093246459959
25.66642951965332 19.38933563232422 1.0294188261032116
29.87901115417481 21.744710922241207 -5.299160957336425
-3.038667678833009 -17.091886520385742 11.943360328674315
8.749584197998047 10.135435104370117 6.89181137084961
19.671955108642578 13.69527244567871 -2.945161581039428
10.855940818786623 21.1415958404541 2.6480085849761976
-34.49167823791504 0.9767978191375754 -0.46384227275848383
-16.36473083496094 -31.8066463470459 5.837830543518065
29.269777297973636 21.213857650756832 -4.355326175689696
20.237257003784183 33.08038330078125 -1.6780412197113017
5.773384094238281 -0.1799361705780028 -7.948516845703125
-18.6175594329834 -11.009394645690916 -5.801689624786378
-16.727747917175293 -13.06646156311035 -7.029789447784425
-7.5881986618042 -11.64799690246582 8.673931121826172
27.752088546752933 22.280921936035156 -3.477884769439696
13.838748931884766 -12.936258316040039 11.43756103515625
3.135983467102051 3.5345873832702637 0.0622902922332289
-28.85626220703125 -4.236222267150877 0.0016183390980583816
19.245243072509766 15.321037292480467 -1.1737861633300772
5.4536170959472665 15.219446182250977 6.052316188812257
11.750559806823732 19.480802536010742 -2.968670606613158
12.215572357177733 -26.055444717407227 -8.522730827331545
8.460029602050783 18.304929733276367 -5.928400516510009
9.786497116088867 1.2842266559600828 -8.677645683288574
5.320343971252443 20.095294952392578 5.639314651489259
-34.40397071838379 -4.131260633468626 -2.499801635742188
-3.9096729755401634 -33.37034606933594 4.923990249633787
-2.4193866252899183 -19.099390029907227 12.207852363586424
3.2371096611022954 3.498650550842285 -1.2568171024322508
14.048830986022951 25.18334197998047 -1.8338503837585434
32.61612510681152 25.928194046020504 -1.0383183956146225
19.004030227661133 -26.5397891998291 -2.111483097076418
-17.800943374633793 -33.79420852661133 1.354615330696104
24.729944229125977 -4.564817905426027 4.1075897216796875
-4.265456676483155 -8.65299654006958 8.274986267089844
16.94547462463379 26.813650131225586 4.212988376617433
3.4033641815185556 13.885336875915527 -4.927230834960937
5.500638484954834 2.7503135204315177 5.850440502166748
0.1235073804855328 -30.700239181518555 -8.04835605621338
-34.59406089782715 1.041388273239138 0.001314163208298856
1.6054987907409681 22.287704467773438 -1.7828713655471788
-15.663912773132324 -8.301635742187498 2.5195317268371578
14.940829277038576 34.6720085144043 -0.590906798839567
-31.492517471313477 -4.476030111312864 -0.5974546074867251
-23.82571792602539 -30.14168357849121 -3.156725168228151
-34.59774589538574 -3.205609083175657 -2.635420322418213
-25.001136779785156 -13.21144676208496 -4.5613956451416025
-13.639836311340334 -12.102575302124023 6.433626174926757
24.040616989135742 -0.9309340566396725 -4.4415388107299805
2.8840496540069576 -6.345872879028321 9.920286178588867
5.99122953414917 2.484844207763672 -6.370748519897461
10.380679130554197 -27.63897132873535 8.07070732116699
3.032594680786133 3.4455838203430176 0.06630425155162832
19.105833053588867 1.0063641071319565 8.078378677368164
-15.297490119934082 -9.743250846862791 -4.183058738708497
-6.396312713623047 -6.2858405113220215 4.030208110809326
16.197614669799805 -5.4050450325012225 10.327037811279297
31.69259834289551 22.60372161865234 -4.992570400238035
-1.1023678481578834 -8.663492679595947 9.665958404541016
-27.903671264648438 -3.7987418174743635 1.2623124122619627
-23.376352310180664 -1.1524020452052341 -1.0833404064178467
3.742960929870606 2.2068822383880615 -4.681015491485596
-16.98917388916016 -17.545846939086914 8.851243019104002
-7.373122692108156 -29.483110427856445 -9.18908214569092
-7.202188014984132 -11.931270599365234 -9.02744197845459
-9.255370140075685 -22.72014808654785 -11.321852684020998
-19.54607963562012 -30.238422393798828 6.104284286499022
3.0498709678649902 2.5111000537872314 3.3826043605804443
4.8193840980529785 -1.0571291819214828 8.023577690124512
-18.744060516357422 -5.092123746871947 -1.5266237258911135
-10.15858840942383 -12.209750175476074 -7.856096267700196
14.078222274780272 -16.31865119934082 -11.195086479187013
10.356411933898928 32.51751708984375 1.3780460357666036
3.277141571044922 -0.18949830532074036 6.583227634429932
32.66074180603027 25.952472686767575 0.7519429922103897
-34.85183525085449 0.4526104927063008 1.846215009689331
3.123208045959473 3.3361449241638184 -1.5418461561203
12.43928050994873 11.655847549438477 6.97858762741089
17.38202857971191 -16.74773597717285 9.96104049682617
16.58816528320313 34.61456298828125 -0.6409453153610208
-8.23705005645752 -7.315690040588378 3.0586292743682857
-18.8842945098877 -30.47473907470703 6.201778888702391
-26.096786499023438 -14.698173522949217 3.9923224449157706
25.089441299438477 -3.630680561065675 -3.128048658370972
2.2411127090454106 2.450533151626587 1.8605866432189944
0.9347721338272084 -18.77467155456543 12.373645782470701
25.619609832763672 -13.100407600402834 0.004614157136528882
15.12297248840332 -20.051939010620117 10.12979984283447
6.922954082489014 3.78157615661621 6.673591613769531
-13.191840171813967 -12.209524154663086 6.613428592681884
12.009093284606934 -0.8528089225292219 9.749717712402344
-34.84091377258301 0.6213852167129539 -1.9480369091033936
-34.83280372619629 0.1523163318634056 -2.0948755741119385
-14.0826416015625 -10.240333557128906 -4.006831645965577
17.2514705657959 30.50796127319336 4.764214992523195
3.402860641479492 3.435811996459961 -2.059323787689209
3.2323441505432124 -4.740653276443481 -9.330842018127441
27.01690673828125 21.891315460205078 -2.8394398689270006
6.625257968902589 18.42376708984375 -6.07391595840454
10.147339820861818 32.62655258178711 0.00487153138965568
7.895165443420412 22.412588119506836 4.8116989135742205
-19.16520881652832 -5.884247303009032 -2.7021081447601323
33.93074607849121 23.623270034790036 -2.3538489341735827
-3.435169935226442 -28.40099334716797 -10.019442558288576
24.223304748535156 -12.518720626831056 -5.0183377265930185
28.872352600097656 22.074338912963867 4.164769172668459
13.026503562927248 18.466690063476562 -3.1198027133941637
-10.673032760620117 -8.99835729598999 -2.8696272373199467
-24.997297286987305 -30.167766571044922 -0.6538354754447956
26.674623489379883 22.002840042114258 1.785886645317079
11.430814743041994 27.950485229492188 3.911429643630983
8.50875759124756 28.54467010498047 3.2135570049285906
13.385912895202638 25.099971771240234 0.0019006803049721292
8.354246139526369 23.743940353393555 -4.329988479614256
14.938677787780763 34.691070556640625 0.3918009102344534
9.850515365600584 -12.63598918914795 -11.973638534545898
-11.183422088623049 -28.372966766357422 -9.39693355560303
28.277206420898438 20.962730407714844 3.7459695339202894
-13.67730236053467 -9.858433723449707 2.594229698181152
27.778858184814453 22.06071662902832 3.6181404590606703
32.5947208404541 25.9127082824707 1.109281182289125
-24.415475845336914 -6.441765308380125 2.942167520523071
-8.27883005142212 -7.251389026641845 2.8046731948852535
-34.66794013977051 0.8295950889587425 -0.9309366941452026
-27.41209411621094 -23.97704315185547 2.623622894287108
2.1017696857452397 2.567887544631958 -0.7066474556922911
3.400431632995606 3.4386444091796875 2.088651657104492
25.63340187072754 -11.265106201171877 -1.7440782785415656
-15.02440071105957 -9.921410560607908 -4.2317776679992685
4.116734981536866 3.3008570671081534 3.9480700492858887
-5.181386947631839 -34.53073501586914 1.5805807113647439
27.50613784790039 20.444923400878906 3.087068557739259
-14.142326354980469 -16.272221565246582 9.17537498474121
-13.007328033447266 -9.706756591796875 -1.4763849973678596
15.105285644531252 18.081693649291992 -1.0984293222427357
13.42221260070801 25.70954704284668 2.5254881381988543
3.8858251571655273 -0.092345833778382 6.899940013885498
-20.151477813720703 -10.371964454650877 -5.400383949279786
3.9707741737365723 3.2948107719421382 -3.600548505783081
25.99625587463379 19.784297943115234 -2.600770235061644
0.38850843906402704 18.783912658691406 -1.0008716583251942
18.075246810913086 -1.9117398858070391 9.125978469848633
5.0065741539001465 -10.852975845336914 11.671713829040527
7.364811897277833 24.244455337524414 -4.407366275787352
-17.481649398803714 -23.281309127807617 9.321581840515135
5.5605459213256845 8.238730430603027 5.72996473312378
22.60547637939453 -16.598889350891113 6.186357498168944
-18.561416625976562 -30.723676681518555 -6.122039318084719
20.40355682373047 2.9186806678771964 -6.9316301345825195
-34.763132095336914 1.6127638816833518 -0.38953712582588185
-14.415177345275879 -22.200281143188477 10.24962520599365
-22.179664611816406 -6.462729454040526 3.5781390666961665
-27.229703903198242 -18.956323623657227 -3.3875472545623793
10.653042793273926 0.7902313470840442 9.074737548828125
3.473418712615967 3.375527858734131 -2.485686779022217
-34.4774227142334 -4.677371740341185 1.8082058429718015
6.671258449554442 -31.605213165283203 4.967517375946043
-11.974613189697267 -34.32600784301758 2.1977906227111794
28.91161918640137 28.27005386352539 -0.5157400369644147
-12.906553268432617 -10.19370174407959 -3.396243572235108
-21.75646018981934 -25.095508575439453 7.348812580108641
20.299695968627933 33.3620719909668 -0.48104083538055215
20.505521774291992 10.924998283386229 4.07271432876587
3.6048321723937993 3.3713932037353516 2.7496557235717773
5.420323371887207 5.874391555786133 -5.468229293823242
-12.813408851623537 -10.655078887939453 4.483660697937011
26.035337448120117 19.497838973999023 1.9369602203369152
1.6542463302612285 -33.778770446777344 -2.0077822208404563
-34.26761436462402 -5.726071357727049 0.0013163782919033242
0.22593557834625105 -22.591032028198242 -12.059826850891115
14.755038261413576 25.53673553466797 2.815620660781862
11.785614967346191 2.1403076648712154 -8.776222229003906
-2.8940705060958867 -10.055474281311035 9.703187942504883
-34.59604072570801 -3.2016243934631325 -2.619938373565674
8.926473617553713 6.486223220825194 -7.176387786865234
13.289746284484865 28.277732849121094 -4.480732917785643
4.2318601608276385 24.70374298095703 -3.2806537151336657
25.60967445373535 19.486326217651367 -1.3413115739822377
20.137527465820312 -2.998966574668885 -8.375540733337402
2.179841279983522 21.22002601623535 3.5486643314361586
31.23067283630371 22.418727874755856 4.2165331840515154
32.66598320007324 25.95754814147949 -0.7456070780754074
-34.66312217712402 0.35325062274933056 2.3007888793945312
-34.84344291687012 0.753008246421816 1.3841246366500854
17.523710250854496 34.088008880615234 -1.8846116065978984
1.8072128295898444 7.658480644226074 -0.882125616073608
13.423462867736818 25.17102813720703 -0.998150765895842
3.9482569694519043 4.120917797088623 3.930446863174439
21.614765167236328 -9.455533981323244 -8.073357582092285
-26.653884887695312 -19.982357025146484 -4.194382667541505
9.613100051879883 2.279695749282837 -8.259693145751953
5.3951897621154785 2.0445828437805167 6.278461456298828
22.846906661987305 -19.99152946472168 3.9979789257049547
15.025007247924805 -3.0339984893798833 -10.117217063903809
16.583904266357422 13.448434829711912 5.465587615966798
3.272842407226563 3.404329299926758 1.904322147369385
19.769662857055664 -8.332735538482668 9.24670124053955
-34.30642890930176 -5.70359945297241 0.0013151648334993442
25.557676315307617 19.537275314331055 -1.3468943834304798
6.4600887298583975 -7.228660106658935 -10.984521865844727
13.415720939636232 34.3604621887207 0.8052303194999716
-34.717153549194336 1.592331647872927 0.5231423974037172
4.281926631927491 3.0996403694152823 4.253119945526123
-23.248197555541992 -29.6433048248291 -4.28029775619507
14.042320251464844 -3.5846097469329847 10.380412101745605
26.05762100219727 22.720619201660156 -3.868899345397948
-31.965072631835938 1.3487904071807881 0.7978811860084535
-0.615655452013017 -20.70842170715332 12.285362243652342
-34.29999351501465 -5.467019081115721 -1.129424095153809
4.89312791824341 23.977739334106445 4.140172958374025
-13.450489044189455 -29.07649803161621 8.628235816955565
-30.060901641845703 -3.2309758663177472 1.6025314331054685
5.828301429748536 17.282447814941406 -6.12797451019287
-5.983415603637696 -13.694985389709473 -10.379233360290527
12.039328575134277 0.5396182537078855 -9.302216529846191
-11.27367401123047 -24.704872131347656 -10.67177200317383
-3.752655029296877 -34.39583206176758 -1.9327881336212178
-25.942346572875977 -23.715105056762695 -4.680193424224855
-11.7498779296875 -19.418546676635742 10.707920074462889
-16.328393936157227 -10.152028083801268 -5.017545223236085
16.191661834716797 -28.94165802001953 -0.002973143942655905
19.102998733520508 -12.329334259033205 -9.628379821777344
-8.399357795715332 -7.066037654876708 -1.8766815662384038
-33.72796821594238 -5.169788360595701 0.21531620621681183
25.536596298217773 22.719465255737305 3.5043835639953627
1.8234231472015394 21.793560028076172 2.7075014114379896
-24.82432746887207 -10.475143432617186 3.9212439060211177
4.556235313415528 23.66488265991211 -4.153803825378416
-34.7764835357666 -0.62386494874954 -2.477372646331787
-7.549896240234375 -6.143290042877196 0.05466462671756707
-13.559049606323244 -14.567686080932617 -8.449474334716799
3.1434073448181157 3.4513511657714844 -1.014508008956909
30.187513351440433 21.975090026855465 -4.322641372680662
5.654310226440431 11.73487377166748 -5.874705791473388
-21.931941986083984 -11.646076202392576 5.5457491874694815
5.33658027648926 20.532312393188477 5.536799430847169
11.39718246459961 -3.1528980731964116 -10.35768985748291
5.756022930145263 -3.3137845993042 9.483572006225586
3.2021718025207524 3.439357280731201 -1.372038960456848
-14.104747772216799 -22.51085662841797 -10.31582546234131
-12.992118835449219 -9.784708023071289 1.9290549755096429
-34.898427963256836 1.0898287296295188 -1.078642725944519
34.34653282165527 23.843614578247067 1.2204362154006974
3.0761160850524907 5.481226444244385 -2.91454005241394
-18.066160202026367 -29.218978881835938 -7.370607852935793
7.962977409362794 19.398651123046875 -5.699178218841552
14.60158634185791 14.10762023925781 5.943851947784425
-4.630486011505128 -4.250240087509155 3.0458583831787105
3.0575308799743666 23.126354217529297 3.377809286117555
7.830707550048827 -2.5254557132720956 9.702316284179688
1.229289770126341 -29.143613815307617 9.245266914367674
3.014156341552735 3.5434889793395996 -1.2835596799850462
2.8634796142578125 -0.10633885860443171 6.224068641662598
34.150739669799805 23.80050659179687 1.1686724424362198
14.671841621398928 25.87542724609375 -3.222303867340086
11.257291793823242 -4.872475147247316 10.785704612731934
17.534595489501957 34.280330657958984 1.3186858892440816
-1.213099405169489 -31.577259063720703 -7.274359226226808
-32.275596618652344 -3.76354670524597 1.895568013191223
-30.050701141357422 -3.3969259262084943 -1.4856721162796023
-4.2466306686401385 -24.579938888549805 -11.559153556823732
-7.84044408798218 -34.230159759521484 3.05200934410095
5.372591495513918 19.179922103881836 5.833994388580323
-8.238971710205078 -7.312731742858886 3.0474388599395748
7.279739379882813 21.55388069152832 -5.2188072204589835
1.2113993167877195 -2.70029091835022 7.186652183532715
18.632274627685547 -19.862520217895508 -8.459758758544924
5.3328261375427255 16.93821144104004 -6.0373826026916495
-34.84185600280762 0.2510570287704488 2.07867693901062
-14.396573066711426 -13.197514533996582 7.346541881561278
0.6246660947799694 18.253253936767578 2.0850644111633314
29.96991348266602 21.600828170776364 -5.156915664672851
25.649730682373047 -6.827946186065676 2.0506272315979
2.5521290302276616 4.617575645446777 -0.9486228823661801
13.37120246887207 -0.32628136873245384 9.622559547424316
-26.664453506469727 -9.156867027282713 -0.4266651868820196
1.8821508884429936 9.461459159851074 2.30829668045044
-13.442695617675781 -9.654669761657715 -1.216877222061158
4.012178897857666 3.2715325355529785 -3.65368914604187
-5.413979530334473 -14.2706298828125 -10.765351295471191
-4.938788890838625 -28.29412078857422 10.061475753784178
7.94948101043701 -31.20689582824707 -4.96481513977051
-17.376737594604496 -32.92044639587402 3.9776883125305154
-12.889608383178713 -10.284272193908691 3.6429600715637203
20.882112503051758 -3.104011535644533 7.961783409118652
10.536746978759767 26.780447006225586 3.562793493270876
-0.6953046321868909 -21.38034439086914 -12.22624206542969
19.256660461425778 -13.752641677856447 9.442371368408203
12.126310348510742 19.11864471435547 3.0290675163269056
34.92142295837402 24.45454406738281 -0.004350247327236824
-25.118316650390625 -11.163475990295408 -3.911128044128419
-20.934635162353516 -30.115434646606445 -5.498458385467531
27.13068962097168 20.157630920410156 3.887053728103639
-12.225235939025879 -9.495656967163086 -1.5344051122665412
-18.78972434997559 -16.74027442932129 8.092012405395506
24.63216209411621 -17.352697372436523 1.5380899906158436
-26.18887710571289 -4.425559520721434 -1.8013479709625246
1.401956081390381 1.7987935543060303 1.4469622373580933
-11.349207878112795 -29.21714210510254 8.904262542724608
16.36017608642578 17.449426651000977 1.5202299356460582
3.5671453475952153 4.079124450683594 3.329339742660523
-34.72491645812988 1.421569108963015 1.0424106121063232
-3.910657167434694 -34.31117248535156 2.3868007659912087
15.593254089355469 14.87624931335449 5.222475051879884
10.888710021972654 -28.332813262939453 7.2220401763916
21.09444236755371 -11.665331840515138 8.431909561157227
18.123439788818356 -27.35176658630371 1.9100803136825544
-24.833110809326172 -14.535128593444822 -4.996578216552735
-30.04999542236328 -4.159140825271605 0.4783686101436612
18.933250427246094 15.73301315307617 0.8181101083755503
34.85997200012207 24.170885086059567 -0.004148226696996401
18.94303321838379 12.154297828674315 -4.702540397644042
-27.713224411010742 -18.112062454223633 -2.4133708477020273
-34.44478416442871 -2.1643345355987527 -3.0267608165740967
13.408584594726564 34.41477584838867 -0.3851005733013132
-22.411640167236328 -12.259970664978026 5.59282636642456
18.274879455566406 25.992958068847656 3.6610145568847674
-12.162418365478516 -9.6796293258667 -2.490682125091553
-34.1982479095459 -4.893453836441038 1.9261268377304075
22.07497787475586 -18.56640625 -6.024808406829835
14.237745285034181 28.796573638916016 4.7618565559387225
16.76759910583496 24.497377395629883 1.3286507129669205
1.2639422416687025 19.76089859008789 2.9135911464691175
20.493888854980472 27.33029556274414 -4.281208992004393
22.88254737854004 4.336949348449705 -4.39253044128418
-13.42137336730957 -9.867931365966797 -2.3170876502990727
4.441630840301514 3.2675061225891113 -4.3747429847717285
-16.14107894897461 -7.077262878417968 0.04169628024101214
-33.58142280578613 -3.4344682693481423 -1.6309742927551272
-34.31744956970215 -1.5122154653072335 -2.362042188644409
-10.82783317565918 -8.687703132629395 -1.1249052286148076
-10.69515609741211 -20.942913055419922 11.097702026367186
3.0825872421264653 3.4382076263427734 -0.8215955495834348
-34.778852462768555 -0.6183854937553384 -2.4923007488250732
18.389883041381836 -26.673521041870117 -3.1302759647369403
4.834315299987794 20.588117599487305 -5.4128355979919425
9.774205207824705 -31.562721252441406 2.550797462463377
15.581027984619139 -28.232494354248047 -4.078374385833742
-34.19569969177246 -4.919044017791746 -1.897560000419617
5.0272855758667 5.561583518981934 5.240130424499512
20.28002738952637 33.27877426147461 0.9590767621994039
-34.81524848937988 0.9276020526886009 -0.9888280034065245
-16.826937675476074 -8.798146247863768 4.0274920463562
-34.89547157287598 1.0759375095367454 -1.0711078643798828
-13.445259094238281 -9.62921142578125 -1.0062338113784797
-34.38227653503418 -4.932900428771971 -1.3387765884399416
-7.269467353820802 -6.409806728363036 2.738566160202026
14.948930740356447 34.543766021728516 -1.2456336021423318
16.031135559082035 34.63802719116211 0.8240134716033957
32.04400825500488 23.119937896728512 -4.875128746032713
6.838650703430176 -0.3640050292015085 8.48486042022705
-25.185340881347656 -6.312859535217283 -2.4644639492034917
4.795731067657472 19.911436080932617 -5.560001373291015
1.7427089214324931 -33.9570426940918 0.0026430373545715284
-13.450926780700684 -9.574331283569336 0.05119640007615031
16.188053131103516 -1.7107610702514664 9.627054214477539
12.088932991027834 32.72399139404297 2.9479308128356956
-34.850534439086914 1.152911186218264 -1.3838672637939453
-33.589548110961914 -3.476912736892698 -1.7268952131271365
5.2915477752685565 22.473506927490234 4.931465625762941
-5.423641204833986 -22.191068649291992 -11.879696846008303
-14.012971878051758 -9.580278396606445 -2.463730096817017
24.320934295654297 3.110669136047362 -2.3698782920837402
22.11815643310547 -3.6958005428314227 7.146791934967041
14.838596343994139 -26.325403213500977 7.008297920227049
15.002075195312498 -16.219205856323242 -10.940967559814455
26.806978225708008 21.414936065673828 4.0311856269836435
12.613943099975584 -15.920748710632324 -11.577793121337892
-28.53512954711914 -3.6875686645507795 1.1941730976104734
-13.682793617248535 -9.51666259765625 0.9094493985176081
11.514531135559084 32.7487678527832 -2.4801352024078347
-6.370944976806642 -29.791648864746094 -9.037193298339846
-27.620500564575195 -16.544434547424316 2.1999614238739005
14.675743103027344 2.569006443023681 -8.753225326538086
3.543071269989014 3.3656535148620605 2.615934133529663
-12.411272048950197 -33.38906478881836 4.500758647918699
20.64308357238769 -23.626110076904297 4.1303553581237775
17.527189254760746 34.13607406616211 -1.7683086395263652
11.779274940490724 33.5976676940918 1.1166315078735372
-2.5854629278182992 -14.474668502807617 11.45938777923584
23.710243225097656 -14.55877208709717 -5.350820064544679
-33.83579444885254 -3.6294202804565407 -2.0367474555969243
-6.258412837982179 -15.186389923095703 10.882351875305174
33.119272232055664 23.253883361816403 3.1905963420867933
10.573428153991701 32.05356216430664 2.416495561599733
14.941492080688478 34.63544845581055 0.8183255791664145
-31.624826431274414 0.9528596401214617 1.3408619165420532
13.316634178161623 3.652652263641356 8.56017017364502
-10.728639602661135 -15.122197151184082 -9.582503318786623
27.599195480346683 24.93422508239746 -4.268448352813719
-30.543210983276367 0.43030571937561213 1.609937310218811
-13.675021171569826 -9.99722671508789 3.013194322586059
7.66777801513672 18.728065490722656 -5.948270320892333
27.165016174316406 21.16954231262207 3.049175024032594
-22.187280654907227 -24.30644416809082 -7.2634835243225115
-9.183773040771484 -7.898159980773925 2.668496131896972
-14.583063125610353 -22.43360710144043 -10.197292327880861
-21.741073608398438 -11.941138267517088 -5.699504375457765
-26.739740371704105 -23.319957733154297 3.8547542095184313
23.831348419189453 3.121770858764647 -3.4403796195983887
23.954256057739258 4.788015842437742 2.3208386898040776
-15.715135574340822 -25.662471771240234 9.483685493469237
-22.35784721374512 -29.55759048461914 5.048283100128172
-22.33032989501953 -29.109052658081055 -5.393336772918703
11.279690742492678 20.93740463256836 -1.8404856920242296
30.443397521972656 21.943187713623043 5.238209247589113
4.273170471191407 3.1521334648132315 4.190882682800293
19.052211761474606 -14.636000633239748 9.455094337463377
7.913476943969728 19.626785278320312 5.644330978393556
10.723620414733888 25.487735748291016 -3.1314096450805646
7.882534027099608 -27.05385398864746 -9.334532737731935
-12.969197273254396 -9.896554946899414 2.4277806282043453
10.30684566497803 26.086286544799805 3.462428808212282
17.296167373657227 31.108726501464844 4.595143318176271
3.196300506591797 3.5059680938720703 1.0572476387023928
-27.006847381591797 -1.6555181741714462 1.8007057905197144
12.76448726654053 19.03921127319336 2.0887360572814955
30.232688903808597 21.88984870910644 -4.362601757049559
19.37464904785156 -20.370559692382812 7.737817764282226
21.965072631835938 11.40165615081787 1.0636889934539802
24.134902954101566 24.485214233398438 -3.6356039047241198
33.90293312072754 23.694084167480465 -3.1929409503936754
12.269918441772461 -25.322790145874023 8.969138145446776
3.8689417839050293 3.270447731018066 -3.3786354064941406
14.847249984741213 24.686389923095703 -0.8058968186378463
-23.788160324096683 -22.809972763061523 6.499338150024412
13.60110282897949 -11.438048362731934 -11.462783813476562
29.982328414916996 24.203950881958004 -4.475968837738035
-4.90437436103821 -27.144258499145508 10.64090061187744
14.77535343170166 -12.403255462646486 11.226557731628418
4.278460025787355 26.55000877380371 1.00389075279236
-14.866180419921877 -32.035383224487305 -5.959281444549562
-6.728278636932374 -15.428627014160156 -10.844456672668459
24.34358024597168 3.8841600418090807 1.781194090843201
-34.48604774475098 -4.61661648750305 -2.014940738677979
19.238862991333008 15.318756103515623 1.2229022979736337
