ply
format ascii 1.0
element vertex 783
property float x
property float y
property float z
end_header
0.07323262733636392 0.01392604771353364 0.1661134794108014
0.07321245910078959 0.014290745443151837 0.16818746114029393
0.07037687094204283 -0.002579787371709186 0.17085070622895154
0.07016163926618868 -0.002970665646239273 0.17091096466490482
0.07023485666044228 -0.0032081987120429426 0.16881721467700667
0.07048555684036184 -0.0027444543643877547 0.1687456780417102
0.07069020823440932 -0.001979590193133955 0.17075801285501935
0.07068136202089 -0.0023675878912393176 0.16868746633899723
0.07094328522874503 -0.0014740238918307755 0.1706798290328736
0.07096489993790756 -0.0018028881034475447 0.16860014606579846
0.0711700783392582 -0.001006093636908829 0.17060739343894177
0.07131714026267777 -0.001070786139925511 0.1684867916430267
0.07145649947884672 -0.0003979283731321663 0.17051316875982261
0.07168983902340159 -0.0002643636567135829 0.16836178183861072
0.07181314991378812 0.0003861815377282241 0.17039156224668864
0.07203864774920354 0.0008967605395113504 0.17031231205838526
0.07201013672958628 0.00045326382150929177 0.16825042682925773
0.07235766248426805 0.0012566092660609247 0.16812566397096793
0.07283999784408375 0.0024162915499309724 0.16794537408860843
0.0727269245826136 0.0025206967944901935 0.17005997016931942
0.07240079493535795 0.0017382529287122295 0.1701816067920662
0.07312667995759095 0.003130610874512707 0.167834221037691
0.07310487648442517 0.0034579558666288004 0.1699141444669278
0.0733746395724285 0.0037638461319020365 0.16773565041430777
0.07349060837665372 0.004449262228425912 0.16975977191478475
0.07372212908274858 0.005065310559024235 0.16966373392305029
0.0739234515778343 0.005227319507027321 0.167507534257426
0.07396625456332714 0.005732355818475459 0.16955973721253315
0.07413012124980899 0.005804044951761933 0.16741755336877975
0.07424306449970627 0.0065171052769694435 0.16943725370683574
0.07440501425109759 0.006601486702470095 0.1672930170898428
0.07370222334619116 0.004625153072272839 0.16760142597505967
0.07451254309130817 0.007316165707295775 0.1693124186798451
0.07462402350426248 0.007266189042597514 0.16718912671157107
0.0747048946460387 0.00791785416389533 0.16921831665745582
0.07485004833010675 0.007993656865445398 0.1670752899541251
0.07484730087081558 0.008382542130378907 0.1691455827264323
0.07497870238387491 0.008835939086392694 0.16907454192780041
0.07499215695197968 0.008479981135653092 0.166999101230761
0.06165572604502581 -0.01333029675761483 0.1703485686667593
0.06256523236209992 -0.012525773175774241 0.1702290564687851
0.06239532209806603 -0.012327238215129476 0.1723280905906038
0.06385539178681793 -0.011009873204277333 0.17213211310046211
0.0631314853311702 -0.011669101623316122 0.17223024821912888
0.06390920515813713 -0.01131079786871586 0.17004828567452007
0.06446257299276949 -0.01044317470513618 0.17204760602826705
0.06459898937223368 -0.010664387923163904 0.16995186474015353
0.06501718803259261 -0.009910551899902404 0.17196802500363398
0.06510768211502858 -0.01017295283296592 0.16987840834027662
0.06541679645882381 -0.009513942167869053 0.17190863670818057
0.06548256511454391 -0.009799290381703888 0.1698224406648841
0.06581295161644307 -0.009109415187081095 0.17184795227066652
0.06588139537746904 -0.009389719619294733 0.16976097769672688
0.06318207570985862 -0.011973014370753897 0.17014686615875366
0.06629862653963817 -0.008943659069372055 0.16969387313314183
0.06636728297882692 -0.008513741315068013 0.1717583124697946
0.0666664593226822 -0.008175143617486488 0.17170720462665645
0.06672558441290359 -0.008461890069628445 0.16962116822040937
0.06699530512272127 -0.007788286481636163 0.17164868651908974
0.06727699803464468 -0.007440680376870951 0.1715959724961579
0.0675453156481255 -0.007453466091398152 0.1694682668704449
0.06750338421201207 -0.007150383264272073 0.1715518644276537
0.06778990785311478 -0.006768316674200763 0.1714937010409316
0.06806921841735479 -0.006737869340589531 0.169359206341194
0.06818406593981723 -0.006212512141700977 0.17140887045286207
0.06830207500857934 -0.00640006631452914 0.16930758280160374
0.06855652431418162 -0.005655728848188742 0.17132367306196403
0.0685785841009081 -0.0059847693342206625 0.16924402258162782
0.06884109872267861 -0.005573547494584545 0.16918097712890315
0.06701387094037171 -0.008122425101575381 0.16956981583315933
0.06732192021939823 -0.007740905304092528 0.16951194811265102
0.06781366483692225 -0.0070956361249618315 0.16941379275917537
0.0688743385660657 -0.005156806055073116 0.1712471752905672
0.06917901377633422 -0.005027056960593081 0.1690970872609592
0.06911976943852216 -0.00475907814625289 0.17118611664856437
0.06949989138650535 -0.0041226935185610675 0.17108829801796177
0.06954599400884598 -0.004410180465022652 0.16900225278619588
0.0698480979629211 -0.0035221161593252896 0.1709958814462286
0.06988652140391839 -0.003821493064134268 0.16891165821184778
0.04996775091070775 -0.02082313677777439 0.17356283947101403
0.05037278268447821 -0.020953725486161832 0.17145524391688405
0.050949834831559244 -0.020306939996553537 0.17349001494245817
0.05146545896515768 -0.020375102323190772 0.17137353320771598
0.05168635005069945 -0.019914421685174308 0.1734345395058299
0.05240947538763713 -0.019866000137678096 0.17130147179358746
0.052438563097693285 -0.01950692236016124 0.17337682665458612
0.05417631882815805 -0.018526990249220908 0.17323735365094003
0.05462804470343325 -0.01860335701983832 0.1711215621431484
0.054874313943341094 -0.018111624341767066 0.17317786147821895
0.05310125179621976 -0.01914058052101792 0.1733248116757311
0.053266524671654936 -0.019391002466525368 0.17123400814652656
0.053676547296699365 -0.018815623152177517 0.17327855139465684
0.05403786728223554 -0.018951540828607574 0.17117138269643015
0.05522109072130482 -0.01824323043580118 0.17106986445882172
0.05563727116945154 -0.017638193138741855 0.1731097371082645
0.055935637213800016 -0.017791158991719375 0.17100467813500955
0.05616064238925502 -0.017298883766008948 0.17306068510451425
0.056640932780796294 -0.017322843271057493 0.17093681184434342
0.05662097843114733 -0.016990658445667616 0.17301598069983926
0.05707225644425118 -0.016677650352861763 0.17297042630468068
0.05730805915307883 -0.016856445128059006 0.17086888160618716
0.05747902015486261 -0.016386745112757818 0.17292796608930183
0.05795269525662472 -0.016384818661599566 0.17079990023817704
0.057924501059359694 -0.016058797729320076 0.17287997268718697
0.05837206887186168 -0.01571849110492255 0.17283002830196084
0.05851013097458077 -0.015958807056148806 0.17073734994867953
0.058939160770677464 -0.015621543808822752 0.17068771151014117
0.05877502682412318 -0.015403785682694009 0.1727837355960164
0.05928736237994273 -0.014993593275146518 0.17272327187998399
0.05961623122906806 -0.015072650949301441 0.1706067206396713
0.05986305263803902 -0.014519495438704035 0.17265322896710833
0.060317567953036694 -0.01448653491506695 0.17052002776908007
0.06032939546874921 -0.014127355344505883 0.17259519933806222
0.06096491406811437 -0.013582996075650578 0.17251452938236111
0.060938972416919174 -0.013954060466951669 0.17044111672742465
0.06167216092023434 -0.012966178995297404 0.17242299724068083
0.04568753830416127 -0.023075414657465907 0.17388063534832357
0.04605479433471652 -0.023217491252418482 0.1717745064239704
0.046414212932104695 -0.022683493087311282 0.1738251598566614
0.047417559812367754 -0.022495529066526777 0.17167254825835854
0.048162653746004355 -0.021762166988046 0.1736951373428283
0.04875381144876059 -0.021796173994164385 0.1715739391199185
0.045702994608776054 -0.023412278202304963 0.17180216861434125
0.048147357155773285 -0.02332915259194508 0.17394490825591122
0.047666108566576056 -0.023623349826436317 0.17185482995054932
0.04733498144537344 -0.023266810734146985 0.1739271038081521
0.04674649383604776 -0.02354634434072445 0.17183364899288375
0.04570906805705168 -0.02309427960163518 0.17388385247106883
0.04579448780849884 -0.023438461346782145 0.17180722994732284
0.04598563768822489 -0.023137450685143758 0.17389341426022412
0.046110254540461325 -0.02348201715308184 0.17181723248490455
0.0465408812547259 -0.0231974245869409 0.17390835272084815
0.04842511079356965 -0.02367886954667489 0.17187102982277278
0.0607800807064776 -0.026626259418276545 0.17459301417312925
0.060808271389180615 -0.026963238311727183 0.17251468913858115
0.06048465036909673 -0.02676362237150512 0.17247972053437963
0.059901735130919086 -0.026108164695139744 0.174501883178285
0.06020445970746303 -0.0265987926070637 0.17245072036497255
0.05973075891942103 -0.0263354300045937 0.17240413244327046
0.0596138032899336 -0.02595331184258227 0.1744743992802812
0.05932147634812711 -0.02580328220468097 0.1744476421057325
0.059130059956526225 -0.026029873285088607 0.17234958603191153
0.05902336317565178 -0.02565732251127316 0.1744214778173479
0.05874048785100464 -0.02584768660823742 0.1723167594218939
0.058413088962737135 -0.025379720264044343 0.17437129721232297
0.05819561619600941 -0.025609825531125112 0.17227354969942485
0.058101057847356634 -0.025248100998676484 0.1743472856314918
0.05778253456147961 -0.025120556766921022 0.1743238611527472
0.05761082833084733 -0.025378525331656167 0.1722310008588995
0.057208232954155905 -0.025230748705524567 0.17220353552351286
0.057266573619365074 -0.024927720456237146 0.17428811257811033
0.05685646614097986 -0.024785565050307344 0.17426147171590983
0.05661446777671789 -0.025031769688780958 0.17216605481870204
0.05617031551684385 -0.024894320044722307 0.17213983428544055
0.056249474306267706 -0.024593038206547346 0.17422489133757513
0.05589594938794157 -0.024489575149807 0.1742049686178361
0.05544142294195004 -0.0246911262628587 0.17210037319970717
0.05551841720704318 -0.024385809916371105 0.17418476561637017
0.05513084788156628 -0.024286077437802353 0.17416510866849155
0.05467251714055099 -0.0245029641315644 0.1720629223314143
0.05473759748597305 -0.02419158770530975 0.174146232910651
0.054337659627281966 -0.02410201451884201 0.17412807634225938
0.05387840574299865 -0.024334274013684588 0.1720283333398941
0.05336773612591568 -0.02391002132285737 0.17408806938191992
0.05305248559364248 -0.02418231013824939 0.1719961037640278
0.05294130741933349 -0.023835964024685904 0.17407213132492794
0.05250481372061962 -0.02376611710577824 0.17405676738139797
0.052420078197574396 -0.024081948356821564 0.1719739770941553
0.05206268570936252 -0.023701245786778638 0.174042142473177
0.05174740558956693 -0.02398679686507349 0.1719522917685524
0.051608684678090114 -0.0236403582217468 0.17402803827301297
0.05114476235740008 -0.023583810580163386 0.17401453000220354
0.050840980791335484 -0.023878581289289495 0.17192626076052506
0.05067225300807128 -0.023531746324045123 0.17400165392503023
0.05019207903004507 -0.02348418112926122 0.1739894209963293
0.04986793638213659 -0.023784665323748986 0.17190186574808256
0.04933012617603982 -0.02341083463661154 0.17396938164817033
0.04922297447639386 -0.023733443548729406 0.17188745495489882
0.05385734306183071 -0.024002096127468904 0.1741074929161272
0.058657284239977875 -0.025487658182893783 0.17439087562331568
0.06016802924824552 -0.02625785064095795 0.17452833361223902
0.060455965360861216 -0.02642688335349392 0.17455807910113483
0.06727711156864923 -0.03383454379136293 0.1758055384403282
0.06737835352774046 -0.03430961640063734 0.17374994492177148
0.06721218174085647 -0.034022203429713696 0.1737024972320921
0.06643653003277077 -0.03286183872474926 0.173509924209434
0.06615382348038386 -0.03247792734444378 0.17344595843784552
0.06633280081796006 -0.032414851204501646 0.17556997348064543
0.06602606424891232 -0.03200492111845984 0.17550162456374022
0.06576635831407783 -0.03197493749995234 0.17336198676100176
0.06573081255640187 -0.03162387566933403 0.17543799407819272
0.06553956072816786 -0.03153730769481597 0.17435616558620018
0.06525723005429172 -0.031344013524976067 0.17325643367912652
0.06523605727888615 -0.031011252312547272 0.17533549711956892
0.06494437811592632 -0.030970969538723477 0.17319390926342645
0.06463755653900612 -0.03061409344673024 0.17313402177202858
0.06461663322104724 -0.03028161088925439 0.17521312670084205
0.06430539545235153 -0.030237435168124868 0.1730707341208423
0.063988781208354 -0.02988810650644602 0.1730119558033479
0.06367370857631414 -0.029548955013502746 0.17295481525950357
0.06365366240577149 -0.02921747618513274 0.17503408541044901
0.06336180201797233 -0.029221785938694525 0.17289961682316363
0.06302129187781695 -0.028874408274869937 0.17284091811292768
0.06307317314010707 -0.028615986149067598 0.17493254387377688
0.06277368082553214 -0.02831734779308149 0.1748820201952396
0.06258545905568039 -0.028446296349740382 0.17276842080816698
0.06234152765473018 -0.027902819601382828 0.17481172447852128
0.062195732544018216 -0.0280813222881071 0.172706439565684
0.06195762254614366 -0.027867141412333457 0.17266997532179665
0.06165818459355013 -0.027607497710450114 0.1726256670207612
0.06189213483422722 -0.027494510684755 0.17474225360814238
0.061474101506589746 -0.02714021866002771 0.17468170184979714
0.06130239217083901 -0.027319545890749666 0.17257629838972924
0.06105618458956322 -0.02713458348514674 0.17254441610450652
0.061162483809178506 -0.02689614394215041 0.17463975872033954
0.06097832420853756 -0.026762001112329292 0.1746165820947915
0.06708742131311927 -0.033519995659999316 0.17575353540503627
0.0669834724171947 -0.03365657213161388 0.17364196937482465
0.0667132414709484 -0.03325246491929207 0.17357490321714206
0.06657570665334658 -0.03275311855910501 0.1756262740076808
0.0668406553384101 -0.033138417088198736 0.17569028933377068
0.06743825437734013 -0.034125778748613424 0.17585354699184128
0.06755226869860748 -0.03464083879425752 0.17380445464778985
0.06334545339503231 -0.028893984800107294 0.17497950979002225
0.06396598859841199 -0.029553511914144695 0.17509061622054542
0.06429410905354925 -0.029915736057995322 0.17515160894696782
0.06492343369810624 -0.03063832247524331 0.1752729912331977
0.06615550295180601 -0.05005740736612392 0.17624973040983744
0.06644580766115636 -0.04964512523518891 0.1761867847336569
0.06614912154459138 -0.04970698860006899 0.1783261229955672
0.06674968485882565 -0.049182988864708434 0.17611601917397443
0.06665578759580444 -0.04896575580440309 0.17821280669699166
0.0668770807681319 -0.048615115006145744 0.17815902440495207
0.06696697230232224 -0.04883120815613465 0.1760620163295618
0.06717738863271956 -0.0484725263194977 0.17600684635812142
0.06708520833258064 -0.04826552994824441 0.17810528308689166
0.06728626900825002 -0.04790974501617812 0.17805048456153677
0.0673733965786446 -0.04811669053502607 0.17595199085596092
0.06755274422308374 -0.047773539803680626 0.17589899720974192
0.06753758195172829 -0.047432443362839694 0.17797679160435656
0.06883057235648334 -0.04420331239817224 0.17534194647939572
0.06891489627276041 -0.043788038831707454 0.17527653051557734
0.06886893173362943 -0.043588681450177996 0.1773766327662058
0.06894080811990085 -0.0431969742961866 0.1773148548531094
0.06899482521929057 -0.043315694138239456 0.17520196951785774
0.06901500370683461 -0.04269872840056228 0.17723610749179794
0.06906193505713083 -0.04281216818412658 0.1751223114814699
0.06910131951765378 -0.04241374994066925 0.1750591487702295
0.06912877042176967 -0.04203821146769641 0.17499951967661084
0.0691088323990807 -0.04170913236311328 0.17707918456226263
0.06914838164119844 -0.04157054475626083 0.17492512119778553
0.06912906921548759 -0.041202121911635824 0.1769985171694185
0.06915195726257112 -0.0410836574251589 0.17484750197294271
0.06913128008359012 -0.040721480659096726 0.17692188096611927
0.06913791223814864 -0.04058624577923026 0.17476803378519284
0.06911741679604291 -0.04024964509084829 0.17684649363075075
0.06854624487038356 -0.037142408928963415 0.17421304968713477
0.0684357175747745 -0.03678769907575025 0.17415540730350018
0.0684882493609951 -0.03668441253607636 0.17627178517958506
0.06834117080333262 -0.03623432475664182 0.176198577252843
0.06831179387025627 -0.03642552871155112 0.1740964454139446
0.06818560697238267 -0.03608157734542052 0.17404036734821793
0.06820540626224689 -0.03585676390137986 0.17613704615218417
0.06805969350275765 -0.035480052921726346 0.1760755543274293
0.06799980751033174 -0.03561698851845384 0.1739644719422814
0.06791902708187136 -0.03514369399322144 0.17602054709627113
0.06779264814083232 -0.03514403333412919 0.1738870354634266
0.0677528634612167 -0.034769612449627056 0.17595927673372153
0.06759491028336265 -0.034437856217212695 0.1759048363002182
0.0677817908676021 -0.04730155435479747 0.17582593670179297
0.0680174778940919 -0.04676828273546736 0.17574316596649484
0.06794263022463631 -0.04656424818615297 0.177842242666255
0.06816470597567553 -0.04640451986432163 0.17568657386377023
0.06814102082771104 -0.04608075925733314 0.17776705052262434
0.06823968083223973 -0.045820914887568516 0.17772656239412574
0.06833439324314991 -0.04594588942243437 0.17561506934835072
0.06842561975936501 -0.04568094927391467 0.17557369632087738
0.0684048325607731 -0.04534984784650342 0.1776530302326712
0.06854029047820367 -0.04531988032556645 0.17551721916365695
0.06855812079570092 -0.04485926482752961 0.1775762706573319
0.06868053105107656 -0.044826201885731 0.17543983960776963
0.0686933337971922 -0.04436616973332076 0.17749893504110006
0.06876713660114744 -0.04427179544389994 0.17641842627091328
0.06909941720001066 -0.040017667396346206 0.1746769786754051
0.0690895949806854 -0.03980504694712128 0.17677531508394076
0.0690482822056137 -0.03953005372921936 0.17459871417470152
0.06904297023149808 -0.0393198591168716 0.17669748115335848
0.06898007153146268 -0.03904346063883745 0.17452044725232627
0.06897893950964545 -0.03883221359681252 0.17661908680397315
0.06889462078376535 -0.03855743640614559 0.17444210422083856
0.06889795588047248 -0.03834688163904291 0.17654089738843004
0.06879769244772273 -0.03809743693553912 0.17436780097561497
0.06882104239559543 -0.03796310251432271 0.17647894404826533
0.06866756200742812 -0.0375709384509222 0.1742825703613659
0.06859356630946398 -0.037043119698032145 0.1763300141805444
0.06871221942612146 -0.03748885080522482 0.1764022526531636
0.06873425350528231 -0.037830081644891586 0.1743245462601688
0.068809766103126 -0.04387514940697319 0.17742174905700642
0.06642579937121322 -0.049312703031344995 0.1782659157565533
0.06907031622365895 -0.04220681811978871 0.1771581878639508
0.06777104630423052 -0.0469498627829064 0.17790208398527546
0.05789789761668569 -0.056841338402732186 0.17938413349099283
0.05791024855932307 -0.05717679361498651 0.17730541210518477
0.0581639083308739 -0.057041090301037656 0.17728622351888917
0.05822699599559737 -0.056663447917616926 0.17935894644470757
0.05840130490950709 -0.05690667587592642 0.17726708301695673
0.05849144946004505 -0.056509465983568055 0.1793369469971703
0.058699908975652026 -0.0567268215686766 0.17724128768658415
0.05875285393876935 -0.05635019123135544 0.17931407389101928
0.05896453282088031 -0.056560306619507526 0.17721729090724858
0.059217809587467224 -0.05604972487542596 0.17927065190627514
0.05936154526133705 -0.05629771635471051 0.1771792523966308
0.059782151335494124 -0.05600554908167295 0.17713672463861563
0.059633998924049574 -0.05576391254733673 0.1792290951744998
0.0602023470573789 -0.05570068631947164 0.17709216854587478
0.06008515101234366 -0.05544127389078916 0.17918200334384163
0.06061323297215626 -0.05539188423544324 0.1770468937785913
0.06060828941266738 -0.05504868198056462 0.1791244512770755
0.06097759363460627 -0.05510869363830634 0.17700525374086032
0.06132240311829556 -0.054834038541129226 0.17696478582749553
0.061224276287515846 -0.05456550528637161 0.17905335033355516
0.06169784880522818 -0.05452683854145795 0.17691942359712606
0.06207146999490134 -0.054213287165160134 0.176873030879938
0.06245784394328416 -0.053880849364595626 0.1768237492427702
0.062460515040325404 -0.05352908013371063 0.17890001372015013
0.0628481574432613 -0.05353543128446858 0.1767724356563725
0.06282280450299822 -0.05320848235690222 0.17885238744782855
0.06321391516879943 -0.05320341513948995 0.17672302172239218
0.06318910069850613 -0.05287611319243532 0.17880292276359966
0.06356368615655443 -0.05287773375439235 0.17667446366973313
0.06390728971773299 -0.05254936524385055 0.17662541711064608
0.063916895434633 -0.05218857443447048 0.1787003098135317
0.06436652089695442 -0.05209587007518232 0.1765575331975555
0.06424956776102433 -0.05186056817392058 0.17865121558481065
0.06462207632250005 -0.05148197850579107 0.1785944392987928
0.06490522984812247 -0.05153697325693268 0.17647360771407714
0.06509492452557511 -0.05097827880398256 0.17851867995276538
0.06526145737350646 -0.051147128323679084 0.17641487846213116
0.06544546080594842 -0.05058350441778049 0.1784591092599536
0.06556327229481032 -0.05080175610384545 0.1763627155121102
0.06587632027268472 -0.05042269885687428 0.1763052891234673
0.06568750754707092 -0.05029811103768536 0.17841593413220053
0.06593439270710577 -0.04999122859664589 0.17836937853091625
0.06356870025517634 -0.05252264817647928 0.1787502220001398
0.06208832051759464 -0.05385048463351513 0.17894767303939063
0.06167241489282754 -0.05419961573019472 0.17899933124356893
0.04690673872521243 -0.05839633690528151 0.17739343409325656
0.04730687692852774 -0.0584997364034923 0.1774137975462434
0.04728854912817646 -0.05816856167609609 0.17949314380481313
0.04763118129024263 -0.05824870623738214 0.17950924180439842
0.04765474661582641 -0.05858109589410959 0.1774301400060913
0.047981068247936826 -0.05832205304034123 0.17952432583390646
0.04832038843716503 -0.05838502655445618 0.1795376531680644
0.04834764943381985 -0.05871790752633729 0.17745866550666922
0.04866505385526684 -0.05844082372444617 0.1795498876721232
0.0486940456604673 -0.05877379231863243 0.17747093072108414
0.04900973013620325 -0.05848837944448722 0.17956080785030887
0.04904170768172512 -0.05882149514535311 0.1774819032865833
0.049354354588243866 -0.05852772943243419 0.17957041879259045
0.04938688682780339 -0.058860645612106396 0.17749148778053825
0.049698846924139464 -0.058558870684806266 0.17957871924298557
0.04973342489904146 -0.05889166991838734 0.1774997893902323
0.05004317988322078 -0.05858184212245769 0.17958571514518426
0.05007929239227024 -0.05891437453577772 0.17750675763120866
0.050387310291382784 -0.05859663752174325 0.17959140508877097
0.050425193978052785 -0.058928846774839186 0.177512413155687
0.05075071887185069 -0.058603474519825824 0.17959601230376218
0.05107473359405394 -0.058601799906926086 0.17959888077714808
0.051115981010627115 -0.05893311616113492 0.17751977900478302
0.051417964464204144 -0.058592167474213835 0.1796006660144421
0.0514608387697371 -0.0589229131315443 0.1775214889977102
0.05178526163165035 -0.05857292698175211 0.1796011517543512
0.05210314213204453 -0.0585486274084635 0.1796003524047826
0.05214940470307007 -0.05887799939237236 0.1775209891250854
0.05244501788076762 -0.05851472834018215 0.17959825423626877
0.05249296332937826 -0.05884329758651117 0.17751877929793175
0.05278634531252128 -0.05847276169951948 0.17959486406236108
0.05283255632129633 -0.058800910965526546 0.17751530524688855
0.053127079384272594 -0.058422742656749474 0.17959018386667958
0.05317204213465464 -0.05875048106827044 0.17751054743387412
0.05346717774978334 -0.058364708672283036 0.1795842192140017
0.05350986151154971 -0.0586922571155926 0.17750453040885972
0.05380658700878391 -0.058298647763296 0.17957696767641812
0.05384752767985221 -0.05862601088052086 0.17749723243122575
0.05416428587872993 -0.05822024207971478 0.17956792425989268
0.05649120240567049 -0.057483405897004146 0.17947292412056248
0.056167813626428725 -0.05760976130932976 0.17948994707767296
0.0565182337130081 -0.057812265564885584 0.1773932928687334
0.056827138559401816 -0.05734377439819279 0.17945390518051837
0.05715208989938006 -0.057200476163053814 0.17943419512941755
0.05717560769020866 -0.057530568606632554 0.17735472648446665
0.05748073147810759 -0.057047231260375274 0.1794129343929324
0.057502547967188226 -0.05737804402333263 0.17733356416579094
0.056842348143245 -0.05767749535657768 0.1773749348453616
0.05617918702262488 -0.05794465995832306 0.17741112744911205
0.05583620503884716 -0.057731158827442564 0.17950609975415216
0.055845935204664035 -0.05806641550940014 0.1774273213264798
0.0555024704802462 -0.05784507503493571 0.179521038660992
0.05551169694817111 -0.05818025910769912 0.17744224377847112
0.05516994417660205 -0.057950450567196915 0.17953462710585302
0.05517645954386083 -0.058286182255507864 0.1774558933267934
0.05483577301076135 -0.05804821036363594 0.17954698499735428
0.05484029342650748 -0.05838415225561734 0.17746826543817215
0.05450024011022249 -0.058138222407206404 0.17955809401994643
0.05450325963258756 -0.05847417433569568 0.17747936153703223
0.05416536726671702 -0.058556215765819236 0.17748917649137685
0.05178088630707685 -0.058906068433113995 0.17752189946623798
0.050751274731254736 -0.05893490885170978 0.1775165354668122
0.047995871070439275 -0.05865261012724163 0.17744484695574997
0.04679936991368405 -0.058041693111093653 0.17946817561543235
0.039791215178794734 -0.053146521140774984 0.17861962399475353
0.03996646331767739 -0.05364906266193958 0.1765691276213544
0.040422511055006764 -0.05383762475980322 0.17873595747207943
0.04064114424995113 -0.05438395478875584 0.17669286480023
0.04101663925894165 -0.054476661341663554 0.17884362708481838
0.04112471381715532 -0.054901670568648 0.176780115004178
0.04148839622381907 -0.05497158112538178 0.1789271272600301
0.041615127291977166 -0.05541267076185959 0.1768663603978766
0.04181312932262868 -0.05530112572533617 0.17898282892366768
0.042019561308488065 -0.05581746508108178 0.17693483495764606
0.042106057334815844 -0.05558973829214719 0.17903169454226145
0.04245988149694743 -0.055921757652061144 0.1790880724262765
0.04229837078263388 -0.05608487490462992 0.17698018232102233
0.04255076741095825 -0.056316783556109376 0.17701961206517147
0.0427587562213217 -0.05618441158199963 0.1791328554426967
0.04282804844386382 -0.05655756806229961 0.17706069821863826
0.04308326314072401 -0.05644894311193818 0.17917818596610954
0.043017796096970665 -0.056712541457630765 0.1770872510327245
0.04330834480033864 -0.056934704554393194 0.1771254956123976
0.04336987730439186 -0.05666091147594457 0.17921476648044643
0.04354666058042081 -0.05710018092901359 0.17715419399378118
0.04358073778825869 -0.05680424060803775 0.17923966638594646
0.04383099382655845 -0.05696043755488295 0.17926700005732188
0.04375770398130001 -0.05723472160789748 0.17717769392269783
0.043904360589982344 -0.05732180690265226 0.17719300364527057
0.04410843121555209 -0.057113040724448574 0.1792940226526702
0.04412993359911534 -0.057445384688584775 0.17721489477599434
0.044395390094984916 -0.05757683821705116 0.17723843035758852
0.04464714705401065 -0.05736458914180101 0.1793393554403271
0.04482171249550909 -0.057758887057996644 0.1772715898662372
0.04499126703191052 -0.057499164879183905 0.17936415025916327
0.04516807841766383 -0.05788649165434823 0.17729529350290243
0.04534151387225753 -0.057620320964767255 0.17938686288624625
0.04545390246552094 -0.05798229449214001 0.17731333899441742
0.04569647728075746 -0.05773254224505388 0.1794081961421201
0.04584194175880542 -0.0581013962698709 0.17733608969255535
0.04613489899815632 -0.05786047794818697 0.17943284333878642
0.04626026808808797 -0.05822148546708692 0.17735929095765132
0.04438277350202334 -0.057249302266829505 0.17931841085197225
0.03584281354057618 -0.048072080765988845 0.17777209091229218
0.035872094977183 -0.04843741948171941 0.175698299369833
0.03593276326081517 -0.04835856464621113 0.17781865252719195
0.03595189688809922 -0.048687314020646154 0.17573892725638862
0.03600658688008475 -0.048837608467928645 0.17576342802465753
0.036004218906631504 -0.04855008165385477 0.1778498881725382
0.036086731584953124 -0.049022971269950914 0.1757937664605587
0.03621153870403651 -0.04896476356288973 0.17791803311794316
0.03609078929511751 -0.04874289225878696 0.17788147876040047
0.036186015464123936 -0.04921690299310344 0.17582565736388533
0.03632799547887228 -0.04944945115408765 0.1758641202161571
0.03636160464567541 -0.049198116589652036 0.17795670310795256
0.03650708480190927 -0.04970724105152686 0.17590696842376718
0.03677897453468022 -0.050058347962484026 0.17596559761410677
0.03656185494118054 -0.04947600455988638 0.17800296116053296
0.036854368664733725 -0.04984415585793918 0.17806450842289454
0.03717892991869595 -0.0505391920099693 0.17604615798779213
0.03709867157804442 -0.05013573199384036 0.17811337614670156
0.03738889505092849 -0.05047304856067715 0.17816998340653287
0.03775971228609357 -0.05120359888205481 0.1761577448014965
0.037975435829665075 -0.05113685241400432 0.17828152973274614
0.03882854690708012 -0.052084802984004544 0.17844097434887998
0.03862855587088568 -0.052172923438466474 0.1763207505712909
0.03552290999085092 -0.047152870256361945 0.1754900470163011
0.03550278858207905 -0.04682124890997576 0.17756930468637042
0.03635960113091833 -0.04687016687720468 0.17545305547338222
0.036355366937177225 -0.04653322165279774 0.17753161772224071
0.03848759232399371 -0.0466031164833655 0.17543105641038423
0.03810673630781869 -0.04661683649717954 0.17542955938918792
0.038093242218202705 -0.046284944100615955 0.17750883741552564
0.03785695818484429 -0.0464734797020665 0.176425284447086
0.037530084927515354 -0.04666163150062497 0.17543112288120277
0.03654523707942201 -0.046819413460166305 0.17544675699768622
0.036616936153654724 -0.04646627119061578 0.17752347103531158
0.03681658138955423 -0.04676246812799518 0.17544030081283832
0.03759336826827979 -0.04632208067045891 0.177509923424131
0.037138889318432795 -0.046710328781084526 0.1754351041594199
0.0372797521646213 -0.04635693466180233 0.17751244713224892
0.03694861116751855 -0.04640461666492518 0.17751684742704732
0.03845954457136529 -0.04627185677974961 0.17751029537091575
0.04262947442825679 -0.044843813348634395 0.17732288915943714
0.042711522742543195 -0.045076147509677464 0.17522839572660848
0.04259626969424683 -0.04525596727472618 0.17525596011311606
0.04250350306006095 -0.04538622005863223 0.1752758361189566
0.0424879127272924 -0.04504762685384531 0.1773540257421445
0.0424078552206858 -0.045505913671729736 0.17529400121595573
0.04218647017807522 -0.04538980977014083 0.17740568346220703
0.042159369764163714 -0.04576656790126908 0.17533316759693382
0.042051520789522207 -0.04551166640696158 0.17742381247560474
0.04198410839270968 -0.04591291706637912 0.17535481329516836
0.04183713740339301 -0.04567174816975463 0.17744726908918818
0.041856743328296205 -0.046004415239892696 0.1753681734315405
0.04169421983325623 -0.045761389532462435 0.1774601829703921
0.04162136675325506 -0.046144487387494645 0.17538823596172246
0.041487527373515506 -0.04586944184630654 0.1774754165276815
0.04144612644840053 -0.0462286128432697 0.17539995716425716
0.04126549619178667 -0.046302402297548395 0.17540997787202622
0.04130708289834685 -0.04594674615261776 0.1774859993771069
0.04068288941223648 -0.046129917344665414 0.17750917271222405
0.04081495801819223 -0.046436589264528594 0.17542701985834655
0.04056420140083711 -0.04648870644614988 0.17543290504552633
0.039900949766572935 -0.046239353995942235 0.1775190600354485
0.03983995803418696 -0.046577588213026766 0.17544007210020351
0.03962909024026011 -0.04625816708333237 0.17751942969848913
0.039348531922491235 -0.046269401004137484 0.1775185063782671
0.03942708015373893 -0.046600126823420615 0.17543967152161608
0.03895419211052638 -0.046275328259859826 0.17751563560947567
0.038991424352624746 -0.04660678872166704 0.17543651784977898
0.040908691339491904 -0.046076362099975246 0.1775028165403052
0.04231418661907968 -0.04525887244008987 0.1773860361719479
0.04293625677700837 -0.04465530279019947 0.17516344980994306
0.04281063609133727 -0.04490322472830817 0.17520177529139533
0.04286004198675908 -0.04443895525804689 0.1772605497232952
0.04272171921592812 -0.044693837427185745 0.177299862368506
0.04229013382812383 -0.04563731944705554 0.17531381925785905
0.04008866957812252 -0.04655535877817462 0.17543893356628393
0.04016394631148579 -0.04621360297118447 0.17751749807005962
0.04034721846345669 -0.04652400998476543 0.17543643584213792
0.04048602171909951 -0.04616765319839737 0.17751328631953353
0.04102041947213523 -0.04638333766706022 0.17542051475336956
0.04111349411526802 -0.04601676170981447 0.17749529277762466
0.042965671279353745 -0.044211911151284616 0.17722536083208834
0.04303813553825999 -0.04402333324780266 0.1771959852733649
0.04301737347480131 -0.044465557864217846 0.17513397275754855
0.04285706309169632 -0.04177248014798058 0.17470290126826024
0.04298318668902197 -0.04208899377706139 0.17475460254283456
0.04293671900067238 -0.04168710834295294 0.1768223989627589
0.043036695905816325 -0.04197953486532269 0.17687000517056883
0.043103462926495736 -0.042475671113350814 0.17481743806682445
0.043114273800228226 -0.04226914326315383 0.1769169460982159
0.0431597246482467 -0.04271957959563527 0.1748568833618277
0.04320027876983995 -0.04296995099266401 0.17489720759184949
0.043152426154366076 -0.04245915530115727 0.17694762037582162
0.04309259797340228 -0.04385246162784253 0.1771692601943647
0.043145508273284824 -0.04363698718477514 0.17713540614339118
0.04312847979601546 -0.044124715321657446 0.17508068647968555
0.04316665164434136 -0.04396202164961753 0.1750551078134918
0.043187804370167254 -0.04337078720009592 0.1770933589109645
0.043201546200771705 -0.043752845974297565 0.1750220839761081
0.043204533442061266 -0.043112697436263135 0.17705235799813684
0.043201207530174375 -0.04287430056648872 0.17701430406963892
0.04322506745843829 -0.04337660365162199 0.1749623047429907
0.04317971536571133 -0.04263797049519358 0.1769764037409806
0.042836163784121355 -0.04143982703697163 0.17678198690924019
0.04270465666694992 -0.041154451744472374 0.17673519970793014
0.042733631893282616 -0.041505095505622355 0.17465906134080256
0.04256383040802288 -0.04117841400148858 0.17460531611108207
0.04253513030533039 -0.040832212832772566 0.1766821654340606
0.04237199213155138 -0.04055137958112394 0.17663579630793144
0.042374480010246025 -0.04085398119081343 0.1745517396132969
0.04308194374381666 -0.04428532033671911 0.1751058509457334
0.04322036351281125 -0.043549019079062626 0.1749897581963592
0.043221092609796674 -0.04320785087124811 0.17493535179614456
0.04216391203751217 -0.040221855030634655 0.17658122671736876
0.042172948338299626 -0.040536896687653166 0.1744992175160586
0.035270515022661555 -0.036004452719435955 0.1737095405433654
0.035578572511422525 -0.03606399412250069 0.17372201794816103
0.03556089294353688 -0.03573291343623017 0.17580138546678933
0.035850289004384486 -0.0361235495287232 0.17373414592656206
0.03583215998005186 -0.03579240500670672 0.1758134989003434
0.036121259027611846 -0.036189951492529494 0.17374735866572577
0.036384186969062704 -0.03626134060827733 0.17376128896784757
0.036368625751791755 -0.03593106331771344 0.1758408050412254
0.0366462469754753 -0.036339613407267574 0.1737763087718151
0.036624056940776376 -0.036007289066161935 0.17585543416638594
0.036903673993839176 -0.03642368605193637 0.17379220871285567
0.03715921285825743 -0.03651450232894434 0.17380916598996857
0.03744904882566456 -0.036626433844520474 0.17382982262102928
0.0374246439655712 -0.03629319280833966 0.1759087804756471
0.03766472638060071 -0.0365558230239264 0.17488681933336514
0.040825896750829066 -0.0387310932377018 0.1752643450482212
0.04099865702169488 -0.0390655962160095 0.17425319561678967
0.04097733730760826 -0.03873258709528243 0.1763322202568021
0.041174401733744724 -0.039256361886485805 0.1742853215115399
0.04141623302634944 -0.039533458150096915 0.174331857748324
0.04132520509049055 -0.03911929397812737 0.1763972614480268
0.041492595816783766 -0.039318895637730875 0.1764307165508243
0.04167506399232571 -0.03985317906821133 0.17438535320902276
0.041658103733334645 -0.03952560145282819 0.17646528624110305
0.04183737104530431 -0.0400653864512797 0.17442076879437496
0.041819545097255606 -0.03973682511345325 0.1765005366592962
0.041996530269482274 -0.04028334696034911 0.1744570715388301
0.0419772386645947 -0.039952889120368866 0.17653652279737092
0.03792855538724924 -0.03683553346701553 0.17386781263643603
0.038400064445145654 -0.03707090319714751 0.17390991477538306
0.0381495693987756 -0.03678144287380908 0.17492749542857253
0.038854801566945 -0.03732806347411349 0.17395532944346298
0.03861924309296884 -0.03703146503033323 0.17497191665730852
0.03883681190767543 -0.03699858350131983 0.17603494879187676
0.039098561740593105 -0.03748091116517567 0.17398206697841243
0.0395039826749277 -0.03775605950425638 0.17402987321808921
0.039264482741125845 -0.0372719660805443 0.17608268931008647
0.03990769225091014 -0.03806004520037576 0.17408226241873326
0.03969836061196034 -0.037740865281589674 0.17509550193240925
0.039886074835635846 -0.03772807920756476 0.17616145042301787
0.040088716174006035 -0.038051210828261114 0.17514877657626748
0.04030134829978249 -0.038389829787334136 0.17413866934942532
0.04027450486726013 -0.03805313225711016 0.17621705213657507
0.040463427422628914 -0.03838030369043721 0.17520488984107607
0.040669541988672744 -0.03873144934929095 0.17419671767559733
0.04066118829569654 -0.03841038754146281 0.1762777731264758
0.039479290448392323 -0.03742036579225596 0.1761084368291019
0.03838498159943089 -0.03674114664184021 0.1759895181359625
0.03792060323107542 -0.036508803784022076 0.17594796782714267
0.03521405543149975 -0.03566647284062629 0.17578743242020756
0.04115017626024598 -0.03892013431139232 0.17636380480953953
0.03713386104766563 -0.036180898573798304 0.17588805643644734
0.036881170892964624 -0.03609118338760313 0.17587130263869621
0.03609593108562256 -0.03585692865148536 0.17582634236105393
0.03135731542619467 -0.035763928046811264 0.175765653101493
0.03133502083084687 -0.03612272989881979 0.17369032000147014
0.03141377414305409 -0.03608083186046205 0.17368439991409615
0.032019571277807815 -0.03597869119640456 0.1736739717624362
0.03234119275752759 -0.035952623270019315 0.1736729265998683
0.03232073734999084 -0.03562083225214941 0.17575215395026056
0.03271807770839887 -0.03559914657389418 0.17575254044105693
0.03304872428096086 -0.03592021242865168 0.17367460439246815
0.03302466382607953 -0.035588718525747735 0.17575384416655
0.033463311981779334 -0.03591302954295638 0.17367747118197485
0.031568987610005546 -0.03604105273959954 0.17367955739650892
0.03175296291670747 -0.03601010859776656 0.17367640247468535
0.031645336184607846 -0.035691862724085144 0.1757569466211967
0.031313403887803945 -0.035794406833161374 0.1757700892299655
0.03147973255143435 -0.03572468911187121 0.17576057952953034
0.03491326013630746 -0.03563101010909989 0.1757788656013265
0.03503345309778512 -0.03597288312246226 0.1737022113441908
0.03192970881407678 -0.035653952005985305 0.17575365216396985
0.034758963814239666 -0.03594817864125224 0.17369561499311625
0.034515571331696394 -0.03560188444938463 0.1757703718250404
0.03440387794147316 -0.03592770414062589 0.17368891328064232
0.033930390038607296 -0.03558275422626129 0.1757616575839584
0.03393395137797814 -0.03591426629970872 0.17368222277400197
0.03269338009532424 -0.03593272478503923 0.17367316117054157
0.033437418161987434 -0.03558141916020076 0.17575667406258144
0.0313029125386615 -0.03582996865093181 0.17577565946656054
0.03132126480266428 -0.0361806822295125 0.17369942969573937
0.03165042491711141 -0.03704930973837093 0.17384115296178917
0.03157054461835049 -0.03659912611281535 0.17590092252140838
0.03168680635437983 -0.036828052939871174 0.1759385592095658
0.0313100723189799 -0.03592355451383801 0.17579065525841775
0.03134616455913975 -0.036323313142984745 0.17372241889292833
0.03137913649436401 -0.03615872743444267 0.17582883092548382
0.031397199387630866 -0.03648212922126048 0.1737482423483659
0.03149284511910534 -0.03672187957184803 0.1737874058257824
0.03148474554101563 -0.036416574198470913 0.17587097697361798
0.0318074171684113 -0.04117191229872253 0.17450018760041117
0.031876614108100554 -0.040975860935236356 0.1744695883224411
0.03185455504424727 -0.040648441169361935 0.17654949631736333
0.03191764570752853 -0.04043592041844577 0.17651620974695534
0.03176239897698854 -0.03728359770848304 0.17387960305571193
0.03207019189131149 -0.03841984539937367 0.1740638024186013
0.03206244289283503 -0.03818130738222426 0.17615802522529098
0.032088980014702104 -0.03849169314848184 0.17507847973366958
0.031991102459921435 -0.040556353262217223 0.17440378903261133
0.032120289734979365 -0.03963513513131373 0.17425811362622892
0.03213009543632812 -0.03938303174193338 0.1742180005230979
0.03210982780259627 -0.03905974815491918 0.17629858652613772
0.032120913522621725 -0.03906938306505875 0.17525071589710692
0.032128221381652666 -0.03909177202202966 0.17417152925872356
0.03211752147630396 -0.038865396088916634 0.17413532133691462
0.03209522186771888 -0.03850418952147038 0.1762098387547965
0.03179201010003872 -0.03707519732333899 0.1759789944100599
0.03202117288692817 -0.037911600361228245 0.1761146104397476
0.03178304567632278 -0.04085111176192409 0.17658112923497887
0.03210799345453947 -0.03875704198827245 0.17625029008955106
0.03186503351369708 -0.0375528110205546 0.17392353314241848
0.03194854384124236 -0.037829207429209685 0.17396842381075778
0.03196112008268738 -0.03762548056031345 0.176068395739055
0.03201401131120274 -0.03810296804672716 0.17401271947014194
0.03188567941861873 -0.03734772708802701 0.17602336671055577
0.03210035106926734 -0.03930015291196627 0.17633683703502334
0.03207983096784527 -0.0395562651012296 0.17637748585738786
0.032101130030575374 -0.039875150810771164 0.1742962084093666
0.03205167960029218 -0.03978673128199314 0.17641397030605593
0.032072019769543506 -0.04011575438632004 0.17433430076700032
0.03201602412418315 -0.04000478231902574 0.176448402277188
0.032036115616012995 -0.0403358711520852 0.17436905982676382
0.0319699560573878 -0.040229774390292544 0.17648384051086968
0.031114457537308286 -0.0423293944817117 0.17467808824408304
0.03123860175909797 -0.04216770277001072 0.17465350167824145
0.03122861016884273 -0.041822570264397035 0.17673070178064537
0.03134206728353232 -0.041663063207719106 0.17670635967100917
0.03172095325381508 -0.04100152922157495 0.17660451823765932
0.031738196031560875 -0.04133918115542065 0.17452619534151986
0.028567704133123362 -0.044046411081616194 0.17705963306139205
0.02831513002180414 -0.04414542365087396 0.17707297921069692
0.02843582615570337 -0.04444031903460337 0.17498883831750048
0.02806640562554641 -0.044215709277648806 0.17708178306902628
0.028202477169127535 -0.044517589186894746 0.1749989038320408
0.0316605809511188 -0.041500349457795474 0.17455114882302228
0.0314718921191168 -0.04182858445992136 0.1746016728781678
0.03157024369438412 -0.041665613599386725 0.17457663263680998
0.03145055345317331 -0.041498675348578117 0.1766811917234027
0.03135552656451779 -0.04200469382473984 0.1746286346065387
0.03021519439786692 -0.0432806472430573 0.17482110157968112
0.030447090802380256 -0.04306497126505642 0.1747889475247165
0.030190991882195463 -0.04295269297310128 0.17690090409738637
0.029962449114591512 -0.04349937876888876 0.1748535412709117
0.03002459099468784 -0.04309797503284019 0.1769224651106653
0.029857212071951352 -0.04323638646537247 0.17694292062539044
0.029698705996089394 -0.043707487884861854 0.17488418027700975
0.029115626936107177 -0.04410342484741192 0.1749416859129215
0.029310354403599692 -0.04398125648470256 0.17492408572586923
0.029086739032402928 -0.043776796215330274 0.17702165421755153
0.028879256319171327 -0.04423744625548119 0.17496077316571496
0.028833340256097673 -0.04391961824262295 0.17704198121874248
0.03164125544042644 -0.04116747017208224 0.17663021295068865
0.031548999125284395 -0.04133597665956429 0.17665619531064455
0.03103028626177478 -0.04207847842878995 0.1767695974186358
0.03098051724210285 -0.04249319929781044 0.17470291741772767
0.03081143280667116 -0.042333006730820404 0.17680807431331466
0.030835264383138737 -0.04266044154124955 0.17472818528040873
0.03060327921836461 -0.042556975566259994 0.17684178105134146
0.03068817351926576 -0.04282000817903724 0.17475221123032267
0.030360056922648836 -0.04279673956365674 0.17687766736089858
0.02967516826891654 -0.04337855317335511 0.17696383291909376
0.029484003724071537 -0.04351801484369183 0.17698422552232485
0.02950709323345983 -0.043847528569604624 0.17490466143700678
0.02927628872164348 -0.043658912090418264 0.1770046873953567
0.028651747076878946 -0.04434937456419347 0.17497642356472595
0.023496256393686327 -0.04339400353895144 0.17690650272282915
0.023420041898718942 -0.04365183623618824 0.17481454424990847
0.023658554348807218 -0.04382835751778505 0.17484500583406068
0.02397116364605812 -0.04403284366027374 0.1748806446870855
0.02379120979744384 -0.04360019632510806 0.17694224255352925
0.024210837586455515 -0.04416887101680008 0.17490465913430725
0.024028712334389343 -0.043746519479689244 0.17696787826870927
0.025478259216998166 -0.044310918207662184 0.1770719216993462
0.025727935947448093 -0.04468552437310487 0.1750017414908078
0.02573453968634476 -0.0443582387934319 0.17708194918704276
0.02789957415676022 -0.04459039540101957 0.17500758458808496
0.027669228172863408 -0.04463652326251207 0.17501271256121567
0.027464717181728167 -0.04433708491663865 0.17709531816550916
0.027337656153249595 -0.04469068640839431 0.17501814237748353
0.026932253309171872 -0.04439946955714066 0.17710011561601108
0.02669503677783982 -0.04441282942980327 0.17709995079188207
0.026803866597728696 -0.044740276145672386 0.17502088576159866
0.026372323299264533 -0.04441458425551236 0.17709710770406312
0.026573376950293437 -0.04474740397890592 0.1750197920030676
0.026041396714134524 -0.04439532736447316 0.17709083397213737
0.02630027233454065 -0.044742558796156726 0.1750163765071853
0.026037548497034997 -0.044724790988289784 0.17501100010875303
0.025305425054344983 -0.044271439906728445 0.17706395297852442
0.025323785219277736 -0.044602473692384 0.1749845847771813
0.02507059534575161 -0.044206719094835985 0.17705135767192723
0.024817178373548132 -0.04412046977665603 0.17703514961280284
0.02458166110906887 -0.04402683620560481 0.17701793705646138
0.02467922771478644 -0.044390479421047194 0.17494453607471253
0.023230104577617518 -0.04318441709911082 0.1768705001205888
0.024282793530186517 -0.04388645185079547 0.17699265491551586
0.02716936684640926 -0.04437760745467798 0.1770989234206035
0.02704026131691297 -0.04472435152039046 0.17502063355857686
0.025509875517402417 -0.04464513933837106 0.17499319030588417
0.025157218628307713 -0.04455745715209562 0.17497579327303525
0.024913576771057096 -0.0444799878942215 0.1749610797092031
0.024441082526089716 -0.044285948081165726 0.17492555982320102
0.027725706461981935 -0.04429072851319349 0.17709045112555105
0.021694827623906978 -0.04368305860223306 0.1769351713892831
0.02170152203137381 -0.04414433034357769 0.17487646170388593
0.021732697731864193 -0.0438862526779986 0.1748356026579671
0.021722417465979065 -0.04350143028607513 0.17690647043455543
0.023119343033619667 -0.043413423679463964 0.17477360979860013
0.021895623804166858 -0.043360518693009734 0.17475332984677913
0.021846746729214342 -0.04308441749181068 0.17684116411570855
0.02183636758541175 -0.04348582413640871 0.17477274137586216
0.023059861132466063 -0.04305359210005445 0.1768479875620461
0.022876517732359547 -0.04293263578378056 0.17682692171973022
0.022944943295302896 -0.04329461833853185 0.1747529738626985
0.022226704844378647 -0.04274892994960893 0.17679133381827275
0.022132624224875413 -0.04277661178012226 0.17679483836290308
0.022185464918899733 -0.04309669022143864 0.1747140567605901
0.021798413431597236 -0.04320407872497323 0.17685978118552637
0.021666821710417724 -0.04402442351405281 0.1769893447487733
0.022806697636437615 -0.04321260911893284 0.17473855636384847
