ply
format ascii 1.0
element vertex 779
property float x
property float y
property float z
end_header
-0.004594532307237387 0.03012923151254654 0.10669999569654465
0.019990112632513046 0.027503158897161484 0.0973999947309494
0.02024468407034874 0.027503158897161484 0.0973999947309494
0.020541349425911903 0.027559634298086166 0.09759999811649323
0.020817749202251434 0.027587871998548508 0.09769999980926514
0.021116241812705994 0.02764434553682804 0.09789999574422836
0.02141578122973442 0.027700820937752724 0.09809999912977219
0.021738456562161446 0.0277855321764946 0.09839999675750732
0.022040346637368202 0.02784200757741928 0.09860000014305115
0.022343281656503677 0.027898481115698814 0.09879999607801437
0.02264726534485817 0.027954958379268646 0.0989999994635582
0.022906016558408737 0.027954958379268646 0.0989999994635582
-0.005420984700322151 0.03035111166536808 0.10649999976158142
-0.005142629612237215 0.03035111166536808 0.10649999976158142
-0.0048642754554748535 0.03035111166536808 0.10649999976158142
-0.004585920833051205 0.03035111166536808 0.10649999976158142
0.019990112632513046 0.027757730334997177 0.0973999947309494
0.02024468407034874 0.027757730334997177 0.0973999947309494
0.020541349425911903 0.027814727276563644 0.09759999811649323
0.020817749202251434 0.027843227609992027 0.09769999980926514
0.021137811243534088 0.027928723022341728 0.09799999743700027
0.02148127183318138 0.028042716905474663 0.09839999675750732
0.02182682417333126 0.028156712651252747 0.09879999607801437
0.022107405588030815 0.02818521112203598 0.09889999777078629
0.022388512268662453 0.028213709592819214 0.0989999994635582
0.02269301563501358 0.02827070653438568 0.09919999539852142
0.02297542802989483 0.028299205005168915 0.09929999709129333
-0.0056631495244801044 0.026545537635684013 0.09229999780654907
-0.005137801170349121 0.030600707978010178 0.10639999806880951
-0.004859707783907652 0.030600707978010178 0.10639999806880951
-0.004585920833051205 0.030629467219114304 0.10649999976158142
0.020562395453453064 0.028098581358790398 0.09769999980926514
0.02086036279797554 0.0281561017036438 0.09789999574422836
0.021224087104201317 0.028299901634454727 0.09839999675750732
0.021568594500422478 0.02841494232416153 0.09879999607801437
0.021871007978916168 0.02847246266901493 0.0989999994635582
0.022501586005091667 0.02861626259982586 0.09950000047683716
0.023183664306998253 0.02881758287549019 0.10019999742507935
0.02468697540462017 0.029680384323000908 0.10319999605417252
-0.007678405847400427 0.027976658195257187 0.09640000015497208
-0.0056631495244801044 0.02678677998483181 0.09229999780654907
-0.005410160403698683 0.026728736236691475 0.09209999442100525
-0.0049287243746221066 0.026728736236691475 0.09209999442100525
-0.004688005894422531 0.026728736236691475 0.09209999442100525
-0.004577308427542448 0.030849779024720192 0.1062999963760376
0.020604487508535385 0.028411978855729103 0.09789999574422836
0.020966902375221252 0.02855708636343479 0.09839999675750732
0.021310364827513695 0.028673171997070312 0.09879999607801437
0.0216122567653656 0.028731215745210648 0.0989999994635582
0.021937284618616104 0.028818279504776 0.09929999709129333
0.02228623256087303 0.028934365138411522 0.09969999641180038
0.022659888491034508 0.02907947264611721 0.10019999742507935
0.02296753041446209 0.029137516394257545 0.10040000081062317
0.02327621355652809 0.02919555827975273 0.1005999967455864
0.024734819307923317 0.030008157715201378 0.10339999943971634
-0.0056631495244801044 0.027028020471334457 0.09229999780654907
-0.005410160403698683 0.02696945331990719 0.09209999442100525
-0.0046829162165522575 0.026940172538161278 0.09200000017881393
-0.004437630530446768 0.026910889893770218 0.09189999848604202
-0.004573002457618713 0.03109832853078842 0.10619999468326569
-0.0042954315431416035 0.03109832853078842 0.10619999468326569
-0.004014078062027693 0.03106904774904251 0.10610000044107437
0.020051686093211174 0.028609292581677437 0.09769999980926514
0.020327825099229813 0.028638573363423347 0.09779999405145645
0.020709719508886337 0.028814271092414856 0.09839999675750732
0.021052135154604912 0.028931401669979095 0.09879999607801437
0.021375073119997978 0.029019251465797424 0.09910000115633011
0.021699577569961548 0.029107099398970604 0.09939999878406525
0.022069836035370827 0.029253512620925903 0.09989999979734421
0.022420352324843407 0.029370645061135292 0.10029999911785126
0.022727731615304947 0.029429208487272263 0.10049999505281448
0.023036157712340355 0.02948777563869953 0.1006999984383583
0.024734819307923317 0.030278410762548447 0.10339999943971634
-0.007418745197355747 0.02845102734863758 0.09629999846220016
-0.007152165286242962 0.028391938656568527 0.09609999507665634
-0.00541603472083807 0.027239717543125153 0.09219999611377716
-0.0051638297736644745 0.027180630713701248 0.09200000017881393
-0.004432802088558674 0.027121540158987045 0.09179999679327011
-0.00418830057606101 0.027091994881629944 0.0916999951004982
-0.004014078062027693 0.031346358358860016 0.10610000044107437
0.020113255828619003 0.028953278437256813 0.09799999743700027
0.020452534779906273 0.02907145582139492 0.09839999675750732
0.02081495337188244 0.02921917662024498 0.09889999777078629
0.02111605927348137 0.029278265312314034 0.09910000115633011
0.021461348980665207 0.02939644269645214 0.09950000047683716
0.022795576602220535 0.029780516400933266 0.10080000013113022
0.023173414170742035 0.029928237199783325 0.10130000114440918
0.02350758947432041 0.03001686930656433 0.10159999877214432
0.02475873939692974 0.030578207224607468 0.10349999368190765
-0.0074264490976929665 0.028732530772686005 0.09640000015497208
-0.0071596079505980015 0.028672918677330017 0.09619999676942825
-0.005169442389160395 0.027450891211628914 0.09209999442100525
-0.0049180216155946255 0.027391280978918076 0.09189999848604202
-0.004183733835816383 0.027301864698529243 0.09160000085830688
-0.003940016496926546 0.02727205865085125 0.09149999916553497
0.020215874537825584 0.02935844659805298 0.09849999845027924
0.020556461066007614 0.029477667063474655 0.09889999777078629
0.02085704542696476 0.029537279158830643 0.09910000115633011
0.021243905648589134 0.029716111719608307 0.09969999641180038
0.021917883306741714 0.029924752190709114 0.10040000081062317
0.02222447842359543 0.029984360560774803 0.1005999967455864
0.02253211848437786 0.03004397265613079 0.10080000013113022
0.02290865033864975 0.03019300103187561 0.10130000114440918
0.0232420414686203 0.030282417312264442 0.10159999877214432
0.023553863167762756 0.03034202754497528 0.10179999470710754
0.02391352877020836 0.030461249873042107 0.1021999940276146
0.024369927123188972 0.03069969452917576 0.10300000011920929
0.024734819307923317 0.030818916857242584 0.10339999943971634
-0.007441856432706118 0.02904461696743965 0.0965999960899353
-0.007167050149291754 0.028954416513442993 0.09629999846220016
-0.004672735929489136 0.02760140597820282 0.09179999679327011
-0.003935710061341524 0.027481138706207275 0.09139999747276306
-0.003696821630001068 0.027481138706207275 0.09139999747276306
0.020318493247032166 0.029766224324703217 0.0989999994635582
0.020639602094888687 0.029856422916054726 0.09929999709129333
0.020983323454856873 0.02997669018805027 0.09969999641180038
0.021350443363189697 0.03012702614068985 0.10019999742507935
0.021655471995472908 0.030187159776687622 0.10040000081062317
0.021983375772833824 0.03027736023068428 0.1006999984383583
0.022334938868880272 0.030397627502679825 0.10109999775886536
0.022643886506557465 0.030457763001322746 0.10130000114440918
0.02297649346292019 0.030547961592674255 0.10159999877214432
0.02328779362142086 0.030608095228672028 0.10179999470710754
0.023577000945806503 0.030638162046670914 0.10189999639987946
0.023936927318572998 0.030758429318666458 0.1022999957203865
0.02434626594185829 0.030938832089304924 0.10289999842643738
0.024734819307923317 0.031089166179299355 0.10339999943971634
-0.0074803754687309265 0.02944873832166195 0.09709999710321426
-0.007174492813646793 0.0292364414781332 0.09640000015497208
-0.00690099224448204 0.029145454987883568 0.09609999507665634
-0.004423144739121199 0.0277806855738163 0.09160000085830688
-0.003692776896059513 0.027689699083566666 0.09129999577999115
-0.0034541497007012367 0.027689699083566666 0.09129999577999115
-0.0032120009418576956 0.027659369632601738 0.09119999408721924
0.019740985706448555 0.02993398904800415 0.09869999438524246
0.020764311775565147 0.030297931283712387 0.09989999979734421
0.021109603345394135 0.03041924349963665 0.10029999911785126
0.0213930606842041 0.030449572950601578 0.10040000081062317
0.02172018028795719 0.030540555715560913 0.1006999984383583
0.02207069657742977 0.030661869794130325 0.10109999775886536
0.02240121364593506 0.03075285255908966 0.1013999953866005
0.022710945457220078 0.030813511461019516 0.10159999877214432
0.023021722212433815 0.030874166637659073 0.10179999470710754
0.02328779362142086 0.030874166637659073 0.10179999470710754
0.02360013872385025 0.03093482367694378 0.10199999809265137
0.02391352877020836 0.030995478853583336 0.1021999940276146
0.02432260662317276 0.031177449971437454 0.10279999673366547
0.024710897356271744 0.031329091638326645 0.10329999774694443
-0.007781952619552612 0.029886063188314438 0.09769999980926514
-0.006915354635566473 0.029457809403538704 0.09629999846220016
-0.006649819668382406 0.029396628960967064 0.09609999507665634
-0.004418315831571817 0.027989506721496582 0.09149999916553497
-0.00417459849268198 0.027958916500210762 0.09139999747276306
-0.003450366435572505 0.027897736057639122 0.09119999408721924
-0.0032120009418576956 0.027897736057639122 0.09119999408721924
-0.0029736352153122425 0.027897736057639122 0.09119999408721924
0.01980099081993103 0.0302837286144495 0.0989999994635582
0.02012052945792675 0.030375497415661812 0.09929999709129333
0.020523730665445328 0.030589623376727104 0.09999999403953552
0.02084745280444622 0.030681394040584564 0.10029999911785126
0.021130649372935295 0.030711984261870384 0.10040000081062317
0.021435676142573357 0.030773162841796875 0.1005999967455864
0.021784886717796326 0.030895520001649857 0.10099999606609344
0.02213618904352188 0.031017879024147987 0.1013999953866005
0.022445399314165115 0.031079059466719627 0.10159999877214432
0.02275565080344677 0.03114023618400097 0.10179999470710754
0.023021722212433815 0.03114023618400097 0.10179999470710754
0.023310668766498566 0.03117082640528679 0.10189999639987946
0.02360013872385025 0.03120141662657261 0.10199999809265137
0.023936927318572998 0.03129318356513977 0.1022999957203865
0.02429894544184208 0.03141554445028305 0.10269999504089355
0.02468697540462017 0.031568493694067 0.10319999605417252
-0.006965621840208769 0.029925459995865822 0.09699999541044235
-0.006677498575299978 0.02977120503783226 0.09649999439716339
-0.0064119636081159115 0.029709504917263985 0.09629999846220016
-0.0039314040914177895 0.02816695347428322 0.09129999577999115
-0.0029703748878091574 0.028105253353714943 0.09109999984502792
-0.002732270397245884 0.028105253353714943 0.09109999984502792
0.020585302263498306 0.03094354458153248 0.10029999911785126
0.02086823806166649 0.03097439557313919 0.10040000081062317
0.021151695400476456 0.031005244702100754 0.10049999505281448
0.02145698294043541 0.031066948547959328 0.1006999984383583
0.021784886717796326 0.031159499660134315 0.10099999606609344
0.02213618904352188 0.031282905489206314 0.1013999953866005
0.022445399314165115 0.03134460747241974 0.10159999877214432
0.022733299061655998 0.0313754603266716 0.10170000046491623
0.023021722212433815 0.03140630945563316 0.10179999470710754
0.023310668766498566 0.03143715858459473 0.10189999639987946
0.02360013872385025 0.03146801143884659 0.10199999809265137
0.02391352877020836 0.03152971342206001 0.1021999940276146
0.024251626804471016 0.031622264534235 0.10249999910593033
0.024639133363962173 0.03177652135491371 0.10300000011920929
-0.007557413540780544 0.030521223321557045 0.09809999912977219
-0.007271244190633297 0.030396774411201477 0.09769999980926514
-0.007001527119427919 0.03033454716205597 0.09749999642372131
-0.006739775650203228 0.030303435400128365 0.0973999947309494
-0.00643859663978219 0.030085649341344833 0.09669999778270721
-0.006185856182128191 0.030085649341344833 0.09669999778270721
-0.0027292713057249784 0.02831224538385868 0.09099999815225601
-0.0024914282839745283 0.02831224538385868 0.09099999815225601
-0.002328071743249893 0.032699089497327805 0.10509999841451645
0.020282628014683723 0.031143469735980034 0.10009999573230743
0.020605826750397682 0.031236806884407997 0.10040000081062317
0.020889021456241608 0.0312679186463356 0.10049999505281448
0.021172741428017616 0.031299032270908356 0.1005999967455864
0.02147829160094261 0.031361255794763565 0.10080000013113022
0.02180645614862442 0.03145459294319153 0.10109999775886536
0.02213618904352188 0.03154793009161949 0.1013999953866005
0.022733299061655998 0.031641267240047455 0.10170000046491623
0.023021722212433815 0.03167237713932991 0.10179999470710754
0.023310668766498566 0.031703490763902664 0.10189999639987946
0.02360013872385025 0.03173460438847542 0.10199999809265137
0.02391352877020836 0.03179682791233063 0.1021999940276146
0.024227965623140335 0.031859055161476135 0.10239999741315842
0.0246152114123106 0.03201461583375931 0.10289999842643738
-0.008862989023327827 0.03178158402442932 0.10130000114440918
-0.008521834388375282 0.031499218195676804 0.10040000081062317
-0.007595932576805353 0.030934492126107216 0.09860000014305115
-0.007286129053682089 0.03071487508714199 0.09789999574422836
-0.007008708082139492 0.0306207537651062 0.09759999811649323
-0.006746695376932621 0.030589379370212555 0.09749999642372131
-0.006491863168776035 0.030589379370212555 0.09749999642372131
-0.0024886904284358025 0.028518714010715485 0.0908999964594841
-0.0022511088754981756 0.028518714010715485 0.0908999964594841
-0.002009097021073103 0.02845596894621849 0.09070000052452087
0.02032315358519554 0.03146784380078316 0.10029999911785126
0.020605826750397682 0.031499218195676804 0.10040000081062317
0.020889021456241608 0.03153059259057045 0.10049999505281448
0.021172741428017616 0.031561966985464096 0.1005999967455864
0.02147829160094261 0.03162471577525139 0.10080000013113022
0.02180645614862442 0.03171883523464203 0.10109999775886536
0.022114358842372894 0.03178158402442932 0.10130000114440918
0.022733299061655998 0.03190707787871361 0.10170000046491623
0.023021722212433815 0.031938448548316956 0.10179999470710754
0.023310668766498566 0.0319698229432106 0.10189999639987946
0.02360013872385025 0.03200119733810425 0.10199999809265137
0.02389013022184372 0.032032571732997894 0.10209999978542328
0.024204304441809654 0.03209531679749489 0.1022999957203865
0.02454344742000103 0.03218943998217583 0.10260000079870224
-0.007619043812155724 0.03128710016608238 0.09889999777078629
-0.007323340978473425 0.03112892620265484 0.09839999675750732
-0.007023070007562637 0.030939113348722458 0.09779999405145645
-0.006760535296052694 0.03090748004615307 0.09769999980926514
-0.006498521659523249 0.03087584488093853 0.09759999811649323
-0.0020068821031600237 0.028661388903856277 0.09059999883174896
-0.001768130692653358 0.02862975373864174 0.09049999713897705
0.020343415439128876 0.03176162764430046 0.10040000081062317
0.020605826750397682 0.03176162764430046 0.10040000081062317
0.020889021456241608 0.031793262809515 0.10049999505281448
0.021172741428017616 0.03182489797472954 0.1005999967455864
0.02145698294043541 0.03185653313994408 0.1006999984383583
0.021741749718785286 0.031888168305158615 0.10080000013113022
0.02207069657742977 0.03198307380080223 0.10109999775886536
0.022710945457220078 0.032141249626874924 0.10159999877214432
0.022999107837677002 0.03217288479208946 0.10170000046491623
0.02328779362142086 0.0322045162320137 0.10179999470710754
-0.007642155047506094 0.03164128214120865 0.09919999539852142
-0.007360553368926048 0.03154559060931206 0.09889999777078629
-0.007058975286781788 0.031354211270809174 0.09829999506473541
-0.006237031891942024 0.031099041923880577 0.09749999642372131
0.020061003044247627 0.031992144882678986 0.10029999911785126
0.020343415439128876 0.032024040818214417 0.10040000081062317
0.020605826750397682 0.032024040818214417 0.10040000081062317
0.020889021456241608 0.03205593302845955 0.10049999505281448
0.021151695400476456 0.03205593302845955 0.10049999505281448
0.021435676142573357 0.03208783268928528 0.1005999967455864
0.02172018028795719 0.03211972862482071 0.1006999984383583
0.02207069657742977 0.03224731609225273 0.10109999775886536
0.0223570317029953 0.03227921202778816 0.10119999945163727
0.022666238248348236 0.032343003898859024 0.1013999953866005
0.02297649346292019 0.032406795769929886 0.10159999877214432
0.02328779362142086 0.03247058764100075 0.10179999470710754
-0.007989046163856983 0.03225429356098175 0.10029999911785126
-0.007665266748517752 0.03199703246355057 0.09950000047683716
-0.007367995567619801 0.031836241483688354 0.0989999994635582
-0.006511838175356388 0.03145034611225128 0.09779999405145645
-0.006237031891942024 0.031353872269392014 0.09749999642372131
-0.005976064130663872 0.03132171556353569 0.0973999947309494
-0.0012921964516863227 0.02903851307928562 0.09030000120401382
0.020061003044247627 0.03225429356098175 0.10029999911785126
0.02032315358519554 0.03225429356098175 0.10029999911785126
0.020605826750397682 0.032286450266838074 0.10040000081062317
0.02086823806166649 0.032286450266838074 0.10040000081062317
0.021151695400476456 0.0323186069726944 0.10049999505281448
0.021414367482066154 0.0323186069726944 0.10049999505281448
0.02172018028795719 0.03238292410969734 0.1006999984383583
0.022334938868880272 0.03251155465841293 0.10109999775886536
0.022643886506557465 0.03257587179541588 0.10130000114440918
0.022931262850761414 0.0326080285012722 0.1013999953866005
0.023264918476343155 0.03270450234413147 0.10170000046491623
-0.00799701176583767 0.03254886344075203 0.10040000081062317
-0.0077114892192184925 0.032451603561639786 0.10009999573230743
-0.006237031891942024 0.0316087044775486 0.09749999642372131
-0.005976064130663872 0.031576287001371384 0.0973999947309494
0.020041001960635185 0.0324840247631073 0.10019999742507935
0.020302889868617058 0.0324840247631073 0.10019999742507935
0.020585302263498306 0.032516445964574814 0.10029999911785126
0.02084745280444622 0.032516445964574814 0.10029999911785126
0.021109603345394135 0.032516445964574814 0.10029999911785126
0.0213930606842041 0.03254886344075203 0.10040000081062317
0.021677039563655853 0.032581280916929245 0.10049999505281448
0.022268664091825485 0.03267854079604149 0.10080000013113022
0.022599179297685623 0.032775796949863434 0.10109999775886536
0.02290865033864975 0.03284063562750816 0.10130000114440918
0.0232420414686203 0.03293789178133011 0.10159999877214432
-0.007719193119555712 0.03274591267108917 0.10019999742507935
-0.0074200923554599285 0.03258251026272774 0.09969999641180038
-0.006243429146707058 0.03189621865749359 0.09759999811649323
-0.005976064130663872 0.03183085843920708 0.0973999947309494
-0.005703871604055166 0.031732816249132156 0.09709999710321426
0.01608324609696865 0.029347136616706848 0.08980000019073486
0.016336122527718544 0.029379814863204956 0.08989999443292618
0.01657109148800373 0.029379814863204956 0.08989999443292618
0.019719894975423813 0.03264787420630455 0.09989999979734421
0.020021000877022743 0.032713230699300766 0.10009999573230743
0.020282628014683723 0.032713230699300766 0.10009999573230743
0.02056477777659893 0.03274591267108917 0.10019999742507935
0.020826667547225952 0.03274591267108917 0.10019999742507935
0.021109603345394135 0.03277859464287758 0.10029999911785126
0.0213930606842041 0.032811276614665985 0.10040000081062317
0.021655471995472908 0.032811276614665985 0.10040000081062317
0.022246571257710457 0.03290931507945061 0.1006999984383583
0.022554472088813782 0.03297467529773712 0.10089999437332153
0.022886035963892937 0.03307272121310234 0.10119999945163727
0.02319628931581974 0.033138077706098557 0.1013999953866005
-0.008284103125333786 0.03317251428961754 0.1006999984383583
-0.008012942038476467 0.03313957154750824 0.1005999967455864
-0.006531813647598028 0.032316021621227264 0.09809999912977219
-0.005703871604055166 0.031986601650714874 0.09709999710321426
0.01608324609696865 0.029581842944025993 0.08980000019073486
0.016317952424287796 0.029581842944025993 0.08980000019073486
0.01657109148800373 0.029614783823490143 0.08989999443292618
0.01680605858564377 0.029614783823490143 0.08989999443292618
0.019700154662132263 0.03287603333592415 0.0997999981045723
0.01998099870979786 0.03290897607803345 0.09989999979734421
0.020242104306817055 0.03290897607803345 0.09989999979734421
0.020523730665445328 0.032941918820142746 0.09999999403953552
0.020805882290005684 0.032974861562252045 0.10009999573230743
0.021088557317852974 0.03300780430436134 0.10019999742507935
0.021350443363189697 0.03300780430436134 0.10019999742507935
0.021917883306741714 0.03307368606328964 0.10040000081062317
0.02222447842359543 0.03313957154750824 0.1005999967455864
0.02250976487994194 0.03317251428961754 0.1006999984383583
0.02284080535173416 0.033271338790655136 0.10099999606609344
0.023173414170742035 0.033370163291692734 0.10130000114440918
-0.00271427514962852 0.030048971995711327 0.09049999713897705
0.01608324609696865 0.029816551133990288 0.08980000019073486
0.016317952424287796 0.029816551133990288 0.08980000019073486
0.01657109148800373 0.02984975278377533 0.08989999443292618
0.01680605858564377 0.02984975278377533 0.08989999443292618
0.019640935584902763 0.03303727135062218 0.09950000047683716
0.019920995458960533 0.03307047113776207 0.09959999471902847
0.020201578736305237 0.03310367465019226 0.09969999641180038
0.020482683554291725 0.03313687816262245 0.0997999981045723
0.02074352651834488 0.03313687816262245 0.0997999981045723
0.021046463400125504 0.033203285187482834 0.09999999403953552
0.021329136565327644 0.033236488699913025 0.10009999573230743
0.021896053105592728 0.03330289572477341 0.10029999911785126
0.02220238745212555 0.03336929902434349 0.10049999505281448
0.02248741127550602 0.03340250626206398 0.1005999967455864
0.022795576602220535 0.03346891328692436 0.10080000013113022
0.023127662017941475 0.03356852009892464 0.10109999775886536
-0.004911971744149923 0.03229338303208351 0.09649999439716339
-0.004659753292798996 0.03229338303208351 0.09649999439716339
-0.0022387264762073755 0.030252041295170784 0.09039999544620514
0.015596444718539715 0.03001778945326805 0.08969999849796295
0.015830889344215393 0.03001778945326805 0.08969999849796295
0.01608324609696865 0.030051255598664284 0.08980000019073486
0.016317952424287796 0.030051255598664284 0.08980000019073486
0.01657109148800373 0.030084718018770218 0.08989999443292618
0.019621195271611214 0.03326386213302612 0.09939999878406525
0.01988099329173565 0.03326386213302612 0.09939999878406525
0.020161055028438568 0.033297326415777206 0.09950000047683716
0.020421111956238747 0.033297326415777206 0.09950000047683716
0.02072274126112461 0.03336425498127937 0.09969999641180038
0.021004371345043182 0.03339771926403046 0.0997999981045723
0.02128652110695839 0.03343118354678154 0.09989999979734421
0.021896053105592728 0.03356504440307617 0.10029999911785126
0.02218029648065567 0.033598508685827255 0.10040000081062317
0.0224650576710701 0.03363196924328804 0.10049999505281448
0.022772962227463722 0.033698901534080505 0.1006999984383583
0.02305903472006321 0.03373236581683159 0.10080000013113022
-0.007434977684170008 0.033692289143800735 0.09989999979734421
-0.007123604882508516 0.03345620632171631 0.09919999539852142
-0.006836651358753443 0.03332130238413811 0.09879999607801437
-0.005169541575014591 0.03257932886481285 0.0965999960899353
-0.0017661768943071365 0.03048831596970558 0.09039999544620514
0.015076961368322372 0.030151057988405228 0.08940000087022781
0.01532774604856968 0.030184783041477203 0.08949999511241913
0.015579056926071644 0.03021850809454918 0.08959999680519104
0.015830889344215393 0.030252235010266304 0.08969999849796295
0.01608324609696865 0.03028596192598343 0.08980000019073486
0.016317952424287796 0.03028596192598343 0.08980000019073486
0.01655265875160694 0.03028596192598343 0.08980000019073486
0.019581716507673264 0.03345620632171631 0.09919999539852142
0.019860992208123207 0.033489931374788284 0.09929999709129333
0.02012052945792675 0.033489931374788284 0.09929999709129333
0.02040058933198452 0.03352366015315056 0.09939999878406525
0.020681172609329224 0.033557385206222534 0.09950000047683716
0.020962277427315712 0.03359111025929451 0.09959999471902847
0.021243905648589134 0.033624835312366486 0.09969999641180038
0.02187422290444374 0.03379346802830696 0.10019999742507935
0.022158203646540642 0.03382719308137894 0.10029999911785126
0.022442705929279327 0.03386092185974121 0.10040000081062317
0.02275034599006176 0.03392837196588516 0.1005999967455864
0.023036157712340355 0.03396209701895714 0.1006999984383583
-0.007719193119555712 0.034055355936288834 0.10019999742507935
-0.00654512969776988 0.03340959548950195 0.09829999506473541
-0.006243429146707058 0.03317168354988098 0.09759999811649323
-0.005969929043203592 0.03306972235441208 0.09730000048875809
-0.005703871604055166 0.033001746982336044 0.09709999710321426
-0.005427633877843618 0.032865796238183975 0.09669999778270721
-0.004398400895297527 0.032729849219322205 0.09629999846220016
-0.004146705847233534 0.032729849219322205 0.09629999846220016
-0.0038909653667360544 0.03269585967063904 0.09619999676942825
-0.003639531321823597 0.03269585967063904 0.09619999676942825
-0.0020135273225605488 0.030894529074430466 0.0908999964594841
0.014544270001351833 0.030248768627643585 0.08899999409914017
0.014810092747211456 0.03031674399971962 0.08919999748468399
0.01506009604781866 0.030350731685757637 0.0892999991774559
0.015310621820390224 0.030384719371795654 0.08940000087022781
0.015579056926071644 0.03045269288122654 0.08959999680519104
0.015830889344215393 0.030486680567264557 0.08969999849796295
0.016065336763858795 0.030486680567264557 0.08969999849796295
0.016317952424287796 0.030520668253302574 0.08980000019073486
0.01655265875160694 0.030520668253302574 0.08980000019073486
0.019302964210510254 0.03368149697780609 0.09910000115633011
0.019561978057026863 0.03368149697780609 0.09910000115633011
0.019820991903543472 0.03368149697780609 0.09910000115633011
0.020100265741348267 0.03371548280119896 0.09919999539852142
0.020359540358185768 0.03371548280119896 0.09919999539852142
0.020639602094888687 0.03374946862459183 0.09929999709129333
0.02094123139977455 0.03381744399666786 0.09950000047683716
0.02152605727314949 0.033919405192136765 0.0997999981045723
0.021852390840649605 0.03402136638760567 0.10009999573230743
0.022158203646540642 0.034089345484972 0.10029999911785126
0.022442705929279327 0.03412333130836487 0.10040000081062317
-0.006843571085482836 0.03387201204895973 0.09889999777078629
-0.00654512969776988 0.033666517585515976 0.09829999506473541
-0.006249825935810804 0.03346102684736252 0.09769999980926514
-0.005976064130663872 0.03335827961564064 0.0973999947309494
-0.005703871604055166 0.03325553238391876 0.09709999710321426
-0.005164189729839563 0.033050041645765305 0.09649999439716339
-0.00490688206627965 0.033015795052051544 0.09640000015497208
-0.004650096409022808 0.032981544733047485 0.09629999846220016
-0.0038909653667360544 0.032947294414043427 0.09619999676942825
0.014047401025891304 0.030412888154387474 0.08879999816417694
0.014295575208961964 0.030447136610746384 0.08889999985694885
0.01452792901545763 0.030447136610746384 0.08889999985694885
0.014776885509490967 0.030481383204460144 0.08899999409914017
0.015043231658637524 0.030549881979823112 0.08919999748468399
0.015310621820390224 0.03061838075518608 0.08940000087022781
0.015561669133603573 0.03065262734889984 0.08949999511241913
0.01581324078142643 0.0306868776679039 0.08959999680519104
0.016065336763858795 0.03072112612426281 0.08969999849796295
0.0162997804582119 0.03072112612426281 0.08969999849796295
0.01655265875160694 0.03075537644326687 0.08980000019073486
0.01902473345398903 0.03390626236796379 0.0989999994635582
0.019283486530184746 0.03390626236796379 0.0989999994635582
0.019542237743735313 0.03390626236796379 0.0989999994635582
0.019820991903543472 0.03394050896167755 0.09910000115633011
0.02008000575006008 0.03394050896167755 0.09910000115633011
0.020359540358185768 0.03397475555539131 0.09919999539852142
0.02061881683766842 0.03397475555539131 0.09919999539852142
0.02089913748204708 0.03400900587439537 0.09929999709129333
0.021504487842321396 0.03414599969983101 0.09969999641180038
0.021830560639500618 0.03424874693155289 0.09999999403953552
0.022136110812425613 0.034317243844270706 0.10019999742507935
0.022420352324843407 0.034351494163274765 0.10029999911785126
-0.00654512969776988 0.03392343968153 0.09829999506473541
-0.006249825935810804 0.03371638059616089 0.09769999980926514
-0.005982200149446726 0.033647362142801285 0.09749999642372131
-0.005709745921194553 0.03354383260011673 0.09719999879598618
-0.005433246959000826 0.033405791968107224 0.09679999947547913
-0.005164189729839563 0.03330225870013237 0.09649999439716339
-0.00490688206627965 0.03326775133609772 0.09640000015497208
-0.004650096409022808 0.033233240246772766 0.09629999846220016
-0.0015468259807676077 0.03154224529862404 0.09139999747276306
0.013336087577044964 0.030610470101237297 0.08869999647140503
0.013567918911576271 0.030610470101237297 0.08869999647140503
0.013799749314785004 0.030610470101237297 0.08869999647140503
0.014031581580638885 0.030610470101237297 0.08869999647140503
0.014279494062066078 0.030644981190562248 0.08879999816417694
0.01452792901545763 0.0306794922798872 0.08889999985694885
0.014776885509490967 0.030713999643921852 0.08899999409914017
0.015009501948952675 0.030713999643921852 0.08899999409914017
0.015293494798243046 0.030817532911896706 0.0892999991774559
0.015544283203780651 0.030852042138576508 0.08940000087022781
0.015795592218637466 0.03088655136525631 0.08949999511241913
0.01604742556810379 0.03092106245458126 0.08959999680519104
0.0162997804582119 0.030955571681261063 0.08969999849796295
0.019005516543984413 0.03413050249218941 0.09889999777078629
0.01926400698721409 0.03413050249218941 0.09889999777078629
0.019522497430443764 0.03413050249218941 0.09889999777078629
0.01980099081993103 0.03416501358151436 0.0989999994635582
0.020059742033481598 0.03416501358151436 0.0989999994635582
0.020318493247032166 0.03416501358151436 0.0989999994635582
0.02059803158044815 0.03419952467083931 0.09910000115633011
0.02087809145450592 0.03423403203487396 0.09919999539852142
0.021179981529712677 0.034303054213523865 0.09939999878406525
0.021482916548848152 0.03437207266688347 0.09959999471902847
0.02180873043835163 0.03447560593485832 0.09989999979734421
-0.006551788188517094 0.034215137362480164 0.09839999675750732
-0.006249825935810804 0.03397173807024956 0.09769999980926514
-0.005982200149446726 0.03390219435095787 0.09749999642372131
-0.0057156202383339405 0.033832650631666183 0.09730000048875809
-0.005444472189992666 0.03372833505272865 0.09699999541044235
-0.005174892954528332 0.03362402319908142 0.09669999778270721
-0.004398400895297527 0.03348493576049805 0.09629999846220016
-0.004142399411648512 0.0334501639008522 0.09619999676942825
-0.001310799503698945 0.031850676983594894 0.09160000085830688
-0.0010667097521945834 0.03171158954501152 0.09119999408721924
-0.00082561926683411 0.03160727396607399 0.0908999964594841
-0.0005860969540663064 0.03150296211242676 0.09059999883174896
0.00012402118591126055 0.03143341839313507 0.09039999544620514
0.0005965707241557539 0.03143341839313507 0.09039999544620514
0.011700060218572617 0.030807530507445335 0.08859999477863312
0.013089480809867382 0.030807530507445335 0.08859999477863312
0.013321052305400372 0.030807530507445335 0.08859999477863312
0.013567918911576271 0.03084230236709118 0.08869999647140503
0.013799749314785004 0.03084230236709118 0.08869999647140503
0.014031581580638885 0.03084230236709118 0.08869999647140503
0.014263413846492767 0.03084230236709118 0.08869999647140503
0.014511586166918278 0.030877074226737022 0.08879999816417694
0.014760283753275871 0.030911846086382866 0.08889999985694885
0.015009501948952675 0.03094661608338356 0.08899999409914017
0.015276368707418442 0.031016159802675247 0.08919999748468399
0.01552689541131258 0.03105093166232109 0.0892999991774559
0.015795592218637466 0.03112047351896763 0.08949999511241913
0.018986299633979797 0.03435422107577324 0.09879999607801437
0.01924452930688858 0.03435422107577324 0.09879999607801437
0.019522497430443764 0.03438899293541908 0.09889999777078629
0.01978098787367344 0.03438899293541908 0.09889999777078629
0.020059742033481598 0.034423764795064926 0.0989999994635582
0.020318493247032166 0.034423764795064926 0.0989999994635582
0.02059803158044815 0.03445853665471077 0.09910000115633011
0.021158672869205475 0.03452808037400246 0.09929999709129333
0.022091927006840706 0.03477147966623306 0.09999999403953552
0.022397998720407486 0.03484102338552475 0.10019999742507935
-0.007116424385458231 0.03471754863858223 0.09910000115633011
-0.006843571085482836 0.03464748337864876 0.09889999777078629
-0.006256222724914551 0.034262120723724365 0.09779999405145645
-0.005988335702568293 0.034192055463790894 0.09759999811649323
-0.00572149408981204 0.03412199020385742 0.0973999947309494
-0.005450085271149874 0.034016892313957214 0.09709999710321426
-0.00518024479970336 0.03391179442405701 0.09679999947547913
-0.004911971744149923 0.0338066928088665 0.09649999439716339
-0.004650096409022808 0.03373662754893303 0.09629999846220016
-0.004398400895297527 0.03373662754893303 0.09629999846220016
-0.004142399411648512 0.03370159491896629 0.09619999676942825
-0.0038828763645142317 0.03363152965903282 0.09600000083446503
-0.0036281815264374018 0.033596497029066086 0.09589999914169312
-0.003113839775323868 0.03345636650919914 0.09549999982118607
-0.0028552375733852386 0.033351264894008636 0.09519999474287033
-0.002598203718662262 0.03324616700410843 0.09489999711513519
-0.0023427382111549377 0.03314106911420822 0.09459999948740005
-0.0010690491180866957 0.03202001750469208 0.09139999747276306
-0.0008274358697235584 0.03191491961479187 0.09109999984502792
-0.0005880376556888223 0.0318448543548584 0.0908999964594841
0.001308283070102334 0.03173975646495819 0.09059999883174896
0.011700060218572617 0.031039098277688026 0.08859999477863312
0.011931630782783031 0.031039098277688026 0.08859999477863312
0.012149474583566189 0.03100406751036644 0.0885000005364418
0.012380781583487988 0.03100406751036644 0.0885000005364418
0.012626341544091702 0.031039098277688026 0.08859999477863312
0.012857912108302116 0.031039098277688026 0.08859999477863312
0.013074708171188831 0.03100406751036644 0.0885000005364418
0.013306017965078354 0.03100406751036644 0.0885000005364418
0.013552622869610786 0.031039098277688026 0.08859999477863312
0.013799749314785004 0.03107413277029991 0.08869999647140503
0.014031581580638885 0.03107413277029991 0.08869999647140503
0.014263413846492767 0.03107413277029991 0.08869999647140503
0.014511586166918278 0.031109165400266647 0.08879999816417694
0.014760283753275871 0.031144198030233383 0.08889999985694885
0.014992637559771538 0.031144198030233383 0.08889999985694885
0.015276368707418442 0.03124929592013359 0.08919999748468399
0.01552689541131258 0.03128432855010033 0.0892999991774559
0.01924452930688858 0.03461245074868202 0.09879999607801437
0.019502757117152214 0.03461245074868202 0.09879999607801437
0.01978098787367344 0.03464748337864876 0.09889999777078629
0.020039480179548264 0.03464748337864876 0.09889999777078629
0.020318493247032166 0.034682516008615494 0.0989999994635582
0.02085704542696476 0.03471754863858223 0.09910000115633011
0.021137366071343422 0.034752581268548965 0.09919999539852142
0.021439779549837112 0.03482264652848244 0.09939999878406525
0.021765070036053658 0.034927744418382645 0.09969999641180038
-0.005994471255689859 0.0344824455678463 0.09769999980926514
-0.0057273684069514275 0.03441185504198074 0.09749999642372131
-0.005450085271149874 0.03427067771553993 0.09709999710321426
-0.00518024479970336 0.03416479751467705 0.09679999947547913
-0.004911971744149923 0.034058909863233566 0.09649999439716339
-0.004650096409022808 0.03398832306265831 0.09629999846220016
-0.004398400895297527 0.03398832306265831 0.09629999846220016
-0.004142399411648512 0.03395302966237068 0.09619999676942825
-0.0038869206327944994 0.033917736262083054 0.09609999507665634
-0.003374009858816862 0.03381185233592987 0.0957999974489212
-0.003117100102826953 0.033741261810064316 0.09559999406337738
-0.0028612359892576933 0.03367067500948906 0.09539999812841415
-0.0026036796625703573 0.033564794808626175 0.09510000050067902
-0.0023501673713326454 0.03349420428276062 0.09489999711513519
-0.0020999161060899496 0.03345891088247299 0.09479999542236328
-0.0008283440838567913 0.03218831866979599 0.09119999408721924
-0.000350456073647365 0.03208243474364281 0.0908999964594841
-0.00011262611951678991 0.03201184794306755 0.09070000052452087
0.00012443275772966444 0.03201184794306755 0.09070000052452087
0.0003618901828303933 0.03204714134335518 0.09079999476671219
0.0005985505413264036 0.03201184794306755 0.09070000052452087
0.0008365305839106441 0.03204714134335518 0.09079999476671219
0.0010738507844507694 0.03204714134335518 0.09079999476671219
0.0013097270857542753 0.03201184794306755 0.09070000052452087
0.011700060218572617 0.03127066791057587 0.08859999477863312
0.011918164789676666 0.031235376372933388 0.0885000005364418
0.012149474583566189 0.031235376372933388 0.0885000005364418
0.012380781583487988 0.031235376372933388 0.0885000005364418
0.01261209137737751 0.031235376372933388 0.0885000005364418
0.012843400239944458 0.031235376372933388 0.0885000005364418
0.013074708171188831 0.031235376372933388 0.0885000005364418
0.013306017965078354 0.031235376372933388 0.0885000005364418
0.013537326827645302 0.031235376372933388 0.0885000005364418
0.013768634758889675 0.031235376372933388 0.0885000005364418
0.014031581580638885 0.03130596503615379 0.08869999647140503
0.014263413846492767 0.03130596503615379 0.08869999647140503
0.0144952442497015 0.03130596503615379 0.08869999647140503
0.014743680134415627 0.03134125843644142 0.08879999816417694
0.015242116525769234 0.03141184523701668 0.08899999409914017
0.015509507618844509 0.03148243576288223 0.08919999748468399
0.01892864890396595 0.03476479649543762 0.09849999845027924
0.019205573946237564 0.03480009362101555 0.09860000014305115
0.019760986790060997 0.034870680421590805 0.09879999607801437
0.020039480179548264 0.03490597382187843 0.09889999777078629
0.02029797062277794 0.03490597382187843 0.09889999777078629
0.02085704542696476 0.03497656434774399 0.09910000115633011
0.021137366071343422 0.03501185402274132 0.09919999539852142
0.021418210119009018 0.035047151148319244 0.09929999709129333
0.02174323797225952 0.03515303134918213 0.09959999471902847
-0.00656510517001152 0.03505779802799225 0.09860000014305115
-0.0057273684069514275 0.03466668725013733 0.09749999642372131
-0.005466923583298922 0.03463112935423851 0.0973999947309494
-0.005196298938244581 0.03452446311712265 0.09709999710321426
-0.004917061887681484 0.03434668481349945 0.0965999960899353
-0.004654924850910902 0.03427557647228241 0.09640000015497208
-0.004398400895297527 0.03424001857638359 0.09629999846220016
-0.004142399411648512 0.03420446440577507 0.09619999676942825
-0.0038869206327944994 0.03416890650987625 0.09609999507665634
-0.003374009858816862 0.03406224027276039 0.0957999974489212
-0.0031203606631606817 0.03402668610215187 0.09569999575614929
-0.0028672341722995043 0.03399112820625305 0.09559999406337738
-0.002614630851894617 0.03395557776093483 0.09549999982118607
-0.002360073383897543 0.03388446569442749 0.09529999643564224
-0.0021043464075773954 0.03377779945731163 0.0949999988079071
-0.0018521412275731564 0.03370668739080429 0.09479999542236328
-0.0005906252772547305 0.032462239265441895 0.09129999577999115
-0.0003508416120894253 0.032355573028326035 0.09099999815225601
-0.00011287446250207722 0.032320018857717514 0.0908999964594841
0.00012470714864321053 0.032320018857717514 0.0908999964594841
0.0003626873076427728 0.032355573028326035 0.09099999815225601
0.0005992103833705187 0.032284460961818695 0.09079999476671219
0.0008365305839106441 0.032284460961818695 0.09079999476671219
0.0010750334477052093 0.032320018857717514 0.0908999964594841
0.0013097270857542753 0.03224891051650047 0.09070000052452087
0.001546786050312221 0.03224891051650047 0.09070000052452087
0.011481434106826782 0.031537797302007675 0.08869999647140503
0.011713266372680664 0.031537797302007675 0.08869999647140503
0.011918164789676666 0.031466685235500336 0.0885000005364418
0.012163201346993446 0.031502239406108856 0.08859999477863312
0.012380781583487988 0.031466685235500336 0.0885000005364418
0.01261209137737751 0.031466685235500336 0.0885000005364418
0.012843400239944458 0.031466685235500336 0.0885000005364418
0.013074708171188831 0.031466685235500336 0.0885000005364418
0.013306017965078354 0.031466685235500336 0.0885000005364418
0.013537326827645302 0.031466685235500336 0.0885000005364418
0.013768634758889675 0.031466685235500336 0.0885000005364418
0.013999943621456623 0.031466685235500336 0.0885000005364418
0.014247332699596882 0.031502239406108856 0.08859999477863312
0.0144952442497015 0.031537797302007675 0.08869999647140503
0.014743680134415627 0.031573351472616196 0.08879999816417694
0.018301593139767647 0.03480890765786171 0.09789999574422836
0.018576424568891525 0.03484446555376053 0.09799999743700027
0.018870998173952103 0.03491557762026787 0.0982000008225441
0.0191666167229414 0.03498668596148491 0.09839999675750732
0.019443539902567863 0.03502224385738373 0.09849999845027924
0.019720986485481262 0.03505779802799225 0.09860000014305115
0.02001921646296978 0.03512891009449959 0.09879999607801437
0.02029797062277794 0.03516446426510811 0.09889999777078629
0.020577246323227882 0.03520002216100693 0.0989999994635582
0.02085704542696476 0.03523557633161545 0.09910000115633011
0.021137366071343422 0.03527113050222397 0.09919999539852142
-0.00656510517001152 0.03531550616025925 0.09860000014305115
-0.006281810812652111 0.035172238945961 0.0982000008225441
-0.005472536664456129 0.034921519458293915 0.09749999642372131
-0.00520700216293335 0.03484988585114479 0.09730000048875809
-0.0046694111078977585 0.03463498502969742 0.09669999778270721
-0.004402968566864729 0.03452753275632858 0.09640000015497208
-0.004146705847233534 0.03449171781539917 0.09629999846220016
-0.0038869206327944994 0.03442008048295975 0.09609999507665634
-0.003631965024396777 0.034384265542030334 0.09600000083446503
-0.0033810539171099663 0.034384265542030334 0.09600000083446503
-0.003126882016658783 0.03434844687581062 0.09589999914169312
-0.0028732328210026026 0.03431263193488121 0.0957999974489212
-0.002620106330141425 0.0342768132686615 0.09569999575614929
-0.0023675027769058943 0.03424099460244179 0.09559999406337738
-0.0021154219284653664 0.034205179661512375 0.09549999982118607
-0.0018599561881273985 0.03409772738814354 0.09519999474287033
-0.001607751240953803 0.034026097506284714 0.0949999988079071
0.0003626873076427728 0.032593417912721634 0.09099999815225601
0.0008374518947675824 0.03255759924650192 0.0908999964594841
0.001312615117058158 0.03255759924650192 0.0908999964594841
0.011481434106826782 0.03176962956786156 0.08869999647140503
0.011713266372680664 0.03176962956786156 0.08869999647140503
0.011931630782783031 0.031733810901641846 0.08859999477863312
0.012163201346993446 0.031733810901641846 0.08859999477863312
0.012380781583487988 0.03169799596071243 0.0885000005364418
0.012597840279340744 0.03166217729449272 0.08839999884366989
0.0128288883715868 0.03166217729449272 0.08839999884366989
0.013059934601187706 0.03166217729449272 0.08839999884366989
0.013290982693433762 0.03166217729449272 0.08839999884366989
0.013522029854357243 0.03166217729449272 0.08839999884366989
0.013768634758889675 0.03169799596071243 0.0885000005364418
0.013999943621456623 0.03169799596071243 0.0885000005364418
0.014247332699596882 0.031733810901641846 0.08859999477863312
0.018008850514888763 0.03499315306544304 0.09769999980926514
0.018264206126332283 0.03499315306544304 0.09769999980926514
0.018538514152169228 0.03502896800637245 0.09779999405145645
0.018813347443938255 0.03506478667259216 0.09789999574422836
0.019108181819319725 0.03513642027974129 0.09809999912977219
0.019423799589276314 0.03524387255311012 0.09839999675750732
0.01970098540186882 0.035279687494039536 0.09849999845027924
0.019998954609036446 0.03535132110118866 0.09869999438524246
0.020556461066007614 0.035422954708337784 0.09889999777078629
0.0208359993994236 0.035458773374557495 0.0989999994635582
0.02111605927348137 0.035494592040777206 0.09910000115633011
-0.0054781497456133366 0.035212431102991104 0.09759999811649323
-0.005212353076785803 0.0351402722299099 0.0973999947309494
-0.004942512605339289 0.035032037645578384 0.09709999710321426
-0.00467424001544714 0.03492380306124687 0.09679999947547913
-0.004407535772770643 0.03481556847691536 0.09649999439716339
-0.004146705847233534 0.03474341332912445 0.09629999846220016
-0.0038909653667360544 0.03470733389258385 0.09619999676942825
-0.003639531321823597 0.03470733389258385 0.09619999676942825
-0.0033845757134258747 0.03467125445604324 0.09609999507665634
-0.0031301425769925117 0.03463517874479294 0.09600000083446503
-0.00011597882257774472 0.03369713947176933 0.09339999407529831
0.00036786854616366327 0.03330028057098389 0.09229999780654907
0.0006077894358895719 0.03322812169790268 0.09209999442100525
0.0008457435178570449 0.03311988711357117 0.09179999679327011
0.0010785814374685287 0.03290341794490814 0.09119999408721924
0.0013140591327100992 0.03283126279711723 0.09099999815225601
0.0015501967864111066 0.03279518336057663 0.0908999964594841
0.001783844898454845 0.03272302821278572 0.09070000052452087
0.012380781583487988 0.03192930296063423 0.0885000005364418
0.012597840279340744 0.031893227249383926 0.08839999884366989
0.0128288883715868 0.031893227249383926 0.08839999884366989
0.01304516103118658 0.03185714781284332 0.08829999715089798
0.01327594742178917 0.03185714781284332 0.08829999715089798
0.013506733812391758 0.03185714781284332 0.08829999715089798
0.013753077015280724 0.031893227249383926 0.08839999884366989
0.01398412510752678 0.031893227249383926 0.08839999884366989
0.0176989808678627 0.0351402722299099 0.0973999947309494
0.018245510756969452 0.035212431102991104 0.09759999811649323
0.018519558012485504 0.03524851053953171 0.09769999980926514
0.01879412867128849 0.03528458625078201 0.09779999405145645
0.019108181819319725 0.035392820835113525 0.09809999912977219
0.019364580512046814 0.035392820835113525 0.09809999912977219
0.019680984318256378 0.03550105541944504 0.09839999675750732
0.01997869275510311 0.035573214292526245 0.09860000014305115
0.020277446135878563 0.035645369440317154 0.09879999607801437
0.020556461066007614 0.03568144887685776 0.09889999777078629
0.0208359993994236 0.03571752831339836 0.0989999994635582
0.02111605927348137 0.035753604024648666 0.09910000115633011
-0.0060251494869589806 0.03568556159734726 0.0982000008225441
-0.0049526928924024105 0.035358503460884094 0.09730000048875809
-0.004688726272433996 0.0352858230471611 0.09709999710321426
-0.004421238321810961 0.03517680615186691 0.09679999947547913
-0.004155317321419716 0.035067785531282425 0.09649999439716339
-0.0038950101006776094 0.03499510884284973 0.09629999846220016
-0.003639531321823597 0.034958768635988235 0.09619999676942825
0.00012868570047430694 0.034086618572473526 0.09380000084638596
0.0003730498137883842 0.034013934433460236 0.09359999746084213
0.0013299433048814535 0.03346883878111839 0.09209999442100525
