ply
format ascii 1.0
element vertex 729
property float x
property float y
property float z
end_header
0.00021839352861241984 -0.01984922843492509 0.0018775495700538158
0.00022189586850697682 -0.01958167927088144 0.0018775489879772067
0.00021808427180248886 -0.01975296425768866 -4.490230409714968e-09
0.00022376098179124475 -0.019543556493814392 -4.893108140890945e-09
0.00026409460238776243 -0.019110619014173144 -3.978703588813914e-09
0.0002387455550737065 -0.019330286062669764 -4.56838833429174e-09
0.00023722783551899962 -0.019343364564334067 0.001877548755146563
0.0009057933734049345 -0.017305526665807515 0.001877548173069954
0.0010097963163705722 -0.017148789578160333 -4.77784745100962e-09
0.0010141404926819208 -0.017142952374654158 0.0018775492208078504
0.00031285612383992483 -0.01882521850044289 0.0018775489879772067
0.0003593735360702061 -0.018617778120185557 0.0018775492208078504
0.0003128647683174374 -0.018823865405772668 -4.581511614532019e-09
0.00027455704272979673 -0.01904257191455682 0.0018775491043925285
0.00041427213516734366 -0.01841391620118251 -4.787039209475097e-09
0.0004777691956812401 -0.018212441351558632 0.0018775488715618849
0.000477551248438961 -0.018213610208539396 -4.5843413509771835e-09
0.0005453547976239296 -0.01802759090738947 0.0018775477074086666
0.0005472404001919673 -0.01802266901922245 -3.527919734125362e-09
0.0006240795281418966 -0.01783751625068757 -4.550691823368425e-09
0.0007125849782633082 -0.01764946274492441 0.0018775489879772067
0.00035765502676628815 -0.01862492322871598 -4.8696251475632835e-09
0.00041355155593557883 -0.01841578279292829 0.0018775491043925285
0.0006255854708582049 -0.01783382839868616 0.0018775488715618849
0.0015982626659511187 -0.016359314114154207 -4.896098193540865e-09
0.0015982626659511187 -0.016359314114154207 0.0018775492208078504
-0.0002090200789262148 -0.016015670861679644 -4.89709073292488e-09
-0.0002075011355693314 -0.016015884401328916 0.0018775492208078504
-0.0048813830088916465 -0.016272268836515023 -4.828827560032778e-09
-0.004546979809156788 -0.01617019517142968 -4.896098193540865e-09
-0.004546359527387685 -0.016170011457437905 0.0018775492208078504
-0.004262171312093016 -0.01609432548916485 0.0018775492208078504
-0.0042611964423815525 -0.01609409347039333 -4.894495919671726e-09
-0.003972726554300365 -0.016027920593957058 0.0018775492208078504
-0.003389225363294262 -0.015925688358432936 0.0018775492208078504
-0.0036811909471984256 -0.01597164162843793 0.0018775492208078504
-0.003386288491353094 -0.015925267714891972 -4.8902779603565705e-09
-0.0030878338308940136 -0.01588884878391866 0.0018775492208078504
-0.002789994787036448 -0.0158627381096146 0.0018775492208078504
-0.002785770308297973 -0.01586242482859115 -4.8850710143710785e-09
-0.00248463632567022 -0.015846217542373104 0.0018775492208078504
-0.0024797521585378573 -0.015846018166709067 -4.883948800937787e-09
-0.0021752025507304675 -0.015839717555609253 0.0018775492208078504
-0.0021709015174075806 -0.0158396853121611 -4.8868629143328235e-09
-0.0018578420752157442 -0.015843388683092954 0.0018775492208078504
-0.0015433424776004243 -0.015856978602803707 0.0018775492208078504
-0.0015401086926028734 -0.015857153769544587 -4.892244831466996e-09
-0.0012178120345880071 -0.015881013858484058 0.0018775492208078504
-0.0008929522151973359 -0.01591478470776774 0.0018775492208078504
-0.0008908428210890185 -0.015915019496402245 -4.894557203982686e-09
-0.0005603375169602867 -0.015958975401801946 0.0018775492208078504
-0.0005590366326681057 -0.015959165236334786 -4.895505778534925e-09
-0.0012205739075056715 -0.015880786769234566 -4.896098193540865e-09
-0.0018614986675401755 -0.015843293533131374 -4.896098193540865e-09
-0.0030914594198935847 -0.015889245530826893 -4.896098193540865e-09
-0.003683474651579016 -0.01597204670013131 -4.896098193540865e-09
-0.0039743841695130235 -0.016028272027508266 -4.896098193540865e-09
-0.004896372244508986 -0.016277403444783557 0.0018775492208078504
-0.006554046854044664 -0.01715940718214095 0.0018775492208078504
-0.006561485326570503 -0.01716495582118566 -4.881589354965854e-09
-0.00632791028597484 -0.016998316286192545 -4.944667786332957e-09
-0.00598992740550342 -0.01677904180333904 0.0018775493372231722
-0.006135058932914653 -0.01686999006062149 -4.3739953881072324e-09
-0.005944090295355236 -0.01675246147744767 -4.810078557682118e-09
-0.005783330093677534 -0.016661348214814402 -4.8324957369061394e-09
-0.005787372786982291 -0.016663611000622473 0.0018775491043925285
-0.005598246800148095 -0.016565383475066982 -4.550810839276664e-09
-0.005602608387367698 -0.016567460367922837 0.0018775488715618849
-0.005401060572925776 -0.016473246785324924 -4.621292237771968e-09
-0.0054067067764043 -0.01647571105021215 0.0018775489879772067
-0.005197413524313391 -0.01638878372283263 -4.637125794459962e-09
-0.006813599881405463 -0.01735510289525483 0.0018775492208078504
-0.006912573527593032 -0.01743198168723315 -4.886437476869787e-09
-0.005196056082126186 -0.016388175978650325 0.0018775489879772067
-0.006322900910954155 -0.016994743898449346 0.0018775492208078504
-0.007893430860005815 -0.018236564763739214 0.0018775492208078504
-0.007366693580098329 -0.017799581323653658 -4.888238258615729e-09
-0.007254855044231035 -0.017706918147830576 0.0018775492208078504
-0.0095352484366686 -0.020023708842407336 -4.50073844859844e-09
-0.009599206960176342 -0.020159054502709856 0.0018775493372231722
-0.009656467624251664 -0.02028997994209197 -4.878482950942953e-09
-0.009062879376057088 -0.019309308636018936 -4.972632083877215e-09
-0.008946883167775917 -0.019181605477841947 -4.565357869523723e-09
-0.008959198149064313 -0.01919456500549866 0.0018775491043925285
-0.008785613397195316 -0.01901902927101398 -4.706685263755617e-09
-0.0087515743558328 -0.018985340283955328 0.0018775491043925285
-0.008017225946677156 -0.018338914186678 -4.894549654466118e-09
-0.008229224707340017 -0.01851840706552671 0.0018775486387312412
-0.0084873504204326 -0.018743010867704326 0.0018775489879772067
-0.008369745375067789 -0.018639587071931397 -4.707833234363079e-09
-0.009272624869709284 -0.01957465550500192 0.0018775485223159194
-0.009355945100528158 -0.019700230403827044 0.001877548755146563
-0.009277885307336623 -0.01958214782863779 -3.3977196611800764e-09
-0.0086005945441305 -0.018844969853991065 -4.636904193944247e-09
-0.009354949696161113 -0.01969860005643822 -4.474649539787379e-09
-0.00945885902716945 -0.019875333145470665 0.0018775486387312412
-0.009440145365658835 -0.01984252848950881 -4.251020868650812e-09
-0.009132808066150475 -0.01939069121964989 0.0018775475909933448
-0.009171496574569704 -0.019439381418485696 -3.3645883856792125e-09
-0.009966465801462678 -0.022601602442129595 0.0018775489879772067
-0.010011859270772172 -0.022461565700984152 -4.8958992415748526e-09
-0.0100123093382045 -0.02245930516344818 0.0018775492208078504
-0.01005075070079976 -0.02229587819015877 0.0018775489879772067
-0.010069296024453772 -0.022176939342278233 0.001877548755146563
-0.010053692064852637 -0.022279689307160296 -4.916962836887251e-09
-0.00992774039591466 -0.020996977130709474 0.0018775489879772067
-0.009849587855757083 -0.0207687945262162 -4.611242943042271e-09
-0.009849636131093789 -0.020768870290936475 0.0018775489879772067
-0.009779605851163125 -0.02058565104110517 -4.4612149530109946e-09
-0.010082157135462925 -0.022047515608103755 -4.7694705962442185e-09
-0.009775857452437196 -0.020575727925443994 0.0018775489879772067
-0.009936699790235624 -0.021025448497389597 -4.5792649672193875e-09
-0.010020197206674296 -0.021338532118437385 -4.947136922339723e-09
-0.010004479116918125 -0.021272545254923572 0.0018775492208078504
-0.01008219931893024 -0.0217726966983365 -4.8782053951867965e-09
-0.010063193757133956 -0.021582111971588804 -4.852442447855765e-09
-0.010074030127177839 -0.021670897524144094 0.0018775492208078504
-0.010086010615133268 -0.02190144580309487 -4.8318855583318054e-09
-0.010083005459073518 -0.022035035275615036 0.0018775491043925285
-0.009967191036026005 -0.02259932113588929 -4.6621875249286404e-09
-0.009900529712881084 -0.022764773464524424 -4.7339789865930015e-09
-0.009918336409108408 -0.022723325895474558 0.0018775489879772067
-0.00984652736148658 -0.022876393449887965 0.0018775489879772067
-0.009793447231720402 -0.02297448877325958 -4.898879968351366e-09
-0.009692427510441554 -0.023138832634533042 -4.878426995702512e-09
-0.009748531210612307 -0.02305036224124129 0.0018775492208078504
-0.009612283560121738 -0.023256784739839984 0.0018775492208078504
-0.009571178691239832 -0.023312387204369817 -4.901224315290165e-09
-0.009436851702271246 -0.023484199116601732 0.0018775492208078504
-0.009437179557091743 -0.023483480947398872 -4.898359495797422e-09
-0.010047074395561767 -0.021478775947370216 0.0018775492208078504
-0.010085786805327684 -0.021860118061530074 0.0018775492208078504
-0.007113307110491451 -0.02480127853146961 0.0018775492208078504
-0.006839323939249795 -0.02484464709879378 0.0018775492208078504
-0.007019157809655426 -0.024817110446782916 -4.871196779276943e-09
-0.007277114418364631 -0.024772232713574982 -4.800174036034832e-09
-0.007514305885630563 -0.02472445437038714 -4.840137624029239e-09
-0.007363540394778098 -0.024755975836625088 0.0018775492208078504
-0.007662648980923588 -0.02469003587092631 0.0018775491043925285
-0.00794020074891564 -0.02461125478684384 0.0018775491043925285
-0.008062390002454253 -0.024569276640613123 -4.729315161711156e-09
-0.008184242431074443 -0.024521348013613307 0.0018775491043925285
-0.009242881785216797 -0.023711115343836055 0.0018775492208078504
-0.009245159557603182 -0.02370887603328757 -4.857209745523505e-09
-0.006468673376545228 -0.0248954516292402 0.0018775492208078504
-0.006602476061074178 -0.024878074838162727 -4.892552141200213e-09
-0.00905331261467136 -0.023915145393963607 -4.8401576080436826e-09
-0.009062760259726316 -0.023905471204535293 0.0018775491043925285
-0.008875581491813797 -0.024084226707955913 -4.7603987418654015e-09
-0.008876546807631953 -0.024083760161061393 0.0018775489879772067
-0.008739690004286189 -0.02419662125804055 -4.764617145269767e-09
-0.00858921611603352 -0.02430596232066699 -4.712246148841359e-09
-0.00868269802898015 -0.024240611935391978 0.0018775491043925285
-0.008403493922863515 -0.02441707236196062 0.0018775491043925285
-0.008442525377034915 -0.024394886091274937 -4.7488590837474476e-09
-0.008284380188078772 -0.02447684027336645 -4.821131494026076e-09
-0.0078000435803571005 -0.02465363748991356 -4.8931743101832126e-09
-0.008547863982883399 -0.024331998031641253 0.0018775491043925285
-0.005128120861746947 -0.02512511366199924 0.0018775491043925285
-0.00540090477734036 -0.025064425795387806 -4.964272548590998e-09
-0.005473270256657632 -0.02504941095161811 0.0018775491043925285
-0.005687063541402651 -0.025008221827689796 -4.530174901873352e-09
-0.005766263897651361 -0.024994357513480496 0.0018775492208078504
-0.006064922768415174 -0.024946035801390185 -4.791119501135199e-09
-0.004417299020962222 -0.02533665184356155 0.0018775479402393103
-0.004581666854409559 -0.025277117154324794 -5.038623296371725e-09
-0.004648769766199939 -0.025255870153699473 0.0018775491043925285
-0.0048444125624825555 -0.02519815131920489 -4.893522476123735e-09
-0.004857063241075627 -0.02519483394346492 0.0018775492208078504
-0.006077994356693988 -0.02494455240074043 0.0018775491043925285
-0.005125412596633251 -0.025125953491251924 -4.84994044924747e-09
-0.004376826602823883 -0.025353852866021737 -4.8562318610834154e-09
-0.003964428847827117 -0.025570760680187717 0.0018775470089167356
-0.004008610965343293 -0.025540274357922676 -4.15381951057725e-09
-0.004062850050897321 -0.025507849146779168 0.0018775488715618849
-0.004138056868942678 -0.025467538153127342 -4.894763705465266e-09
-0.004197997480222813 -0.025438141539496875 0.0018775491043925285
-0.003859148317781022 -0.025704348657654256 9.186823746176742e-08
-0.00385083186689282 -0.02573403993746492 0.001877542701549828
-0.0038434772992681373 -0.02578992816638511 -4.252439289587073e-09
-0.0038439940499381785 -0.025824381035860194 0.0018775482894852757
-0.0038758709373343633 -0.02599297595157877 0.0018775495700538158
-0.0038531718659972868 -0.025890567261315722 -4.548912357904555e-09
-0.003877941004206155 -0.025996915892490455 -4.996618230279637e-09
-0.004130691729666366 -0.026668651688367517 -4.4230814566503796e-09
-0.003951046304400779 -0.026215993044150197 -4.7558228466471064e-09
-0.004111871447063557 -0.026624782943795427 0.0018775491043925285
-0.003964330673862797 -0.026249915913037183 0.0018775492208078504
-0.003945888004710557 -0.025586649791577886 -1.5049895774055244e-09
-0.003909191369671668 -0.025622254917383396 0.0018775395583361387
-0.003894023466364005 -0.025639340286230067 -6.8611010206609535e-09
-0.003874145875955385 -0.02567020433333622 0.0018775246571749449
-0.011798576461279948 -0.03340108810557633 0.0018775423523038626
-0.01208256513267078 -0.033539618016917176 0.0018775294302031398
-0.012077016751200653 -0.033537282033141665 -4.659342689450341e-09
-0.0075408393602245955 -0.03040072468230854 -4.0979939441854185e-09
-0.0071822207620214264 -0.03008928193962929 -4.520444907285537e-09
-0.0071680395949236106 -0.030076677389486828 0.001877548755146563
-0.006842577757584172 -0.029785778961527516 -5.069641151322912e-09
-0.0049027721979085885 -0.027803608634041077 0.0018775492208078504
-0.004713675211394908 -0.027570226829080238 -4.741132375585266e-09
-0.004707959666802809 -0.027562474200885853 0.0018775491043925285
-0.004306818189029627 -0.026992577960081775 0.0018775486387312412
-0.0042568310015513285 -0.02690823304844277 -4.6165484768323495e-09
-0.004190571899793246 -0.026788277839219186 0.0018775491043925285
-0.009914930889815946 -0.032244499433789216 -4.896727023862013e-09
-0.009604466161202257 -0.03202500817758291 -4.817621857000631e-09
-0.009914281368237332 -0.03224404195485215 0.0018775492208078504
-0.006454670207993575 -0.02942694500700164 -4.648273765894828e-09
-0.006084877628939076 -0.02907166924503287 -4.905233552676691e-09
-0.00640592107455024 -0.029380884824732004 0.0018775491043925285
-0.006062097849693666 -0.02904933785220516 0.0018775492208078504
-0.0068238138721902816 -0.029768653094218674 0.001877549453638494
-0.007544835477166965 -0.03040423830225767 0.0018775484059005976
-0.007954580590849818 -0.030748702057833338 0.0018775488715618849
-0.007949794445287837 -0.03074474192960029 -4.549298715517125e-09
-0.009115455651669374 -0.031665398518063916 0.0018775493372231722
-0.009560509714634714 -0.03199334965566344 0.0018775491043925285
-0.009132218048525736 -0.031678053562961696 -5.0312345400982394e-09
-0.012360245941753292 -0.0336599679973788 0.0018774893833324313
-0.012551086550851093 -0.033732541155481466 0.0018774193013086915
-0.012414092923035667 -0.033682088101896344 -5.0287849440167065e-09
-0.00435303653561493 -0.027065398473918006 -4.610366310942027e-09
-0.004492486203437896 -0.02727346341451833 0.0018775488715618849
-0.004491872019917336 -0.027272080004084532 -4.549534970976765e-09
-0.004964343047345161 -0.027877683943882278 -4.72035832643769e-09
-0.005102771018275785 -0.028039086783157346 0.0018775491043925285
-0.005245481201422165 -0.028199883606394367 -4.903800032707295e-09
-0.008756996969712126 -0.03139123614780012 0.0018775488715618849
-0.008748143633190155 -0.03138453676955642 -4.558963873080302e-09
-0.00836431454418608 -0.031082187904651587 -4.126929020742409e-09
-0.010282368361650552 -0.03249598195316804 -4.943512266208927e-09
-0.01024213090896755 -0.03246896130023191 0.0018775492208078504
-0.010703823651840621 -0.03277061542774209 -4.8725512513669855e-09
-0.010574068854588363 -0.03268720586677988 0.0018775491043925285
-0.011104461210538562 -0.033016872995148314 -4.843560219569554e-09
-0.010893064459323872 -0.03288873544244739 0.0018775491043925285
-0.011204259204916118 -0.03307519444407823 0.0018775486387312412
-0.01141076317310132 -0.03319340785958498 -4.718836876804744e-09
-0.01171176703918491 -0.033356821463558915 -4.748534454535047e-09
-0.005395616826737669 -0.028364024912387757 0.0018775492208078504
-0.005573740840707 -0.02855372534348144 -4.88826579214674e-09
-0.005709433083984607 -0.028694754353713613 0.0018775492208078504
-0.008371548248821048 -0.031087919723575656 0.0018775484059005976
-0.01151400094471567 -0.03325115072178439 0.001877548173069954
-0.005815452072842374 -0.028802617411218433 -4.823936361475489e-09
-0.02303561977385911 -0.03300049039642054 0.0018775492208078504
-0.02303561977385911 -0.03300049039642054 -4.896098193540865e-09
-0.022769899966848126 -0.033140712441466484 -4.847850565425915e-09
-0.02227681006764678 -0.033375748692812776 0.0009387721656821668
-0.02252324413541763 -0.033262161676206055 -3.98934973944165e-09
-0.02200677480347077 -0.03349327200752673 -4.928527808090166e-09
-0.022007954436618935 -0.03349153003515746 0.0009387721656821668
-0.021735009310226497 -0.033600849005542895 0.0009387721656821668
-0.021539628547160326 -0.03367429467057883 -4.896098193540865e-09
-0.02147322634995299 -0.03369841282896373 0.0018775485223159194
-0.02121241424467742 -0.03378860683192629 -4.889388449669241e-09
-0.020909294968841533 -0.03388533685815463 -4.893293770180662e-09
-0.0206277037463787 -0.033967717814571564 -4.671698583535999e-09
-0.02090649881924575 -0.03388617710464274 0.0018775492208078504
-0.02042304405802853 -0.034024310433963464 0.0018775492208078504
-0.02033395820244887 -0.03404622930630363 -4.073041459662363e-09
-0.020061421157173492 -0.03411245905586609 0.0009387721656821668
-0.019754936987766786 -0.03418088337052123 0.0018775492208078504
-0.01976497811780144 -0.03417774339907388 0.0009387721656821668
-0.019466886185935915 -0.034236345895698676 0.0009278234792873263
-0.01920864101423913 -0.03428164286668118 0.0018775491043925285
-0.018199966322365743 -0.03441073406203992 0.0018775491043925285
-0.018576249819645837 -0.03437118837802494 0.0018775492208078504
-0.01819692350079145 -0.03441099895231272 -4.769491024347872e-09
-0.017818672176076987 -0.03444040624546022 -4.4821555356122644e-09
-0.019754936987766786 -0.03418088337052123 -4.913367046555095e-09
-0.019222316010777115 -0.034279341828181806 -4.8514721129322425e-09
-0.018893142634385456 -0.03432998351282596 -4.890489346820459e-09
-0.01889866442370441 -0.03432922740106123 0.0018775492208078504
-0.018570189447957765 -0.03437193145317761 -4.875802872561508e-09
-0.01743650454126609 -0.034459754391598596 -4.23547685812764e-09
-0.017013030705947813 -0.034469991617285124 -4.862065861033216e-09
-0.017025837065811882 -0.03446855191397617 0.0009387721656821668
-0.01663615550666737 -0.03446624865010808 0.0009387721656821668
-0.016490335704981162 -0.034462797037467456 -4.896098193540865e-09
-0.016228313658312923 -0.034452623042011084 -4.146477383670799e-09
-0.01434472582370226 -0.034227088756715374 -3.800349812621562e-09
-0.01410978574428796 -0.034178919548407745 -4.896098193540865e-09
-0.01392238649084604 -0.034137490614729184 0.0009415550739504397
-0.013777678201764893 -0.03410307025342069 -4.898804029096482e-09
-0.013508068041741738 -0.034034740331530706 0.0018775408389046788
-0.013774148563311397 -0.03410222881230035 0.0018775492208078504
-0.013121922312188863 -0.03392396177344557 0.0018775478238239884
-0.013138996459422968 -0.03392922401274242 -4.672855435927659e-09
-0.0134305170602095 -0.03401315246629958 -4.840416956142235e-09
-0.012801725115687139 -0.033820918922980295 -4.678728071638716e-09
-0.01282122285131174 -0.033827285957369634 0.0018775493372231722
-0.01410978574428796 -0.034178919548407745 0.0018775492208078504
-0.014350304756469442 -0.03422829297704868 0.00187754537910223
-0.016221689285590864 -0.03445237495235588 0.0018775491043925285
-0.016490335704981162 -0.034462797037467456 0.0018775492208078504
-0.017013030705947813 -0.034469991617285124 0.0018775492208078504
-0.0174421182095841 -0.034459647996203845 0.0018775485223159194
-0.02200677480347077 -0.03349327200752673 0.0018775492208078504
-0.022455299692966155 -0.03329416833678729 0.0018775492208078504
-0.02276711343151645 -0.03314198748538251 0.0018775492208078504
-0.021201161233308348 -0.033792379694104625 0.0018775492208078504
-0.014715161932443146 -0.03429320947363358 -4.162181266309517e-09
-0.014719998644135538 -0.03429407538327174 0.0018775475909933448
-0.015090821071595229 -0.03434903137271088 -4.6304484691006564e-09
-0.015089041719597476 -0.03434874677985179 0.0018775486387312412
-0.015468237333012304 -0.03439404854412867 -4.765548400342823e-09
-0.015467808087526276 -0.03439403850191962 0.0018775489879772067
-0.015843686404895013 -0.034428352807694323 -4.479832949044749e-09
-0.015847332382240977 -0.034428574573122636 0.0018775482894852757
-0.017823396258504737 -0.034440166139532984 0.001877548755146563
-0.027699947008199173 -0.029150612147479316 0.0018775491043925285
-0.0279712372554923 -0.028842931545837402 -4.891742566570656e-09
-0.027582889613188888 -0.029281335501360417 -4.8832524690567425e-09
-0.027394077637207147 -0.029488670711756756 0.0018775492208078504
-0.02713562212027995 -0.029766398600013372 -4.875108317037302e-09
-0.02673377900264972 -0.03018045047361209 -4.918380369645092e-09
-0.026955974641397564 -0.02995439688884651 0.0018775492208078504
-0.026561768504243737 -0.030351482838978712 0.0018775492208078504
-0.02641588495996157 -0.030493476292187023 -4.828187627481384e-09
-0.02624890671650083 -0.0306519914864046 0.0018775491043925285
-0.026086228744184054 -0.03080320849595749 -4.859478597296629e-09
-0.02599979402387399 -0.030882710743613487 0.0018775492208078504
-0.02585520438288943 -0.031011971028238505 -4.899940453384488e-09
-0.02567168530020763 -0.031172290661325295 0.0018775492208078504
-0.025545750848602267 -0.03127956776447093 -4.893045524312356e-09
-0.025361047807143617 -0.03143287169441704 0.0018775492208078504
-0.02484737499440179 -0.031835111889163596 -4.4894354900293365e-09
-0.02451440613215513 -0.03207773884076457 -4.864573632801239e-09
-0.024526070642088508 -0.03206824221653388 0.0009387721656821668
-0.024844772807981603 -0.03183691485705349 0.001877548755146563
-0.02451440613215513 -0.03207773884076457 0.0018775492208078504
-0.02421707031748374 -0.032281330929447176 0.0009387721656821668
-0.024105750915659613 -0.032355316557343715 0.0018775492208078504
-0.023927288994013782 -0.03247093577642406 0.0009387721656821668
-0.023756980070548783 -0.032578078872528164 0.0018775492208078504
-0.023626699761724802 -0.032657999101182666 0.0009387721656821668
-0.023371601817688794 -0.03280966028700023 0.0018775492208078504
-0.02336649519132233 -0.032812819388264455 -4.822902521794958e-09
-0.024105750915659613 -0.032355316557343715 -4.896098193540865e-09
-0.023756980070548783 -0.032578078872528164 -4.896098193540865e-09
-0.028917798342384535 -0.027719610503161837 -4.882036552800173e-09
-0.02832067086653874 -0.028434884701628846 -4.888125015867217e-09
-0.028320477174278543 -0.028435353151513843 0.0018775492208078504
-0.02796058754142262 -0.028855020646460595 0.0018775492208078504
-0.025190120177653933 -0.0315710627203075 -4.6192942804168524e-09
-0.02512429385669219 -0.031622330472497046 0.0018775488715618849
-0.03245364047339692 -0.02080176401298344 0.0018775492208078504
-0.03247002567558096 -0.020738753081251927 -4.877684478543642e-09
-0.03232332882333549 -0.021303635658282524 0.0018775492208078504
-0.03226441173348179 -0.0215243890185704 -4.903135675249359e-09
-0.03194344300461009 -0.022611199776696376 -4.793112573509006e-09
-0.031813999733022263 -0.022990289979704582 -4.8619597237120615e-09
-0.03185569938925397 -0.022872473688657337 0.0018775491043925285
-0.032024264076652036 -0.022358181626122853 0.0018775491043925285
-0.031063444379927398 -0.02468941161923383 -4.6178398882545935e-09
-0.030933008454991712 -0.024924072308093403 -4.871256287231063e-09
-0.030932370164744247 -0.024924137530043425 0.0018775488715618849
-0.03079441246393531 -0.02515870392006231 -4.727235936030638e-09
-0.03014014462629364 -0.026147387543503386 -4.806293585346566e-09
-0.02983096754486777 -0.02656750593646356 -4.876238079987161e-09
-0.029824178622567022 -0.026576268939659316 0.0018775491043925285
-0.02960452830665465 -0.026862883399345856 -4.839640688203417e-09
-0.02957327932688688 -0.026902900538708183 0.0018775492208078504
-0.028897786018381815 -0.027743715265194927 0.0018775492208078504
-0.029329371385146106 -0.02721248949569512 0.0018775492208078504
-0.031727634164791636 -0.023226913373222195 0.0018775492208078504
-0.03169346444542493 -0.023317992557333547 -4.926099972379916e-09
-0.032070163535440954 -0.02220522928184044 -4.703111233794743e-09
-0.03219144790310793 -0.021789365001831013 0.0018775492208078504
-0.03215529213924744 -0.021915654289759803 -4.810463138937848e-09
-0.029352389885664215 -0.027183492323829127 -4.896978378354788e-09
-0.030111328183537688 -0.026187565734223022 0.0018775492208078504
-0.03036402140478238 -0.025826660043572106 -4.87828355488773e-09
-0.03036501178144005 -0.025825265324285775 0.0018775492208078504
-0.030591505407834597 -0.025484757058183514 -4.884100235358346e-09
-0.030515837498929763 -0.02560026679097032 0.0018775492208078504
-0.030660894091965415 -0.025374951388555913 0.0018775489879772067
-0.030791650570815923 -0.025163368955032094 0.0018775491043925285
-0.031065378842751908 -0.024685970293728644 0.0018775489879772067
-0.031176879535434996 -0.024474866770345063 -4.751167459460248e-09
-0.031178979904975274 -0.024470891584588313 0.0018775491043925285
-0.03128806251026559 -0.024253078235177052 -4.855786439605936e-09
-0.03128808265687221 -0.02425297888358881 0.0018775492208078504
-0.03139395695280531 -0.024029432231152226 -4.844239676060624e-09
-0.03139416615843638 -0.024029043817040695 0.0018775492208078504
-0.031527600425848255 -0.023728264559850002 -4.881462789541047e-09
-0.03149536822234372 -0.023802563281842316 0.0018775491043925285
-0.03161122398240479 -0.023526882868320966 0.0018775491043925285
-0.0327770217883093 -0.019122487913220198 0.0018775486387312412
-0.03274562289626386 -0.019381945728170157 -4.62229277076176e-09
-0.03274625948905709 -0.01937663758096156 0.0018775486387312412
-0.032702936186316804 -0.019661178756118215 -4.7791557378218386e-09
-0.03280253314449389 -0.017622571881562705 0.0018775493372231722
-0.032809240617517284 -0.017768530496255288 -4.711052881134492e-09
-0.032819224735901334 -0.01806879034062648 0.0018775489879772067
-0.03276936077655279 -0.017159720269440192 0.0018775492208078504
-0.03276307502856119 -0.017080521900962913 -4.914323170623902e-09
-0.0327278808170134 -0.01670153010676787 0.0018775492208078504
-0.03253997152455495 -0.020453913511551635 0.0018775492208078504
-0.03257170820476926 -0.020317787549810708 -4.895182037500945e-09
-0.03277656865286095 -0.019127391967746803 -4.509805862085159e-09
-0.03279957447961897 -0.01886860003114748 -4.476200743397385e-09
-0.03281519424935836 -0.01858292742016742 0.0018775486387312412
-0.03281432870439099 -0.018608195813173023 -4.754378668536674e-09
-0.0328207133741454 -0.018324082463484798 0.0018775488715618849
-0.03282060990561065 -0.01832800763549161 -4.672337183819764e-09
-0.03281909660764894 -0.018068421440872458 -4.777930051602652e-09
-0.03279336283002437 -0.017484387628615747 -4.883311977010862e-09
-0.03264321109018374 -0.019986281393436 0.0018775492208078504
-0.03264712877448485 -0.019963484083529093 -4.911724804657069e-09
-0.03270595462286569 -0.019642043726677685 0.0018775491043925285
-0.03280091918799749 -0.01885303605549018 0.0018775489879772067
-0.028993543572620257 -0.008835575793526132 -3.537454551505448e-09
-0.029239755404844844 -0.009111466454695929 -3.853262153796777e-09
-0.029097933511570483 -0.008950833864140192 0.0018775493372231722
-0.02951022210524717 -0.009426087939339746 0.0018775488715618849
-0.029761586189323067 -0.0097317938097989 0.001877548173069954
-0.029979133317724987 -0.010007414533304152 -4.307237233547312e-09
-0.030002302999444983 -0.010037519594229924 0.0018775492208078504
-0.030187517134936784 -0.010282608032042643 -4.577452639153989e-09
-0.03027190326992955 -0.010396663253527148 0.0018775493372231722
-0.030386865439409372 -0.010557172739806893 -4.1100931547077835e-09
-0.030607627190733334 -0.01087540774525059 0.0018775491043925285
-0.030598569467890056 -0.010863402731982663 0.0009387722238898277
-0.03080641533244613 -0.011180284128523827 -3.738160447852579e-09
-0.030845278267370862 -0.011241878824459442 0.0018775492208078504
-0.030978663408072954 -0.01145777971694578 0.001877548755146563
-0.0312742074274358 -0.011971432574834812 0.0018775492208078504
-0.031143142915210177 -0.011737219574900868 0.001877548755146563
-0.03129785563896831 -0.012014714326407029 -3.986915242393252e-09
-0.031467150363607886 -0.012336634381960256 0.0018775491043925285
-0.03146223762998046 -0.01232879432934644 0.0009387722238898277
-0.03161967495303264 -0.012650744978674962 0.0018775482894852757
-0.031749026496085575 -0.012934968958646329 -4.393327923679635e-09
-0.031814445624531604 -0.013085430216060697 0.0018775493372231722
-0.0318716054468902 -0.013223688362144275 -4.520828600362847e-09
-0.031981356594992696 -0.013501331512019698 0.0018775488715618849
-0.032142244367774075 -0.013950664694095572 -4.849462165168461e-09
-0.032062412422472125 -0.01372078598311954 0.0018775492208078504
-0.032016995711180433 -0.01359347687270621 -4.715551060741063e-09
-0.029515103255356712 -0.009431322873291514 -4.884755711032085e-09
-0.02981400325681209 -0.009797397943653578 -4.896098193540865e-09
-0.030607627190733334 -0.01087540774525059 -4.796894881309299e-09
-0.031068101860836604 -0.011607028681531977 -5.07172082109264e-09
-0.031467150363607886 -0.012336634381960256 -4.786283813729142e-09
-0.0316471659662049 -0.012709864684691123 -4.896098193540865e-09
-0.03219475879656717 -0.014109828731325727 0.0018775491043925285
-0.032269087756670756 -0.014350629673410012 -4.808607290129885e-09
-0.032317159677071196 -0.014517823572776273 0.0018775491043925285
-0.032378727429827774 -0.01474542307640791 -4.896098193540865e-09
-0.03238004017067391 -0.01475045391782501 0.0018775492208078504
-0.03243888151938908 -0.014986136089349185 -4.835708722339405e-09
-0.03247765843674442 -0.0151522135618496 0.0018775491043925285
-0.03253113132353993 -0.015402221892452094 -4.8378474559740425e-09
-0.032564614257819285 -0.015574417236047427 0.0018775491043925285
-0.03264660719225781 -0.016058659291786792 -4.841609779759892e-09
-0.03260766141039168 -0.015815349082983595 0.0018775492208078504
-0.032607234128867325 -0.015812792465672156 -4.896098193540865e-09
-0.03267160418555374 -0.016230900962794326 0.0018775491043925285
-0.03269608295888871 -0.016420567240652034 -4.73907846298971e-09
-0.03272458315342265 -0.01667154470930971 -4.834058930924812e-09
-0.013720973890128838 -0.0030653825135189576 0.0018775492208078504
-0.013267875696041532 -0.0030927194889522123 -4.895654992509435e-09
-0.013738962074838672 -0.003064416265457132 -4.890963634096579e-09
-0.014356847898868725 -0.0030371424301830654 0.0018775492208078504
-0.014425680877468774 -0.003034797471357003 -4.900270411667407e-09
-0.014836201032725082 -0.0030236964834429174 -4.778907491953532e-09
-0.01507889599054797 -0.0030192080767775047 0.0018775492208078504
-0.015382588372953886 -0.0030161374679259063 -4.900761574333501e-09
-0.015605207272896398 -0.003015872895336417 0.0018775491043925285
-0.01600193531530377 -0.003019939487948949 -4.824789900936821e-09
-0.01630194019287885 -0.003026512771075122 0.0018775492208078504
-0.016528314410740538 -0.003033798494838647 -4.720749124942358e-09
-0.016902195129165392 -0.003049564364333455 -4.899602057406582e-09
-0.016819801869654486 -0.0030458990638769 0.0018775491043925285
-0.017183381215341697 -0.003065593180632829 0.0018775492208078504
-0.017391970538937318 -0.0030796142864480207 -4.792969132694225e-09
-0.017775272154929193 -0.003109541504275318 -4.9216257735906765e-09
-0.01774359621217663 -0.00310711685825026 0.0018775488715618849
-0.018149394004319086 -0.0031460693441738344 0.0018775478238239884
-0.018213523795701722 -0.003153040009134231 -4.896098193540865e-09
-0.018596032299992887 -0.003197801391260395 0.0018775484059005976
-0.01863338387339039 -0.0032023466206480525 -4.790596364045996e-09
-0.018993971905932314 -0.0032528083811061213 0.0018775477074086666
-0.019045204492768617 -0.0032604750719886716 -4.896098193540865e-09
-0.01942517184358391 -0.003321171512351216 -4.8771422456184155e-09
-0.019377488773528777 -0.0033135836433534796 0.0018775484059005976
-0.01969645905232431 -0.0033703161823089413 0.0018775492208078504
-0.019887128064352784 -0.0034073644432846455 -4.826085309161954e-09
-0.020111423942436105 -0.0034535939147828792 -4.896098193540865e-09
-0.02021001711591523 -0.0034746603026047877 0.0018775492208078504
-0.02051794213994809 -0.003544854533033068 -4.849421753050365e-09
-0.021007069429674615 -0.003670000438281326 -4.898074390524698e-09
-0.020769744793834984 -0.003607080723960248 0.0018775492208078504
-0.021266070669001807 -0.003742755528081445 0.0018775492208078504
-0.021487319275320334 -0.0038086933771201295 -4.836062217350445e-09
-0.02177974817065976 -0.0039019307399033097 0.0018775492208078504
-0.02299561043035334 -0.004361932987114337 0.0018775489879772067
-0.023220130271058192 -0.004460689866022636 -4.723219149127544e-09
-0.023349961646180115 -0.00451988140328708 0.0018775489879772067
-0.02406309361903642 -0.00487313987357501 0.0018775491043925285
-0.024126033983292376 -0.0049061387304936525 -4.883961235435663e-09
-0.024439884583817715 -0.005080180055189787 0.0018775491043925285
-0.022003073058353535 -0.003977040276379737 -4.896811400811885e-09
-0.022077700113236422 -0.004003599293318246 0.0018775491043925285
-0.02231041435097249 -0.0040877946749428365 0.0018775491043925285
-0.02247946765855082 -0.004151246832393053 -4.895026606277497e-09
-0.022539475941228973 -0.0041749637778784356 0.0018775489879772067
-0.022767771715905036 -0.004266322912471504 0.0018775489879772067
-0.022946231889094983 -0.00434037585439023 -4.898253358476268e-09
-0.02362513377898888 -0.004650039540378077 -4.901479222496619e-09
-0.023570474912845488 -0.004624004274534616 0.0018775489879772067
-0.023791362928279304 -0.004732916792512471 0.0018775489879772067
-0.02451289860461192 -0.0051213970728256975 -4.897633854028527e-09
-0.024760029054553757 -0.005266755760044696 0.0018775491043925285
-0.024954120967025276 -0.00538561151842993 -4.900480021774456e-09
-0.025198428155638507 -0.005540643264134234 0.0018775492208078504
-0.025379919494099987 -0.00565992847077751 -5.07400255145285e-09
-0.0286895668298123 -0.008507426323745768 0.0018775491043925285
-0.02868698104080222 -0.008505170270516397 -2.672782883905711e-09
-0.028337740647642717 -0.00814309220076063 -2.189217029879842e-09
-0.02828862434079928 -0.008093137445357404 0.0018775492208078504
-0.02804508061127221 -0.007851083067842452 5.514240619675093e-09
-0.02798598415122458 -0.007793502874817512 0.0018775492208078504
-0.027720745042015157 -0.007539169503435978 4.9268180646322435e-09
-0.02768303813940173 -0.007503520094454616 0.0018775492208078504
-0.027421269022025564 -0.007262826216510302 4.842217293798967e-08
-0.027375745266393563 -0.007221844386119204 0.0018775492208078504
-0.02709539100405441 -0.006973971177922777 1.8440373139583244e-07
-0.02706704773155395 -0.006949153740680023 0.0018775491043925285
-0.026797860667618086 -0.006721846814896708 4.5534295622928767e-07
-0.02665514913862958 -0.00660414130817939 0.001877549453638494
-0.02650434014817125 -0.006482973609745236 4.4635427798311866e-08
-0.0262472096868053 -0.006281585761830123 0.0018775492208078504
-0.026200692415790466 -0.00624600709762193 -2.0978905279633864e-09
-0.0258304260061984 -0.005972276866090898 0.0018775492208078504
-0.02579427375491059 -0.005946342559474061 -4.504830730667209e-09
-0.025499208691609952 -0.0057410898197178565 0.0018775492208078504
-0.01323570736645504 -0.0030948182556211935 0.0018775492208078504
-0.009478682185316221 -0.003347230360938844 -4.896098193540865e-09
-0.009478682185316221 -0.003347230360938844 0.0018775492208078504
-0.01314164810225102 -0.0006834271495530249 -4.895578165076131e-09
-0.013131827249782835 -0.0006905280917174466 0.0018775492208078504
-0.023005021726213576 0.00836458771166244 -4.89605378461988e-09
-0.022425235352336988 0.007679093293494457 -4.8939061692010455e-09
-0.022853838279667745 0.00818417812854334 0.0018775492208078504
-0.022339060819184985 0.00757831280209347 0.0018775492208078504
-0.021990255325579966 0.007173190737943476 -4.886882898347267e-09
-0.0217862472145865 0.0069380611603220765 0.0018775492208078504
-0.021531434033292145 0.0066480220525284165 -4.888493609911393e-09
-0.02120234747911584 0.006278456241754381 0.0018775492208078504
-0.020968724315650073 0.0060199208852603865 -4.8642432304291106e-09
-0.020804421869708243 0.0058405721400143756 0.0018775491043925285
-0.01984940751208732 0.004836160589899469 0.0018775488715618849
-0.01955784930634514 0.004544187182325094 -4.759002525389633e-09
-0.019399263826328658 0.004387935622169441 0.0018775493372231722
-0.01920219780061356 0.0041971636739458005 -4.9027706339188626e-09
-0.018967450760872362 0.003974225250053363 0.0018775488715618849
-0.018614077251520995 0.0036457064541287293 0.0018775492208078504
-0.018665137723310285 0.0036931253816696987 -4.461833569280316e-09
-0.018273800042599618 0.003339447032675931 0.001877548755146563
-0.017510907839862953 0.002678699841926728 0.0018775491043925285
-0.017121010653372307 0.0023540887284428666 -4.895204241961437e-09
-0.017045268073607005 0.002292624536724564 0.0018775492208078504
-0.02044248096657837 0.005451001897316471 -4.88379292562513e-09
-0.020507343257401337 0.005520595168879899 0.0018775488715618849
-0.020175769208840056 0.0051711122233462255 0.0018775489879772067
-0.019904127546542867 0.004891121107575282 -4.869629588455382e-09
-0.01832814032319768 0.003387285779374445 -4.862988678411284e-09
-0.01795366397758847 0.0030580848512412385 0.0018775489879772067
-0.017752438860254717 0.0028840837059135936 -4.964372024574004e-09
-0.016493232140679243 0.0018466484733787353 -4.899297412208625e-09
-0.016014252199660562 0.0014696174485689874 -4.889253890638656e-09
-0.01601265384589622 0.001468211019695712 0.0018775492208078504
-0.014479093427400641 0.0003016207722243271 0.0018775492208078504
-0.01462976899279889 0.0004141347188904802 -4.891527183303879e-09
-0.013862966103881068 -0.00015505867308410743 -4.900914785110899e-09
-0.013767817796802022 -0.00022482331363952827 0.0018775492208078504
-0.014991978124852196 0.0006863175546931584 0.0018775492208078504
-0.015401980688814374 0.00099682288085729 -4.894441296698915e-09
-0.015479692331693997 0.001056665226324539 0.0018775492208078504
-0.016596875823432337 0.0019292193866265299 0.0018775492208078504
-0.02649297171147287 0.013032364582935371 0.0018775493372231722
-0.026480536080817213 0.013009981218067844 -5.034583860918929e-09
-0.026239612725323335 0.01259772880913143 0.0018775492208078504
-0.02628796777218798 0.012679546622450584 -4.8283190778875e-09
-0.02613390469086228 0.012427205041565454 -4.7725925433894645e-09
-0.025979032724154805 0.012184441524738033 0.0018775491043925285
-0.025922500301311373 0.012097259709514904 -4.714838741648464e-09
-0.0257211408056468 0.011798867038769019 0.0018775492208078504
-0.025594566270845675 0.011618031000169235 -4.889009641573239e-09
-0.02541816443704232 0.01137391271207652 0.0018775492208078504
-0.0252353005616816 0.011126645645963999 -4.8934025720370755e-09
-0.025086571896228115 0.010929655275899765 0.0018775492208078504
-0.024899354156831727 0.010687232975665841 -4.920024387899957e-09
-0.02472979656482511 0.010471113758780935 0.0018775492208078504
-0.02444748257511625 0.010115935366240655 -4.889257443352335e-09
-0.024354226821011238 0.010000110357127298 0.0018775492208078504
-0.023875168778207032 0.009412382748323575 -4.892764415842521e-09
-0.023735634562681827 0.009242800488686163 0.0018775492208078504
-0.030224981182323765 0.022987182853535564 -4.883191628834993e-09
-0.03007450897220681 0.022390667790958184 -4.777418460832905e-09
-0.03018695593050237 0.022833439134400214 0.0018775492208078504
-0.02994866237617443 0.021906527053204627 0.0018775492208078504
-0.02994654279084068 0.021899177705852032 -4.797298114311843e-09
-0.029816868582224095 0.021417183714782972 0.0018775491043925285
-0.02916741268413889 0.019220239315667367 0.0018775492208078504
-0.029308551429726003 0.01966833235358816 0.0018775491043925285
-0.029158952650933705 0.01919490177560261 -4.635582140366523e-09
-0.029033881356938362 0.018813221118801467 -4.729175717699263e-09
-0.028929354882473255 0.01850300767958636 0.0018775492208078504
-0.028635731615868975 0.01767445494199393 0.0018775492208078504
-0.028777339034474356 0.0180671101806083 0.0018775489879772067
-0.02863325378234239 0.017668359352705474 -4.753697879777974e-09
-0.028456337222710574 0.017198413619168313 -4.875862380515628e-09
-0.02837926961497311 0.01699959281058791 0.0018775492208078504
-0.028192759036719865 0.016534256827101832 0.0018775491043925285
-0.028035008955246684 0.01615640641341367 -4.684011400968302e-09
-0.02801651108522937 0.01611305137273805 0.0018775492208078504
-0.02785804956152044 0.01574742055042158 0.0018775489879772067
-0.027400681913624984 0.014760462677690088 0.0018775492208078504
-0.02752910291295698 0.015028470305722831 0.0018775489879772067
-0.027367006225044538 0.014691196910207793 -4.246326401613487e-09
-0.02713872503433266 0.014234001104914898 0.0018775492208078504
-0.027147956880505315 0.014252118643972484 -4.833819122751493e-09
-0.026977350338644776 0.013922053946062217 0.0009387722238898277
-0.026866929647571067 0.013713613955160454 -4.896098193540865e-09
-0.029760069261874522 0.021210026560370805 -4.927374064322976e-09
-0.029697460117916446 0.020986001859420726 0.0018775491043925285
-0.02956504919787567 0.020521491456826406 -4.8736681357297584e-09
-0.029565179212764917 0.02052262729478508 0.0018775491043925285
-0.029431381633074148 0.020070460523324656 0.0018775489879772067
-0.029314215873583283 0.019684315242851826 -4.946867360189344e-09
-0.02885499787517404 0.018287371974057588 -4.9303574556347485e-09
-0.02819274086540135 0.016533610703777468 -4.857239055411355e-09
-0.027839422929815734 0.01570498567815581 -4.889326277179862e-09
-0.027692120486032177 0.015378558267820157 0.001877548755146563
-0.027589206067220984 0.01515566448022911 -4.944560760833383e-09
-0.026828245146008154 0.013641023124125346 0.001877548755146563
-0.03144729673124451 0.034650492872309216 0.0018775489879772067
-0.031378388127682386 0.034884297064089576 -4.9813957403443965e-09
-0.03145463822406769 0.03462254143079288 -4.896098193540865e-09
-0.03149596191005855 0.03445853955770666 0.0018775486387312412
-0.03151443710189693 0.034377089601769786 -4.6444696977232525e-09
-0.031555188216285134 0.03417753804989655 -4.896098193540865e-09
-0.03155522244946735 0.034177382886297104 0.0018775492208078504
-0.031591402481279805 0.03397098773376863 -4.752016113940272e-09
-0.03160515551231364 0.033882431905173725 0.0018775489879772067
-0.03167006048077318 0.03332245912564221 0.0018775491043925285
-0.03169199438106212 0.03300053866143041 -4.853224488954311e-09
-0.03169909871950826 0.032859628577844364 0.0018775492208078504
-0.03170799281382233 0.03256878271741413 0.0018775492208078504
-0.031710923879995453 0.032306881084624615 -4.8626587201283655e-09
-0.031709768723668486 0.03206008431331412 0.0018775492208078504
-0.031706323176015336 0.03190795208411885 -4.811236298252197e-09
-0.0316924355528491 0.03149758734860605 -4.8623509663059394e-09
-0.03168660634644195 0.03138150125738666 0.0018775492208078504
-0.031658197870866246 0.03093935438991507 -4.881494319874946e-09
-0.031649007620303315 0.03081725244024941 0.0018775492208078504
-0.0316186512281787 0.030464342531119955 -4.870293057734898e-09
-0.03160125193241691 0.030284849375214504 0.0018775492208078504
-0.03153449582153047 0.02968328182565644 0.0018775492208078504
-0.03151330583412016 0.02951453143554198 -4.874072700999932e-09
-0.031448241542108735 0.029031378847594595 0.0018775492208078504
-0.03120762413964985 0.027531369323214146 0.0018775492208078504
-0.031147651617050645 0.027203193585736172 -6.600007207424596e-09
-0.031056214825850584 0.02672104032540611 0.0018775560893118382
-0.031025158833574266 0.026562630417286758 -1.1187143433843971e-09
-0.030934288272896945 0.02611110105313549 0.0018775492208078504
-0.030910001690649554 0.0259928643616084 -6.704122590406314e-09
-0.030793539993875043 0.025440415995008858 0.0018775482894852757
-0.030774139713969913 0.025351775082263144 -4.8991455336988565e-09
-0.030625484757262924 0.024680157653617977 0.0018775493372231722
-0.030608422050697612 0.024603507291510972 -1.4698535721890948e-08
-0.03042316442558224 0.023806398047337307 0.0018775492208078504
-0.03039221071119228 0.023677284691430815 -4.8975699051823085e-09
-0.03163690159850346 0.03364663523799831 -4.906989925501648e-09
-0.03163705521158304 0.03364351558333694 0.0018775492208078504
-0.03167303859974361 0.03328693054773007 -4.89042761842029e-09
-0.03170769691446246 0.03260125338433598 -4.9086974485135215e-09
-0.03156883918705778 0.029982017970227325 -4.90422902288401e-09
-0.031444666775188514 0.02900732544676124 -4.8986392719996275e-09
-0.0313705014011631 0.028507095700091592 -4.893673022365874e-09
-0.03135171955345409 0.02838725992395322 0.0018775492208078504
-0.03126434899293178 0.027858194967127832 -5.2657700422287235e-09
-0.03138799946914845 0.0348535705126354 0.0018775493372231722
-0.023459580652625177 0.03608956453420424 -4.9005937086121776e-09
-0.023521613130354092 0.03610833814447409 0.0018775492208078504
-0.023962064968329942 0.036237030038700324 0.0018775492208078504
-0.024081207352513647 0.03627101448758378 -4.852789725617868e-09
-0.02464019498432682 0.036424099325582916 0.0018775492208078504
-0.024635362651816116 0.03642242549514221 -4.8723056700339384e-09
-0.02512720769768864 0.03654731575627676 -4.805234432581074e-09
-0.02539268199700639 0.03661083269636457 0.0018775491043925285
-0.026620544906966012 0.036855053406203125 0.0018775492208078504
-0.026300331263487037 0.0368000229670611 0.0018775492208078504
-0.026535015051634584 0.03684134415420727 -4.865766900508106e-09
-0.026946521298442563 0.03690355599427936 -4.876191894709336e-09
-0.026987054473407858 0.03690868707903388 0.0018775492208078504
-0.02728293239218756 0.036944148993203925 0.0018775492208078504
-0.0273361911156137 0.036949641132859236 -4.8289918730404224e-09
-0.027622500547984565 0.036974044602587186 0.0018775491043925285
-0.027715899782087352 0.03698075189402734 -4.845640777517701e-09
-0.02794368010050232 0.03699097490193578 0.0018775492208078504
-0.028068842385949352 0.03699408054877163 -4.8587494028140554e-09
-0.02820047980158531 0.036994563742456 0.0018775492208078504
-0.028395857035854212 0.03699124350149894 -4.653231133744384e-09
-0.028567281948933924 0.03698335153832404 0.0018775491043925285
-0.029548270703448645 0.03681230618901186 0.0018775486387312412
-0.029591464902171207 0.036797916369665305 -4.804851183592973e-09
-0.029753692957116825 0.036739579754277246 0.0018775492208078504
-0.029808969685735254 0.03671749272514885 -4.320933388868298e-09
-0.029966694658644943 0.036646176673489544 0.0018775489879772067
-0.029948972914519437 0.03665427765706327 -1.7768791993333366e-09
-0.030064957090687933 0.036595003654786365 -2.227021234091353e-09
-0.03015986991358296 0.036540567378516825 0.0018775473581627011
-0.030387165055405306 0.036386161150498454 0.001877524540759623
-0.03041419374814225 0.03636619008715023 6.10432806524841e-08
-0.030552452662501266 0.036247881737140455 0.0018775163916870952
-0.03064479919542845 0.036158542612974486 7.343657681957438e-09
-0.030706983103663786 0.0360932680026585 0.0018775491043925285
-0.03081135422882347 0.0359718727812291 0.0018775491043925285
-0.030867587867846658 0.035899394582669324 -2.4583184377036105e-09
-0.03097426911941155 0.03574899335952435 0.001877548056654632
-0.030978897982266673 0.03574191914056136 -3.872286047368334e-09
-0.031106210960062147 0.03552628077050186 0.0018775489879772067
-0.03120123874875341 0.03533526733900917 0.0018775491043925285
