ply
format ascii 1.0
element vertex 727
property float x
property float y
property float z
property uchar red
property uchar green
property uchar blue
end_header
12.2232084274292 -11.740267753601074 1.4999998807907104 0 255 0
12.13268756866455 -11.826593399047852 1.9999970197677612 0 255 0
12.102157592773438 -11.856246948242188 1.7499984502792358 0 255 0
12.102157592773438 -11.856246948242188 1.4999998807907104 0 255 0
12.039328575134277 -11.91808795928955 1.9999970197677612 0 255 0
11.97596549987793 -11.981424331665039 1.7499984502792358 0 255 0
11.97596549987793 -11.981424331665039 1.4999998807907104 0 255 0
11.94340705871582 -12.014352798461914 1.9999970197677612 0 255 0
11.84579849243164 -12.114429473876953 1.7499984502792358 0 255 0
11.84579849243164 -12.114429473876953 1.4999998807907104 0 255 0
11.845386505126953 -12.1148681640625 1.9999970197677612 0 255 0
11.745735168457031 -12.219070434570312 1.9999970197677612 0 255 0
11.712764739990234 -12.253988265991211 1.7499984502792358 0 255 0
11.644987106323242 -12.3263578414917 1.9999970197677612 0 255 0
11.577978134155273 -12.398714065551758 1.7499984502792358 0 255 0
11.441969871520996 -12.548006057739258 1.9999970197677612 0 255 0
11.307771682739258 -12.698408126831055 1.7499984502792358 0 255 0
11.240159034729004 -12.77532958984375 1.9999970197677612 0 255 0
11.044174194335938 -13.002886772155762 1.7499984502792358 0 255 0
11.043365478515625 -13.003846168518066 1.9999970197677612 0 255 0
10.917694091796875 -13.153590202331543 1.7499984502792358 0 255 0
10.855427742004395 -13.229018211364746 1.9999970197677612 0 255 0
10.796258926391602 -13.301497459411621 1.7499984502792358 0 255 0
10.765962600708008 -13.338977813720703 1.9999970197677612 0 255 0
10.681007385253906 -13.445292472839355 1.7499984502792358 0 255 0
10.680130004882812 -13.446402549743652 1.9999970197677612 0 255 0
10.598437309265137 -13.550756454467773 1.9999970197677612 0 255 0
10.573075294494629 -13.583616256713867 1.7499984502792358 0 255 0
10.521324157714844 -13.651449203491211 1.9999970197677612 0 255 0
10.473410606384277 -13.715373992919922 1.7499984502792358 0 255 0
10.449310302734375 -13.747974395751953 1.9999970197677612 0 255 0
10.427115440368652 -13.778271675109863 1.7499984502792358 0 255 0
10.382821083068848 -13.839715957641602 1.9999970197677612 0 255 0
10.383356094360352 -13.83897590637207 1.7499984502792358 0 255 0
10.342296600341797 -13.897307395935059 1.7499984502792358 0 255 0
10.383356094360352 -13.83897590637207 1.4999998807907104 0 255 0
10.342296600341797 -13.897307395935059 1.4999998807907104 0 255 0
10.322391510009766 -13.926137924194336 1.9999970197677612 0 255 0
10.304048538208008 -13.953103065490723 1.7499984502792358 0 255 0
10.304048538208008 -13.953103065490723 1.4999998807907104 0 255 0
10.268460273742676 -14.006678581237793 1.9999970197677612 0 255 0
10.26877498626709 -14.006184577941895 1.7499984502792358 0 255 0
10.26877498626709 -14.006184577941895 1.4999998807907104 0 255 0
10.236614227294922 -14.056414604187012 1.7499984502792358 0 255 0
10.221506118774414 -14.080761909484863 1.9999970197677612 0 255 0
12.445419311523438 -11.541130065917969 0.49999192357063293 0 255 0
12.392693519592285 -11.586397171020508 0.49999192357063293 0 255 0
12.445419311523438 -11.541130065917969 1.4999998807907104 0 255 0
11.712764739990234 -12.253988265991211 1.4999998807907104 0 255 0
11.577978134155273 -12.398714065551758 1.4999998807907104 0 255 0
11.307771682739258 -12.698408126831055 1.4999998807907104 0 255 0
11.044174194335938 -13.002886772155762 1.4999998807907104 0 255 0
10.917694091796875 -13.153590202331543 1.4999998807907104 0 255 0
10.796258926391602 -13.301497459411621 1.4999998807907104 0 255 0
10.681007385253906 -13.445292472839355 1.4999998807907104 0 255 0
10.573075294494629 -13.583616256713867 1.4999998807907104 0 255 0
10.473410606384277 -13.715373992919922 1.4999998807907104 0 255 0
10.427115440368652 -13.778271675109863 1.4999998807907104 0 255 0
10.182188987731934 -14.147552490234375 1.4999998807907104 0 255 0
10.160199165344238 -14.188158988952637 1.4999998807907104 0 255 0
10.141898155212402 -14.225228309631348 1.4999998807907104 0 255 0
10.12740707397461 -14.25856876373291 1.4999998807907104 0 255 0
10.11689281463623 -14.288043022155762 1.4999998807907104 0 255 0
10.846900939941406 -14.675859451293945 -5.21540641784668e-06 0 255 0
10.925891876220703 -14.697931289672852 0.09999558329582214 0 255 0
11.035290718078613 -14.726651191711426 -5.21540641784668e-06 0 255 0
10.925891876220703 -14.697931289672852 0.19999295473098755 0 255 0
10.925891876220703 -14.697931289672852 0.2999971807003021 0 255 0
10.82046890258789 -14.668209075927734 0.19999295473098755 0 255 0
10.82046890258789 -14.668209075927734 0.2999971807003021 0 255 0
10.719694137573242 -14.637693405151367 0.19999295473098755 0 255 0
10.719694137573242 -14.637693405151367 0.2999971807003021 0 255 0
10.624238014221191 -14.606697082519531 0.19999295473098755 0 255 0
10.624238014221191 -14.606697082519531 0.2999971807003021 0 255 0
10.534758567810059 -14.575536727905273 0.19999295473098755 0 255 0
10.534758567810059 -14.575536727905273 0.2999971807003021 0 255 0
10.45192813873291 -14.54445743560791 0.19999295473098755 0 255 0
10.45192813873291 -14.54445743560791 0.2999971807003021 0 255 0
10.376419067382812 -14.513776779174805 0.19999295473098755 0 255 0
10.376419067382812 -14.513776779174805 0.2999971807003021 0 255 0
10.308860778808594 -14.48376750946045 0.19999295473098755 0 255 0
10.308860778808594 -14.48376750946045 0.2999971807003021 0 255 0
10.264114379882812 -14.462011337280273 0.19999295473098755 0 255 0
10.264114379882812 -14.462011337280273 0.2999971807003021 0 255 0
10.22442626953125 -14.440913200378418 0.19999295473098755 0 255 0
10.22442626953125 -14.440913200378418 0.2999971807003021 0 255 0
10.190085411071777 -14.42058277130127 0.19999295473098755 0 255 0
10.190085411071777 -14.42058277130127 0.2999971807003021 0 255 0
10.161392211914062 -14.401143074035645 0.19999295473098755 0 255 0
10.161392211914062 -14.401143074035645 0.2999971807003021 0 255 0
10.138580322265625 -14.382732391357422 0.19999295473098755 0 255 0
10.138580322265625 -14.382732391357422 0.2999971807003021 0 255 0
10.12193775177002 -14.36543083190918 0.19999295473098755 0 255 0
10.12193775177002 -14.36543083190918 0.2999971807003021 0 255 0
10.111751556396484 -14.349405288696289 0.19999295473098755 0 255 0
10.111751556396484 -14.349405288696289 0.2999971807003021 0 255 0
10.109174728393555 -14.341865539550781 0.19999295473098755 0 255 0
10.109174728393555 -14.341865539550781 0.09999558329582214 0 255 0
10.108612060546875 -14.338876724243164 -5.21540641784668e-06 0 255 0
10.109489440917969 -14.3431396484375 -5.21540641784668e-06 0 255 0
10.111751556396484 -14.349405288696289 0.09999558329582214 0 255 0
10.11302661895752 -14.35203742980957 -5.21540641784668e-06 0 255 0
10.118866920471191 -14.361400604248047 -5.21540641784668e-06 0 255 0
10.12193775177002 -14.36543083190918 0.09999558329582214 0 255 0
10.126914024353027 -14.37120246887207 -5.21540641784668e-06 0 255 0
10.138580322265625 -14.382732391357422 0.09999558329582214 0 255 0
10.149519920349121 -14.392040252685547 -5.21540641784668e-06 0 255 0
10.161392211914062 -14.401143074035645 0.09999558329582214 0 255 0
10.18039321899414 -14.414331436157227 -5.21540641784668e-06 0 255 0
10.190085411071777 -14.42058277130127 0.09999558329582214 0 255 0
10.219093322753906 -14.437896728515625 -5.21540641784668e-06 0 255 0
10.22442626953125 -14.440913200378418 0.09999558329582214 0 255 0
10.26519775390625 -14.462559700012207 -5.21540641784668e-06 0 255 0
10.264114379882812 -14.462011337280273 0.09999558329582214 0 255 0
10.308860778808594 -14.48376750946045 0.09999558329582214 0 255 0
10.82046890258789 -14.668209075927734 0.09999558329582214 0 255 0
10.757613182067871 -14.6494140625 -5.21540641784668e-06 0 255 0
10.719694137573242 -14.637693405151367 0.09999558329582214 0 255 0
10.672178268432617 -14.622530937194824 -5.21540641784668e-06 0 255 0
10.624238014221191 -14.606697082519531 0.09999558329582214 0 255 0
10.591033935546875 -14.595386505126953 -5.21540641784668e-06 0 255 0
10.534758567810059 -14.575536727905273 0.09999558329582214 0 255 0
10.514619827270508 -14.568202018737793 -5.21540641784668e-06 0 255 0
10.45192813873291 -14.54445743560791 0.09999558329582214 0 255 0
10.443387985229492 -14.541112899780273 -5.21540641784668e-06 0 255 0
10.376419067382812 -14.513776779174805 0.09999558329582214 0 255 0
10.377776145935059 -14.514366149902344 -5.21540641784668e-06 0 255 0
10.3182373046875 -14.488100051879883 -5.21540641784668e-06 0 255 0
10.109174728393555 -14.341865539550781 0.49999192357063293 0 255 0
10.109174728393555 -14.341865539550781 0.39999455213546753 0 255 0
10.109174728393555 -14.341865539550781 0.2999971807003021 0 255 0
10.111751556396484 -14.349405288696289 0.39999455213546753 0 255 0
10.12193775177002 -14.36543083190918 0.39999455213546753 0 255 0
10.138580322265625 -14.382732391357422 0.39999455213546753 0 255 0
10.161392211914062 -14.401143074035645 0.39999455213546753 0 255 0
10.190085411071777 -14.42058277130127 0.39999455213546753 0 255 0
10.22442626953125 -14.440913200378418 0.39999455213546753 0 255 0
10.264114379882812 -14.462011337280273 0.39999455213546753 0 255 0
10.308860778808594 -14.48376750946045 0.39999455213546753 0 255 0
10.376419067382812 -14.513776779174805 0.39999455213546753 0 255 0
10.45192813873291 -14.54445743560791 0.39999455213546753 0 255 0
10.534758567810059 -14.575536727905273 0.39999455213546753 0 255 0
10.624238014221191 -14.606697082519531 0.39999455213546753 0 255 0
10.719694137573242 -14.637693405151367 0.39999455213546753 0 255 0
10.82046890258789 -14.668209075927734 0.39999455213546753 0 255 0
10.925891876220703 -14.697931289672852 0.39999455213546753 0 255 0
10.925891876220703 -14.697931289672852 0.49999192357063293 0 255 0
11.035290718078613 -14.726651191711426 0.9999959468841553 0 255 0
10.925891876220703 -14.697931289672852 0.5999961495399475 0 255 0
10.925891876220703 -14.697931289672852 0.6999969482421875 0 255 0
10.82046890258789 -14.668209075927734 0.5999961495399475 0 255 0
10.82046890258789 -14.668209075927734 0.6999969482421875 0 255 0
10.719694137573242 -14.637693405151367 0.5999961495399475 0 255 0
10.719694137573242 -14.637693405151367 0.6999969482421875 0 255 0
10.624238014221191 -14.606697082519531 0.5999961495399475 0 255 0
10.624238014221191 -14.606697082519531 0.6999969482421875 0 255 0
10.534758567810059 -14.575536727905273 0.5999961495399475 0 255 0
10.534758567810059 -14.575536727905273 0.6999969482421875 0 255 0
10.45192813873291 -14.54445743560791 0.5999961495399475 0 255 0
10.45192813873291 -14.54445743560791 0.6999969482421875 0 255 0
10.376419067382812 -14.513776779174805 0.5999961495399475 0 255 0
10.376419067382812 -14.513776779174805 0.6999969482421875 0 255 0
10.308860778808594 -14.48376750946045 0.5999961495399475 0 255 0
10.308860778808594 -14.48376750946045 0.6999969482421875 0 255 0
10.264114379882812 -14.462011337280273 0.5999961495399475 0 255 0
10.264114379882812 -14.462011337280273 0.6999969482421875 0 255 0
10.22442626953125 -14.440913200378418 0.5999961495399475 0 255 0
10.22442626953125 -14.440913200378418 0.6999969482421875 0 255 0
10.190085411071777 -14.42058277130127 0.5999961495399475 0 255 0
10.190085411071777 -14.42058277130127 0.6999969482421875 0 255 0
10.161392211914062 -14.401143074035645 0.5999961495399475 0 255 0
10.161392211914062 -14.401143074035645 0.6999969482421875 0 255 0
10.138580322265625 -14.382732391357422 0.5999961495399475 0 255 0
10.138580322265625 -14.382732391357422 0.6999969482421875 0 255 0
10.12193775177002 -14.36543083190918 0.5999961495399475 0 255 0
10.12193775177002 -14.36543083190918 0.6999969482421875 0 255 0
10.111751556396484 -14.349405288696289 0.5999961495399475 0 255 0
10.111751556396484 -14.349405288696289 0.6999969482421875 0 255 0
10.109174728393555 -14.341865539550781 0.5999961495399475 0 255 0
10.108612060546875 -14.338876724243164 1.9999970197677612 0 255 0
10.109174728393555 -14.341865539550781 1.0999932289123535 0 255 0
10.109174728393555 -14.341865539550781 0.9999959468841553 0 255 0
10.111751556396484 -14.349405288696289 1.0999932289123535 0 255 0
10.111751556396484 -14.349405288696289 0.9999959468841553 0 255 0
10.12193775177002 -14.36543083190918 1.0999932289123535 0 255 0
10.12193775177002 -14.36543083190918 0.9999959468841553 0 255 0
10.138580322265625 -14.382732391357422 1.0999932289123535 0 255 0
10.138580322265625 -14.382732391357422 0.9999959468841553 0 255 0
10.161392211914062 -14.401143074035645 1.0999932289123535 0 255 0
10.161392211914062 -14.401143074035645 0.9999959468841553 0 255 0
10.190085411071777 -14.42058277130127 1.0999932289123535 0 255 0
10.190085411071777 -14.42058277130127 0.9999959468841553 0 255 0
10.22442626953125 -14.440913200378418 1.0999932289123535 0 255 0
10.22442626953125 -14.440913200378418 0.9999959468841553 0 255 0
10.264114379882812 -14.462011337280273 1.0999932289123535 0 255 0
10.264114379882812 -14.462011337280273 0.9999959468841553 0 255 0
10.308860778808594 -14.48376750946045 1.0999932289123535 0 255 0
10.308860778808594 -14.48376750946045 0.9999959468841553 0 255 0
10.376419067382812 -14.513776779174805 1.0999932289123535 0 255 0
10.376419067382812 -14.513776779174805 0.9999959468841553 0 255 0
10.45192813873291 -14.54445743560791 1.0999932289123535 0 255 0
10.45192813873291 -14.54445743560791 0.9999959468841553 0 255 0
10.534758567810059 -14.575536727905273 1.0999932289123535 0 255 0
10.534758567810059 -14.575536727905273 0.9999959468841553 0 255 0
10.624238014221191 -14.606697082519531 1.0999932289123535 0 255 0
10.624238014221191 -14.606697082519531 0.9999959468841553 0 255 0
10.719694137573242 -14.637693405151367 1.0999932289123535 0 255 0
10.719694137573242 -14.637693405151367 0.9999959468841553 0 255 0
10.82046890258789 -14.668209075927734 1.0999932289123535 0 255 0
10.82046890258789 -14.668209075927734 0.9999959468841553 0 255 0
10.925891876220703 -14.697931289672852 1.0999932289123535 0 255 0
10.925891876220703 -14.697931289672852 1.1999975442886353 0 255 0
10.925891876220703 -14.697931289672852 1.299994945526123 0 255 0
10.925891876220703 -14.697931289672852 1.3999956846237183 0 255 0
10.82046890258789 -14.668209075927734 1.299994945526123 0 255 0
10.82046890258789 -14.668209075927734 1.3999956846237183 0 255 0
10.719694137573242 -14.637693405151367 1.299994945526123 0 255 0
10.719694137573242 -14.637693405151367 1.3999956846237183 0 255 0
10.624238014221191 -14.606697082519531 1.299994945526123 0 255 0
10.624238014221191 -14.606697082519531 1.3999956846237183 0 255 0
10.534758567810059 -14.575536727905273 1.299994945526123 0 255 0
10.534758567810059 -14.575536727905273 1.3999956846237183 0 255 0
10.45192813873291 -14.54445743560791 1.299994945526123 0 255 0
10.45192813873291 -14.54445743560791 1.3999956846237183 0 255 0
10.376419067382812 -14.513776779174805 1.299994945526123 0 255 0
10.376419067382812 -14.513776779174805 1.3999956846237183 0 255 0
10.308860778808594 -14.48376750946045 1.299994945526123 0 255 0
10.308860778808594 -14.48376750946045 1.3999956846237183 0 255 0
10.264114379882812 -14.462011337280273 1.299994945526123 0 255 0
10.264114379882812 -14.462011337280273 1.3999956846237183 0 255 0
10.22442626953125 -14.440913200378418 1.299994945526123 0 255 0
10.22442626953125 -14.440913200378418 1.3999956846237183 0 255 0
10.190085411071777 -14.42058277130127 1.299994945526123 0 255 0
10.190085411071777 -14.42058277130127 1.3999956846237183 0 255 0
10.161392211914062 -14.401143074035645 1.299994945526123 0 255 0
10.161392211914062 -14.401143074035645 1.3999956846237183 0 255 0
10.138580322265625 -14.382732391357422 1.299994945526123 0 255 0
10.138580322265625 -14.382732391357422 1.3999956846237183 0 255 0
10.12193775177002 -14.36543083190918 1.299994945526123 0 255 0
10.12193775177002 -14.36543083190918 1.3999956846237183 0 255 0
10.111751556396484 -14.349405288696289 1.299994945526123 0 255 0
10.111751556396484 -14.349405288696289 1.3999956846237183 0 255 0
10.109174728393555 -14.341865539550781 1.299994945526123 0 255 0
10.109174728393555 -14.341865539550781 1.1999975442886353 0 255 0
10.109489440917969 -14.3431396484375 1.9999970197677612 0 255 0
10.109174728393555 -14.341865539550781 1.899996280670166 0 255 0
10.109174728393555 -14.341865539550781 1.7999988794326782 0 255 0
10.109174728393555 -14.341865539550781 1.699994683265686 0 255 0
10.111751556396484 -14.349405288696289 1.7999988794326782 0 255 0
10.111751556396484 -14.349405288696289 1.699994683265686 0 255 0
10.12193775177002 -14.36543083190918 1.7999988794326782 0 255 0
10.12193775177002 -14.36543083190918 1.699994683265686 0 255 0
10.138580322265625 -14.382732391357422 1.7999988794326782 0 255 0
10.138580322265625 -14.382732391357422 1.699994683265686 0 255 0
10.161392211914062 -14.401143074035645 1.7999988794326782 0 255 0
10.161392211914062 -14.401143074035645 1.699994683265686 0 255 0
10.190085411071777 -14.42058277130127 1.7999988794326782 0 255 0
10.190085411071777 -14.42058277130127 1.699994683265686 0 255 0
10.22442626953125 -14.440913200378418 1.7999988794326782 0 255 0
10.22442626953125 -14.440913200378418 1.699994683265686 0 255 0
10.264114379882812 -14.462011337280273 1.7999988794326782 0 255 0
10.264114379882812 -14.462011337280273 1.699994683265686 0 255 0
10.308860778808594 -14.48376750946045 1.7999988794326782 0 255 0
10.308860778808594 -14.48376750946045 1.699994683265686 0 255 0
10.376419067382812 -14.513776779174805 1.7999988794326782 0 255 0
10.376419067382812 -14.513776779174805 1.699994683265686 0 255 0
10.45192813873291 -14.54445743560791 1.7999988794326782 0 255 0
10.45192813873291 -14.54445743560791 1.699994683265686 0 255 0
10.534758567810059 -14.575536727905273 1.7999988794326782 0 255 0
10.534758567810059 -14.575536727905273 1.699994683265686 0 255 0
10.624238014221191 -14.606697082519531 1.7999988794326782 0 255 0
10.624238014221191 -14.606697082519531 1.699994683265686 0 255 0
10.719694137573242 -14.637693405151367 1.7999988794326782 0 255 0
10.719694137573242 -14.637693405151367 1.699994683265686 0 255 0
10.82046890258789 -14.668209075927734 1.7999988794326782 0 255 0
10.82046890258789 -14.668209075927734 1.699994683265686 0 255 0
10.925891876220703 -14.697931289672852 1.7999988794326782 0 255 0
10.925891876220703 -14.697931289672852 1.899996280670166 0 255 0
11.035290718078613 -14.726651191711426 1.9999970197677612 0 255 0
10.846900939941406 -14.675859451293945 1.9999970197677612 0 255 0
10.82046890258789 -14.668209075927734 1.899996280670166 0 255 0
10.757613182067871 -14.6494140625 1.9999970197677612 0 255 0
10.719694137573242 -14.637693405151367 1.899996280670166 0 255 0
10.672178268432617 -14.622530937194824 1.9999970197677612 0 255 0
10.624238014221191 -14.606697082519531 1.899996280670166 0 255 0
10.591033935546875 -14.595386505126953 1.9999970197677612 0 255 0
10.534758567810059 -14.575536727905273 1.899996280670166 0 255 0
10.514619827270508 -14.568202018737793 1.9999970197677612 0 255 0
10.45192813873291 -14.54445743560791 1.899996280670166 0 255 0
10.443387985229492 -14.541112899780273 1.9999970197677612 0 255 0
10.376419067382812 -14.513776779174805 1.899996280670166 0 255 0
10.377776145935059 -14.514366149902344 1.9999970197677612 0 255 0
10.3182373046875 -14.488100051879883 1.9999970197677612 0 255 0
10.308860778808594 -14.48376750946045 1.899996280670166 0 255 0
10.26519775390625 -14.462559700012207 1.9999970197677612 0 255 0
10.264114379882812 -14.462011337280273 1.899996280670166 0 255 0
10.22442626953125 -14.440913200378418 1.899996280670166 0 255 0
10.111751556396484 -14.349405288696289 1.899996280670166 0 255 0
10.11302661895752 -14.35203742980957 1.9999970197677612 0 255 0
10.118866920471191 -14.361400604248047 1.9999970197677612 0 255 0
10.12193775177002 -14.36543083190918 1.899996280670166 0 255 0
10.126914024353027 -14.37120246887207 1.9999970197677612 0 255 0
10.138580322265625 -14.382732391357422 1.899996280670166 0 255 0
10.149519920349121 -14.392040252685547 1.9999970197677612 0 255 0
10.161392211914062 -14.401143074035645 1.899996280670166 0 255 0
10.18039321899414 -14.414331436157227 1.9999970197677612 0 255 0
10.190085411071777 -14.42058277130127 1.899996280670166 0 255 0
10.219093322753906 -14.437896728515625 1.9999970197677612 0 255 0
10.925891876220703 -14.697931289672852 1.4999998807907104 0 255 0
10.925891876220703 -14.697931289672852 1.5999972820281982 0 255 0
10.925891876220703 -14.697931289672852 1.699994683265686 0 255 0
10.82046890258789 -14.668209075927734 1.5999972820281982 0 255 0
10.719694137573242 -14.637693405151367 1.5999972820281982 0 255 0
10.624238014221191 -14.606697082519531 1.5999972820281982 0 255 0
10.534758567810059 -14.575536727905273 1.5999972820281982 0 255 0
10.45192813873291 -14.54445743560791 1.5999972820281982 0 255 0
10.376419067382812 -14.513776779174805 1.5999972820281982 0 255 0
10.308860778808594 -14.48376750946045 1.5999972820281982 0 255 0
10.264114379882812 -14.462011337280273 1.5999972820281982 0 255 0
10.22442626953125 -14.440913200378418 1.5999972820281982 0 255 0
10.190085411071777 -14.42058277130127 1.5999972820281982 0 255 0
10.161392211914062 -14.401143074035645 1.5999972820281982 0 255 0
10.138580322265625 -14.382732391357422 1.5999972820281982 0 255 0
10.12193775177002 -14.36543083190918 1.5999972820281982 0 255 0
10.111751556396484 -14.349405288696289 1.5999972820281982 0 255 0
10.109174728393555 -14.341865539550781 1.5999972820281982 0 255 0
10.109174728393555 -14.341865539550781 1.4999998807907104 0 255 0
10.109174728393555 -14.341865539550781 1.3999956846237183 0 255 0
10.925891876220703 -14.697931289672852 0.7999943494796753 0 255 0
10.82046890258789 -14.668209075927734 0.7999943494796753 0 255 0
10.719694137573242 -14.637693405151367 0.7999943494796753 0 255 0
10.624238014221191 -14.606697082519531 0.7999943494796753 0 255 0
10.534758567810059 -14.575536727905273 0.7999943494796753 0 255 0
10.45192813873291 -14.54445743560791 0.7999943494796753 0 255 0
10.376419067382812 -14.513776779174805 0.7999943494796753 0 255 0
10.308860778808594 -14.48376750946045 0.7999943494796753 0 255 0
10.264114379882812 -14.462011337280273 0.7999943494796753 0 255 0
10.22442626953125 -14.440913200378418 0.7999943494796753 0 255 0
10.190085411071777 -14.42058277130127 0.7999943494796753 0 255 0
10.161392211914062 -14.401143074035645 0.7999943494796753 0 255 0
10.138580322265625 -14.382732391357422 0.7999943494796753 0 255 0
10.12193775177002 -14.36543083190918 0.7999943494796753 0 255 0
10.111751556396484 -14.349405288696289 0.7999943494796753 0 255 0
10.109174728393555 -14.341865539550781 0.6999969482421875 0 255 0
10.109174728393555 -14.341865539550781 0.7999943494796753 0 255 0
10.109174728393555 -14.341865539550781 0.8999985456466675 0 255 0
10.925891876220703 -14.697931289672852 0.9999959468841553 0 255 0
10.925891876220703 -14.697931289672852 0.8999985456466675 0 255 0
10.82046890258789 -14.668209075927734 1.4999998807907104 0 255 0
10.719694137573242 -14.637693405151367 1.4999998807907104 0 255 0
10.624238014221191 -14.606697082519531 1.4999998807907104 0 255 0
10.534758567810059 -14.575536727905273 1.4999998807907104 0 255 0
10.45192813873291 -14.54445743560791 1.4999998807907104 0 255 0
10.376419067382812 -14.513776779174805 1.4999998807907104 0 255 0
10.308860778808594 -14.48376750946045 1.4999998807907104 0 255 0
10.264114379882812 -14.462011337280273 1.4999998807907104 0 255 0
10.22442626953125 -14.440913200378418 1.4999998807907104 0 255 0
10.190085411071777 -14.42058277130127 1.4999998807907104 0 255 0
10.161392211914062 -14.401143074035645 1.4999998807907104 0 255 0
10.138580322265625 -14.382732391357422 1.4999998807907104 0 255 0
10.12193775177002 -14.36543083190918 1.4999998807907104 0 255 0
10.111751556396484 -14.349405288696289 1.4999998807907104 0 255 0
10.111751556396484 -14.349405288696289 1.1999975442886353 0 255 0
10.12193775177002 -14.36543083190918 1.1999975442886353 0 255 0
10.138580322265625 -14.382732391357422 1.1999975442886353 0 255 0
10.161392211914062 -14.401143074035645 1.1999975442886353 0 255 0
10.190085411071777 -14.42058277130127 1.1999975442886353 0 255 0
10.22442626953125 -14.440913200378418 1.1999975442886353 0 255 0
10.264114379882812 -14.462011337280273 1.1999975442886353 0 255 0
10.308860778808594 -14.48376750946045 1.1999975442886353 0 255 0
10.376419067382812 -14.513776779174805 1.1999975442886353 0 255 0
10.45192813873291 -14.54445743560791 1.1999975442886353 0 255 0
10.534758567810059 -14.575536727905273 1.1999975442886353 0 255 0
10.624238014221191 -14.606697082519531 1.1999975442886353 0 255 0
10.719694137573242 -14.637693405151367 1.1999975442886353 0 255 0
10.82046890258789 -14.668209075927734 1.1999975442886353 0 255 0
10.82046890258789 -14.668209075927734 0.8999985456466675 0 255 0
10.719694137573242 -14.637693405151367 0.8999985456466675 0 255 0
10.624238014221191 -14.606697082519531 0.8999985456466675 0 255 0
10.534758567810059 -14.575536727905273 0.8999985456466675 0 255 0
10.45192813873291 -14.54445743560791 0.8999985456466675 0 255 0
10.376419067382812 -14.513776779174805 0.8999985456466675 0 255 0
10.308860778808594 -14.48376750946045 0.8999985456466675 0 255 0
10.264114379882812 -14.462011337280273 0.8999985456466675 0 255 0
10.22442626953125 -14.440913200378418 0.8999985456466675 0 255 0
10.190085411071777 -14.42058277130127 0.8999985456466675 0 255 0
10.161392211914062 -14.401143074035645 0.8999985456466675 0 255 0
10.138580322265625 -14.382732391357422 0.8999985456466675 0 255 0
10.12193775177002 -14.36543083190918 0.8999985456466675 0 255 0
10.111751556396484 -14.349405288696289 0.8999985456466675 0 255 0
10.111751556396484 -14.349405288696289 0.49999192357063293 0 255 0
10.12193775177002 -14.36543083190918 0.49999192357063293 0 255 0
10.138580322265625 -14.382732391357422 0.49999192357063293 0 255 0
10.161392211914062 -14.401143074035645 0.49999192357063293 0 255 0
10.190085411071777 -14.42058277130127 0.49999192357063293 0 255 0
10.22442626953125 -14.440913200378418 0.49999192357063293 0 255 0
10.264114379882812 -14.462011337280273 0.49999192357063293 0 255 0
10.308860778808594 -14.48376750946045 0.49999192357063293 0 255 0
10.376419067382812 -14.513776779174805 0.49999192357063293 0 255 0
10.45192813873291 -14.54445743560791 0.49999192357063293 0 255 0
10.534758567810059 -14.575536727905273 0.49999192357063293 0 255 0
10.624238014221191 -14.606697082519531 0.49999192357063293 0 255 0
10.719694137573242 -14.637693405151367 0.49999192357063293 0 255 0
10.82046890258789 -14.668209075927734 0.49999192357063293 0 255 0
14.031791687011719 -17.25232696533203 -5.21540641784668e-06 0 255 0
13.973335266113281 -17.14447784423828 -5.21540641784668e-06 0 255 0
14.031791687011719 -17.25232696533203 0.9999959468841553 0 255 0
13.9298095703125 -17.068721771240234 0.6666633486747742 0 255 0
13.9298095703125 -17.068721771240234 0.9999959468841553 0 255 0
13.817463874816895 -16.887516021728516 0.6666633486747742 0 255 0
13.817463874816895 -16.887516021728516 0.9999959468841553 0 255 0
13.695480346679688 -16.70928382873535 0.6666633486747742 0 255 0
13.695480346679688 -16.70928382873535 0.9999959468841553 0 255 0
13.56450366973877 -16.534576416015625 0.6666633486747742 0 255 0
13.56450366973877 -16.534576416015625 0.9999959468841553 0 255 0
13.425247192382812 -16.36392593383789 0.6666633486747742 0 255 0
13.425247192382812 -16.36392593383789 0.9999959468841553 0 255 0
13.27836799621582 -16.197935104370117 0.6666633486747742 0 255 0
13.27836799621582 -16.197935104370117 0.9999959468841553 0 255 0
13.124580383300781 -16.03710174560547 0.6666633486747742 0 255 0
13.124580383300781 -16.03710174560547 0.9999959468841553 0 255 0
12.964567184448242 -15.882038116455078 0.6666633486747742 0 255 0
12.964567184448242 -15.882038116455078 0.9999959468841553 0 255 0
12.85390853881836 -15.78135871887207 0.6666633486747742 0 255 0
12.85390853881836 -15.78135871887207 0.9999959468841553 0 255 0
12.740945816040039 -15.68368148803711 0.6666633486747742 0 255 0
12.740945816040039 -15.68368148803711 0.9999959468841553 0 255 0
12.625898361206055 -15.589198112487793 0.6666633486747742 0 255 0
12.625898361206055 -15.589198112487793 0.9999959468841553 0 255 0
12.508987426757812 -15.49803352355957 0.6666633486747742 0 255 0
12.508987426757812 -15.49803352355957 0.9999959468841553 0 255 0
12.390390396118164 -15.410405158996582 0.6666633486747742 0 255 0
12.390390396118164 -15.410405158996582 0.9999959468841553 0 255 0
12.270339965820312 -15.32646369934082 0.6666633486747742 0 255 0
12.270339965820312 -15.32646369934082 0.9999959468841553 0 255 0
12.149028778076172 -15.24636173248291 0.6666633486747742 0 255 0
12.149028778076172 -15.24636173248291 0.9999959468841553 0 255 0
12.0266752243042 -15.170289993286133 0.6666633486747742 0 255 0
12.0266752243042 -15.170289993286133 0.9999959468841553 0 255 0
11.903499603271484 -15.098413467407227 0.6666633486747742 0 255 0
11.903499603271484 -15.098413467407227 0.9999959468841553 0 255 0
11.779679298400879 -15.030869483947754 0.6666633486747742 0 255 0
11.779679298400879 -15.030869483947754 0.9999959468841553 0 255 0
11.655433654785156 -14.967876434326172 0.6666633486747742 0 255 0
11.655433654785156 -14.967876434326172 0.9999959468841553 0 255 0
11.531010627746582 -14.909571647644043 0.6666633486747742 0 255 0
11.531010627746582 -14.909571647644043 0.9999959468841553 0 255 0
11.406558990478516 -14.856133460998535 0.6666633486747742 0 255 0
11.406558990478516 -14.856133460998535 0.9999959468841553 0 255 0
11.28231430053711 -14.80771255493164 0.6666633486747742 0 255 0
11.28231430053711 -14.80771255493164 0.9999959468841553 0 255 0
11.158493995666504 -14.764474868774414 0.6666633486747742 0 255 0
11.158493995666504 -14.764474868774414 0.33332735300064087 0 255 0
11.142701148986816 -14.759361267089844 -5.21540641784668e-06 0 255 0
11.250591278076172 -14.796142578125 -5.21540641784668e-06 0 255 0
11.28231430053711 -14.80771255493164 0.33332735300064087 0 255 0
11.35885238647461 -14.83694076538086 -5.21540641784668e-06 0 255 0
11.406558990478516 -14.856133460998535 0.33332735300064087 0 255 0
11.467331886291504 -14.881590843200684 -5.21540641784668e-06 0 255 0
11.531010627746582 -14.909571647644043 0.33332735300064087 0 255 0
11.57588005065918 -14.930039405822754 -5.21540641784668e-06 0 255 0
11.655433654785156 -14.967876434326172 0.33332735300064087 0 255 0
11.68437385559082 -14.982133865356445 -5.21540641784668e-06 0 255 0
11.779679298400879 -15.030869483947754 0.33332735300064087 0 255 0
11.792661666870117 -15.037737846374512 -5.21540641784668e-06 0 255 0
11.903499603271484 -15.098413467407227 0.33332735300064087 0 255 0
11.900620460510254 -15.096782684326172 -5.21540641784668e-06 0 255 0
12.008099555969238 -15.15914535522461 -5.21540641784668e-06 0 255 0
12.0266752243042 -15.170289993286133 0.33332735300064087 0 255 0
12.114975929260254 -15.224729537963867 -5.21540641784668e-06 0 255 0
12.149028778076172 -15.24636173248291 0.33332735300064087 0 255 0
12.270339965820312 -15.32646369934082 0.33332735300064087 0 255 0
13.9298095703125 -17.068721771240234 0.33332735300064087 0 255 0
13.911219596862793 -17.037384033203125 -5.21540641784668e-06 0 255 0
13.84559440612793 -16.931137084960938 -5.21540641784668e-06 0 255 0
13.817463874816895 -16.887516021728516 0.33332735300064087 0 255 0
13.776597023010254 -16.82588005065918 -5.21540641784668e-06 0 255 0
13.695480346679688 -16.70928382873535 0.33332735300064087 0 255 0
13.704363822937012 -16.721704483032227 -5.21540641784668e-06 0 255 0
13.629018783569336 -16.618722915649414 -5.21540641784668e-06 0 255 0
13.56450366973877 -16.534576416015625 0.33332735300064087 0 255 0
13.469610214233398 -16.41678810119629 -5.21540641784668e-06 0 255 0
13.425247192382812 -16.36392593383789 0.33332735300064087 0 255 0
13.299466133117676 -16.220966339111328 -5.21540641784668e-06 0 255 0
13.27836799621582 -16.197935104370117 0.33332735300064087 0 255 0
13.119671821594238 -16.03217887878418 -5.21540641784668e-06 0 255 0
13.124580383300781 -16.03710174560547 0.33332735300064087 0 255 0
12.964567184448242 -15.882038116455078 0.33332735300064087 0 255 0
12.931364059448242 -15.851288795471191 -5.21540641784668e-06 0 255 0
12.85390853881836 -15.78135871887207 0.33332735300064087 0 255 0
12.735639572143555 -15.67922592163086 -5.21540641784668e-06 0 255 0
12.740945816040039 -15.68368148803711 0.33332735300064087 0 255 0
12.625898361206055 -15.589198112487793 0.33332735300064087 0 255 0
12.53359603881836 -15.516841888427734 -5.21540641784668e-06 0 255 0
12.508987426757812 -15.49803352355957 0.33332735300064087 0 255 0
12.390390396118164 -15.410405158996582 0.33332735300064087 0 255 0
12.32634162902832 -15.365041732788086 -5.21540641784668e-06 0 255 0
11.142701148986816 -14.759361267089844 1.9999970197677612 0 255 0
11.158493995666504 -14.764474868774414 1.3333284854888916 0 255 0
11.158493995666504 -14.764474868774414 0.9999959468841553 0 255 0
11.28231430053711 -14.80771255493164 1.3333284854888916 0 255 0
11.406558990478516 -14.856133460998535 1.3333284854888916 0 255 0
11.531010627746582 -14.909571647644043 1.3333284854888916 0 255 0
11.655433654785156 -14.967876434326172 1.3333284854888916 0 255 0
11.779679298400879 -15.030869483947754 1.3333284854888916 0 255 0
11.903499603271484 -15.098413467407227 1.3333284854888916 0 255 0
12.0266752243042 -15.170289993286133 1.3333284854888916 0 255 0
12.149028778076172 -15.24636173248291 1.3333284854888916 0 255 0
12.270339965820312 -15.32646369934082 1.3333284854888916 0 255 0
12.390390396118164 -15.410405158996582 1.3333284854888916 0 255 0
12.508987426757812 -15.49803352355957 1.3333284854888916 0 255 0
12.625898361206055 -15.589198112487793 1.3333284854888916 0 255 0
12.740945816040039 -15.68368148803711 1.3333284854888916 0 255 0
12.85390853881836 -15.78135871887207 1.3333284854888916 0 255 0
12.964567184448242 -15.882038116455078 1.3333284854888916 0 255 0
13.124580383300781 -16.03710174560547 1.3333284854888916 0 255 0
13.27836799621582 -16.197935104370117 1.3333284854888916 0 255 0
13.425247192382812 -16.36392593383789 1.3333284854888916 0 255 0
13.56450366973877 -16.534576416015625 1.3333284854888916 0 255 0
13.695480346679688 -16.70928382873535 1.3333284854888916 0 255 0
13.817463874816895 -16.887516021728516 1.3333284854888916 0 255 0
13.9298095703125 -17.068721771240234 1.3333284854888916 0 255 0
13.9298095703125 -17.068721771240234 1.666664481163025 0 255 0
14.031791687011719 -17.25232696533203 1.9999970197677612 0 255 0
13.973335266113281 -17.14447784423828 1.9999970197677612 0 255 0
13.911219596862793 -17.037384033203125 1.9999970197677612 0 255 0
13.84559440612793 -16.931137084960938 1.9999970197677612 0 255 0
13.817463874816895 -16.887516021728516 1.666664481163025 0 255 0
13.776597023010254 -16.82588005065918 1.9999970197677612 0 255 0
13.695480346679688 -16.70928382873535 1.666664481163025 0 255 0
13.704363822937012 -16.721704483032227 1.9999970197677612 0 255 0
13.629018783569336 -16.618722915649414 1.9999970197677612 0 255 0
13.56450366973877 -16.534576416015625 1.666664481163025 0 255 0
13.469610214233398 -16.41678810119629 1.9999970197677612 0 255 0
13.425247192382812 -16.36392593383789 1.666664481163025 0 255 0
13.299466133117676 -16.220966339111328 1.9999970197677612 0 255 0
13.27836799621582 -16.197935104370117 1.666664481163025 0 255 0
13.119671821594238 -16.03217887878418 1.9999970197677612 0 255 0
13.124580383300781 -16.03710174560547 1.666664481163025 0 255 0
12.964567184448242 -15.882038116455078 1.666664481163025 0 255 0
11.158493995666504 -14.764474868774414 1.666664481163025 0 255 0
11.250591278076172 -14.796142578125 1.9999970197677612 0 255 0
11.28231430053711 -14.80771255493164 1.666664481163025 0 255 0
11.35885238647461 -14.83694076538086 1.9999970197677612 0 255 0
11.406558990478516 -14.856133460998535 1.666664481163025 0 255 0
11.467331886291504 -14.881590843200684 1.9999970197677612 0 255 0
11.531010627746582 -14.909571647644043 1.666664481163025 0 255 0
11.57588005065918 -14.930039405822754 1.9999970197677612 0 255 0
11.655433654785156 -14.967876434326172 1.666664481163025 0 255 0
11.68437385559082 -14.982133865356445 1.9999970197677612 0 255 0
11.779679298400879 -15.030869483947754 1.666664481163025 0 255 0
11.792661666870117 -15.037737846374512 1.9999970197677612 0 255 0
11.903499603271484 -15.098413467407227 1.666664481163025 0 255 0
11.900620460510254 -15.096782684326172 1.9999970197677612 0 255 0
12.008099555969238 -15.15914535522461 1.9999970197677612 0 255 0
12.0266752243042 -15.170289993286133 1.666664481163025 0 255 0
12.114975929260254 -15.224729537963867 1.9999970197677612 0 255 0
12.149028778076172 -15.24636173248291 1.666664481163025 0 255 0
12.270339965820312 -15.32646369934082 1.666664481163025 0 255 0
12.32634162902832 -15.365041732788086 1.9999970197677612 0 255 0
12.390390396118164 -15.410405158996582 1.666664481163025 0 255 0
12.53359603881836 -15.516841888427734 1.9999970197677612 0 255 0
12.508987426757812 -15.49803352355957 1.666664481163025 0 255 0
12.625898361206055 -15.589198112487793 1.666664481163025 0 255 0
12.735639572143555 -15.67922592163086 1.9999970197677612 0 255 0
12.740945816040039 -15.68368148803711 1.666664481163025 0 255 0
12.85390853881836 -15.78135871887207 1.666664481163025 0 255 0
12.931364059448242 -15.851288795471191 1.9999970197677612 0 255 0
14.170760154724121 -21.86736297607422 -5.21540641784668e-06 0 255 0
14.156913757324219 -21.897632598876953 0.33332735300064087 0 255 0
14.118021011352539 -21.97711753845215 -5.21540641784668e-06 0 255 0
14.156913757324219 -21.897632598876953 0.6666633486747742 0 255 0
14.118021011352539 -21.97711753845215 0.9999959468841553 0 255 0
14.156913757324219 -21.897632598876953 0.9999959468841553 0 255 0
14.156913757324219 -21.897632598876953 1.3333284854888916 0 255 0
14.193860054016113 -21.814350128173828 0.9999959468841553 0 255 0
14.193860054016113 -21.814350128173828 1.3333284854888916 0 255 0
14.228845596313477 -21.727447509765625 0.9999959468841553 0 255 0
14.228845596313477 -21.727447509765625 1.3333284854888916 0 255 0
14.261898040771484 -21.63714599609375 0.9999959468841553 0 255 0
14.261898040771484 -21.63714599609375 1.3333284854888916 0 255 0
14.293004035949707 -21.543594360351562 0.9999959468841553 0 255 0
14.293004035949707 -21.543594360351562 1.3333284854888916 0 255 0
14.322176933288574 -21.44697380065918 0.9999959468841553 0 255 0
14.322176933288574 -21.44697380065918 1.3333284854888916 0 255 0
14.34938907623291 -21.34744644165039 0.9999959468841553 0 255 0
14.34938907623291 -21.34744644165039 1.3333284854888916 0 255 0
14.374682426452637 -21.245203018188477 0.9999959468841553 0 255 0
14.374682426452637 -21.245203018188477 1.3333284854888916 0 255 0
14.419483184814453 -21.033262252807617 0.9999959468841553 0 255 0
14.419483184814453 -21.033262252807617 1.3333284854888916 0 255 0
14.45656681060791 -20.812559127807617 0.9999959468841553 0 255 0
14.45656681060791 -20.812559127807617 1.3333284854888916 0 255 0
14.48597240447998 -20.584495544433594 0.9999959468841553 0 255 0
14.48597240447998 -20.584495544433594 1.3333284854888916 0 255 0
14.507742881774902 -20.350454330444336 0.9999959468841553 0 255 0
14.507742881774902 -20.350454330444336 1.3333284854888916 0 255 0
14.520464897155762 -20.1434326171875 0.9999959468841553 0 255 0
14.520464897155762 -20.1434326171875 1.3333284854888916 0 255 0
14.52742862701416 -19.933917999267578 0.9999959468841553 0 255 0
14.52742862701416 -19.933917999267578 1.3333284854888916 0 255 0
14.528690338134766 -19.72277069091797 0.9999959468841553 0 255 0
14.528690338134766 -19.72277069091797 1.3333284854888916 0 255 0
14.524248123168945 -19.51095199584961 0.9999959468841553 0 255 0
14.524248123168945 -19.51095199584961 1.3333284854888916 0 255 0
14.514103889465332 -19.299434661865234 0.9999959468841553 0 255 0
14.514103889465332 -19.299434661865234 1.3333284854888916 0 255 0
14.498311042785645 -19.089040756225586 0.9999959468841553 0 255 0
14.498311042785645 -19.089040756225586 1.3333284854888916 0 255 0
14.476828575134277 -18.88074493408203 0.9999959468841553 0 255 0
14.476828575134277 -18.88074493408203 1.3333284854888916 0 255 0
14.449739456176758 -18.675493240356445 0.9999959468841553 0 255 0
14.449739456176758 -18.675493240356445 1.3333284854888916 0 255 0
14.41700267791748 -18.47414779663086 0.9999959468841553 0 255 0
14.41700267791748 -18.47414779663086 1.3333284854888916 0 255 0
14.378658294677734 -18.27766990661621 0.9999959468841553 0 255 0
14.378658294677734 -18.27766990661621 1.3333284854888916 0 255 0
14.334748268127441 -18.086963653564453 0.9999959468841553 0 255 0
14.334748268127441 -18.086963653564453 1.3333284854888916 0 255 0
14.28524398803711 -17.90294647216797 0.9999959468841553 0 255 0
14.28524398803711 -17.90294647216797 1.3333284854888916 0 255 0
14.230175018310547 -17.726566314697266 0.9999959468841553 0 255 0
14.230175018310547 -17.726566314697266 1.3333284854888916 0 255 0
14.169567108154297 -17.558698654174805 0.9999959468841553 0 255 0
14.169567108154297 -17.558698654174805 1.3333284854888916 0 255 0
14.103434562683105 -17.400344848632812 0.9999959468841553 0 255 0
14.103434562683105 -17.400344848632812 0.6666633486747742 0 255 0
14.103434562683105 -17.400344848632812 0.33332735300064087 0 255 0
14.08869743347168 -17.368045806884766 -5.21540641784668e-06 0 255 0
14.142176628112793 -17.49028968811035 -5.21540641784668e-06 0 255 0
14.169567108154297 -17.558698654174805 0.33332735300064087 0 255 0
14.192241668701172 -17.618688583374023 -5.21540641784668e-06 0 255 0
14.230175018310547 -17.726566314697266 0.33332735300064087 0 255 0
14.238853454589844 -17.752737045288086 -5.21540641784668e-06 0 255 0
14.28524398803711 -17.90294647216797 0.33332735300064087 0 255 0
14.282050132751465 -17.891992568969727 -5.21540641784668e-06 0 255 0
14.321779251098633 -18.036020278930664 -5.21540641784668e-06 0 255 0
14.334748268127441 -18.086963653564453 0.33332735300064087 0 255 0
14.35806655883789 -18.18436622619629 -5.21540641784668e-06 0 255 0
14.378658294677734 -18.27766990661621 0.33332735300064087 0 255 0
14.390859603881836 -18.336565017700195 -5.21540641784668e-06 0 255 0
14.41700267791748 -18.47414779663086 0.33332735300064087 0 255 0
14.420196533203125 -18.492189407348633 -5.21540641784668e-06 0 255 0
14.446051597595215 -18.6507625579834 -5.21540641784668e-06 0 255 0
14.449739456176758 -18.675493240356445 0.33332735300064087 0 255 0
14.468411445617676 -18.811843872070312 -5.21540641784668e-06 0 255 0
14.476828575134277 -18.88074493408203 0.33332735300064087 0 255 0
14.487288475036621 -18.97500991821289 -5.21540641784668e-06 0 255 0
14.498311042785645 -19.089040756225586 0.33332735300064087 0 255 0
14.502656936645508 -19.139751434326172 -5.21540641784668e-06 0 255 0
14.514103889465332 -19.299434661865234 0.33332735300064087 0 255 0
14.514487266540527 -19.30567169189453 -5.21540641784668e-06 0 255 0
14.522822380065918 -19.472347259521484 -5.21540641784668e-06 0 255 0
14.524248123168945 -19.51095199584961 0.33332735300064087 0 255 0
14.527620315551758 -19.63921356201172 -5.21540641784668e-06 0 255 0
14.528690338134766 -19.72277069091797 0.33332735300064087 0 255 0
14.528882026672363 -19.80592918395996 -5.21540641784668e-06 0 255 0
14.52742862701416 -19.933917999267578 0.33332735300064087 0 255 0
14.526592254638672 -19.971973419189453 -5.21540641784668e-06 0 255 0
14.520464897155762 -20.1434326171875 0.33332735300064087 0 255 0
14.520766258239746 -20.136934280395508 -5.21540641784668e-06 0 255 0
14.511362075805664 -20.30037498474121 -5.21540641784668e-06 0 255 0
14.507742881774902 -20.350454330444336 0.33332735300064087 0 255 0
14.498393058776855 -20.46181297302246 -5.21540641784668e-06 0 255 0
14.48597240447998 -20.584495544433594 0.33332735300064087 0 255 0
14.481873512268066 -20.62079620361328 -5.21540641784668e-06 0 255 0
14.461749076843262 -20.776887893676758 -5.21540641784668e-06 0 255 0
14.45656681060791 -20.812559127807617 0.33332735300064087 0 255 0
14.438018798828125 -20.929607391357422 -5.21540641784668e-06 0 255 0
14.419483184814453 -21.033262252807617 0.33332735300064087 0 255 0
14.410709381103516 -21.078582763671875 -5.21540641784668e-06 0 255 0
14.374682426452637 -21.245203018188477 0.33332735300064087 0 255 0
14.379768371582031 -21.223281860351562 -5.21540641784668e-06 0 255 0
14.345235824584961 -21.363279342651367 -5.21540641784668e-06 0 255 0
14.34938907623291 -21.34744644165039 0.33332735300064087 0 255 0
14.322176933288574 -21.44697380065918 0.33332735300064087 0 255 0
14.322176933288574 -21.44697380065918 0.6666633486747742 0 255 0
14.293004035949707 -21.543594360351562 0.6666633486747742 0 255 0
14.193860054016113 -21.814350128173828 0.33332735300064087 0 255 0
14.219852447509766 -21.750629425048828 -5.21540641784668e-06 0 255 0
14.228845596313477 -21.727447509765625 0.33332735300064087 0 255 0
14.265283584594727 -21.627399444580078 -5.21540641784668e-06 0 255 0
14.261898040771484 -21.63714599609375 0.33332735300064087 0 255 0
14.293004035949707 -21.543594360351562 0.33332735300064087 0 255 0
14.261898040771484 -21.63714599609375 0.6666633486747742 0 255 0
14.307083129882812 -21.4981632232666 -5.21540641784668e-06 0 255 0
14.08869743347168 -17.368045806884766 1.9999970197677612 0 255 0
14.103434562683105 -17.400344848632812 1.3333284854888916 0 255 0
14.103434562683105 -17.400344848632812 1.666664481163025 0 255 0
14.142176628112793 -17.49028968811035 1.9999970197677612 0 255 0
14.169567108154297 -17.558698654174805 1.666664481163025 0 255 0
14.192241668701172 -17.618688583374023 1.9999970197677612 0 255 0
14.230175018310547 -17.726566314697266 1.666664481163025 0 255 0
14.238853454589844 -17.752737045288086 1.9999970197677612 0 255 0
14.28524398803711 -17.90294647216797 1.666664481163025 0 255 0
14.282050132751465 -17.891992568969727 1.9999970197677612 0 255 0
14.321779251098633 -18.036020278930664 1.9999970197677612 0 255 0
14.334748268127441 -18.086963653564453 1.666664481163025 0 255 0
14.35806655883789 -18.18436622619629 1.9999970197677612 0 255 0
14.378658294677734 -18.27766990661621 1.666664481163025 0 255 0
14.390859603881836 -18.336565017700195 1.9999970197677612 0 255 0
14.41700267791748 -18.47414779663086 1.666664481163025 0 255 0
14.420196533203125 -18.492189407348633 1.9999970197677612 0 255 0
14.446051597595215 -18.6507625579834 1.9999970197677612 0 255 0
14.449739456176758 -18.675493240356445 1.666664481163025 0 255 0
14.468411445617676 -18.811843872070312 1.9999970197677612 0 255 0
14.476828575134277 -18.88074493408203 1.666664481163025 0 255 0
14.487288475036621 -18.97500991821289 1.9999970197677612 0 255 0
14.498311042785645 -19.089040756225586 1.666664481163025 0 255 0
14.502656936645508 -19.139751434326172 1.9999970197677612 0 255 0
14.514103889465332 -19.299434661865234 1.666664481163025 0 255 0
14.514487266540527 -19.30567169189453 1.9999970197677612 0 255 0
14.522822380065918 -19.472347259521484 1.9999970197677612 0 255 0
14.524248123168945 -19.51095199584961 1.666664481163025 0 255 0
14.527620315551758 -19.63921356201172 1.9999970197677612 0 255 0
14.528690338134766 -19.72277069091797 1.666664481163025 0 255 0
14.528882026672363 -19.80592918395996 1.9999970197677612 0 255 0
14.52742862701416 -19.933917999267578 1.666664481163025 0 255 0
14.526592254638672 -19.971973419189453 1.9999970197677612 0 255 0
14.520464897155762 -20.1434326171875 1.666664481163025 0 255 0
14.520766258239746 -20.136934280395508 1.9999970197677612 0 255 0
14.511362075805664 -20.30037498474121 1.9999970197677612 0 255 0
14.507742881774902 -20.350454330444336 1.666664481163025 0 255 0
14.498393058776855 -20.46181297302246 1.9999970197677612 0 255 0
14.48597240447998 -20.584495544433594 1.666664481163025 0 255 0
14.481873512268066 -20.62079620361328 1.9999970197677612 0 255 0
14.461749076843262 -20.776887893676758 1.9999970197677612 0 255 0
