ply
format ascii 1.0
element vertex 747
property float x
property float y
property float z
end_header
0.021906912326812744 0.012554352171719074 0.0021156640723347664
0.021685322746634483 0.012467357330024242 -5.521049839529724e-09
0.021596191450953484 0.012430359609425068 0.0021156640723347664
0.0212857648730278 0.012299524620175362 -5.1631690034525946e-09
0.020976189523935318 0.012162157334387302 0.0021156640723347664
0.020739784464240074 0.012053290382027626 -5.5214943728287835e-09
0.02066701091825962 0.012018028646707535 0.0021156640723347664
0.020356567576527596 0.011866278946399689 0.0021156640723347664
0.02017199993133545 0.011772748082876205 -5.122460677853269e-09
0.01978980377316475 0.011571835726499557 -5.523004720231484e-09
0.01986413449048996 0.011611132882535458 0.0021156640723347664
0.01948115974664688 0.011400789022445679 0.00211566430516541
0.01924050971865654 0.011262658052146435 -5.0275352769801884e-09
0.018838264048099518 0.011023657396435738 -5.523657975459173e-09
0.018927885219454765 0.011077340692281723 0.0021156638395041227
0.018612219020724297 0.010883078910410404 0.002115663606673479
0.01819510944187641 0.010616262443363667 -5.535210956253422e-09
0.01828022114932537 0.010671064257621765 0.002115663606673479
0.017944542691111565 0.01044880598783493 0.002115663606673479
0.01753651164472103 0.010168744251132011 -5.515118584042966e-09
0.01760903187096119 0.010218744166195393 0.002115663606673479
0.017272761091589928 0.009980344213545322 0.0021156633738428354
0.016875771805644035 0.009689165279269218 -5.2965050123532365e-09
0.016476387158036232 0.009385064244270325 0.002115663606673479
0.016206374391913414 0.009174449369311333 -5.51167067541769e-09
0.01613411121070385 0.00911632739007473 0.002115663606673479
0.015788275748491287 0.008837204426527023 0.002115663606673479
0.01570594683289528 0.00876948144286871 -5.51703260853742e-09
0.015442435629665852 0.008550493977963924 0.002115663606673479
0.015182459726929665 0.008330862037837505 -5.513820067193365e-09
0.015091648325324059 0.008252199739217758 0.0021156638395041227
0.014737498015165329 0.007943541742861271 0.0021156640723347664
0.01449222955852747 0.0077262576669454575 -5.530174984613723e-09
0.0143809849396348 0.007625419646501541 0.0021156640723347664
0.01402274239808321 0.007298513315618038 0.0021156640723347664
0.013768147677183151 0.00706212455406785 -5.507977185459367e-09
0.013388796709477901 0.006703524850308895 0.00211566430516541
0.01329656969755888 0.00661443779245019 -5.496580079977775e-09
0.01687471568584442 0.009688838385045528 0.00211566430516541
0.02122189663350582 0.012271606363356113 0.00211566430516541
0.022819658741354942 0.0128792654722929 0.00211566430516541
0.023141050711274147 0.012979996390640736 0.00211566430516541
0.03333592042326927 0.013058064505457878 0.0021156640723347664
0.03349914774298668 0.013021448627114296 -5.465570662721575e-09
0.03316967189311981 0.013092085719108582 -5.506539668687083e-09
0.03176918253302574 0.013298898003995419 -5.517785783837326e-09
0.031288325786590576 0.013347815722227097 -5.354716225980383e-09
0.03162558749318123 0.013314605690538883 0.0021156647708266973
0.031108876690268517 0.013363195583224297 0.0021156638395041227
0.030646871775388718 0.013399138115346432 -5.468619335147196e-09
0.030621778219938278 0.013400785624980927 0.002115663606673479
0.030295295640826225 0.013421377167105675 0.0010578293586149812
0.029826756566762924 0.01344622578471899 -5.382349232974093e-09
0.029825186356902122 0.013446211814880371 0.0021156619768589735
0.029333919286727905 0.013465224765241146 -5.382440271262112e-09
0.028857391327619553 0.013477768748998642 -5.436524563862122e-09
0.028856199234724045 0.013477752916514874 0.002115656854584813
0.028348855674266815 0.013484776020050049 -5.369560795998041e-09
0.027871480211615562 0.013484875671565533 -5.227237309668453e-09
0.027402859181165695 0.013479226268827915 -5.386672885521193e-09
0.02740301750600338 0.013479187153279781 0.002115653594955802
0.02694544941186905 0.01346781849861145 -5.159388027919931e-09
0.026453521102666855 0.013448720797896385 -5.326963758989223e-09
0.026557348668575287 0.013452933169901371 0.0021156612783670425
0.026129906997084618 0.013431460596621037 0.002115665702149272
0.025836404412984848 0.013413080014288425 -5.304821026896889e-09
0.025525562465190887 0.013389358296990395 0.002115665003657341
0.025298109278082848 0.013369104824960232 -5.275077263888761e-09
0.024975907057523727 0.013336262665688992 -5.51356826861138e-09
0.024578077718615532 0.013288384303450584 -5.450260687211994e-09
0.024914367124438286 0.013330143876373768 0.00211566430516541
0.024365181103348732 0.013257748447358608 0.0021156640723347664
0.024120967835187912 0.013217552565038204 -5.493119292765414e-09
0.023815494030714035 0.013158837333321571 -5.474378728109741e-09
0.023970987647771835 0.013190200552344322 0.00211566430516541
0.023745687678456306 0.013143430463969707 0.00211566430516541
0.03297008201479912 0.013129513710737228 0.00211566430516541
0.032738909125328064 0.013168995268642902 -5.465658592385125e-09
0.03225110471248627 0.013240941800177097 -5.378619327700562e-09
0.03204512223601341 0.01326687354594469 0.0021156640723347664
0.032515108585357666 0.01320373173803091 0.00211566430516541
0.033664923161268234 0.012981073930859566 0.00211566430516541
0.03386704996228218 0.012926891446113586 -5.4982352004628865e-09
0.02695087529718876 0.01346805039793253 0.0021156540606170893
0.027867421507835388 0.013484903611242771 0.0021155679132789373
0.028362302109599113 0.013484659604728222 0.002115613780915737
0.029332589358091354 0.013465305790305138 0.0021156601142138243
0.04462253302335739 0.0014261346077546477 -5.473534514521816e-09
0.044504616409540176 0.001922902767546475 -5.504250388810306e-09
0.04461749643087387 0.0014491609763354063 0.00211566430516541
0.044357992708683014 0.0024636355228722095 -5.496932686810396e-09
0.04439525306224823 0.002330870134755969 0.00211566430516541
0.04427778348326683 0.002734211040660739 0.00211566430516541
0.04423697292804718 0.002864753594622016 -5.4805706639626806e-09
0.04410610720515251 0.0032654122915118933 -5.435563998901216e-09
0.04415228217840195 0.003126988187432289 0.00211566430516541
0.04401734098792076 0.003518684534355998 0.00211566430516541
0.04396773502230644 0.003653363324701786 -5.405824232695977e-09
0.043827805668115616 0.004020249471068382 -5.4368838320328905e-09
0.04382394626736641 0.0040303850546479225 0.0021156640723347664
0.041977327316999435 0.007397492416203022 -5.478294706762199e-09
0.04171893745660782 0.007742217276245356 -5.373922640217188e-09
0.04180191457271576 0.007633181754499674 0.0021156640723347664
0.04155305027961731 0.007952611893415451 0.0021156640723347664
0.04141432046890259 0.008122362196445465 -5.481858966760456e-09
0.04122493788599968 0.008346036076545715 0.00211566430516541
0.041077446192502975 0.008514066226780415 -5.468869801461551e-09
0.04080169275403023 0.008813745342195034 -5.482382103849659e-09
0.04053528606891632 0.009088980033993721 -5.4953148698189125e-09
0.040537334978580475 0.009087393060326576 0.00211566430516541
0.040193744003772736 0.009420834481716156 -5.470785602312844e-09
0.040166374295949936 0.009446399286389351 0.00211566430516541
0.03982686623930931 0.009753731079399586 -5.510325085111845e-09
0.03980331867933273 0.009774038568139076 0.0021156640723347664
0.039440181106328964 0.010080584324896336 -5.469046993056281e-09
0.03943615406751633 0.010083682835102081 0.0021156640723347664
0.03643124923110008 0.011973736807703972 -5.444553696776211e-09
0.036088064312934875 0.012131638824939728 -5.465692343165074e-09
0.03630998730659485 0.01203111931681633 0.0021156640723347664
0.035869941115379333 0.012226368300616741 0.0021156640723347664
0.035730231553316116 0.012284578755497932 -5.474180664322148e-09
0.03538469970226288 0.012423470616340637 -5.509970257833174e-09
0.035492490977048874 0.012380891479551792 0.00211566430516541
0.0351090133190155 0.01252739503979683 0.00211566430516541
0.03490767627954483 0.012599592097103596 -5.503135724893582e-09
0.0347595252096653 0.012650307267904282 0.00211566430516541
0.03440997377038002 0.012765411287546158 -5.512316825218022e-09
0.03436431661248207 0.012779731303453445 0.00211566430516541
0.03400672227144241 0.01288659032434225 0.00211566430516541
0.043623507022857666 0.004511689767241478 -5.395207391956092e-09
0.04337718337774277 0.0050496626645326614 -5.294443994330322e-09
0.043437231332063675 0.004922194872051477 0.0021156640723347664
0.043200068175792694 0.005406503099948168 -5.517274637156788e-09
0.04320364072918892 0.005398506298661232 0.0021156640723347664
0.04307275265455246 0.005648538004606962 0.002115663606673479
0.042966071516275406 0.005844485480338335 -5.046951301324043e-09
0.0428263321518898 0.006092412397265434 -5.515527146116028e-09
0.04282627999782562 0.00609156209975481 0.0021156640723347664
0.0426294207572937 0.0064230733551084995 -5.385711432381868e-09
0.04255704954266548 0.006538948975503445 0.0021156640723347664
0.042349085211753845 0.0068628001026809216 -5.177698270131259e-09
0.042273782193660736 0.006974519230425358 0.0021156640723347664
0.042119212448596954 0.007198663428425789 0.0010578293586149812
0.038983117789030075 0.010437418706715107 -5.3412434475319515e-09
0.03908028453588486 0.010364411398768425 0.0021156640723347664
0.03857898339629173 0.010729883797466755 -5.367225330843439e-09
0.038681015372276306 0.010658605955541134 0.0021156640723347664
0.0381641648709774 0.011008884757757187 -5.342426057097782e-09
0.03826820105314255 0.01094144769012928 0.0021156640723347664
0.03773820772767067 0.011274605058133602 -5.318219198358065e-09
0.03784576803445816 0.011210039258003235 0.0021156640723347664
0.037324290722608566 0.011514089070260525 -5.134071390244799e-09
0.037503089755773544 0.01141279935836792 0.0021156638395041227
0.03683766350150108 0.011773839592933655 -5.0693085285047346e-09
0.03665270656347275 0.011866609565913677 0.002115663606673479
0.0370703786611557 0.011653052642941475 0.00211566430516541
0.03707895427942276 0.011647965759038925 -5.370999645037955e-09
0.04197948798537254 0.007394634652882814 0.00211566430516541
0.044504083693027496 0.0019235304789617658 0.00211566430516541
0.040888961404561996 0.00872103776782751 0.00211566430516541
0.043614573776721954 0.004532315768301487 0.0021156640723347664
0.0444924533367157 -0.009561428800225258 0.00211566430516541
0.04449015110731125 -0.009569840505719185 -5.500747413123008e-09
0.04455741494894028 -0.009288066998124123 -5.448975493038688e-09
0.04457833617925644 -0.009194614365696907 0.0021156640723347664
0.044614747166633606 -0.009019332006573677 -5.494986687892833e-09
0.0446389839053154 -0.008892370387911797 0.00211566430516541
0.04467868432402611 -0.008673995733261108 -5.468971053801397e-09
0.04469357058405876 -0.008588816039264202 0.00211566430516541
0.04472993686795235 -0.00836312398314476 -5.55506129984451e-09
0.04477763921022415 -0.008037246763706207 0.0021156640723347664
0.0447971448302269 -0.007888064719736576 -5.448842266275733e-09
0.044857755303382874 -0.007375297136604786 -5.66325786266475e-09
0.04484010115265846 -0.007532094139605761 0.00211566430516541
0.04490846022963524 -0.006854226812720299 -5.437933214835766e-09
0.04489809274673462 -0.006975812371820211 0.0021156640723347664
0.04494992643594742 -0.00633744802325964 -5.508418610133958e-09
0.04495132714509964 -0.00631824042648077 0.00211566430516541
0.044979605823755264 -0.005872840527445078 -5.398933300426734e-09
0.045002639293670654 -0.005428646225482225 -5.293336435840956e-09
0.04499815031886101 -0.005529781803488731 0.00211566430516541
0.04502154514193535 -0.00493946298956871 -5.381168399765102e-09
0.04503440856933594 -0.00444733677431941 -5.318258722297742e-09
0.045041508972644806 -0.003932862542569637 -5.384690027199213e-09
0.0450415201485157 -0.0039021489210426807 0.0021156640723347664
0.04504140093922615 -0.003406637581065297 -5.297260852188401e-09
0.04504143446683884 -0.0034137198235839605 0.0021156640723347664
0.0450349859893322 -0.002907870104536414 -5.402681413357868e-09
0.045035116374492645 -0.0029143099673092365 0.0021156640723347664
0.04502265155315399 -0.002425357000902295 -5.254296109313827e-09
0.045004136860370636 -0.0019456343725323677 -5.3565587521120506e-09
0.045001957565546036 -0.0019036150770261884 0.0021156640723347664
0.04496830329298973 -0.0012945585185661912 -5.2834701058657174e-09
0.044976383447647095 -0.0014323147479444742 0.00211566430516541
0.04493917524814606 -0.0008969099726527929 0.00211566430516541
0.04490584880113602 -0.0005125473253428936 -5.365971222914823e-09
0.0448743999004364 -0.00020159849373158067 0.0021156645379960537
0.044849179685115814 1.8313041437068023e-05 -5.435436101208779e-09
0.04481017217040062 0.00032834816374816 0.0021156640723347664
0.04478973150253296 0.00047831039410084486 -5.60473178978782e-09
0.04471227526664734 0.0009695561602711678 -5.485808696192862e-09
0.04475611448287964 0.0007029598928056657 0.00211566430516541
0.044689007103443146 0.0010957651538774371 0.00211566430516541
0.04502171650528908 -0.002390641486272216 0.0021156640723347664
0.04503556713461876 -0.004398534074425697 0.0021156640723347664
0.04502131789922714 -0.004946419969201088 0.0021156640723347664
0.03803243860602379 -0.01862751692533493 -5.5364277606884116e-09
0.038379326462745667 -0.0183983463793993 -5.51703260853742e-09
0.03838087245821953 -0.01839730702340603 0.00211566430516541
0.03867153823375702 -0.0181953776627779 0.00211566430516541
0.038674432784318924 -0.0181933231651783 -5.510834455435543e-09
0.03896192088723183 -0.017983410507440567 0.00211566430516541
0.03923734650015831 -0.017772313207387924 0.00211566430516541
0.03924309462308884 -0.017767826095223427 -5.497784005825679e-09
0.03951091319322586 -0.017552347853779793 0.00211566430516541
0.03951788693666458 -0.017546627670526505 -5.511617384712508e-09
0.03977824002504349 -0.01732678711414337 0.00211566430516541
0.039787329733371735 -0.017318932339549065 -5.480263354229464e-09
0.0400393046438694 -0.017095698043704033 0.00211566430516541
0.040048614144325256 -0.017087293788790703 -5.474835251817467e-09
0.04029405862092972 -0.0168591421097517 0.00211566430516541
0.040304653346538544 -0.016849126666784286 -5.460889962449755e-09
0.04054250568151474 -0.01661716401576996 0.00211566430516541
0.040553927421569824 -0.016605820506811142 -5.417229775872556e-09
0.04078461602330208 -0.016369789838790894 0.00211566430516541
0.04079698026180267 -0.016356904059648514 -5.435341066117871e-09
0.041033629328012466 -0.01610260084271431 0.0021156640723347664
0.041249752044677734 -0.015859104692935944 0.00211566430516541
0.04126369208097458 -0.015843095257878304 -5.401775471369774e-09
0.04147272929549217 -0.015595836564898491 0.00211566430516541
0.04148733615875244 -0.015578224323689938 -5.385369927779493e-09
0.04170457273721695 -0.01530805230140686 0.0021156640723347664
0.0418994203209877 -0.015053799375891685 0.00211566430516541
0.04191525653004646 -0.015032719820737839 -5.350032417084094e-09
0.04210308566689491 -0.014775087125599384 0.00211566430516541
0.04211944341659546 -0.014752204529941082 -5.266064917464064e-09
0.0423002690076828 -0.014491313137114048 0.00211566430516541
0.04231514036655426 -0.014469443820416927 -5.375035971866282e-09
0.042490940541028976 -0.014202522113919258 0.00211566430516541
0.04250466451048851 -0.014181307516992092 -5.385343282426902e-09
0.042675115168094635 -0.01390877179801464 0.00211566430516541
0.04268715903162956 -0.01388913206756115 -5.405196734642459e-09
0.042852733284235 -0.013610090129077435 0.00211566430516541
0.04286346957087517 -0.013591629453003407 -5.419180215682218e-09
0.043033257126808167 -0.013289357535541058 0.0021156640723347664
0.04403562471270561 -0.011049095541238785 0.00211566430516541
0.04391448572278023 -0.01137668639421463 0.00211566430516541
0.04403816536068916 -0.011042053811252117 -5.50657697218071e-09
0.04415511339902878 -0.010703115724027157 0.00211566430516541
0.044264450669288635 -0.010362865403294563 0.00211566430516541
0.044265568256378174 -0.010359288193285465 -5.514324996624964e-09
0.044368717819452286 -0.010013108141720295 0.00211566430516541
0.04436924308538437 -0.010011292062699795 -5.5165716439375956e-09
0.04415341094136238 -0.010708213783800602 -5.51703260853742e-09
0.043911099433898926 -0.011385452002286911 -5.51703260853742e-09
0.043784067034721375 -0.01170706283301115 0.00211566430516541
0.043779853731393814 -0.011717300862073898 -5.51703260853742e-09
0.04364655166864395 -0.012033955194056034 0.00211566430516541
0.043641943484544754 -0.012044521048665047 -5.51703260853742e-09
0.04350337013602257 -0.012354151345789433 0.00211566430516541
0.04349735751748085 -0.012367116287350655 -5.51703260853742e-09
0.043353307992219925 -0.01267041265964508 0.0021156640723347664
0.04334611818194389 -0.012685013003647327 -5.51703260853742e-09
0.043196454644203186 -0.012982437387108803 0.0021156640723347664
0.04318826273083687 -0.012998167425394058 -5.51703260853742e-09
0.04302378371357918 -0.013306550681591034 -5.51703260853742e-09
0.04168929159641266 -0.01532740704715252 -5.51703260853742e-09
0.041020359843969345 -0.01611710898578167 -5.51703260853742e-09
0.03895754739642143 -0.017986666411161423 -5.51703260853742e-09
0.03795643895864487 -0.018677163869142532 0.00211566430516541
0.029541684314608574 -0.020599158480763435 0.00211566430516541
0.02977539785206318 -0.02059905044734478 -5.517094781026799e-09
0.03048940747976303 -0.02059568278491497 0.00211566430516541
0.030785443261265755 -0.020592819899320602 -5.5023607892223936e-09
0.03137270733714104 -0.02058469131588936 0.00211566430516541
0.03150254487991333 -0.02058224193751812 -5.525804702699588e-09
0.03206459432840347 -0.02056749165058136 0.00211566430516541
0.03221914917230606 -0.02056199312210083 -5.51898793332839e-09
0.03253241255879402 -0.020548099651932716 0.00211566430516541
0.03279751166701317 -0.02053402177989483 -5.502626354569884e-09
0.0329478457570076 -0.020524736493825912 0.00211566430516541
0.033437054604291916 -0.02048526518046856 0.0021156640723347664
0.0331873893737793 -0.0205068401992321 -5.498810740078852e-09
0.03353262320160866 -0.020475337281823158 -5.42104050538228e-09
0.03383679315447807 -0.02043985016644001 0.00211566430516541
0.033901285380125046 -0.020431241020560265 -5.357771559744151e-09
0.03425515070557594 -0.02037653513252735 0.00211566430516541
0.034146130084991455 -0.020394418388605118 -5.51703260853742e-09
0.0345095731317997 -0.020327767357230186 -5.4878630528776284e-09
0.03460821509361267 -0.02030591294169426 0.00211566430516541
0.034794971346855164 -0.020261740311980247 -5.2100310732328126e-09
0.034858398139476776 -0.020245401188731194 0.0021156640723347664
0.03514477238059044 -0.02016414701938629 0.0021156640723347664
0.03503860905766487 -0.0201951302587986 -5.517414969347101e-09
0.035203058272600174 -0.020144497975707054 -4.287331378804993e-09
0.0354466550052166 -0.02006012760102749 0.002115662908181548
0.03544813022017479 -0.020059583708643913 -5.51703260853742e-09
0.03572593256831169 -0.019950181245803833 -4.379536289178532e-09
0.035998884588479996 -0.01982777938246727 0.0021156631410121918
0.036150045692920685 -0.019754765555262566 -5.4896189816133756e-09
0.03633183613419533 -0.01966165378689766 0.00211566430516541
0.03647921234369278 -0.01958223059773445 -5.398958169422485e-09
0.036658719182014465 -0.0194818414747715 0.00211566430516541
0.0367436483502388 -0.019433412700891495 -5.504852573778862e-09
0.03698199242353439 -0.019292443990707397 0.00211566430516541
0.03709432855248451 -0.01922394149005413 -5.51703260853742e-09
0.03737317770719528 -0.01905127801001072 0.00211566430516541
0.037466082721948624 -0.018992483615875244 -5.5399049792015376e-09
0.03573406860232353 -0.019947338849306107 0.0021156640723347664
0.023043865337967873 -0.020110895857214928 0.00211566430516541
0.023075582459568977 -0.020126910880208015 -5.390135449090394e-09
0.023321498185396194 -0.020237915217876434 0.00211566430516541
0.023318655788898468 -0.020236706361174583 -5.507323042053258e-09
0.023469341918826103 -0.020297732204198837 -4.493935890081957e-09
0.023514695465564728 -0.020314360037446022 0.0021156631410121918
0.023663699626922607 -0.02036350406706333 -5.191000074233898e-09
0.023968307301402092 -0.020440535619854927 0.0021156640723347664
0.02371901646256447 -0.020380375906825066 0.0021156645379960537
0.023877400904893875 -0.020420771092176437 -5.2985131837601784e-09
0.024149036034941673 -0.020472291857004166 -5.580794049109272e-09
0.0242459774017334 -0.020486555993556976 0.00211566430516541
0.024464711546897888 -0.020513176918029785 -5.436698646832383e-09
0.024913428351283073 -0.020547935739159584 -5.511753276010722e-09
0.024591095745563507 -0.020525241270661354 0.00211566430516541
0.025066576898097992 -0.02055613324046135 0.00211566430516541
0.025546468794345856 -0.020574893802404404 -5.531466396035967e-09
0.02545163594186306 -0.020571153610944748 0.00211566430516541
0.025902193039655685 -0.02058284729719162 0.00211566430516541
0.026440054178237915 -0.020591093227267265 -5.494541266415354e-09
0.026799185201525688 -0.02059433050453663 0.00211566430516541
0.02809053845703602 -0.020599137991666794 0.00211566430516541
0.027758173644542694 -0.020598631352186203 -5.529996016662153e-09
0.021867042407393456 -0.019516879692673683 -5.51703260853742e-09
0.021867042407393456 -0.019516879692673683 0.00211566430516541
0.022213995456695557 -0.018699301406741142 -5.459085183900925e-09
0.022220615297555923 -0.01868380792438984 0.00211566430516541
0.0234391987323761 -0.016926458105444908 -5.597454943995217e-09
0.023194076493382454 -0.017220640555024147 -5.207442921317806e-09
0.023198317736387253 -0.01721549965441227 0.0021156638395041227
0.023044656962156296 -0.017410732805728912 0.0010130176087841392
0.022841153666377068 -0.017682354897260666 -5.702969652077172e-09
0.022300049662590027 -0.018526025116443634 -5.694913429721282e-09
0.02234533429145813 -0.018442748114466667 0.00211566430516541
0.022438915446400642 -0.01828444004058838 -5.510684353282613e-09
0.022891098633408546 -0.017614588141441345 0.00211566430516541
0.022615619003772736 -0.018007993698120117 -5.487132082038215e-09
0.02270711585879326 -0.01787281036376953 0.00211566430516541
0.02252110466361046 -0.018152842298150063 0.00211566430516541
0.02343415655195713 -0.01693263277411461 0.0021156645379960537
0.025148825719952583 -0.012845012359321117 0.0021156640723347664
0.02511507272720337 -0.012731351889669895 -5.456588070273938e-09
0.025174126029014587 -0.012939520180225372 -5.245115453078597e-09
0.025210676714777946 -0.013097249902784824 -5.565116811823145e-09
0.025208428502082825 -0.013089132495224476 0.0021156640723347664
0.02523728273808956 -0.013249973766505718 -4.835313482942638e-09
0.025265706703066826 -0.013546688482165337 0.00211566430516541
0.025268256664276123 -0.013612622395157814 -5.613612685806402e-09
0.02526758424937725 -0.013730276376008987 0.0021156640723347664
0.025261664763092995 -0.013842975720763206 -5.144736192619348e-09
0.02524515986442566 -0.013999206013977528 0.0021156640723347664
0.025245608761906624 -0.0140003003180027 -5.5345652505423004e-09
0.02521725930273533 -0.014166904613375664 0.0021156638395041227
0.025193922221660614 -0.014271361753344536 -5.360936139453543e-09
0.02516053430736065 -0.014394793659448624 0.00211566430516541
0.025140151381492615 -0.014459497295320034 -5.5111666341645105e-09
0.025074925273656845 -0.014644653536379337 -5.506136879773749e-09
0.025098096579313278 -0.01458219438791275 0.00211566430516541
0.02481822855770588 -0.015173318795859814 0.0021156638395041227
0.02487441524863243 -0.015072662383317947 -5.085802889936986e-09
0.024745700880885124 -0.015295574441552162 -5.454641627267165e-09
0.02437659725546837 -0.015832427889108658 0.00211566430516541
0.024327190592885017 -0.015897585079073906 -5.521905599437105e-09
0.024208465591073036 -0.016048535704612732 0.00211566430516541
0.024028748273849487 -0.01626601256430149 0.0021156640723347664
0.024067269638180733 -0.016221700236201286 -5.286092452649882e-09
0.02376866713166237 -0.016564995050430298 0.00211566430516541
0.02378002554178238 -0.016552086919546127 -5.5321094372118296e-09
0.0249291080981493 -0.014968098141252995 0.00211566430516541
0.02525208704173565 -0.01336235087364912 0.00211566430516541
0.02494666539132595 -0.012277822941541672 -5.536871849898262e-09
0.025050418451428413 -0.012539935298264027 -5.532328373192286e-09
0.024996459484100342 -0.012397962622344494 0.00211566430516541
0.025096967816352844 -0.012674295343458652 0.00211566430516541
0.025257963687181473 -0.013427152298390865 -5.5149338429316686e-09
0.02447720244526863 -0.01569647341966629 -5.5108881902299345e-09
0.02453351952135563 -0.015618243254721165 0.00211566430516541
0.024626895785331726 -0.015481819398701191 -5.439702466247809e-09
0.024714762344956398 -0.015346168540418148 0.0021156640723347664
0.02497187815606594 -0.014882860705256462 -5.370617284228274e-09
0.02502131462097168 -0.014774484559893608 0.00211566430516541
0.02489512972533703 -0.012164964340627193 0.00211566430516541
0.024800723418593407 -0.011982862837612629 0.0021156640723347664
0.024857178330421448 -0.012088458053767681 -5.108216960536538e-09
0.02270706743001938 -0.010381841100752354 -5.571807903947956e-09
0.023031746968626976 -0.010502171702682972 -5.6617905919154055e-09
0.022960778325796127 -0.010474222712218761 0.00211566430516541
0.02324964664876461 -0.010597772896289825 0.002115663606673479
0.023405717685818672 -0.010674461722373962 -5.3473327987774155e-09
0.02352134883403778 -0.010736167430877686 0.0021156640723347664
0.023628458380699158 -0.010797804221510887 -5.534487090841367e-09
0.023845558986067772 -0.010937280021607876 -5.554182447298217e-09
0.02369106002151966 -0.010836501605808735 0.00211566430516541
0.024707665666937828 -0.011826234869658947 0.00211566430516541
0.024579741060733795 -0.01164051704108715 0.00211566430516541
0.024673212319612503 -0.011774181388318539 -5.516107570713302e-09
0.024575430899858475 -0.01163528487086296 -5.523106416660539e-09
0.024406220763921738 -0.01142833475023508 0.0021156638395041227
0.02444019354879856 -0.011467315256595612 -5.559242399755249e-09
0.024221697822213173 -0.011240777559578419 0.0021156640723347664
0.024038655683398247 -0.011081577278673649 0.00211566430516541
0.024170616641640663 -0.011194542981684208 -5.427634786059343e-09
0.023844990879297256 -0.010937366634607315 0.00211566430516541
0.022705763578414917 -0.010381722822785378 0.00211566430516541
0.02240108884871006 -0.010286539793014526 0.0021156640723347664
0.0224214568734169 -0.010292818769812584 -5.7821116783429716e-09
0.022059759125113487 -0.010198263451457024 -5.293379068405102e-09
0.02204294688999653 -0.010194792412221432 0.00211566430516541
0.021720493212342262 -0.010126348584890366 0.0021156640723347664
0.021686654537916183 -0.010119856335222721 -5.532786229167641e-09
0.02476380206644535 -0.011917917057871819 -5.645594658432174e-09
0.024298226460814476 -0.01131499744951725 -5.0376289806308705e-09
0.02403995953500271 -0.011083061806857586 -5.483785869841995e-09
0.021330958232283592 -0.010058497078716755 0.00211566430516541
0.021310945972800255 -0.010055544786155224 -5.476728404119058e-09
0.01324223168194294 -0.012144473381340504 -5.5000746179700855e-09
0.013494079001247883 -0.011954431422054768 -5.505458755550308e-09
0.013496126979589462 -0.011952972039580345 0.00211566430516541
0.013721552677452564 -0.01179158128798008 -5.491385568490159e-09
0.013723251409828663 -0.011790414340794086 0.00211566430516541
0.013953719288110733 -0.011633933521807194 -5.452253759585801e-09
0.014184272848069668 -0.011485683731734753 -5.427314597739041e-09
0.014188351109623909 -0.01148318499326706 0.0021156640723347664
0.014419463463127613 -0.011342751793563366 -5.381932677295254e-09
0.014417543075978756 -0.011343821883201599 0.0021156640723347664
0.01465594582259655 -0.011207218281924725 -5.383613110865326e-09
0.014896275475621223 -0.011077672243118286 -5.321342477770941e-09
0.015175631269812584 -0.010936792008578777 -5.478480336051916e-09
0.015171529725193977 -0.010938897728919983 0.00211566430516541
0.01539929211139679 -0.010832509025931358 0.0010578293586149812
0.019170064479112625 -0.009943310171365738 0.0010578293586149812
0.01940716803073883 -0.009936024434864521 -5.42047695617498e-09
0.019405312836170197 -0.009935980662703514 0.0021156640723347664
0.01966976933181286 -0.009933952242136002 -5.509523948177275e-09
0.020042184740304947 -0.009940999560058117 -3.693871875043442e-09
0.019932005554437637 -0.009938053786754608 0.0021156631410121918
0.020195702090859413 -0.00994822196662426 0.002115663606673479
0.020458335056900978 -0.009964239783585072 -5.353519405559837e-09
0.020463520660996437 -0.009964617900550365 0.0021156640723347664
0.020728180184960365 -0.009986761026084423 -5.45714495814309e-09
0.02073204144835472 -0.00998711958527565 0.0021156640723347664
0.021000277251005173 -0.010015538893640041 -5.507455824727003e-09
0.02100171521306038 -0.010015706531703472 0.00211566430516541
0.015655940398573875 -0.010719941928982735 -5.103872435796575e-09
0.016150807961821556 -0.01052689179778099 -5.036096872856888e-09
0.01589571125805378 -0.010622872970998287 0.0010578293586149812
0.016650952398777008 -0.010361166670918465 -5.50939116550353e-09
0.01640046015381813 -0.010441131889820099 0.0010578293586149812
0.016654007136821747 -0.010361024178564548 0.002115663606673479
0.01693042553961277 -0.010282500647008419 -4.617338955625883e-09
0.01741112396121025 -0.010165862739086151 -5.19591125680563e-09
0.017148291692137718 -0.010226544924080372 0.002115663606673479
0.017912544310092926 -0.01007006410509348 -5.531829216920414e-09
0.017662523314356804 -0.010115096345543861 0.0010578293586149812
0.017911279574036598 -0.010070948861539364 0.0021156638395041227
0.018159808591008186 -0.01003360003232956 0.0010578293586149812
0.018426787108182907 -0.009999280795454979 -5.522158286197509e-09
0.01841842569410801 -0.010000866837799549 0.0021156638395041227
0.018660815432667732 -0.009976519271731377 0.0010578293586149812
0.018932919949293137 -0.009955571964383125 -5.277546843984737e-09
0.01894882507622242 -0.009953930974006653 0.00211566430516541
0.017404967918992043 -0.01016652025282383 0.00211566430516541
0.016155604273080826 -0.01052438747137785 0.00211566430516541
0.015667816624045372 -0.010714157484471798 0.00211566430516541
0.013213029131293297 -0.012167341075837612 0.00211566430516541
0.01966352015733719 -0.009933898225426674 0.00211566430516541
0.014891263097524643 -0.011080239899456501 0.0021156640723347664
0.014653678983449936 -0.011208402924239635 0.0021156640723347664
0.013949163258075714 -0.011636877432465553 0.00211566430516541
0.010699311271309853 -0.015118252485990524 0.00211566430516541
0.010691467672586441 -0.015168414451181889 -5.5045026314815004e-09
0.01071252953261137 -0.015081090852618217 -5.376034284410025e-09
0.01104151364415884 -0.014558684080839157 -5.5103934748501615e-09
0.011237530037760735 -0.014300432987511158 -5.490687460252275e-09
0.01123717799782753 -0.014300568029284477 0.00211566430516541
0.011487320996820927 -0.013988652266561985 0.0021156640723347664
0.011687657795846462 -0.013749223202466965 -5.414824588712008e-09
0.011685111559927464 -0.013752255588769913 0.0021156640723347664
0.011960373260080814 -0.013434242457151413 -5.079034970378871e-09
0.010786497965455055 -0.014938012696802616 -5.542967418392664e-09
0.010886464267969131 -0.014779413118958473 -5.54285906062546e-09
0.010837898589670658 -0.014853938482701778 0.00211566430516541
0.010692966170608997 -0.015171770006418228 0.00211566430516541
0.010751686058938503 -0.015000072307884693 0.00211566430516541
0.012984317727386951 -0.012368282303214073 0.00211566430516541
0.013059234246611595 -0.012300382368266582 -5.5580287039447285e-09
0.010999941267073154 -0.014615517109632492 0.00211566430516541
0.012856332585215569 -0.01248894352465868 -5.495598198734797e-09
0.012695403769612312 -0.012645997107028961 0.00211566430516541
0.012602563016116619 -0.012740658596158028 -5.484911635988965e-09
0.012288273312151432 -0.013070733286440372 0.0021156640723347664
0.012277080677449703 -0.013083046302199364 -5.21190424151996e-09
0.011458734050393105 -0.01402350328862667 -5.495524479925962e-09
0.01195650827139616 -0.013438567519187927 0.0021156638395041227
0.010712899267673492 -0.01520373672246933 0.00211566430516541
0.010726192966103554 -0.015218008309602737 -5.522436730132085e-09
0.011605844832956791 -0.015560928732156754 -5.23672394336927e-09
0.011475827544927597 -0.015525215305387974 0.0021156640723347664
0.011727460660040379 -0.015593517571687698 0.00211566430516541
0.010788682848215103 -0.01526185404509306 0.0021156647708266973
0.010851076804101467 -0.015296120196580887 -5.5268061238678e-09
0.011013385839760303 -0.015369695611298084 0.00211566430516541
0.011005770415067673 -0.015365660190582275 -5.563340899072955e-09
0.011251780204474926 -0.015456723980605602 -5.515677692358167e-09
0.011279805563390255 -0.01546557992696762 0.00211566430516541
0.014837946742773056 -0.018239574506878853 -4.802368280820701e-09
0.014735679142177105 -0.018054848536849022 -5.425664806324448e-09
0.014737566001713276 -0.018059145659208298 0.0021156633738428354
0.014618710614740849 -0.017867816612124443 0.002115661045536399
0.011858668178319931 -0.015636073425412178 -5.3871396232807456e-09
0.012926958501338959 -0.016176484525203705 -5.042624096063264e-09
0.013005859218537807 -0.01623036339879036 0.0021156640723347664
0.01311871875077486 -0.01630987785756588 0.0009951884858310223
0.014494319446384907 -0.017684688791632652 -5.256572954692729e-09
0.013882302679121494 -0.016963258385658264 -5.513842715743067e-09
0.013697674497961998 -0.016784939914941788 -5.473981712356135e-09
0.013703900389373302 -0.016790704801678658 0.00211566430516541
0.01358820777386427 -0.01668565347790718 0.0010743559105321765
0.013475514017045498 -0.01658880151808262 -5.513972389792343e-09
0.01329664047807455 -0.016443267464637756 -5.137114733599901e-09
0.013272739946842194 -0.016424832865595818 0.0021156638395041227
0.011985491961240768 -0.015682445839047432 0.00211566430516541
0.012773610651493073 -0.01607831008732319 0.00211566430516541
0.014843301847577095 -0.01825009286403656 0.00211566430516541
0.013473084196448326 -0.016586771234869957 0.00211566430516541
0.012131712399423122 -0.015741892158985138 -5.417083226433306e-09
0.012397374026477337 -0.01586688868701458 -5.43051692503127e-09
0.01251631323248148 -0.015929171815514565 0.00211566430516541
0.012648931704461575 -0.016003591939806938 -5.4652402603494465e-09
0.012255036272108555 -0.015797222033143044 0.0021156640723347664
0.013879876583814621 -0.01696084253489971 0.00211566430516541
0.014060355722904205 -0.017149893566966057 0.00211566430516541
0.014051486738026142 -0.017140375450253487 -5.4816342576202715e-09
0.014216264709830284 -0.017327260226011276 0.0021156640723347664
0.014214440248906612 -0.01732533611357212 -5.345841547210739e-09
0.01435772143304348 -0.017501819878816605 0.0021156640723347664
0.01435729768127203 -0.017501480877399445 -5.314565676428629e-09
0.014497457072138786 -0.017688876017928123 0.0021156640723347664
0.015250900760293007 -0.019542943686246872 -5.374066969210389e-09
0.0152115598320961 -0.01934041827917099 -5.058701457727466e-09
0.015208108350634575 -0.01932367868721485 0.0021156640723347664
0.015163253992795944 -0.019130630418658257 0.002115663606673479
0.014915726147592068 -0.018398553133010864 0.0021156638395041227
0.014918368309736252 -0.018404798582196236 -4.946236309422147e-09
0.015109469182789326 -0.022822294384241104 0.00211566430516541
0.015015103854238987 -0.023078368976712227 0.0021156633738428354
0.015054727904498577 -0.02297823317348957 -5.532368341221172e-09
0.014901532791554928 -0.02331208437681198 0.00211566430516541
0.014956771396100521 -0.023205183446407318 -5.686632054135998e-09
0.014988531358540058 -0.018572162836790085 -5.140381453827558e-09
0.015110881067812443 -0.0189359188079834 -5.388053114785407e-09
0.015053263865411282 -0.018751822412014008 -5.135128766653452e-09
0.015111362561583519 -0.018937990069389343 0.0021156640723347664
0.01516637671738863 -0.019142402336001396 -5.29513100033796e-09
0.015369025990366936 -0.02086075395345688 -5.233434130502701e-09
0.015361035242676735 -0.02054101787507534 -5.180729178988486e-09
0.015369067899882793 -0.020866291597485542 0.0021156640723347664
0.01536534447222948 -0.021198155358433723 -5.221565846369458e-09
0.01536761224269867 -0.02108929492533207 0.0021156640723347664
0.015360289253294468 -0.02130836807191372 0.0021156640723347664
0.015346229076385498 -0.021536579355597496 -5.294910288000665e-09
0.015255317091941833 -0.02224125526845455 -5.171774120071859e-09
0.015293308533728123 -0.0220127422362566 -5.11354292243027e-09
0.015253221616148949 -0.022251198068261147 0.002115663606673479
0.015198374167084694 -0.022508956491947174 -5.6170845752490095e-09
0.015191529877483845 -0.022537605836987495 0.00211566430516541
0.014988110400736332 -0.018570713698863983 0.0021156638395041227
0.015054015442728996 -0.018754007294774055 0.0021156638395041227
0.015269138850271702 -0.019645586609840393 0.0021156638395041227
0.01528527308255434 -0.01975422538816929 -5.305584860337831e-09
0.015315347351133823 -0.01998191699385643 0.0021156640723347664
0.015314660966396332 -0.019976302981376648 -5.3096433916266506e-09
0.0153455575928092 -0.02028951607644558 0.00211566430516541
0.01533699594438076 -0.02019454911351204 -5.25582866117702e-09
0.01536421850323677 -0.020634062588214874 0.0021156640723347664
0.015345974825322628 -0.02154095657169819 0.0021156640723347664
0.015323488973081112 -0.0217785332351923 0.002115663606673479
0.015323882922530174 -0.021774884313344955 -4.986024038089454e-09
0.015290988609194756 -0.022029463201761246 0.0021156640723347664
0.015130621381103992 -0.02275504358112812 -5.043411910321538e-09
0.011212028563022614 -0.026173219084739685 0.0021156640723347664
0.011091428808867931 -0.026195231825113297 -5.486715970448586e-09
0.011385337449610233 -0.026136547327041626 -5.462419849777689e-09
0.011750170029699802 -0.026041407138109207 -5.343525621981371e-09
0.011566310189664364 -0.026092441752552986 0.0021156638395041227
0.012014146894216537 -0.025954389944672585 -5.309581663226481e-09
0.011836637742817402 -0.02601403184235096 0.0021156640723347664
0.013237258419394493 -0.025312572717666626 0.0021156640723347664
0.013423877768218517 -0.025170020759105682 -5.406697312082542e-09
0.013445097021758556 -0.02515297196805477 0.0021156640723347664
0.01480876188725233 -0.023481132462620735 -5.558192572863163e-09
0.01468919962644577 -0.02368471398949623 -5.4247579761579345e-09
0.014589894562959671 -0.023844463750720024 0.002115663606673479
0.01450781524181366 -0.023969462141394615 -5.411442849379e-09
0.014279959723353386 -0.024285053834319115 0.00211566430516541
0.014130935072898865 -0.024471551179885864 0.00211566430516541
0.014187286607921124 -0.02440236695110798 -5.5141011756632e-09
0.013915745541453362 -0.02471412904560566 0.00211566430516541
0.014038048684597015 -0.0245796050876379 -5.595725216522851e-09
0.013679108582437038 -0.024948598816990852 0.00211566430516541
0.013851136900484562 -0.024780601263046265 -5.443205441935106e-09
0.013661390170454979 -0.024965064600110054 -5.614790410390924e-09
0.013091355562210083 -0.025415075942873955 0.0021156640723347664
0.01308972854167223 -0.025415996089577675 -5.2959125973472965e-09
0.012884711846709251 -0.025546832010149956 0.002115663606673479
0.01264926977455616 -0.025677889585494995 0.0021156640723347664
0.012420236133038998 -0.02579054981470108 0.00211566430516541
0.012496484443545341 -0.02575433813035488 -5.458665519597616e-09
0.010874497704207897 -0.02623014897108078 0.00211566430516541
0.012113241478800774 -0.025918886065483093 0.0021156640723347664
0.014422466978430748 -0.024092867970466614 0.00211566430516541
0.0143338143825531 -0.024214744567871094 -5.535176761384264e-09
0.01324694324284792 -0.025305738672614098 -5.356210586171528e-09
0.012943830341100693 -0.02551005408167839 -5.201556074752034e-09
0.012721605598926544 -0.02563975378870964 -5.398845370763183e-09
0.01225742232054472 -0.025861572474241257 -5.399564351193931e-09
0.01472984254360199 -0.023617804050445557 0.00211566430516541
0.010222614742815495 -0.02771671861410141 0.00211566430516541
0.010311939753592014 -0.027814695611596107 -5.5712501279003845e-09
0.010137118399143219 -0.027616340667009354 -5.4379736269538625e-09
0.010103370994329453 -0.02757289633154869 0.0021156640723347664
0.010708856396377087 -0.026258451864123344 -5.531577862427639e-09
0.009847690351307392 -0.02713790349662304 -5.4684452521769344e-09
0.009870505891740322 -0.02719706855714321 0.0021156640723347664
0.009902971796691418 -0.02726721204817295 -5.5020943356964835e-09
0.010661051608622074 -0.02626875974237919 0.00211566430516541
0.010446300730109215 -0.026323864236474037 0.0021156640723347664
0.010501736775040627 -0.026308324187994003 -5.470718988931367e-09
0.009870985522866249 -0.02668532356619835 0.0021156640723347664
0.009828859008848667 -0.026774469763040543 0.0021156640723347664
0.009842055849730968 -0.02674216777086258 -5.336875830153076e-09
0.00992883462458849 -0.027314379811286926 0.00211566430516541
0.010462731122970581 -0.02796919271349907 0.0021156640723347664
0.010346783325076103 -0.026356110349297523 -5.465867758402965e-09
0.010304502211511135 -0.026372341439127922 0.00211566430516541
0.010214526206254959 -0.026410076767206192 -5.219312093629469e-09
0.010099346749484539 -0.02646978572010994 -5.474117603654349e-09
0.010167204774916172 -0.026432104408740997 0.0021156640723347664
0.01003421563655138 -0.026512818410992622 0.00211566430516541
0.009977084584534168 -0.026557782664895058 -5.50343726146707e-09
0.009931543841958046 -0.026602914556860924 0.0021156640723347664
0.009887762367725372 -0.02665766514837742 -5.465656371939076e-09
0.009813685901463032 -0.026834340766072273 -5.457268859032638e-09
0.00980747677385807 -0.026891561225056648 0.00211566430516541
0.009807256050407887 -0.026924382895231247 -5.491691990044956e-09
0.009815619327127934 -0.027019008994102478 -5.483554055274453e-09
0.009812155738472939 -0.026991628110408783 0.0021156640723347664
0.009828053414821625 -0.02707420475780964 0.00211566430516541
0.010003062896430492 -0.027436811476945877 -5.455526252973186e-09
0.010004278272390366 -0.027437683194875717 0.0021156640723347664
0.01727389544248581 -0.029182536527514458 0.00211566430516541
0.01750265061855316 -0.029123447835445404 0.002115661511197686
0.017065504565835 -0.029232800006866455 0.002115661045536399
0.01673213392496109 -0.029304707422852516 0.0021156608127057552
0.01640155538916588 -0.02936597727239132 -2.961185963101798e-09
0.016355445608496666 -0.02937358431518078 0.00211566430516541
0.016074873507022858 -0.029416464269161224 -4.321067947898882e-09
0.016055850312113762 -0.029419032856822014 0.00211566430516541
0.015751024708151817 -0.029456326737999916 -4.616156346060052e-09
0.01575983688235283 -0.02945537492632866 0.00211566430516541
0.015434443950653076 -0.02948535420000553 0.002115660347044468
0.014758183620870113 -0.029512785375118256 0.00211566430516541
0.01512138918042183 -0.029503783211112022 0.002115653594955802
0.014813109301030636 -0.02951154299080372 2.4817726540504736e-08
0.014422626234591007 -0.029505867511034012 0.0021156424190849066
0.014127064496278763 -0.02948932908475399 0.0021156533621251583
0.013836667872965336 -0.02946225367486477 -8.71806904445549e-10
0.013802861794829369 -0.029458245262503624 0.00211566430516541
0.013554193079471588 -0.029424946755170822 0.002115662908181548
0.013035724870860577 -0.029326291754841805 0.00211566430516541
0.013275131583213806 -0.02937699481844902 0.0021156638395041227
0.01304203737527132 -0.02932775765657425 -5.431915361953088e-09
0.012815873138606548 -0.029271632432937622 -4.848864865181213e-09
0.018216300755739212 -0.028909238055348396 -5.39373035124413e-09
0.017761029303073883 -0.029051922261714935 -5.4896815981919644e-09
0.018191805109381676 -0.028917480260133743 0.002115663606673479
0.017844785004854202 -0.029026232659816742 0.002115662442520261
0.017117133364081383 -0.029221678152680397 -5.350039078422242e-09
0.016658447682857513 -0.029319042339920998 -5.51703260853742e-09
0.015467565506696701 -0.02948269620537758 -5.51703260853742e-09
0.01517923828214407 -0.029500996693968773 -5.51703260853742e-09
0.01447179913520813 -0.029508553445339203 -5.4978648300618715e-09
0.014068827033042908 -0.0294845812022686 -5.51703260853742e-09
0.013541899621486664 -0.02942306362092495 -5.51703260853742e-09
0.013286115601658821 -0.02937908098101616 -5.51703260853742e-09
0.012594163417816162 -0.029207967221736908 0.002115662908181548
0.012551737949252129 -0.029194530099630356 -5.51703260853742e-09
0.012375885620713234 -0.02913627028465271 0.002115662442520261
0.012263253331184387 -0.029095537960529327 -3.8020151471584995e-09
0.01205352135002613 -0.029012490063905716 -4.371174089357055e-09
0.011870539747178555 -0.028931738808751106 -5.51703260853742e-09
0.011849859729409218 -0.028922267258167267 0.0021156638395041227
0.011656113900244236 -0.02882690355181694 -5.51703260853742e-09
0.011652742512524128 -0.02882516384124756 0.00211566430516541
0.011459294706583023 -0.02871984802186489 -5.380956569212003e-09
0.011448330245912075 -0.028713485226035118 0.00211566430516541
0.011272716335952282 -0.028607824817299843 -4.856165247701938e-09
0.011247348971664906 -0.028591537848114967 0.00211566430516541
0.011091470718383789 -0.028488030657172203 0.002115662908181548
0.01091525238007307 -0.02836007811129093 -4.103814621458923e-09
0.010826465673744678 -0.02829078771173954 0.002115662908181548
0.010660775937139988 -0.0281521026045084 0.0021156633738428354
0.010502107441425323 -0.028006596490740776 -5.2611111023281865e-09
0.010687067173421383 -0.028174711391329765 -5.51703260853742e-09
0.011053371243178844 -0.028461050242185593 -5.51703260853742e-09
0.01209140382707119 -0.029027987271547318 0.00211566430516541
0.012790859676897526 -0.02926476299762726 0.00211566430516541
0.019086169078946114 -0.02861148491501808 0.00211566430516541
0.022315558046102524 -0.028771938756108284 -6.4657204035256655e-09
0.022078296169638634 -0.0285294521600008 -5.543724590495458e-09
0.02230524644255638 -0.028760142624378204 0.0021156619768589735
0.02178855985403061 -0.028307896107435226 3.4111211633103267e-09
0.021663127467036247 -0.028241081163287163 -3.860216590823029e-09
0.021718237549066544 -0.02826845273375511 0.0021156587172299623
0.021592281758785248 -0.028212066739797592 0.002115628682076931
0.021402068436145782 -0.028158802539110184 1.9321635846836216e-08
0.021262366324663162 -0.028138302266597748 -4.9065826956962155e-09
0.021374721080064774 -0.028152359649538994 0.002115667797625065
0.02107590064406395 -0.028132176026701927 -5.181202578086186e-09
0.021168570965528488 -0.028132621198892593 0.0021156645379960537
0.020971208810806274 -0.02813657931983471 0.0021156640723347664
0.020865581929683685 -0.028145506978034973 -5.417679638242134e-09
0.02072843350470066 -0.028162816539406776 0.00211566430516541
0.020654065534472466 -0.02817566879093647 -5.301781236255465e-09
0.019993850961327553 -0.028329569846391678 0.0021156640723347664
0.020107127726078033 -0.02829807996749878 -5.302148942121221e-09
0.01967320591211319 -0.02842368558049202 -5.510539580200202e-09
0.019641375169157982 -0.028433440253138542 0.00211566430516541
0.019116539508104324 -0.028601225465536118 -5.507589495579168e-09
0.021917834877967834 -0.02839527651667595 -5.7530180619380644e-09
0.02184784598648548 -0.028345583006739616 0.002115659648552537
0.02150414139032364 -0.02818319946527481 1.365344814985292e-07
0.020338306203484535 -0.028240138664841652 0.0021156640723347664
0.020485617220401764 -0.028207551687955856 -5.147724024823219e-09
0.02209622412919998 -0.02854757569730282 0.00211566430516541
0.02195906452834606 -0.028427114710211754 0.0021156633738428354
0.0225821565836668 -0.03188274800777435 0.00211566430516541
0.022638801485300064 -0.03155486285686493 -5.475060405046861e-09
