ply
format ascii 1.0
element vertex 781
property float x
property float y
property float z
end_header
0.05283185630511689 -0.011939005786553865 0.16487069319938816
0.0663118253817105 -0.026801353443645985 0.16933611356002679
0.07223165409645231 -0.027612710076643593 0.15809120719675665
0.04068539855169191 0.008770325249539353 0.17386385643124752
0.006607220278739497 0.00213759726242109 0.17312947947829135
0.0556802768336157 -0.009928365499949299 0.17155376997958435
0.042592912764835865 -0.03430580320079233 0.16892301215406705
0.04969061662635761 0.023621674115031195 0.1687849110222868
0.07632438997104021 -0.010418760856845307 0.17062236296227468
0.044014580957388125 0.021359262812263635 0.1622516518821671
0.0504506474045609 0.010262985567964497 0.17199265308662268
0.061116382767788704 -0.004128108711000552 0.1718925070629043
0.07608270690597303 0.012770831068492344 0.17310363813202687
-0.003341958562489093 -0.050032217994906765 0.16954116307089684
0.05040831216552962 0.02267932792976189 0.17421874409552107
0.07268684257592005 -0.04033613478010361 0.1675769361098092
0.02141386174919773 -0.01202869052929639 0.17158413447858922
0.04354970314294475 0.009176342167718163 0.17183127001828163
0.07597134823429119 0.017719503863764117 0.17315224709531146
0.04137159871124935 0.0035363675934778557 0.16480008641422134
0.06131310878564244 -0.013077028267761215 0.166586954978075
0.0767586636834329 -0.00242708477104007 0.1698769543823431
0.04003132233165434 -0.026710146922038977 0.17001642784627308
0.06170418940864721 0.021114216855634187 0.16152805404632015
0.07333892828241105 0.006890242856572472 0.16824107551314635
0.05432480709584836 -0.009255317824369398 0.169850875863905
0.002081869096748245 0.0055547494428591256 0.17422056440902237
0.0787801970640574 0.017316471780413338 0.172450112420024
0.04406523580262009 0.019713547420996277 0.17480561191469252
0.06256677531981687 -0.012397934161947007 0.16878187937944084
0.008139024317200025 -0.01956909348165667 0.15930368358840372
0.06070906127785311 -0.028527996891195916 0.16604986066749985
-0.003933082232430826 -0.05228655011799296 0.1693893496188399
0.022909063806331467 0.024319144099017954 0.1748510183583609
0.03952002747468496 -0.025820217001387036 0.16825992108871382
0.07455666793884501 0.009574546400038887 0.17288828580548873
0.04983042686286209 0.009262433063494314 0.1737647769029543
0.060563645965563205 -0.004026895517287718 0.17162464026614424
0.04234773307003147 0.005757516425338531 0.17368622586589166
0.07061552972389003 -0.00790500760606202 0.16134152980714778
0.07821654671914943 0.001761296751293804 0.16971748642890433
0.07630613108126214 -0.006163706074522955 0.17114178855584367
0.016339456761916824 -0.014671639370875277 0.1660182744770216
0.073061685130302 -0.012526605562246914 0.16726837818610826
0.07672483687420631 -0.002193396327230245 0.16990319665215955
0.028296623139994603 0.00938870496372039 0.1746272865033699
0.004302757102572285 0.0015417345919861054 0.17473693657350528
0.06765097921853226 -0.02393229554037304 0.16755212325012306
0.06082719679312408 -0.014385817547270393 0.16977887402624248
0.06105180803149545 -0.02923652117346897 0.1674558704855074
0.010575965135716986 -0.0025922581376830213 0.17246884830325526
0.0302349274302769 0.006885725054204327 0.1655961944701435
0.04920514647912508 0.02221287259284306 0.17421646456942586
0.07019118933685989 -0.02235490681387202 0.1696570956581799
0.04076375256645005 0.009731204473414117 0.16331238168868686
0.05627138612995514 -0.022913291223579327 0.16959799916168725
0.05585960069650072 -0.013707979016361161 0.16949856320448126
0.04792782314242125 0.02154053161194734 0.17490027696925692
0.01697603162564392 -0.006997488320345248 0.160295241317217
0.06313912589447156 0.01954858192077462 0.1629335777766147
0.015242194978164137 -0.04627372892640982 0.16927419099384858
0.06236508500311566 -0.02640268400625792 0.16843737619630983
0.07582154788987201 0.015522771735624349 0.17127873440243044
0.046188256796724315 0.023004546999698984 0.1753731355831961
0.0635293627908122 -0.0054336361696536665 0.16952968562867762
0.04576400213859495 0.023513972783269402 0.17496090855551324
0.012704985627391464 -0.04710503085956778 0.1687372034237223
0.07615757844674009 -0.03613621029893054 0.16575922707114918
0.07243099291419008 0.00535618490741733 0.17115141375342227
0.0544219660296722 -0.017300943077723126 0.1688980687518173
0.04052471987413756 0.005588705198470271 0.17156814008885754
0.048112344078197894 0.024597338990208405 0.17553221010275302
0.0732497422992684 -0.03826046544993678 0.16451802748154523
0.049701128298983474 0.015320707532960911 0.1739323640916519
0.013969183755827088 -0.01858411033433803 0.17003864472576966
0.07058679276472556 0.019377767208678405 0.17408972441475518
0.032042407321306685 0.0017968948071888802 0.17263871411447532
0.06317350044045311 -0.0016162678611476213 0.1623052674485862
0.07173012569580908 -0.010678088592981264 0.17077586757381877
0.050296982538656027 0.01016465066702027 0.1717140209359306
0.055117603099472424 -0.009621157703907533 0.16502762527407583
0.05136553975937394 0.01784861896881013 0.1724909124352117
0.01966469128525085 -0.04569133729124458 0.1625808188399439
0.007800596011480917 0.0004044942618316623 0.173446123850091
0.04907796818403134 0.010374751750967968 0.16902607645796988
0.0468517770371992 0.009734225375122568 0.1695885662418743
0.05678504530153448 -0.027588293858028773 0.16907944429399474
0.07393087688279898 -0.00975394849649596 0.1706699540189908
0.051249664341400145 0.011259673060945326 0.16957775846486417
0.05490095391338002 -0.012397891877472155 0.17053211735869112
0.04532921947099478 -0.04302470164815636 0.15533722134635236
0.003642421195392525 0.015830658040926312 0.1763511743631662
0.0066565047237489745 -0.0013281365919488135 0.16782232609587014
0.04471626250514141 0.00978797642682306 0.1718504673017861
0.043179884436151374 0.004580941995261146 0.16049618533852525
0.05456092567506945 -0.008719019426187129 0.15862982123699654
0.04329325580467065 -0.019551708312013617 0.16226339245750432
0.0561066863423274 -0.02264063654884503 0.16908512822050936
0.0551071543360172 -0.009594717677393992 0.1716119305208506
0.06773496487334354 -0.0022887329156718135 0.1609677529539337
0.04798800130203762 0.018461572314870868 0.16504408102201612
0.05411222452334388 -0.052552384330432134 0.16652394300031295
0.04302724857272007 -0.017359687154175678 0.1646794936099348
0.040981878863882014 -0.024984933058224273 0.17046328540317254
0.07393293776158982 -0.00964803407773232 0.16910901671893777
0.06002715151918428 -0.014154975751460085 0.17086670444030802
0.07307244539772598 -0.007956603521737252 0.16998134032870213
0.052006864148687944 -0.017802261014934893 0.16427826547975308
0.003678292638357176 0.009492129145021025 0.16583511610054077
0.05116202586666063 0.013126194771720476 0.16978016385633524
0.03634222545556937 0.015866519790488674 0.17323760741495206
0.026463483698930285 0.013212782386123233 0.17517233325647794
0.051484824818756436 0.009901162762778654 0.1607358069479385
0.042336283522013594 -0.04339619693732429 0.16631892591535782
0.06242328641705996 -0.004462316143935625 0.1652894451347206
0.07434542662704195 -0.03893019569883922 0.157887533658051
0.06480760264497515 -0.023858333749977503 0.16970911546738687
0.053230089346095494 -0.023238536192016622 0.16803797366919354
0.042839589180836815 0.005927913259857578 0.17338454628765407
0.021242878300030014 -0.006621156030188098 0.17216725761780532
0.05800588855542471 -0.011099570172537149 0.15824025118960408
0.04500014165284653 0.019059545311646282 0.1739678087351204
0.043541225829137054 0.020971114841633276 0.17532592935348065
0.04712714828370134 0.0099463634975323 0.16525638485213048
0.06602860394470447 -0.0036854305510505203 0.16305813081554876
0.0529802258877631 -0.011013563827299042 0.16935086803865995
0.07338930824466074 -0.008675376564560057 0.17007503900218332
0.05356869600646398 -0.02389614126851708 0.1695998021904417
-0.0002513264244168416 -0.050565281837314145 0.15633066440938456
0.07640022966397343 0.016140363760837863 0.17127830083894469
0.05070687848241375 0.017552783163196407 0.17461387626249264
0.030340409866873835 0.023582550580146414 0.17612476996924423
0.055083947368184935 -0.052674235295790725 0.1659242145619542
0.06120684934126808 0.019310782957198645 0.16135543805475555
0.013958593455276794 0.022693574382047846 0.17448223765647203
0.05455133807011975 -0.052694151669557265 0.1670399377339227
0.033537067647467084 0.0159640897400837 0.16208970299591496
0.05483655932742818 -0.011680130265790697 0.16337126394371945
-0.003641035251711246 -0.048791125372273265 0.16975040697467195
0.04028979615853655 0.00915433701799592 0.16109760956728195
0.07805836715670911 0.011271544343518198 0.1723826796811627
0.050513383089473 0.015154919124078717 0.16459205693191162
0.053233597926631154 -0.010836262382735643 0.1715534679640098
0.031182933902635615 0.02227427485576618 0.1693710279940603
0.07825927515068898 0.019843071703972422 0.17328838515338768
0.03286358304872994 0.004613672919434304 0.17180972678241357
0.04779309330245413 0.02161828456499204 0.17373868580685384
0.04280753418552377 0.006544780739265269 0.1727203293407495
0.041402305632089034 0.00992161011395229 0.16765143805958646
0.05196488775664379 -0.018146423690072223 0.16098528276386212
0.013909534081297574 -0.017757422079821672 0.16361320562381268
0.030437403016034575 0.002934589310527669 0.17172641681629233
0.01075079627647772 -0.018381179480489274 0.1702306169004702
0.04047226085086543 0.008732879007354132 0.17194878667695732
0.05439364049907807 -0.011505782450646733 0.16051135206607198
0.06091800952056463 -0.012748857027152253 0.1622935771932334
0.04830049867617329 0.02179136103455987 0.1743638991499197
0.07113470358356291 -0.027313449913010452 0.16762891006307845
0.057955735621002605 0.023937491878218947 0.1717506432820269
0.0409659725621156 -0.023723866575240695 0.166688785021913
0.07799611557078268 0.016290602477222166 0.1668874526554919
0.06215854750932259 0.020886789109027158 0.16365787021220488
0.060288978041985214 0.018627247454737532 0.17295329738116025
0.04463982355482374 -0.04184515705805299 0.16858711517095915
0.02370289679823785 0.024210283350631318 0.174259696056392
-0.003696508667281512 -0.04582704897711804 0.17000336556781567
0.009583754592044743 0.022321162512553158 0.17348560662156332
0.0038117528075771075 0.016458679947699426 0.17476616521635024
0.027109782598027696 0.025791696038044203 0.17648761918836453
0.05258648817234246 0.015981037125353106 0.17334055490541342
0.04563622101906472 0.019196071170108728 0.1749889615807808
0.035618893707467854 0.014272264891722007 0.17437585664406427
0.04103062752429556 -0.023737200796441586 0.1679879939182928
0.04729391741954946 0.02230828948308193 0.17091138497801683
0.05253245567997093 -0.012129342281213498 0.1616042565089048
0.07372233413833391 -0.03264715383764406 0.1618397559536624
0.027824570723093668 -0.03649848918051138 0.15672302714086075
0.05342871443667695 -0.02365468720913569 0.16963105773329146
-0.0023863481187380822 -0.051275818075598126 0.16285502130601387
0.05879130928701261 -0.013384093428283082 0.16230972132245788
0.009953368294064659 -0.04936488394084353 0.16257216577870567
0.07571269761115197 0.00021081297341168578 0.1701993652945791
0.07489313543165341 -0.040570250151251375 0.16533646439146316
0.04175239759649794 0.00934800174475982 0.17409240395432465
0.0772635436841671 0.0024902494922197753 0.1589294660946095
0.06374182922924612 -0.026977557701850077 0.1595796348344635
0.002677470704602409 -0.030985949086357194 0.17030225904923665
0.05718042085353002 -0.014473696187155416 0.17064452676648087
0.07309076307874339 0.006947992354137101 0.17129506836794622
0.054269155588807655 -0.019986532818028258 0.15744033699064405
-0.0004867365420715029 -0.051977357237573955 0.16922125565295443
0.04029796210877224 0.003120948685991793 0.16697010800317613
0.04320572498295415 -0.01865915205571131 0.158018037614002
0.07769626207897828 0.013012887086916464 0.16980786123927813
0.06577627694691293 -0.018756413714967776 0.15711774251147445
0.06547077264795292 -0.020036716298639345 0.16789661658465133
0.029962666907815107 0.02087007183119923 0.1757853792291664
0.06987800100270587 -0.0068393162807628746 0.1647421541386435
0.029814506543350116 -0.01111049658734669 0.1718992034723712
0.06278820607292777 -0.0017330472122893377 0.16230801176838772
0.07954880989649252 -0.0024176528605702047 0.17141322039132978
0.07413058147829858 0.020682071278003273 0.1642499922337357
0.07247737566223172 -0.011388621043443417 0.15763884935817152
0.042295562210470115 -0.04212544753643413 0.16532654838861147
0.06059282846579946 -0.004045008623306158 0.1719871730411251
0.03461794356494938 0.018923956398288967 0.1732658675251417
0.05918454005861389 0.020552946710346534 0.1713414391895419
0.0012764095202267732 -0.03383787424193519 0.1711503643491379
0.04420093401928768 -0.018024293918457248 0.17114345224955216
0.06122375230902171 -0.010799308754221287 0.16959709260093364
0.04033870254863653 0.00023138380183621715 0.17269316286958625
0.05332633923638139 -0.010282406600396688 0.1697807682352032
0.06349795501729488 -0.009516574688258611 0.16036440739067567
0.062169655167651314 -0.0038659552988358926 0.15884709998739738
0.03403202206923623 -0.006722323581227036 0.16616798552352208
0.04825416623836977 0.016952855156780414 0.17306653089302207
0.003708366066057893 0.009073879815953853 0.16578934973718304
0.04386010495167644 0.0011819869669067286 0.17155878852445602
0.04568098056702113 0.024375878592285287 0.16250748469143386
0.0779295456182408 0.010722274416938184 0.17287763224553002
0.07432619624107614 0.019273470914220214 0.1728343217791164
0.06250558524878103 -0.004739477781027318 0.16742862490321997
0.0032218218044526457 -0.049190222769270785 0.16779200144537404
5.55258229630335e-05 -0.03263563771940994 0.15822966110820125
0.02319483077886144 -0.04483158593541071 0.16801749875690364
0.0766805712415297 -0.004747336963917392 0.17072957444175024
0.05202194884984808 0.016884310433499194 0.1740075193220434
0.05151551430309131 0.02299824076848784 0.17413073588572092
0.053876616407424 -0.016705354877758226 0.16866539937589028
0.020296711781325937 -0.04343158745299838 0.16279676262650844
0.07401696245827341 -0.009568399569144336 0.1688948211032775
0.02987846887196433 0.013326934192849846 0.17395300609654987
0.04857962437471011 0.02538904274954474 0.16575914338609404
0.05383449159586713 -0.017300859403266457 0.16751760095359047
0.060338802602544914 -0.012494059092598911 0.15799963075153364
-0.0029172720063485686 -0.0446241124748921 0.17016602594238478
0.0715722701172565 0.019454901484746753 0.17351067072918175
0.036377098830183585 -0.029739858759194215 0.16362211550526726
0.04306520136250493 -0.017470302126317706 0.1708816678917611
-0.005412985056178611 -0.04312098702287631 0.17042464475260286
-0.002985437054956945 -0.04948579976081442 0.16306943814869063
0.07369556359195395 -0.012520465915844778 0.16724403958189207
0.05037268965060797 0.006824978564319669 0.17190348412360168
0.06216826349774791 -0.003792870343041833 0.15885494488158375
0.018554403356998254 -0.009113260892685613 0.17310447674045515
0.010121544689542513 -0.04772327995191937 0.16767631352614512
0.04526400348754997 0.010339565555881999 0.1675437255125713
0.03175472017998396 0.021751044557660967 0.16712074442863312
0.06976839381185512 -0.004343144510139809 0.1671845062157323
0.032752462400090665 0.020466048399469056 0.1691164071752435
-0.005792971321848309 -0.0441829749808217 0.1692295854038638
0.02838390808469659 0.01573323844456918 0.17317157347590037
0.07361597921320472 -0.011760040333867445 0.1608123234007461
0.04399573777047598 -0.020616568981762205 0.16868154418038178
0.03583283775417848 -0.027774257255564493 0.17043416078001458
0.040318519793554386 -0.022861070989583364 0.15768399982168174
0.0037764052693002263 -0.024640317779696094 0.1698384555275308
0.04378550964726642 -0.021977830349991397 0.16964158410446398
0.0126068552959245 -0.018149816430149814 0.15927880144313433
0.0355761976273956 0.014387686194858853 0.17329298930573486
0.07401138405306518 -0.009692708319731581 0.16975927021016948
0.04382929879945849 0.020050702870686887 0.17338838782442856
0.06792993317133937 -0.005048641280663112 0.16826778230186237
0.06451305843969866 -0.003955627387712466 0.16960499349313132
0.042153706599364585 0.010533323339941874 0.17234860581809658
0.07372929506862892 -0.04081223516612667 0.16096917698408755
0.0548404317801099 -0.024130064183967077 0.16023411591969458
0.05554405151760622 -0.05159864929859079 0.16053648930022268
0.02630907647329235 -0.006789750556570547 0.170852687795679
-0.0007517392921938589 -0.0505954174811528 0.15634718293566743
0.007706124702838435 -0.02084572014668374 0.1657005891985443
0.059111886904385166 -0.050171484789208215 0.163805886353504
0.05594449567689959 -0.022427183914982385 0.17021112073109335
0.0726245564410701 0.005787358724831862 0.17201237630313365
0.043785318833274474 -0.01958027861977193 0.17092882383344535
0.05995233837494142 0.022047752835518093 0.1747284520344936
0.05704963097308786 -0.04999792008853941 0.16558354816318516
0.07596044889823723 -0.030951626407796355 0.167416462954007
0.027997447141482276 0.023316270165434187 0.16743572411061686
0.027853925330474857 0.006966459782535855 0.16461269415514043
0.0241034866087182 -0.04091029851647297 0.1683996361131163
0.04353286528548399 0.02262090672796232 0.1624051221641323
0.05865836762568288 0.021088636910261308 0.1714192839617465
0.027868613342657313 -0.03762894560390464 0.1696977826663157
0.007773953298216528 0.021661362467335805 0.1669707308422809
0.04214221734669818 0.010060174167974258 0.1719809717977543
0.06818495014236389 -0.006169125329136455 0.17146141874688167
0.051031498219366575 0.013026784737136676 0.16325880880872806
0.03435848312525092 0.0007567805593857672 0.17298495660514973
0.06538604284662501 -0.02362973871838407 0.1696455085514282
0.04407264217083934 0.002477894394552315 0.17109667309267113
0.062533054982543 -0.004900960416470568 0.16741032960012248
0.029495656190340613 0.012828964760172881 0.17501186797703908
0.0674869191921593 -0.04642662214011007 0.16713278600421108
0.07888114963276903 0.00043959068427292837 0.17064724902313622
0.07558034072362063 0.01238359584651944 0.16656626125183796
0.06163889743167232 -0.026572788072699107 0.16881349174029078
0.0506429790534703 0.010321789710433543 0.17336240051187302
0.007139195075311255 0.0006330403838251605 0.17127028612485137
0.0524709465847601 0.008383469637072042 0.17335793288730042
0.051263874820133275 0.02305552947604403 0.17320661193934145
0.053318869599534094 -0.010577850852961437 0.16499657447105157
0.05097495626876163 0.008681463961957368 0.16551283868605748
0.030758405897469802 0.02331537985504866 0.1742517338029466
0.0746708940882671 0.019254788882931004 0.17227031282770525
0.07345637076581411 -0.035982329071948475 0.1680758259840885
0.043484542139978294 -0.04050403243347586 0.16219453996888997
0.04353386131197613 0.020502156213229192 0.17417938816402423
0.04045041037819124 -0.02302308985084011 0.15983350231193405
0.05846912962693024 -0.012142567503328318 0.16788467814070385
0.054209066815433055 -0.009445533166004893 0.17129762828056883
0.04459327584944382 0.009494667410104608 0.17399602462931443
0.0636263807389306 -0.047496228118264046 0.1541391738765828
0.060953570074161814 -0.026573772324123432 0.16920602623931952
0.03454699228480776 0.015092347606060161 0.17064484292954873
0.06216412059629346 -0.008429348849384703 0.1648768232889982
0.04087791515992208 -0.024724088789201792 0.1678888241723451
-0.004009171265803676 -0.047471110955805196 0.16984045520711732
0.05295271973222408 -0.010184188464527818 0.1585370604467712
0.006536073130388852 0.017988400225215955 0.16662804301298043
0.03032497612250279 -0.03576021250217708 0.1697349516596013
0.03998935102753088 -0.03450136395580313 0.1564562561082963
0.05080630109335013 -0.05147324674956481 0.16731773430683397
0.045300309867366634 0.01213876167767355 0.17212145108571728
0.0570827939250849 -0.026147769677468742 0.15667268126262668
0.06029476557616959 -0.014560110723272734 0.16978128944711393
0.06458933057824826 -0.010527958468800403 0.17113858756715788
-0.004326481183110916 -0.052147739175292356 0.16941965650116342
0.06027005453685458 -0.004395111769106198 0.1708657366814349
0.03165877292539081 0.022123998842597678 0.16282033779268554
0.06174648192294757 -0.04833996255252436 0.15412336342878113
0.012621904325640018 -0.004490470193702419 0.17050800211143555
0.0489017592193203 0.010408427540354174 0.17066558614428676
0.04370660434176537 0.01221463464995108 0.16346105411280298
0.053143824721440414 -0.010831548431074462 0.17046066413677158
0.044090583510365246 0.0017772807564794667 0.17319325978338934
0.030305752757639817 -0.03889144841629913 0.16946712096788896
0.07418139847197697 -0.009425156740498307 0.16912297641075102
0.06149892177781748 -0.011811134477265376 0.15802668070198317
0.0635533615161053 -0.005501796807794001 0.16974084101845877
0.0555784638806396 -0.00985945586691716 0.171565129315304
0.055097911211870174 -0.013391962314503715 0.1698913353296069
-0.005503424041168417 -0.05020767870676295 0.16569814194681284
0.028415746860933455 0.0147992487711001 0.17519929184425925
0.06153995373175439 -0.027113192098261144 0.16942585856173026
0.04872588154148408 0.011264012780289686 0.16098985282996395
-0.0002828527637082799 -0.035866992501487095 0.17093039784259506
0.07461188327820212 0.010683940638153942 0.1620793438065531
0.06158118102016644 -0.01042170039887939 0.16468744591092882
0.03190191364170611 0.022108772036446053 0.17480926796272098
0.06548272899138226 0.021853123880805753 0.16471578689005056
0.04691901897722928 0.023204673018252617 0.1623338332624593
0.05087575169185919 0.011128293979000788 0.17234233335190136
0.042299076904968876 0.006360359284160337 0.17375240048704332
0.054456598961339815 -0.017897228871418164 0.1685589363750466
0.054632533521568785 -0.015649789744987493 0.1707110330280229
0.045462858176840336 -0.0435652986943558 0.1617902414315704
0.025698448438327973 0.026941380004735425 0.16356882366376885
0.04396152294189894 -0.021459369011363312 0.17078675211150784
0.049475333543914736 0.010222365065184503 0.1647588223399997
0.05346829215223532 0.0104953675684595 0.171624230884998
0.04932371904213945 0.019658877046327745 0.17440964423116456
0.07063616451007476 -0.007877045807015905 0.15808573982342514
0.0654972185604977 -0.021893199664821845 0.16819724379380047
0.07433246836119464 0.022684055486245813 0.16119746397660267
0.07334446569779954 -0.008589870518206482 0.17081715289596772
0.04084652385099932 0.007914467051941505 0.1739753229603043
0.04397067892563295 -0.021167318871215743 0.1699948839738117
0.059931579052672414 -0.01265673457571928 0.15799834770705687
0.04837394587689122 0.01129747207869417 0.1642652523735918
-0.004086833482362139 -0.04883308139264009 0.1592728936775478
0.03262397641098884 -0.006246519921295306 0.16301626423484536
0.07563176217204377 0.00029035805789088404 0.17130788845868283
0.044364391599920484 0.022186372868529786 0.1720998833608266
0.02962147048224407 0.024371315654707536 0.17404349843988295
0.05779672969575418 -0.01149135838354654 0.16911003197930435
0.07550712578087958 -0.007460508568997768 0.16949948439220916
0.012098404207857839 -0.0036687605591215373 0.17174565842955195
0.06511676145235586 -0.02086470114376121 0.15854800725159843
6.251423600051563e-05 -0.03606490880421007 0.16876715846845872
0.04732198958847498 0.02104513074514977 0.17326526573529832
0.031151766212563277 0.006198684112608318 0.16114287157360635
0.058163372144902054 -0.04957358072579054 0.15739110805108414
0.03282433480115939 -0.03277139662472888 0.16995497880115823
0.028600697925860306 0.01067600894163352 0.17262398276472152
0.02554185287514535 0.02345245700543082 0.17575168526715088
0.07938186269008787 -0.0014449546365706764 0.17042663551575193
0.07443416761728158 -0.027276343021060984 0.16677153972922082
0.02983444019171473 -0.0111688544836607 0.1724406164304635
0.034643257843406876 0.015346081018103742 0.16849612541306602
0.04793392427333903 0.01826085870388091 0.1682827734067012
0.07445203049435624 0.0032235271178558175 0.16563439027385907
0.0736077087339995 0.019318740635561604 0.1734159027837655
0.04369077303023716 -0.022610045393238763 0.17012635925984584
0.07293486616266597 -0.01218377290683107 0.16405196774043523
0.07397295786764324 -0.009588829921797394 0.16878469687557848
0.03990675678599699 -0.028572473385568342 0.15709146478231867
0.04515951400384194 0.01102120563718429 0.16110458968893857
0.0434748472764124 -0.017493547671259053 0.17086303836521002
0.059894372574254076 -0.02923184747876237 0.1689644685640098
0.06410126431967043 -0.011467130392650118 0.16922964862251955
0.038725748493801566 -0.02224033425134025 0.15781296421948088
0.023788288373805335 0.02397944232465828 0.17642541590687988
0.06248087843673838 -0.01328270703258411 0.1691000186195157
0.05779997479716235 -0.011524114405358105 0.16947202659784172
0.031572781015271785 -0.008141634654417806 0.15959775713345964
0.05700963316632423 -0.052350774542576944 0.1669144449952933
0.058760177175771214 -0.05280910115165796 0.1663133170624995
0.05360927885004999 0.026509898265134578 0.16242234413588685
0.04420333944221727 -0.019396828336380838 0.1688033691468478
0.05444308330005977 -0.051124776803799295 0.1573724544989654
0.048137172222166555 0.02036930241844187 0.17508057070249095
0.057469632995352335 0.022190373483070708 0.171583586802557
0.06374351662841023 -0.004265269528400721 0.1717743027423688
0.05398152540497905 -0.04954668053687388 0.16630104330900092
0.028984188653722445 0.008358787177613953 0.16580252112247695
-0.0037063534409638075 -0.04874944590847994 0.16756373319186338
0.04487371170114092 0.0228342332000347 0.17547197829201694
0.002368298409525054 0.01320390125605158 0.17465896918825558
0.028779591302262878 0.009885787978446598 0.17472639243929908
0.028955432907033535 0.015204149614428163 0.17522117052089986
-0.0049449340157120235 -0.051130870271406635 0.16948726255411398
0.04897092959575251 0.02210357138191807 0.17429239798105564
0.042113149532240046 -0.01818629830330113 0.16462742805379738
0.04177955258571646 -0.0322437740452825 0.1631422148332244
0.076239325084062 -0.0007450350778420659 0.17062514521052954
-0.003640526875304983 -0.047924670294857356 0.16929432195298236
0.028159398299415776 0.009619728325142986 0.16814141187597867
0.0656548643049285 -0.020983912781389127 0.16828794763000196
0.027548163686819015 0.005916237506482031 0.1743518372727399
0.029475158026510396 0.015928812905529995 0.17201996238301323
0.03366332806599288 0.014593109744155562 0.1749704143320641
0.0739784734964414 -0.009711818262508278 0.16975853092964174
0.030696541274164154 0.02061954741660483 0.16704186238999447
0.0549496623462587 -0.02128654485964631 0.15727493902488832
0.021743389182068414 -0.0065661418886557715 0.17105654116367788
0.05428690144699406 -0.049686449573912606 0.16682253165742633
0.05292941214452159 0.010102634097732877 0.17373214370384582
0.007381750117969823 -0.023009133449278033 0.16222482972386232
0.0733220949270179 -0.013157977233378184 0.16832024404658807
0.004947279544994351 0.004370218316315993 0.16523914430775224
0.0512850524973221 0.010810111417561174 0.17170041620584858
0.04141247822910059 0.0035851579256570357 0.16480367507962435
0.04186136090554261 -0.01862240189872325 0.17117194715138206
0.0727881188141347 -0.012111217543368502 0.16406548737541315
0.06465587817874952 -0.010149429975519804 0.1708106964442928
0.06266573939986875 -0.005255591024371253 0.16953926963868407
0.06051126173990919 0.02167841121687345 0.1714090899185337
0.0677281929330533 -0.02018793898868318 0.1634041074553039
0.0611684175061602 -0.05237010358947239 0.16626515534459355
0.07524422923094107 0.019045119208214778 0.17222535855812776
0.045056935740965115 0.01033199574058886 0.1675510830741681
0.03413979789204886 0.015058858617503055 0.17065732854179289
0.030895081985699256 0.00242884752460152 0.1738481565644633
0.07607769152208357 0.017332713945810253 0.1627302322287371
0.055747610858092274 -0.049885199593395005 0.16564689987682277
0.040987991524671315 -0.023450035680988805 0.1667171040912762
0.07386634246806506 -0.009613947156230115 0.1697733840565419
0.07681752606978945 -0.0025586248150795705 0.1715058854322983
0.05471189772159152 -0.01170168041444777 0.1640978733707901
0.028243944217029804 0.009391173385921495 0.17028568396415095
0.07249999980518784 -0.04432130016879382 0.16503100354772288
0.06501182874552111 -0.050905060894146086 0.1668181905722487
0.062016877847402174 -0.008612326994689189 0.16160517152331882
0.04228414356899125 0.007755343889710666 0.16955773602443347
0.06427835590513706 -0.006899390060446257 0.1708063810158164
0.06099103363691172 -0.011044939664194108 0.16958008694935545
0.03239326255592596 0.014934053971607908 0.1717988752852374
0.0434632731915218 0.008129118982922193 0.17359457863650976
0.04835737742255122 -0.049992668452742625 0.1670236857995712
0.054477961182975626 -0.025214266719559866 0.16887502716729277
0.07401333505769167 -0.009632138496446356 0.16932691168527264
0.057075689157220943 -0.023947549263667094 0.16945604641107762
0.04682277027909972 0.02098332814156994 0.16861676897324673
0.028247721660234013 0.024937198268873445 0.1719425639023146
0.04743605176084992 0.009572560178475685 0.1673763303933774
0.06182528736542492 0.017656765003489238 0.17205804846432485
0.06206715181677628 -0.02607701971662609 0.1608276379028477
0.06538655049504068 -0.01996457788000918 0.1602622892029929
0.0611673248505382 0.018601701318878207 0.1710552800146395
0.054031663309980583 -0.018588113550467224 0.17063057699602788
0.05163400302101357 -0.017486206572793997 0.16926245719005503
0.05905198310370853 -0.028098950825754254 0.16616092856486006
0.06401317144570753 -0.006397975814077582 0.17087028193903359
0.06105830759803181 0.01941320352616254 0.16137221173058655
0.07373259590955716 -0.02648305421406084 0.16907744909497718
0.04854556817492837 0.007501457486171762 0.17332728866367458
0.015356623122444903 -0.015158134717312357 0.17039255481161858
0.07339681002699794 -0.0329633754590094 0.1683999603981251
0.026345429890642716 0.008145381344618775 0.17244316908288354
0.06254041452689288 -0.0022041910022308087 0.16991290060728875
0.01717534679669841 0.02686104813729858 0.17589645614908433
0.034988625610866096 -0.03163703295190225 0.16347464411316104
0.03059130086333684 0.022942091835604986 0.1694655370018277
0.0071048817806655 -0.025241293912562135 0.1707400065660711
0.04094795509490233 0.008547163425471646 0.17186679035515903
0.046135809004815606 0.010411961565106874 0.1653450995390798
0.04855585805229497 0.023021857008924118 0.16985170457560275
0.054533784786968444 -0.009219044211798297 0.16948088850597362
0.03646892478334329 0.01469374314179032 0.1735646294701673
0.012966446505726769 0.02603170725162231 0.16397386954877893
0.06814452939721836 0.022107726181056737 0.16789592716742507
0.0439738253803527 -0.017749405132212577 0.17081609280794618
0.05388945968507759 -0.018108009134281684 0.1674294006798007
0.036540887660587065 0.015039730520550668 0.17469551628768892
0.0653872497694823 -0.04831309462733745 0.153982676403538
0.014723134018510695 0.022841738083275876 0.17666157710691288
0.060467952769165036 -0.027514009258400193 0.15639358320952748
-0.006355086569503576 -0.049600409212574956 0.16757746638681675
0.06704219218076843 -0.0045876586406905385 0.1683519202883183
0.008906153619236969 -0.021198097405485967 0.15909980342506852
0.05234625555191733 -0.01304850774805531 0.16989019471796638
0.05719834812208493 -0.024021639590862974 0.15689474631665046
0.02483061467588727 0.02670049034064834 0.17557750505670447
0.06906016260569132 -0.006062884785697647 0.16811511200918058
0.03542796063552505 0.016710695923313992 0.1751265476429801
0.02116108855256281 -0.00946265144656541 0.17296445741629732
0.03925549969552942 -0.025867184546289158 0.16609337368500351
0.06259349931240983 -0.0050189016802041665 0.16956734635687917
0.01121904573471674 -0.0032383791073935797 0.1740198959176207
0.07030418272110167 -0.007202000629874953 0.15817078155643044
0.045843061327664206 0.02179936911199249 0.1661360147495456
0.041619625831998734 0.0030902149745660277 0.17343063030531475
0.03406051319644823 -0.006694869767313612 0.15965387765168498
0.04748623614655749 0.02089570595844452 0.1653233158568878
0.04067227217613604 0.008358480288310956 0.1696855775191865
0.0745838386906978 0.003401467565480227 0.15913224889971983
0.06081959824046809 0.02152896750033146 0.16812305080238557
0.05749993767767969 0.02192847260532656 0.17481243315915537
0.042347422441088765 -0.017904059872177164 0.17068093022569464
0.04022544105735693 -0.035026482625831246 0.16290688648658308
0.006244206739632816 -0.04818821024951721 0.15958587930791587
0.05764736026872269 -0.052764276508750124 0.1652651184270352
0.009463453165174697 -0.0042713071023728795 0.16739794329770588
0.07748419188110789 0.0018597640335214789 0.16536947442722624
0.05782373002779331 -0.02472585419130488 0.1693435936871078
0.04851019671039655 0.021908277510561118 0.17421139919330814
0.06233806829605888 -0.04810429918031375 0.15412515695814286
0.07322406022923193 -0.04351297417148854 0.16563703226028967
0.0792418838229459 -0.00075172812869009 0.1716028906643392
0.05568168398587996 -0.049821066401395046 0.16510791599160118
0.00827732344505142 -0.048373814235472684 0.16932496187561238
0.008241821878628663 -9.24922625539365e-05 0.17227890795574202
0.05143827622853677 0.007559717029134485 0.17193978413915037
-0.002584844598800183 -0.050193857214895846 0.1694940821349206
0.030202652396979432 0.020895089912077048 0.17143464084122928
0.050916005338427245 0.011452625627795922 0.17237531625513539
0.06551322913205324 -0.027632036775545762 0.16891344577348583
0.07244166678769408 0.005327329977708031 0.1714221268720824
0.07195704802347333 -0.006113387095152668 0.17131863079114754
0.053927916854287994 -0.016128676350088314 0.1687248440159576
0.05694670509253024 -0.026041479470469035 0.15668937639531225
0.04987591687697159 0.010056209419639665 0.17336433696778325
0.04947905187154806 0.017146510323343973 0.16158716340394064
-0.002148363003061363 -0.05258061940154501 0.16928763598214117
0.018116993258658735 -0.008820535640257508 0.1709592326844727
0.04541248264307206 -0.04297864803827132 0.16770460112303415
0.06015864167478945 0.018656631038249303 0.17442402824367115
0.04105488202328245 -0.023921492329795138 0.1705737576297422
0.004353432351910975 -0.04900026573229183 0.16776763073544249
0.0501434481510975 -0.04771913553188577 0.1671955959745482
0.050020814678705165 0.023095431141631977 0.1741457243523267
0.03464434280165347 -0.008771007856151834 0.17195813198572585
0.02650165618976305 0.026196245317882956 0.1749094445888803
0.07628592773371987 -0.0073060407164617005 0.17095565993125017
0.010089608369383121 -0.002257884439983284 0.17416893773900127
0.04146320576872321 0.0034480249917141735 0.16609023805491793
0.07147041107489002 -0.011470746338613277 0.17076678489647723
0.07513548004267769 0.02010640778246109 0.16740696517978745
0.040408026527368204 0.005797845431093407 0.16725109495391596
-0.004412591620512659 -0.0481986889766548 0.16065653680311934
0.06619769583466152 -0.004142540577443668 0.1673466763799421
0.07691104324354878 -0.010378029042278953 0.16957189297137001
0.04146610430590347 0.003536946770229735 0.16783717783319577
0.058519488786171754 -0.011816059983957425 0.17014377085022572
0.011963308652578122 -0.050057331798174086 0.167903338485438
0.040625457727140074 -0.022469538807673446 0.15771363051320852
0.050843080902009494 -0.04970352095230208 0.1544079308773846
0.06578744408333094 -0.020590024742483663 0.16832470414901127
0.07568023932400822 0.011689209593165249 0.17083224689291415
0.07178403179348763 0.01988582164638913 0.17403150623327063
0.018144646994877583 0.027116650576816136 0.17533705551753193
0.03648943197800407 0.01502823505109154 0.17277683767361193
0.07959738709142347 -0.0036055610871702365 0.17128468759105128
0.06379581916497722 -0.006059393447037223 0.1714268058277428
0.047370096582153506 0.021012510567343642 0.17325989199903433
0.06438156178988003 -0.007122884819420331 0.16931602987511424
0.04328733381995435 0.011505758125015227 0.1721333492112861
0.06650071089518086 -0.004651470845728605 0.17162442542982712
0.011041887479587516 -0.0029784308859663357 0.17240931596973452
-0.0037341036071186677 -0.048346590385470074 0.16760776714788925
0.026620644766024895 0.02655072480897852 0.16349082325039277
0.053677862171897114 0.012262412475527059 0.17235273379612476
0.04354689377642873 -0.02023737372147874 0.16869621427421624
0.03987562288622675 -0.029057006407296693 0.1683099547228787
0.07151126902885309 -0.041288050061386125 0.16100591448712762
-0.005958232745462336 -0.0489396890246207 0.16063849731366814
0.07438312442550521 -0.009167321357966872 0.16914250492327843
0.03406114762561564 -0.006754116216408904 0.17164767754409105
0.07146281158270597 -0.02774958909752899 0.16756948572165434
0.03651025509792415 0.014983890499149376 0.17331970918559372
-0.0019259420229636433 -0.049914586324698 0.1662399126590098
0.03424379414292001 -0.006792940219070527 0.1716363378288062
0.06973205324707184 -0.006838464730501575 0.16800595224384623
0.06207686465335899 -0.02655765254965628 0.16916345434866303
0.008490990753219154 -0.00042574829703758213 0.17278198141776305
-0.002526951255598821 -0.03534165832429721 0.17004319387139277
0.07441301139172016 -0.009248115486643265 0.16990050470923404
0.04432767125603363 -0.01831543084587975 0.16946215070026235
0.041940488383204674 -0.04114093814822428 0.15567162239347426
0.030363565327216173 0.00700524264760435 0.17362567321615305
0.03098529812522976 -0.0068437285762828785 0.17285624864139865
0.05831804425905224 -0.027744426109777204 0.16622765512852514
0.014296872633942411 -0.049194752106232545 0.16680642435571552
0.032255187452791545 0.01822950942949387 0.17541353423955222
0.0745934728248831 0.022625398767098306 0.1611809207659909
0.026313628100044784 -0.012500187406619245 0.1702438409166599
0.04169699988177586 0.002910216815425539 0.17253960599161802
0.06844103058478879 -0.045140550844071925 0.16397429025664528
0.00943306314876538 -0.004005304051993581 0.16416954045034673
0.005292857598811733 -0.02460418869838886 0.15887922061592627
0.043244046750228214 -0.017386381137564754 0.17015232939616914
0.02907593418600527 0.024182629887491223 0.17400145134983894
0.07431153102214655 -0.009262289579582332 0.16913520523112482
0.04715031013487305 0.021150206778919278 0.1735574443260139
0.062171333036106474 0.01905047235612619 0.16454762034008286
0.07582722890196152 0.013447096515486149 0.16666988380253822
0.0480611485213324 0.01135964724659337 0.17384903218492698
0.06484728338501365 -0.02797316587801477 0.16707526499913863
0.06977025611940518 -0.04522387932551659 0.15739709193856655
0.06065978897894732 -0.014493857482274485 0.17013957292430607
0.022456826511906565 -0.007365843857646931 0.173071698506236
0.03482318913786388 0.018602128363717486 0.17395470359737092
0.0646490084921766 -0.0018256929679406914 0.17096695083181712
-0.0034330623852161673 -0.052201326630009155 0.16718502657339265
0.054006640179442345 -0.009400903714942947 0.17021352083874644
0.028251085113240346 0.02263060475596906 0.17386854592732878
0.05484188794337503 -0.021337579211513386 0.16378965951901414
-0.005864872050483807 -0.04925916592555573 0.15929758372414368
0.03090757137646682 -0.03410607372113692 0.1688566124454295
0.061686777124743214 -0.010245879389521184 0.1707346787623676
0.043627442154037896 -0.018147831607005543 0.1710877312176977
0.07121290303967043 -0.02749478618427425 0.16906895829137494
0.05610034975277658 -0.010112983048562856 0.1696894511509266
0.005931126947823752 0.01954744808699757 0.17446340927066104
0.06566699192455033 -0.018844588516949902 0.1571126530528787
0.05323587062294484 -0.010547384965098104 0.17012170948042551
0.034133839458675666 -0.00671488249983426 0.17110056660133005
0.05591614852711988 -0.010633991101065318 0.16879772943309235
0.016681572170219545 -0.04855466046368678 0.16897431690701392
0.06677417502387883 -0.04907051059317208 0.16687908025578138
0.047593572086950774 0.02075596509088356 0.1745947987903586
0.015851508049037226 -0.015004574214868605 0.1714862557539768
0.06468051072778654 -0.0097816458839473 0.1701176949325177
0.004588960608167825 0.01707791983161315 0.17312367514099858
0.0603552731339771 -0.011763498062439382 0.17117383663631447
0.050954926740133286 0.013750696906876142 0.165510958957786
0.05782891665336657 0.024280324533634788 0.16853423283635388
0.0475642000940659 0.021117253412352405 0.1620858994794105
0.04287539083244606 0.007002160671038982 0.17276640532176532
0.04252801080553087 0.005265070179851391 0.16711071891071172
0.047084692276898314 0.00868537043243835 0.17351108075189442
0.07548174064570959 -0.012149151562553992 0.1694394670997378
0.05189435504175159 -0.0518410588294296 0.16613878323037123
0.07409075492472618 -0.040716721000096115 0.16422305860813954
0.04273950279910234 -0.03586294297139325 0.16710598641381388
0.06073452675470588 -0.026565740402584304 0.16958113300387687
0.07348714781609023 -0.008861361772486476 0.1689545152161839
0.0726578217626475 0.005760040026181568 0.1725565720346544
0.06110391551722492 0.01877311723972318 0.1694470786089371
0.01237498074527228 -0.006607949953411241 0.17354999568804388
0.05104505034892109 0.017853188347241644 0.16160074189274812
0.040557652426432916 0.008502037981381093 0.1741145065274452
0.06358625360093434 -0.002089001606718893 0.17207763413092989
0.012388239161624095 -0.004024374478685932 0.17389001797116213
0.05300979455686125 0.02554587109685369 0.17211709031299244
0.06041753720040519 -0.006155962400285563 0.17176908096508028
0.0670794422034205 -0.020236096751390972 0.16994046348484687
0.04152003297751653 0.003379445447863441 0.16999023484317527
0.07359505653104656 0.003100926046283807 0.1722361868506276
0.0605717648808919 -0.051582172608307844 0.16359796199803514
0.05332794326235553 -0.011918208656386974 0.1713692595417675
0.061278913110642 -0.007241178600692151 0.16942575459378642
0.006670117297788923 -0.048609142024828425 0.16826640278596205
0.0035588185040894872 -0.05190866229823563 0.16694054029295965
0.03070874664499726 0.005954309796092811 0.17199414069090788
0.04350007830209905 -0.020470513143695163 0.1686732101463767
0.07343943996544894 -0.008772615941278322 0.16951427859982324
0.06212691954400732 0.019971440680025102 0.17224942836766927
0.059130557595792124 -0.014694294578572084 0.1698128902171262
0.024054737981406515 0.025042012534198535 0.1699470929387945
0.0044792793123220945 0.016893275511491994 0.1731083187570107
0.04965348704905884 0.006753160244811763 0.17356945893956235
0.04517571339756975 0.02323004531951827 0.16892118474541756
0.04867457459186954 0.008564462346783753 0.1672200452886397
0.06116104060357752 0.01934048038113375 0.16136040964149778
0.05556284211300913 -0.021727584234228638 0.17030073818885155
0.059463113756153825 -0.011990125639146917 0.17118485743044135
0.014767030366311 0.026105017412183514 0.17536240208667925
0.03588105228442608 0.0026112792596447755 0.17360584586925026
0.04447878223054058 0.011464849568427082 0.17203856639094442
0.06182286964457297 -0.0026193218594454306 0.16550956096622418
0.077644359068901 0.015977190500797232 0.16035200505931496
0.0611716474923227 -0.01343452243661738 0.16872639900994532
0.06357246288905517 -0.010225955850652226 0.16462979633828725
0.05914308467223915 -0.012184028019636344 0.16785368573358922
0.02731949736401259 -0.03885643326011598 0.16952343205341755
0.06740441433170469 -0.02466914252411305 0.16842345760159422
0.029213404358731446 -0.006060815679543318 0.1599125759115808
0.04000305241738277 -0.027822980304661904 0.16989892715143318
0.06733373097616377 -0.004162974791291504 0.16186978495505736
0.07667543126141436 -0.0003043543348055268 0.16517069250222233
0.05714259097871668 -0.04997824017615998 0.16064617804924233
0.04359255895452539 0.020341692762526883 0.17525681614156963
0.033516326763428805 -0.0354145001820334 0.16971113513468142
0.049854523838824404 0.010359071985821582 0.16215207919088317
0.030721801836582963 -0.03768261828262327 0.16951439880483662
0.07395749549137617 0.008499702145267626 0.17170049835419912
0.07565813688430348 0.01390420688709634 0.1623813349993644
0.0544431032552644 -0.01713301473254087 0.1694635612464292
0.05228554888802793 0.01031182355992868 0.16509194955862944
0.048126945395478966 0.021610733525861077 0.17513494750145128
0.041111631223031214 0.004400051613732891 0.1627304252080018
0.04375416338663472 0.011526752330006053 0.17431087220983288
0.05797673226461272 -0.011638934474206537 0.16981843662010407
0.03993122517382632 -0.026312608911262088 0.16823466986903016
0.039899566311609076 -0.02832088191602381 0.16802185914901763
0.0365602706875712 0.014635989407678624 0.1749259274344224
0.044027301999455704 -0.020705545867548587 0.16949345196728627
0.03641351273282638 -0.031236239006537804 0.16784856599932307
0.043319196409243 -0.03841931151631095 0.16790749594065982
0.02782443577753352 -0.011939472102854377 0.17134088337510164
0.050805422615108606 0.02293111611735102 0.17321142708140225
0.06594932321821721 -0.019502659596782424 0.16354728898707677
0.03476756659158494 -0.008521161059077619 0.1708830508621352
0.042847967591022704 -0.01737213696343867 0.16962103789652994
0.03460473696088483 0.003143311367765465 0.17154090639449052
0.06106518498421991 -0.006894592507588043 0.16947112374472081
0.030887756223459156 0.013846215091220781 0.17506540652445962
0.059854660723094796 -0.014520295200833215 0.16870604027412295
0.03443564496146978 0.003600421690058935 0.16725235805399963
0.02643955131938481 0.011462022260067735 0.17492150044817759
0.008825660309106177 0.021223745265989972 0.17665648203332904
0.07624344628661363 0.018313852028598577 0.16717221349088998
0.045757780925311436 0.009140153536416132 0.17397748792081788
0.05190611347468833 0.024780181923525435 0.16230512975101244
0.0516308574685481 -0.016943335748529076 0.16932044505108743
0.03433927774679593 -0.008287406368831745 0.17250496053786266
0.07590632530460674 0.009814293008216565 0.1597636389609277
0.06183918022508678 0.018768670640818212 0.16615965731206125
0.05499033860695299 -0.013693746394627683 0.17035699038180227
-0.004388594843694435 -0.04851707043620807 0.15931847490610274
0.06517611846454578 -0.021023649654197965 0.1678030385887024
0.04063060590125765 -0.02247479146672097 0.157712867653736
0.05566222885498761 0.023953692931229613 0.16424090873857547
0.07546276106534078 -0.03444135203356285 0.16157989207991377
-0.0032967335410042536 -0.049480145766633656 0.16911497068177397
0.04208607384249202 0.006491325802841836 0.1672588487806113
0.04405542633460054 -0.01773460007672932 0.1693519897263
0.045304042628595255 0.010788836244533353 0.16324609531339193
0.033156051836289696 0.015964441336741866 0.16210476344030186
0.06940737784276982 -0.0038557731613145345 0.16507872186585415
0.07874559338107001 0.016679130020625293 0.17183511677651928
0.043715281039922 0.008597964472617705 0.1721721521578957
0.040726261885213874 -0.022914402107816555 0.1602686058875068
0.06158290810029766 0.020695252481786018 0.16800408995813365
0.0010075730793924044 -0.032504706411104096 0.16797994245276693
0.064841857352721 -0.002148726262350912 0.16869863905255209
0.06367011821327916 -0.005790545243538028 0.1705829392138231
0.052045271670916424 -0.01859859969676738 0.16093391652534753
0.05537483701230378 -0.021316475104556597 0.16980355133078942
0.041462394492024844 -0.01911005390464585 0.1705872805467046
0.04259342328306895 0.009479335520668337 0.1632133937458668
0.04065592969410019 0.009921522307557662 0.16116494658681896
0.041494439551166454 -0.0419583185269944 0.16760222601113303
0.05687374027866711 -0.013196070311835225 0.16457733812608558
0.025334470173265265 0.026475042966161925 0.170049379421946
0.06580301675323262 -0.0047941520298643014 0.170605045888818
0.002740456972090931 0.01414277672948162 0.17474436886332778
0.004530086292580535 0.005489700194916396 0.17514878136145348
0.06355255334392322 -0.008814090982871508 0.15826515926602758
