ply
format ascii 1.0
element vertex 764
property float x
property float y
property float z
end_header
-0.01509932056069374 0.045229069888591766 -0.14549998939037323
-0.014367974363267422 0.04532232880592346 -0.14579999446868896
-0.013614827767014503 0.04535341262817383 -0.14589999616146088
-0.01286944281309843 0.04541558399796486 -0.1460999995470047
-0.012113681063055992 0.045446671545505524 -0.1462000012397766
-0.01134911086410284 0.045446671545505524 -0.1462000012397766
-0.0013952257577329874 0.04498038813471794 -0.14469999074935913
0.00011675625864882022 0.04442085325717926 -0.1428999900817871
0.0008598366403020918 0.0442032553255558 -0.14219999313354492
0.0016001062467694283 0.0441100038588047 -0.14190000295639038
0.002340539125725627 0.04407892003655434 -0.14180000126361847
0.00307775242254138 0.04401674494147301 -0.14159999787807465
-0.018773948773741722 0.04416254162788391 -0.1445000022649765
-0.018030734732747078 0.044193100184202194 -0.14459998905658722
-0.017286479473114014 0.044223662465810776 -0.14469999074935913
-0.016552599146962166 0.04428478702902794 -0.14489999413490295
-0.01580572873353958 0.04431534931063652 -0.14499999582767487
-0.015057810582220554 0.0443459115922451 -0.14509999752044678
-0.014318701811134815 0.044407039880752563 -0.1453000009059906
-0.01355883851647377 0.044407039880752563 -0.1453000009059906
-0.012807782739400864 0.044437602162361145 -0.1454000025987625
0.0016001062467694283 0.04336792230606079 -0.14190000295639038
0.0023421896621584892 0.04336792230606079 -0.14190000295639038
0.00308427307754755 0.04336792230606079 -0.14190000295639038
0.0038344457279890776 0.04345960542559624 -0.14219999313354492
-0.018670011311769485 0.043166544288396835 -0.1437000036239624
-0.017930980771780014 0.043196581304073334 -0.14379999041557312
-0.017214801162481308 0.043286699801683426 -0.14409999549388885
-0.016518328338861465 0.04343689605593681 -0.14459998905658722
-0.015773026272654533 0.04346693679690361 -0.14469999074935913
-0.015037055127322674 0.043527014553546906 -0.14489999413490295
-0.014289137907326221 0.0435570552945137 -0.14499999582767487
-0.013530842959880829 0.0435570552945137 -0.14499999582767487
0.0023438401985913515 0.04265587404370308 -0.1419999897480011
0.0030864463187754154 0.04265587404370308 -0.1419999897480011
0.003839839017018676 0.04277603328227997 -0.14239999651908875
-0.01856607012450695 0.042178913950920105 -0.1428999900817871
-0.01781875640153885 0.042178913950920105 -0.1428999900817871
-0.017131175845861435 0.04232649877667427 -0.14339999854564667
-0.016449788585305214 0.04250359535217285 -0.14399999380111694
-0.015740325674414635 0.0426216647028923 -0.1444000005722046
-0.015016299672424793 0.042710207402706146 -0.14469999074935913
-0.014269428327679634 0.04273972660303116 -0.14479999244213104
-0.0013884762302041054 0.04250359535217285 -0.14399999380111694
0.002345490735024214 0.0419427827000618 -0.142099991440773
0.0030951406806707382 0.04203133285045624 -0.14239999651908875
-0.018488116562366486 0.04125764220952988 -0.14229999482631683
-0.01775640994310379 0.041286636143922806 -0.14239999651908875
-0.017035605385899544 0.041344624012708664 -0.14259999990463257
-0.016358401626348495 0.04151858389377594 -0.14319999516010284
-0.015674922615289688 0.041692543774843216 -0.14379999041557312
-0.014974790625274181 0.04183751344680786 -0.14429999887943268
-0.014249718748033047 0.04192448779940605 -0.14459998905658722
-0.01844913884997368 0.040428053587675095 -0.1419999897480011
-0.017706532031297684 0.040428053587675095 -0.1419999897480011
-0.016975872218608856 0.04045652598142624 -0.142099991440773
-0.016289860010147095 0.040598880499601364 -0.14259999990463257
-0.015609519556164742 0.04076969996094704 -0.14319999516010284
-0.014902148395776749 0.040883585810661316 -0.1436000019311905
-0.01696392521262169 0.0396854467689991 -0.1419999897480011
-0.016255589202046394 0.03976929187774658 -0.14229999482631683
-0.015544116497039795 0.039853136986494064 -0.14259999990463257
-0.016255589202046394 0.039025116711854935 -0.14229999482631683
-0.016255589202046394 0.03828094154596329 -0.14229999482631683
-0.015785707160830498 0.03205001726746559 -0.12150000035762787
-0.01574672944843769 0.03133704885840416 -0.12119999527931213
-0.01507549174129963 0.031259480863809586 -0.120899997651577
-0.014419336803257465 0.031207770109176636 -0.12069999426603317
-0.015013144351541996 0.030500557273626328 -0.12039999663829803
-0.01437155157327652 0.030475223436951637 -0.12029999494552612
0.002643041545525193 0.030804548412561417 -0.12159999459981918
0.003281660145148635 0.030829882249236107 -0.1216999962925911
0.003924544434994459 0.030880548059940338 -0.12189999967813492
-0.03484058752655983 0.02959800511598587 -0.1193000003695488
-0.03427405655384064 0.029647622257471085 -0.11949999630451202
-0.033677272498607635 0.02967243269085884 -0.11959999799728394
-0.033079445362091064 0.029697243124246597 -0.11969999969005585
-0.03250768408179283 0.02974686212837696 -0.11989999562501907
-0.03193383291363716 0.029796481132507324 -0.1200999990105629
-0.031357888132333755 0.029846100136637688 -0.12029999494552612
-0.030856480821967125 0.02997014857828617 -0.12079999595880508
-0.030274784192442894 0.030019769445061684 -0.12099999934434891
-0.029690995812416077 0.030069388449192047 -0.12119999527931213
-0.02908114157617092 0.030094198882579803 -0.12129999697208405
-0.028470240533351898 0.03011900745332241 -0.12139999866485596
-0.027835361659526825 0.03011900745332241 -0.12139999866485596
-0.02720048651099205 0.03011900745332241 -0.12139999866485596
-0.02654372714459896 0.030094198882579803 -0.12129999697208405
-0.02588801272213459 0.030069388449192047 -0.12119999527931213
-0.02521250955760479 0.030019769445061684 -0.12099999934434891
-0.024518784135580063 0.029945340007543564 -0.12069999426603317
-0.02382819540798664 0.029870910570025444 -0.12039999663829803
-0.014950796961784363 0.02974686212837696 -0.11989999562501907
-0.014311819337308407 0.029722051694989204 -0.11979999393224716
-0.013685310259461403 0.029722051694989204 -0.11979999393224716
0.0026408680714666843 0.030143817886710167 -0.12150000035762787
0.003278963500633836 0.030168626457452774 -0.12159999459981918
0.003914885688573122 0.030168626457452774 -0.12159999459981918
0.015563608147203922 0.03056558407843113 -0.12319999933242798
0.016221052035689354 0.030590392649173737 -0.1232999935746193
-0.03711709380149841 0.028804101049900055 -0.11859999597072601
-0.036496859043836594 0.028804101049900055 -0.11859999597072601
-0.035967376083135605 0.028876960277557373 -0.11889999359846115
-0.03540502488613129 0.028925534337759018 -0.11909999698400497
-0.03481138497591019 0.02894982136785984 -0.11919999867677689
-0.03421669453382492 0.028974108397960663 -0.1193000003695488
-0.03364911675453186 0.02902268059551716 -0.11949999630451202
-0.033051811158657074 0.02904696762561798 -0.11959999799728394
-0.032480571419000626 0.029095541685819626 -0.11979999393224716
-0.031960420310497284 0.029192687943577766 -0.12019999325275421
-0.031383953988552094 0.02924126200377941 -0.12039999663829803
-0.03088202513754368 0.029362697154283524 -0.120899997651577
-0.030274784192442894 0.029386984184384346 -0.12099999934434891
-0.029715493321418762 0.029459843412041664 -0.12129999697208405
-0.029105115681886673 0.029484130442142487 -0.12139999866485596
-0.028493691235780716 0.02950841747224331 -0.12150000035762787
-0.027881218120455742 0.029532702639698982 -0.12159999459981918
-0.02722289226949215 0.02950841747224331 -0.12150000035762787
-0.02658749185502529 0.02950841747224331 -0.12150000035762787
-0.025295857340097427 0.029484130442142487 -0.12139999866485596
-0.024620352312922478 0.02943555638194084 -0.12119999527931213
-0.023946940898895264 0.029386984184384346 -0.12099999934434891
-0.023237086832523346 0.029289836063981056 -0.12060000002384186
-0.022550158202648163 0.02921697497367859 -0.12029999494552612
-0.02182992361485958 0.029095541685819626 -0.11979999393224716
-0.01490091998130083 0.02902268059551716 -0.11949999630451202
-0.014275980181992054 0.02902268059551716 -0.11949999630451202
-0.013651040382683277 0.02902268059551716 -0.11949999630451202
0.0019972159061580896 0.029386984184384346 -0.12099999934434891
0.002634347416460514 0.02943555638194084 -0.12119999527931213
0.003273570677265525 0.029484130442142487 -0.12139999866485596
0.003908446989953518 0.029484130442142487 -0.12139999866485596
0.011754841543734074 0.03006701171398163 -0.12379999458789825
0.012402269057929516 0.03006701171398163 -0.12379999458789825
0.013049695640802383 0.03006701171398163 -0.12379999458789825
0.013697123154997826 0.03006701171398163 -0.12379999458789825
0.014321376569569111 0.030018439516425133 -0.12359999865293503
0.01494353823363781 0.029969865456223488 -0.1233999952673912
0.015576240606606007 0.029945578426122665 -0.1232999935746193
0.016221052035689354 0.029945578426122665 -0.1232999935746193
0.016906902194023132 0.030018439516425133 -0.12359999865293503
0.01758168637752533 0.03006701171398163 -0.12379999458789825
0.018229113891720772 0.03006701171398163 -0.12379999458789825
0.018876541405916214 0.03006701171398163 -0.12379999458789825
0.019508197903633118 0.030042726546525955 -0.12370000034570694
0.020155102014541626 0.030042726546525955 -0.12370000034570694
0.020802006125450134 0.030042726546525955 -0.12370000034570694
0.02143157087266445 0.030018439516425133 -0.12359999865293503
-0.03770550712943077 0.028160102665424347 -0.1184999942779541
-0.037054501473903656 0.028136340901255608 -0.11840000003576279
-0.0364660881459713 0.028160102665424347 -0.1184999942779541
-0.03590687736868858 0.028207631781697273 -0.11869999766349792
-0.03531584516167641 0.028231395408511162 -0.11879999935626984
-0.03472376987338066 0.0282551571726799 -0.11889999359846115
-0.034159328788518906 0.028302686288952827 -0.11909999698400497
-0.03359280154109001 0.028350215405225754 -0.1193000003695488
-0.033024176955223083 0.02839774079620838 -0.11949999630451202
-0.03245346248149872 0.028445269912481308 -0.11969999969005585
-0.03201359882950783 0.028611615300178528 -0.12039999663829803
-0.03143608570098877 0.028659144416451454 -0.12060000002384186
-0.03095865435898304 0.028801726177334785 -0.12119999527931213
-0.030374865978956223 0.028849253430962563 -0.12139999866485596
-0.02978898584842682 0.02889678068459034 -0.12159999459981918
-0.029153063893318176 0.02889678068459034 -0.12159999459981918
-0.028517141938209534 0.02889678068459034 -0.12159999459981918
-0.027904147282242775 0.028920544311404228 -0.1216999962925911
-0.0272452961653471 0.02889678068459034 -0.12159999459981918
-0.026631256565451622 0.028920544311404228 -0.1216999962925911
-0.025994811207056046 0.028920544311404228 -0.1216999962925911
-0.02535836771130562 0.028920544311404228 -0.1216999962925911
-0.02470160834491253 0.02889678068459034 -0.12159999459981918
-0.023352691903710365 0.028801726177334785 -0.12119999527931213
-0.022681372240185738 0.02875419892370701 -0.12099999934434891
-0.02193925715982914 0.028611615300178528 -0.12039999663829803
-0.02120341546833515 0.028469031676650047 -0.11979999393224716
-0.02050820179283619 0.028373977169394493 -0.11939999461174011
-0.014228194020688534 0.028302686288952827 -0.11909999698400497
-0.013605345971882343 0.028302686288952827 -0.11909999698400497
0.0019889629911631346 0.028635380789637566 -0.12049999833106995
0.0026213061064481735 0.028659144416451454 -0.12060000002384186
0.003257391508668661 0.02870667167007923 -0.12079999595880508
0.0038955691270530224 0.02875419892370701 -0.12099999934434891
0.009812559932470322 0.029419584199786186 -0.12379999458789825
0.010468436405062675 0.029443347826600075 -0.12389999628067017
0.011125358752906322 0.029467113316059113 -0.12399999797344208
0.011773832142353058 0.029467113316059113 -0.12399999797344208
0.012422304600477219 0.029467113316059113 -0.12399999797344208
0.013070777989923954 0.029467113316059113 -0.12399999797344208
0.013708187267184258 0.029443347826600075 -0.12389999628067017
0.014344550669193268 0.029419584199786186 -0.12379999458789825
0.01496775820851326 0.02937205880880356 -0.12359999865293503
0.01560150645673275 0.02934829331934452 -0.12349999696016312
0.01624736562371254 0.02934829331934452 -0.12349999696016312
0.016920581459999084 0.029395822435617447 -0.12370000034570694
0.01758168637752533 0.029419584199786186 -0.12379999458789825
0.018229113891720772 0.029419584199786186 -0.12379999458789825
0.018876541405916214 0.029419584199786186 -0.12379999458789825
0.019523967057466507 0.029419584199786186 -0.12379999458789825
0.02017139457166195 0.029419584199786186 -0.12379999458789825
0.02081882208585739 0.029419584199786186 -0.12379999458789825
0.021466249600052834 0.029419584199786186 -0.12379999458789825
0.02213154174387455 0.029443347826600075 -0.12389999628067017
0.022761106491088867 0.029419584199786186 -0.12379999458789825
0.02340853214263916 0.029419584199786186 -0.12379999458789825
0.024055959656834602 0.029419584199786186 -0.12379999458789825
0.024703387171030045 0.029419584199786186 -0.12379999458789825
-0.03976496681571007 0.027679838240146637 -0.11909999698400497
-0.03914211690425873 0.027679838240146637 -0.11909999698400497
-0.038454584777355194 0.02763335593044758 -0.11889999359846115
-0.037737324833869934 0.027563633397221565 -0.11859999597072601
-0.037085797637701035 0.02754039317369461 -0.1184999942779541
-0.036435317248106 0.027517152950167656 -0.11840000003576279
-0.03587662801146507 0.027563633397221565 -0.11859999597072601
-0.03528611734509468 0.02758687548339367 -0.11869999766349792
-0.034636158496141434 0.027563633397221565 -0.11859999597072601
-0.03404460474848747 0.02758687548339367 -0.11869999766349792
-0.03345200791954994 0.027610115706920624 -0.11879999935626984
-0.032345011830329895 0.027726320549845695 -0.1193000003695488
-0.03188065439462662 0.027865765616297722 -0.11989999562501907
-0.031592484563589096 0.02816789597272873 -0.12119999527931213
-0.031060827895998955 0.028260858729481697 -0.12159999459981918
-0.03047494776546955 0.028307341039180756 -0.121799997985363
-0.029862480238080025 0.02833058312535286 -0.12189999967813492
-0.02922498807311058 0.02833058312535286 -0.12189999967813492
-0.028610948473215103 0.028353821486234665 -0.12199999392032623
-0.027972932904958725 0.028353821486234665 -0.12199999392032623
-0.027334919199347496 0.028353821486234665 -0.12199999392032623
-0.026696905493736267 0.028353821486234665 -0.12199999392032623
-0.02605888992547989 0.028353821486234665 -0.12199999392032623
-0.025400040671229362 0.02833058312535286 -0.12189999967813492
-0.024742236360907555 0.028307341039180756 -0.121799997985363
-0.024085476994514465 0.0282841008156538 -0.1216999962925911
-0.023429764434695244 0.028260858729481697 -0.12159999459981918
-0.02275635302066803 0.028214378282427788 -0.12139999866485596
-0.02204858884215355 0.02812141552567482 -0.12099999934434891
-0.02125651389360428 0.02791224792599678 -0.1200999990105629
-0.020542554557323456 0.02779604308307171 -0.11959999799728394
-0.019833827391266823 0.027679838240146637 -0.11909999698400497
-0.01903354749083519 0.027424190193414688 -0.11800000071525574
-0.01409678440541029 0.027424190193414688 -0.11800000071525574
-0.013479688204824924 0.027424190193414688 -0.11800000071525574
0.0019774087704718113 0.027842523530125618 -0.11979999393224716
0.002608264796435833 0.027889005839824677 -0.11999999731779099
0.003238515928387642 0.02791224792599678 -0.1200999990105629
0.0038730325177311897 0.02795872837305069 -0.12029999494552612
0.007768561597913504 0.028400303795933723 -0.12219999730587006
0.008455783128738403 0.028562989085912704 -0.12289999425411224
0.009150326251983643 0.028725676238536835 -0.12359999865293503
0.009820486418902874 0.028795398771762848 -0.12389999628067017
0.010476885363459587 0.028818638995289803 -0.12399999797344208
0.011143302544951439 0.02886512130498886 -0.1241999939084053
0.011792821809649467 0.02886512130498886 -0.1241999939084053
0.012442340143024921 0.02886512130498886 -0.1241999939084053
0.01309185940772295 0.02886512130498886 -0.1241999939084053
0.013730315491557121 0.028841881081461906 -0.12409999966621399
0.014356137253344059 0.028795398771762848 -0.12389999628067017
0.014991977252066135 0.028772156685590744 -0.12379999458789825
0.015639403834939003 0.028772156685590744 -0.12379999458789825
0.016286831349134445 0.028772156685590744 -0.12379999458789825
0.016934258863329887 0.028772156685590744 -0.12379999458789825
0.017595889046788216 0.028795398771762848 -0.12389999628067017
0.018243838101625443 0.028795398771762848 -0.12389999628067017
0.01889178901910782 0.028795398771762848 -0.12389999628067017
0.019555509090423584 0.028818638995289803 -0.12399999797344208
0.020203983411192894 0.028818638995289803 -0.12399999797344208
0.020852455869317055 0.028818638995289803 -0.12399999797344208
0.021500928327441216 0.028818638995289803 -0.12399999797344208
0.0221672672778368 0.028841881081461906 -0.12409999966621399
0.022797876968979836 0.028818638995289803 -0.12399999797344208
0.023446349427103996 0.028818638995289803 -0.12399999797344208
0.024094823747873306 0.028818638995289803 -0.12399999797344208
0.024743296205997467 0.028818638995289803 -0.12399999797344208
0.025391768664121628 0.028818638995289803 -0.12399999797344208
0.026040242984890938 0.028818638995289803 -0.12399999797344208
0.0266887154430151 0.028818638995289803 -0.12399999797344208
-0.04101066291332245 0.027056990191340446 -0.11909999698400497
-0.04042172431945801 0.027079708874225616 -0.11919999867677689
-0.03983174264431 0.027102427557110786 -0.1193000003695488
-0.03924071043729782 0.027125144377350807 -0.11939999461174011
-0.03855161368846893 0.027079708874225616 -0.11919999867677689
-0.03789642080664635 0.027056990191340446 -0.11909999698400497
-0.03721098229289055 0.027011554688215256 -0.11889999359846115
-0.036496859043836594 0.026943400502204895 -0.11859999597072601
-0.035967376083135605 0.027011554688215256 -0.11889999359846115
-0.03531584516167641 0.026988837867975235 -0.11879999935626984
-0.03466536104679108 0.026966119185090065 -0.11869999766349792
-0.033987242728471756 0.026920681819319725 -0.1184999942779541
-0.03339569270610809 0.026943400502204895 -0.11859999597072601
-0.03229078650474548 0.027056990191340446 -0.11909999698400497
-0.03144397959113121 0.02796570584177971 -0.12309999763965607
-0.030900295823812485 0.02805657684803009 -0.12349999696016312
-0.03027893789112568 0.02807929553091526 -0.12359999865293503
-0.029608581215143204 0.02805657684803009 -0.12349999696016312
-0.028962722048163414 0.02805657684803009 -0.12349999696016312
-0.02829393371939659 0.02803385816514492 -0.1233999952673912
-0.027626192197203636 0.0280111413449049 -0.1232999935746193
-0.02695949748158455 0.02798842452466488 -0.12319999933242798
-0.02629384957253933 0.02796570584177971 -0.12309999763965607
-0.025608407333493233 0.02792026847600937 -0.12289999425411224
-0.024864118546247482 0.027806678786873817 -0.12239999324083328
-0.02418443188071251 0.027761245146393776 -0.12219999730587006
-0.023468300700187683 0.027670374140143394 -0.121799997985363
-0.0227938424795866 0.027624936774373055 -0.12159999459981918
-0.022085031494498253 0.027534065768122673 -0.12119999527931213
-0.021309610456228256 0.02735232189297676 -0.12039999663829803
-0.020559731870889664 0.027193298563361168 -0.11969999969005585
-0.01914645917713642 0.026966119185090065 -0.11869999766349792
-0.018416453152894974 0.026807093992829323 -0.11800000071525574
-0.017754103988409042 0.026738939806818962 -0.11769999563694
-0.013422571122646332 0.02669350430369377 -0.11749999970197678
0.0019691558554768562 0.027102427557110786 -0.1193000003695488
0.0025973969604820013 0.027147861197590828 -0.11949999630451202
0.0032250334043055773 0.027170579880475998 -0.11959999799728394
0.006453262642025948 0.027602219954133034 -0.12150000035762787
0.007106164935976267 0.027670374140143394 -0.121799997985363
0.007774918805807829 0.027783963829278946 -0.12229999899864197
0.008469543419778347 0.02796570584177971 -0.12309999763965607
0.00916513241827488 0.02812473103404045 -0.12379999458789825
0.009828412905335426 0.028170166537165642 -0.12399999797344208
0.01049378328025341 0.028215602040290833 -0.1241999939084053
0.011152274906635284 0.028238318860530853 -0.12429999560117722
0.011821307241916656 0.028283756226301193 -0.12449999898672104
0.012472394853830338 0.028283756226301193 -0.12449999898672104
0.013123483397066593 0.028283756226301193 -0.12449999898672104
0.01375244278460741 0.028238318860530853 -0.12429999560117722
0.014390897937119007 0.028215602040290833 -0.1241999939084053
0.015016197226941586 0.028170166537165642 -0.12399999797344208
0.01566467061638832 0.028170166537165642 -0.12399999797344208
0.01631314307451248 0.028170166537165642 -0.12399999797344208
0.01694793812930584 0.028147447854280472 -0.12389999628067017
0.017610089853405952 0.028170166537165642 -0.12399999797344208
0.018258562311530113 0.028170166537165642 -0.12399999797344208
0.018922284245491028 0.028192885220050812 -0.12409999966621399
0.019587049260735512 0.028215602040290833 -0.1241999939084053
0.020252862945199013 0.028238318860530853 -0.12429999560117722
0.020919721573591232 0.028261037543416023 -0.12439999729394913
0.02155294641852379 0.028238318860530853 -0.12429999560117722
0.0222029909491539 0.028238318860530853 -0.12429999560117722
0.022853033617138863 0.028238318860530853 -0.12429999560117722
0.023484166711568832 0.028215602040290833 -0.1241999939084053
0.024114254862070084 0.028192885220050812 -0.12409999966621399
0.02476325072348118 0.028192885220050812 -0.12409999966621399
0.025412246584892273 0.028192885220050812 -0.12409999966621399
0.026061242446303368 0.028192885220050812 -0.12409999966621399
0.02671024017035961 0.028192885220050812 -0.12409999966621399
0.02733718976378441 0.028170166537165642 -0.12399999797344208
-0.04163350909948349 0.026434142142534256 -0.11909999698400497
-0.0411139614880085 0.026500726118683815 -0.11939999461174011
-0.040523458272218704 0.02652292139828205 -0.11949999630451202
-0.03993190452456474 0.026545116677880287 -0.11959999799728394
-0.03930644318461418 0.026545116677880287 -0.11959999799728394
-0.038648638874292374 0.02652292139828205 -0.11949999630451202
-0.0380236990749836 0.02652292139828205 -0.11949999630451202
-0.03733616694808006 0.026478532701730728 -0.1193000003695488
-0.036650724709033966 0.026434142142534256 -0.11909999698400497
-0.036027878522872925 0.026434142142534256 -0.11909999698400497
-0.03540502488613129 0.026434142142534256 -0.11909999698400497
-0.03472376987338066 0.026389751583337784 -0.11889999359846115
-0.03407328575849533 0.026367558166384697 -0.11879999935626984
-0.03348016366362572 0.026389751583337784 -0.11889999359846115
-0.03242634981870651 0.026545116677880287 -0.11959999799728394
-0.03200593590736389 0.027810225263237953 -0.12529999017715454
-0.03120054118335247 0.027677057310938835 -0.12469999492168427
-0.03054840862751007 0.027677057310938835 -0.12469999492168427
-0.029848327860236168 0.027632668614387512 -0.12449999898672104
-0.02917378768324852 0.027610473334789276 -0.12439999729394913
-0.028477363288402557 0.027566082775592804 -0.1241999939084053
-0.02780543826520443 0.027543889358639717 -0.12409999966621399
-0.02713456004858017 0.02752169407904148 -0.12399999797344208
-0.026443365961313248 0.02747730351984501 -0.12379999458789825
-0.025775102898478508 0.027455110102891922 -0.12370000034570694
-0.02504694275557995 0.027366328984498978 -0.1232999935746193
-0.02432296611368656 0.027277547866106033 -0.12289999425411224
-0.023526104167103767 0.027099989354610443 -0.12209999561309814
-0.0227938424795866 0.026989014819264412 -0.12159999459981918
-0.02204858884215355 0.026855846866965294 -0.12099999934434891
-0.021291911602020264 0.02670048177242279 -0.12029999494552612
-0.020559731870889664 0.026567311957478523 -0.11969999969005585
-0.01990043930709362 0.02652292139828205 -0.11949999630451202
-0.019210979342460632 0.026434142142534256 -0.11909999698400497
-0.018494486808776855 0.02630097232758999 -0.1184999942779541
-0.017784273251891136 0.02616780437529087 -0.11789999902248383
-0.01712401583790779 0.026101218536496162 -0.11759999394416809
-0.016494974493980408 0.026079025119543076 -0.11749999970197678
-0.013354030437767506 0.02594585530459881 -0.1168999969959259
-0.012753588147461414 0.025968050584197044 -0.11699999868869781
0.0019543005619198084 0.026278778910636902 -0.11840000003576279
0.002582182176411152 0.026367558166384697 -0.11879999935626984
0.003211550647392869 0.026434142142534256 -0.11909999698400497
0.005793921649456024 0.026855846866965294 -0.12099999934434891
0.00645857397466898 0.026989014819264412 -0.12159999459981918
0.007111999671906233 0.02705560065805912 -0.12189999967813492
0.007800348103046417 0.02723315916955471 -0.12269999831914902
0.00848330371081829 0.027366328984498978 -0.1232999935746193
0.00916513241827488 0.02747730351984501 -0.12379999458789825
0.009828412905335426 0.02752169407904148 -0.12399999797344208
0.01049378328025341 0.027566082775592804 -0.1241999939084053
0.011170219630002975 0.027632668614387512 -0.12449999898672104
0.011840296909213066 0.027677057310938835 -0.12469999492168427
0.01249243039637804 0.027677057310938835 -0.12469999492168427
0.01314456481486559 0.027677057310938835 -0.12469999492168427
0.013774571008980274 0.027632668614387512 -0.12449999898672104
0.014425658620893955 0.027632668614387512 -0.12449999898672104
0.01505252718925476 0.02758827805519104 -0.12429999560117722
0.01568993553519249 0.027566082775592804 -0.1241999939084053
0.016339454799890518 0.027566082775592804 -0.1241999939084053
0.01696161739528179 0.02752169407904148 -0.12399999797344208
0.017610089853405952 0.02752169407904148 -0.12399999797344208
0.018273288384079933 0.027543889358639717 -0.12409999966621399
0.018937531858682632 0.027566082775592804 -0.1241999939084053
0.019634362310171127 0.027632668614387512 -0.12449999898672104
0.020318036898970604 0.027677057310938835 -0.12469999492168427
0.021003805100917816 0.027721447870135307 -0.12489999830722809
0.021622303873300552 0.027677057310938835 -0.12469999492168427
0.02227444015443325 0.027677057310938835 -0.12469999492168427
0.023540891706943512 0.027632668614387512 -0.12449999898672104
0.024191979318857193 0.027632668614387512 -0.12449999898672104
0.024843068793416023 0.027632668614387512 -0.12449999898672104
0.025494156405329704 0.027632668614387512 -0.12449999898672104
0.026145244017243385 0.027632668614387512 -0.12449999898672104
0.026796331629157066 0.027632668614387512 -0.12449999898672104
0.027403326705098152 0.02758827805519104 -0.12429999560117722
0.028030799701809883 0.027566082775592804 -0.1241999939084053
-0.04229183867573738 0.025832965970039368 -0.11919999867677689
-0.04177333787083626 0.025897981598973274 -0.11949999630451202
-0.041182830929756165 0.025919655337929726 -0.11959999799728394
-0.0406251884996891 0.02596299722790718 -0.11979999393224716
-0.0400654561817646 0.026006342843174934 -0.11999999731779099
-0.039437901228666306 0.026006342843174934 -0.11999999731779099
-0.038745664060115814 0.02596299722790718 -0.11979999393224716
-0.038119152188301086 0.02596299722790718 -0.11979999393224716
-0.0374300554394722 0.025919655337929726 -0.11959999799728394
-0.03677381947636604 0.025897981598973274 -0.11949999630451202
-0.036148879677057266 0.025897981598973274 -0.11949999630451202
-0.03552393615245819 0.025897981598973274 -0.11949999630451202
-0.03484058752655983 0.02585463970899582 -0.1193000003695488
-0.034302737563848495 0.025919655337929726 -0.11959999799728394
-0.03378990665078163 0.026006342843174934 -0.11999999731779099
-0.032791540026664734 0.02726331539452076 -0.1257999986410141
-0.03215919807553291 0.027284987270832062 -0.125900000333786
-0.031500786542892456 0.027284987270832062 -0.125900000333786
-0.030842380598187447 0.027284987270832062 -0.125900000333786
-0.030136020854115486 0.027241643518209457 -0.1256999969482422
-0.02945520542562008 0.027219971641898155 -0.12559999525547028
-0.028729576617479324 0.0271549541503191 -0.12529999017715454
-0.027984684333205223 0.02706826850771904 -0.12489999830722809
-0.027287738397717476 0.027024922892451286 -0.12469999492168427
-0.026550166308879852 0.026938235387206078 -0.12429999560117722
-0.025858450680971146 0.026894893497228622 -0.12409999966621399
-0.025168826803565025 0.02685154788196087 -0.12389999628067017
-0.02448129467666149 0.026808205991983414 -0.12370000034570694
-0.023603174835443497 0.02654813975095749 -0.1224999949336052
-0.022812586277723312 0.02637476474046707 -0.1216999962925911
-0.022012144327163696 0.026179717853665352 -0.12079999595880508
-0.021238815039396286 0.026006342843174934 -0.11999999731779099
-0.020542554557323456 0.025919655337929726 -0.11959999799728394
-0.01990043930709362 0.025897981598973274 -0.11949999630451202
-0.019243240356445312 0.02585463970899582 -0.1193000003695488
-0.018541309982538223 0.02574627846479416 -0.11879999935626984
-0.01713857799768448 0.025507887825369835 -0.11769999563694
-0.016480935737490654 0.02544287219643593 -0.11739999800920486
-0.015826433897018433 0.025377856567502022 -0.11710000038146973
-0.013274066150188446 0.025182807818055153 -0.11620000004768372
-0.012677283957600594 0.025204479694366455 -0.11629999428987503
0.001942746457643807 0.025507887825369835 -0.11769999563694
0.00256479368545115 0.02557290345430374 -0.11800000071525574
0.0031980681233108044 0.025702934712171555 -0.11859999597072601
0.003840837860479951 0.02585463970899582 -0.1193000003695488
0.004475959111005068 0.025919655337929726 -0.11959999799728394
0.005127014126628637 0.02604968473315239 -0.12019999325275421
0.005793921649456024 0.026223061606287956 -0.12099999934434891
0.00645857397466898 0.02635309286415577 -0.12159999459981918
0.007123667746782303 0.02646145224571228 -0.12209999561309814
0.007825776934623718 0.02667817287147045 -0.12309999763965607
0.008503944613039494 0.026786532253026962 -0.12359999865293503
0.009172536432743073 0.02685154788196087 -0.12389999628067017
0.009836338460445404 0.026894893497228622 -0.12409999966621399
0.010502233169972897 0.026938235387206078 -0.12429999560117722
0.011170219630002975 0.02698158100247383 -0.12449999898672104
0.011840296909213066 0.027024922892451286 -0.12469999492168427
0.01249243039637804 0.027024922892451286 -0.12469999492168427
0.01316564716398716 0.02706826850771904 -0.12489999830722809
0.013818826526403427 0.02706826850771904 -0.12489999830722809
0.014495180919766426 0.027111612260341644 -0.1251000016927719
0.015125186182558537 0.02706826850771904 -0.12489999830722809
0.01575309969484806 0.027024922892451286 -0.12469999492168427
0.016378922387957573 0.02698158100247383 -0.12449999898672104
0.016988974064588547 0.026916563510894775 -0.1241999939084053
0.01762429252266884 0.026894893497228622 -0.12409999966621399
0.018288012593984604 0.026916563510894775 -0.1241999939084053
0.018983274698257446 0.02698158100247383 -0.12449999898672104
0.019697444513440132 0.02706826850771904 -0.12489999830722809
0.020399505272507668 0.027133284136652946 -0.12520000338554382
0.021071068942546844 0.0271549541503191 -0.12529999017715454
0.02174367941915989 0.0271766260266304 -0.12539999186992645
0.022399475798010826 0.0271766260266304 -0.12539999186992645
0.023036886006593704 0.0271549541503191 -0.12529999017715454
0.023673251271247864 0.027133284136652946 -0.12520000338554382
0.024328000843524933 0.027133284136652946 -0.12520000338554382
0.02629224583506584 0.027133284136652946 -0.12520000338554382
0.02694699540734291 0.027133284136652946 -0.12520000338554382
0.027535604313015938 0.02706826850771904 -0.12489999830722809
0.028143644332885742 0.027024922892451286 -0.12469999492168427
0.02868031896650791 0.026916563510894775 -0.1241999939084053
0.02925899252295494 0.02685154788196087 -0.12389999628067017
-0.04287920519709587 0.025188446044921875 -0.11909999698400497
-0.042398277670145035 0.025273041799664497 -0.11949999630451202
-0.04184325039386749 0.025315340608358383 -0.11969999969005585
-0.0413205660879612 0.025378787890076637 -0.11999999731779099
-0.0407608300447464 0.025421084836125374 -0.12019999325275421
-0.04019900783896446 0.02546338364481926 -0.12039999663829803
-0.0395364947617054 0.025442233309149742 -0.12029999494552612
-0.0388750284910202 0.025421084836125374 -0.12019999325275421
-0.03821461275219917 0.025399936363101006 -0.1200999990105629
-0.03755524009466171 0.025378787890076637 -0.11999999731779099
-0.036927685141563416 0.025378787890076637 -0.11999999731779099
-0.03633037954568863 0.025399936363101006 -0.1200999990105629
-0.03602929413318634 0.025632575154304504 -0.12119999527931213
-0.03510342165827751 0.025421084836125374 -0.12019999325275421
-0.03481899946928024 0.02567487396299839 -0.12139999866485596
-0.034296754747629166 0.025759469717741013 -0.121799997985363
-0.034212492406368256 0.026182448491454124 -0.12379999458789825
-0.033754851669073105 0.026330491527915 -0.12449999898672104
-0.03342283517122269 0.026584280654788017 -0.1256999969482422
-0.03284367546439171 0.02664772793650627 -0.12600000202655792
-0.03221028670668602 0.02666887640953064 -0.12610000371932983
-0.031575847417116165 0.02669002301990986 -0.12619999051094055
-0.030915871262550354 0.02669002301990986 -0.12619999051094055
-0.03023192100226879 0.02666887640953064 -0.12610000371932983
-0.029572466388344765 0.02666887640953064 -0.12610000371932983
-0.028867149725556374 0.026626579463481903 -0.125900000333786
-0.028163928538560867 0.026584280654788017 -0.1256999969482422
-0.027440916746854782 0.026520831510424614 -0.12539999186992645
-0.0267210453748703 0.02645738609135151 -0.1251000016927719
-0.025983469560742378 0.026372790336608887 -0.12469999492168427
-0.025250080972909927 0.026288194581866264 -0.12429999560117722
-0.024540666490793228 0.02622474730014801 -0.12399999797344208
-0.023718783631920815 0.026034405454993248 -0.12309999763965607
-0.022831331938505173 0.025759469717741013 -0.121799997985363
-0.02199392206966877 0.025526829063892365 -0.12069999426603317
-0.021221114322543144 0.02535763755440712 -0.11989999562501907
-0.020542554557323456 0.025294192135334015 -0.11959999799728394
-0.01990043930709362 0.025273041799664497 -0.11949999630451202
-0.019243240356445312 0.02523074485361576 -0.1193000003695488
-0.01855691708624363 0.02514614723622799 -0.11889999359846115
-0.017829524353146553 0.024998106062412262 -0.11819999665021896
-0.01713857799768448 0.024892359972000122 -0.11769999563694
-0.016480935737490654 0.024828914552927017 -0.11739999800920486
-0.015799401327967644 0.024723168462514877 -0.1168999969959259
-0.015123097226023674 0.024617424234747887 -0.11639999598264694
-0.014476960524916649 0.024553976953029633 -0.1160999983549118
-0.01384590845555067 0.024511678144335747 -0.11589999496936798
-0.013239795342087746 0.024511678144335747 -0.11589999496936798
-0.01263368222862482 0.024511678144335747 -0.11589999496936798
0.0013238369720056653 0.024828914552927017 -0.11739999800920486
0.0019394452683627605 0.024850063025951385 -0.11749999970197678
0.0025582730304449797 0.024892359972000122 -0.11769999563694
0.003184585366398096 0.024976955726742744 -0.11809999495744705
0.003834398929029703 0.025188446044921875 -0.11909999698400497
0.004475959111005068 0.025294192135334015 -0.11959999799728394
0.005139810498803854 0.025484532117843628 -0.12049999833106995
0.005813075229525566 0.02567487396299839 -0.12139999866485596
0.006469196639955044 0.025759469717741013 -0.121799997985363
0.007141170557588339 0.02588636241853237 -0.12239999324083328
0.007844848558306694 0.026097852736711502 -0.1233999952673912
0.008517704904079437 0.026182448491454124 -0.12379999458789825
0.009179939515888691 0.02622474730014801 -0.12399999797344208
0.009852190501987934 0.026288194581866264 -0.12429999560117722
0.01051913108676672 0.026330491527915 -0.12449999898672104
0.011188162490725517 0.026372790336608887 -0.12469999492168427
0.01187827717512846 0.02645738609135151 -0.1251000016927719
0.012542521581053734 0.026478536427021027 -0.12520000338554382
0.013207809999585152 0.026499683037400246 -0.12529999017715454
0.013874145224690437 0.026520831510424614 -0.12539999186992645
0.014529939740896225 0.026520831510424614 -0.12539999186992645
0.015185734257102013 0.026520831510424614 -0.12539999186992645
0.015828896313905716 0.026499683037400246 -0.12529999017715454
0.0164710134267807 0.026478536427021027 -0.12520000338554382
0.017057368531823158 0.026372790336608887 -0.12469999492168427
0.017681099474430084 0.026330491527915 -0.12449999898672104
0.018361635506153107 0.026372790336608887 -0.12469999492168427
0.019074760377407074 0.02645738609135151 -0.1251000016927719
0.019776295870542526 0.026520831510424614 -0.12539999186992645
0.020480971783399582 0.026584280654788017 -0.1256999969482422
0.021171970292925835 0.026626579463481903 -0.125900000333786
0.021830378100275993 0.026626579463481903 -0.125900000333786
0.02248878963291645 0.026626579463481903 -0.125900000333786
0.02314719930291176 0.026626579463481903 -0.125900000333786
0.023786701261997223 0.026605429127812386 -0.1257999986410141
0.02442515455186367 0.026584280654788017 -0.1256999969482422
0.02508251927793026 0.026584280654788017 -0.1256999969482422
0.025760360062122345 0.026605429127812386 -0.1257999986410141
0.02771197259426117 0.026584280654788017 -0.1256999969482422
0.028279058635234833 0.026499683037400246 -0.12529999017715454
0.02874959632754326 0.026330491527915 -0.12449999898672104
0.02928260900080204 0.02622474730014801 -0.12399999797344208
0.029882805421948433 0.026182448491454124 -0.12379999458789825
-0.043173324316740036 0.024379964917898178 -0.11819999665021896
-0.04295121133327484 0.024606851860880852 -0.1193000003695488
-0.042433757334947586 0.024668728932738304 -0.11959999799728394
-0.04187820479273796 0.024709980934858322 -0.11979999393224716
-0.041389431804418564 0.024792484939098358 -0.12019999325275421
-0.040862567722797394 0.02485436387360096 -0.12049999833106995
-0.04029916971921921 0.02489561401307583 -0.12069999426603317
-0.03970082104206085 0.024916240945458412 -0.12079999595880508
-0.03910142555832863 0.024936867877840996 -0.120899997651577
-0.038469165563583374 0.024936867877840996 -0.120899997651577
-0.0378681980073452 0.02495749294757843 -0.12099999934434891
-0.03735850751399994 0.025039996951818466 -0.12139999866485596
-0.036814380437135696 0.025101875886321068 -0.1216999962925911
-0.036386020481586456 0.025246256962418556 -0.12239999324083328
-0.035687509924173355 0.025205004960298538 -0.12219999730587006
-0.03530658036470413 0.025390639901161194 -0.12309999763965607
-0.034775447100400925 0.02547314390540123 -0.12349999696016312
-0.034378305077552795 0.025658778846263885 -0.12439999729394913
-0.03399886190891266 0.025865036994218826 -0.12539999186992645
-0.03347601741552353 0.025968169793486595 -0.125900000333786
-0.03284367546439171 0.02598879486322403 -0.12600000202655792
-0.032235827296972275 0.0260300450026989 -0.12619999051094055
-0.031575847417116165 0.0260300450026989 -0.12619999051094055
-0.030915871262550354 0.0260300450026989 -0.12619999051094055
-0.030255893245339394 0.0260300450026989 -0.12619999051094055
-0.029595915228128433 0.0260300450026989 -0.12619999051094055
-0.02891300804913044 0.026009421795606613 -0.12610000371932983
-0.028208741918206215 0.025968169793486595 -0.125900000333786
-0.027506565675139427 0.025926915928721428 -0.1256999969482422
-0.026827841997146606 0.025906290858983994 -0.12559999525547028
-0.026087656617164612 0.025823786854743958 -0.12520000338554382
-0.025371965020895004 0.025761907920241356 -0.12489999830722809
-0.024600040167570114 0.025638151913881302 -0.12429999560117722
-0.023795854300260544 0.02547314390540123 -0.12349999696016312
-0.022831331938505173 0.025122500956058502 -0.121799997985363
-0.022012144327163696 0.024916240945458412 -0.12079999595880508
-0.021238815039396286 0.02475123293697834 -0.11999999731779099
-0.020559731870889664 0.024689355865120888 -0.11969999969005585
-0.01990043930709362 0.02464810200035572 -0.11949999630451202
-0.019227109849452972 0.024586224928498268 -0.11919999867677689
-0.018541309982538223 0.024503720924258232 -0.11879999935626984
-0.017829524353146553 0.024379964917898178 -0.11819999665021896
-0.01713857799768448 0.02427683398127556 -0.11769999563694
-0.016494974493980408 0.02423558197915554 -0.11749999970197678
-0.015812918543815613 0.02413245290517807 -0.11699999868869781
-0.015110105276107788 0.023988069966435432 -0.11629999428987503
-0.014452021569013596 0.023905565962195396 -0.11589999496936798
-0.013822016306221485 0.02386431396007538 -0.11569999903440475
-0.01320552546530962 0.023843687027692795 -0.11559999734163284
-0.012600980699062347 0.023843687027692795 -0.11559999734163284
0.0013193264603614807 0.02413245290517807 -0.11699999868869781
0.0019377947319298983 0.024214956909418106 -0.11739999800920486
0.002556099323555827 0.024256207048892975 -0.11759999394416809
0.003187282010912895 0.024379964917898178 -0.11819999665021896
0.003840837860479951 0.024606851860880852 -0.1193000003695488
0.00447970163077116 0.024689355865120888 -0.11969999969005585
0.005144075956195593 0.024874988943338394 -0.12060000002384186
0.005822652019560337 0.025081248953938484 -0.12159999459981918
0.006490441970527172 0.025205004960298538 -0.12219999730587006
0.007182010915130377 0.025390639901161194 -0.12309999763965607
0.007870277389883995 0.025535020977258682 -0.12379999458789825
0.008531465195119381 0.02557627484202385 -0.12399999797344208
0.009194745682179928 0.025617524981498718 -0.1241999939084053
0.009868043474853039 0.02567940391600132 -0.12449999898672104
0.010552927851676941 0.025761907920241356 -0.12489999830722809
0.0112240519374609 0.025803161785006523 -0.1251000016927719
0.01189726684242487 0.025844410061836243 -0.12529999017715454
0.012562556192278862 0.025865036994218826 -0.12539999186992645
0.013249973766505718 0.025926915928721428 -0.1256999969482422
0.013907337561249733 0.025926915928721428 -0.1256999969482422
0.014576287940144539 0.02594754286110401 -0.1257999986410141
0.015234175138175488 0.02594754286110401 -0.1257999986410141
0.01590469479560852 0.025968169793486595 -0.125900000333786
0.01654994674026966 0.02594754286110401 -0.1257999986410141
0.017194155603647232 0.025926915928721428 -0.1256999969482422
0.017808912321925163 0.025865036994218826 -0.12539999186992645
0.01849415712058544 0.025906290858983994 -0.12559999525547028
0.0191662460565567 0.025926915928721428 -0.1256999969482422
0.019870921969413757 0.02598879486322403 -0.12600000202655792
0.020546147599816322 0.026009421795606613 -0.12610000371932983
0.021222418174147606 0.0260300450026989 -0.12619999051094055
0.021882396191358566 0.0260300450026989 -0.12619999051094055
0.022542376071214676 0.0260300450026989 -0.12619999051094055
0.023202354088425636 0.0260300450026989 -0.12619999051094055
0.023862332105636597 0.0260300450026989 -0.12619999051094055
0.024522310122847557 0.0260300450026989 -0.12619999051094055
0.025842268019914627 0.0260300450026989 -0.12619999051094055
0.026502246037125587 0.0260300450026989 -0.12619999051094055
0.027162224054336548 0.0260300450026989 -0.12619999051094055
0.027822202071547508 0.0260300450026989 -0.12619999051094055
0.028414474800229073 0.025968169793486595 -0.125900000333786
0.028888149186968803 0.025803161785006523 -0.1251000016927719
0.02930622361600399 0.025596899911761284 -0.12409999966621399
0.029882805421948433 0.025535020977258682 -0.12379999458789825
0.03035760670900345 0.025390639901161194 -0.12309999763965607
-0.043209850788116455 0.023781925439834595 -0.11829999834299088
-0.04295121133327484 0.023982957005500793 -0.1193000003695488
-0.042433757334947586 0.024043265730142593 -0.11959999799728394
-0.04187820479273796 0.024083470925688744 -0.11979999393224716
-0.041423868387937546 0.024183986708521843 -0.12029999494552612
-0.04099820926785469 0.024304606020450592 -0.120899997651577
-0.04046611115336418 0.024364914745092392 -0.12119999527931213
-0.0399637408554554 0.02444532699882984 -0.12159999459981918
-0.039360161870718 0.02446543052792549 -0.1216999962925911
-0.0387873537838459 0.02450563758611679 -0.12189999967813492
-0.03824375197291374 0.02456594631075859 -0.12219999730587006
-0.03782010078430176 0.02470666728913784 -0.12289999425411224
-0.037328630685806274 0.02480718120932579 -0.1233999952673912
-0.0367724746465683 0.02486749179661274 -0.12370000034570694
-0.03621318191289902 0.02492780052125454 -0.12399999797344208
-0.03562207147479057 0.02496800571680069 -0.1241999939084053
-0.03516966104507446 0.02510872855782509 -0.12489999830722809
-0.034654658287763596 0.02520924247801304 -0.12539999186992645
-0.03413442522287369 0.025309760123491287 -0.125900000333786
-0.03350260481238365 0.025329863652586937 -0.12600000202655792
-0.032895803451538086 0.025370066985487938 -0.12619999051094055
-0.032235827296972275 0.025370066985487938 -0.12619999051094055
-0.031600866466760635 0.025390170514583588 -0.12629999220371246
-0.03094036877155304 0.025390170514583588 -0.12629999220371246
-0.030255893245339394 0.025370066985487938 -0.12619999051094055
-0.029595915228128433 0.025370066985487938 -0.12619999051094055
-0.02891300804913044 0.025349967181682587 -0.12610000371932983
-0.028231147676706314 0.025329863652586937 -0.12600000202655792
-0.027550332248210907 0.025309760123491287 -0.125900000333786
-0.026849202811717987 0.025269553065299988 -0.1256999969482422
-0.026129327714443207 0.02520924247801304 -0.12539999186992645
-0.025453219190239906 0.02518913894891739 -0.12529999017715454
-0.024718785658478737 0.02510872855782509 -0.12489999830722809
-0.023892194032669067 0.02492780052125454 -0.12399999797344208
-0.022906312718987465 0.02456594631075859 -0.12219999730587006
-0.02215792052447796 0.02444532699882984 -0.12159999459981918
-0.021309610456228256 0.024204090237617493 -0.12039999663829803
-0.020576907321810722 0.024083470925688744 -0.11979999393224716
-0.019917093217372894 0.024043265730142593 -0.11959999799728394
-0.019243240356445312 0.023982957005500793 -0.1193000003695488
-0.018525702878832817 0.023862337693572044 -0.11869999766349792
-0.01781444065272808 0.023741720244288445 -0.11809999495744705
-0.01713857799768448 0.023661307990550995 -0.11769999563694
-0.016494974493980408 0.023621102795004845 -0.11749999970197678
-0.015812918543815613 0.023520587012171745 -0.11699999868869781
-0.015123097226023674 0.023399967700242996 -0.11639999598264694
-0.014452021569013596 0.023299451917409897 -0.11589999496936798
-0.013810069300234318 0.023239143192768097 -0.11559999734163284
-0.01320552546530962 0.023239143192768097 -0.11559999734163284
-0.012590080499649048 0.023219039663672447 -0.11549999564886093
-0.011975681409239769 0.023198936134576797 -0.11539999395608902
0.0007044372032396495 0.023420071229338646 -0.11649999767541885
0.0013181987451389432 0.023500483483076096 -0.1168999969959259
0.0019377947319298983 0.023600999265909195 -0.11739999800920486
0.0025582730304449797 0.023661307990550995 -0.11769999563694
0.0031980681233108044 0.023842234164476395 -0.11859999597072601
0.0038472767919301987 0.024023162201046944 -0.11949999630451202
0.004483443684875965 0.024083470925688744 -0.11979999393224716
0.0051611377857625484 0.024324709549546242 -0.12099999934434891
0.005832228809595108 0.02448553405702114 -0.121799997985363
0.0065169986337423325 0.02466646209359169 -0.12269999831914902
0.00721118226647377 0.02484738826751709 -0.12359999865293503
0.007882991805672646 0.02492780052125454 -0.12399999797344208
0.008545225486159325 0.02496800571680069 -0.1241999939084053
0.009216954931616783 0.02502831630408764 -0.12449999898672104
0.009899747557938099 0.02510872855782509 -0.12489999830722809
0.01057827565819025 0.025169039145112038 -0.12520000338554382
0.011268911883234978 0.025249449536204338 -0.12559999525547028
0.011935247108340263 0.025269553065299988 -0.1256999969482422
0.012622665613889694 0.025329863652586937 -0.12600000202655792
0.01329213846474886 0.025349967181682587 -0.12610000371932983
0.01395159400999546 0.025349967181682587 -0.12610000371932983
