ply
format ascii 1.0
element vertex 732
property float x
property float y
property float z
end_header
0.006205990660258812 -0.03423257493257307 0.0021744801197201014
0.005858739564960723 -0.0341848350289489 0.0021744798868894577
0.005517923507956028 -0.03412780185844852 -3.043512109002222e-09
0.005470715884399145 -0.03411894090364869 0.0021744833793491125
0.005184661145697752 -0.03406172400387793 -4.441201184590682e-09
0.005165382996211705 -0.034057518070425605 0.0021744833793491125
0.004857868345393168 -0.03398638328768594 -4.7444936868146215e-09
0.004866715216594622 -0.03398856065586203 0.0021744833793491125
0.0045419056858712155 -0.03390313095068813 0.0021744794212281704
0.0038791186028509393 -0.033691898541536903 0.0021744833793491125
0.0042330738015623325 -0.03381088218242619 0.0021744724363088608
0.003932603504169187 -0.033710007656486816 2.550770261677826e-08
0.003557463022204889 -0.033567259482191386 0.0021744610276073217
0.0032778181572285132 -0.033447387649700906 0.002174472203478217
0.0030068649292138215 -0.033319156869657404 -8.960446273853506e-10
0.0029756235170933757 -0.03330339934891195 0.0021744833793491125
0.002747161325505966 -0.033183825233932505 0.0021744819823652506
0.002281094649328675 -0.03290628660097396 0.0021744833793491125
0.0024944950289463356 -0.033039413592710884 0.002174482913687825
0.0022866762464228947 -0.0329099197421131 -5.5829318945654904e-09
0.0020879723756286124 -0.032776211142922576 -4.983671697544878e-09
0.007431193955416859 -0.034324611069828107 -5.543685066555781e-09
0.006941326419563267 -0.034302375302012335 -5.6423044014763946e-09
0.00740463760369742 -0.03432396032822488 0.0021744826808571815
0.007031251033297051 -0.0343070077043438 0.0021744815167039633
0.006259766753804706 -0.03423998315712144 -5.498779653834163e-09
0.005782532640017728 -0.03417277706445034 -5.670415692549113e-09
0.00457482899293193 -0.03391220618824677 -5.670415692549113e-09
0.004289923861008444 -0.03382852729266617 -5.670415692549113e-09
0.0036040101631820034 -0.0335871388550058 -5.650715007021745e-09
0.003223239410634219 -0.03342233126652014 -5.670415692549113e-09
0.0027359491035808267 -0.03317768482808888 -5.670415692549113e-09
0.0025043695478014476 -0.033045289119238104 -5.670415692549113e-09
0.0018962215920566659 -0.03263678538637785 0.0021744819823652506
0.0018599696843799298 -0.032608892865077586 -5.670415692549113e-09
0.001710608249260259 -0.03249080644697671 0.0021744815167039633
0.001616145724544176 -0.03241187329694901 -3.907717704976221e-09
0.0014427752702036462 -0.032257937958514074 -4.492700433900154e-09
0.0012944349167677781 -0.03211562426088101 -5.670415692549113e-09
0.0012777920087485319 -0.03209920585379782 0.002174482913687825
0.0011241914229389027 -0.03193899522593816 -5.670415692549113e-09
0.0011215480558180433 -0.03193612823865918 0.0021744833793491125
0.0009717335049708016 -0.031766411433889793 -5.530556457244984e-09
0.0009633808311113949 -0.03175641185570683 0.0021744833793491125
0.0008309119230882842 -0.031592629751176576 -4.991175028834505e-09
0.000812136306729891 -0.031567982084012076 0.0021744833793491125
0.0006979723624079956 -0.03141321727786058 0.0021744819823652506
0.0005727571014968522 -0.031227692420323774 -4.217907800807552e-09
0.0005113622823192772 -0.031129559650681354 0.0021744819823652506
0.000400089027294906 -0.030937370765372504 0.002174482448026538
0.00029799351514309374 -0.03074106135881726 -5.407379433108872e-09
0.00041753435576907 -0.03096844811059772 -5.670415692549113e-09
0.0006706600947004283 -0.03137376564668076 -5.670415692549113e-09
0.001473914801251432 -0.03228622347188338 0.0021744833793491125
0.0020662296458069255 -0.03276078297097576 0.0021744833793491125
0.008375995801152341 -0.03434281971267666 0.0021744833793491125
0.011438593204332635 -0.035633012752601965 -6.645478833888774e-09
0.011294681186300809 -0.035315410686421564 -5.697849747576811e-09
0.011432779442584553 -0.03561799268834305 0.002174481051042676
0.011092733785719965 -0.034999575747373175 3.5059561920292026e-09
0.010995076517377729 -0.03489095219109614 -3.9675374097214444e-09
0.011038681376255442 -0.03493676199258318 0.002174477791413665
0.010936850861207815 -0.03483802499447087 0.0021744470577687025
0.010771865308665975 -0.03471971674829662 1.985881148414137e-08
0.010644143557762388 -0.034650807349578774 -5.042994466464279e-09
0.010747718464930858 -0.034703879364053496 0.002174487104639411
0.010466205280188426 -0.03457934332579277 -5.325249130549992e-09
0.010555552614583125 -0.03461235071367267 0.0021744838450104
0.010363543972402172 -0.03454679239428712 0.002174483146518469
0.010258390508740672 -0.03451828390958158 -5.5683004873685604e-09
0.010119845035513612 -0.03448679131775933 0.0021744833793491125
0.01004349935907723 -0.034473061424054374 -5.449180218164429e-09
0.009351752410540204 -0.03438961728776313 0.002174483146518469
0.009472227123398683 -0.03439902404083367 -5.4495576939928014e-09
0.009008983709427449 -0.03436779854412425 -5.663741919903487e-09
0.008974811890442767 -0.03436603112406391 0.0021744833793491125
0.00840893460747501 -0.03434358532305668 -5.66071012286784e-09
0.011186873451383967 -0.03512941482496587 -5.912961675846873e-09
0.011136745210007726 -0.03505681612680841 0.0021744784899055958
0.010861870357437277 -0.03477916008907014 1.4033038553407096e-07
0.009715870567072014 -0.03442432856519442 0.002174483146518469
0.009869601597615055 -0.034444640405736124 -5.290839766303179e-09
0.011305626420123008 -0.03533921628139815 0.0021744833793491125
0.011215501184608847 -0.03517465750375459 0.002174482448026538
0.010602539522503044 -0.038731203016209456 0.0021744833793491125
0.010772508442343917 -0.038434437738100055 -5.6272764226150684e-09
0.010840157308354328 -0.03831323448400334 0.002174483146518469
0.011474712456476637 -0.03681866941990344 -5.5476800930875925e-09
0.011525246152448581 -0.03656050170436454 -5.648643330857794e-09
0.011503276602276973 -0.03668827326018725 0.002174483146518469
0.011533076701516182 -0.036497091292048825 0.0021744833793491125
0.011544439577124425 -0.03637332255254012 2.072937235197969e-07
0.011548673802219016 -0.03630342769883309 0.0021745047997683287
0.01154817389192817 -0.03619191629406304 -2.9390760936109928e-09
0.011540571676068258 -0.03607299323961842 0.002174485009163618
0.011533649792108747 -0.03601713921287255 -5.505024436303074e-09
0.01015425795105996 -0.03946211856021135 0.0021744833793491125
0.009922352269956351 -0.03982159846637138 0.0021744833793491125
0.00995208115406512 -0.03977695734315323 -5.685958370804656e-09
0.011504443104854583 -0.035851049998514246 4.070597636740558e-09
0.011505171982115724 -0.03585202094620317 0.0021744761615991592
0.011387718329496338 -0.03711740476598005 -5.6334754638953655e-09
0.011437378727145302 -0.03695840112502342 0.0021744833793491125
0.011267124891439863 -0.0374378023717375 -5.5110360719368146e-09
0.011332120551606695 -0.03727369831185782 0.002174483146518469
0.011199716099707642 -0.037594300585745616 0.0021744833793491125
0.011115078374103166 -0.03777892682896536 -5.588901341724295e-09
0.011041028684714913 -0.03793047075637362 0.002174483146518469
0.010933262128645874 -0.038140221337895706 -5.58657742288915e-09
0.010585372866615176 -0.03876022191003148 -5.6168683038038125e-09
0.010388992507038314 -0.03908568985722019 0.0021744833793491125
0.010306602515932302 -0.03921981542459278 -5.653930656990269e-09
0.0017264050671408628 -0.04539494275186007 -5.652424306390458e-09
0.0020863350703980202 -0.04534707016963413 -5.532650781958637e-09
0.002070118363199642 -0.04534942952035446 0.0021744833793491125
0.002376206644505728 -0.04530030329920281 0.0021744833793491125
0.002405197706553091 -0.045295283133042714 -5.242240863623238e-09
0.0026779084698507353 -0.04524313843555849 0.0021744833793491125
0.0027204305496305336 -0.04523448407981911 -4.9345336705641785e-09
0.0030310814290362494 -0.04516486560268302 0.002174482448026538
0.00355747094646712 -0.04502305607085754 0.0021744833793491125
0.0033376219512634172 -0.045086139485308985 0.002174482448026538
0.003638921992908642 -0.04499862780507647 -4.260751307327837e-09
0.003935357935742453 -0.04490224951333443 0.0021744819823652506
0.0041235147845625954 -0.04483521494291419 0.0021744833793491125
0.004322710177226618 -0.04475995213145712 0.0021744822151958942
0.004609488397147296 -0.04464213975852888 -4.3524361892366414e-09
0.0046741023511933655 -0.04461383505508706 0.0021744833793491125
0.004893359703294779 -0.04451450016657043 -4.722354951525176e-09
0.004943853015742892 -0.044490447565109066 0.0021744833793491125
0.005172294040937297 -0.04437794365447622 -5.533002944702048e-09
0.005210021029983218 -0.04435845768980538 0.0021744833793491125
0.005447622613538714 -0.04423184075239488 0.002174482913687825
0.005719504133311727 -0.044076011364579726 0.002174483146518469
0.0059877016001076405 -0.04391061105667016 -5.608340902796272e-09
0.005987925550124285 -0.043910458669913416 0.0021744833793491125
0.006240685777268697 -0.043743582434104034 0.0021744833793491125
0.006252638203695396 -0.04373548463619725 -5.479306786071447e-09
0.006490341331218691 -0.04356779809350448 0.0021744833793491125
0.006512757632345602 -0.043551564184304024 -5.396652458244944e-09
0.006736928826978119 -0.043383059509319304 0.0021744833793491125
0.00674761742391707 -0.043374850579757374 -5.6221702848802124e-09
0.006980600567569097 -0.04318933489915025 0.0021744833793491125
0.006980477685281829 -0.0431894328910161 -5.670778513433561e-09
0.007210523439701618 -0.042995981797361985 -5.616512144257513e-09
0.0031084911962195247 -0.04514693878188933 -5.671672909102199e-09
0.003984003640203289 -0.04488640462889599 -5.622348808742572e-09
0.004400685137142796 -0.04472873630466272 -5.670415692549113e-09
0.005472677847895484 -0.04421785972132922 -5.670415692549113e-09
0.005731962271892822 -0.04406853371166873 -5.670415692549113e-09
0.007663914469358623 -0.042583294653481714 0.002174482913687825
0.007438688595097235 -0.04279363600902684 -5.470779829153116e-09
0.007694850675558082 -0.04255338451749732 -5.670415692549113e-09
0.007888006806549734 -0.04236326409573553 0.0021744826808571815
0.00804762083535016 -0.04220101513932232 -5.6893267874613684e-09
0.008108832077885904 -0.04213565385700054 0.0021744826808571815
0.008327964291080422 -0.041898884175708424 -4.849426193942463e-09
0.008668122785439478 -0.04150905989002995 0.0021744826808571815
0.008545030320551863 -0.04165332668475874 -4.867188874158046e-09
0.008882546171307588 -0.041249006192425455 -4.999011427031519e-09
0.009093966325386685 -0.04098142126912536 -5.170458727832283e-09
0.009373200099775708 -0.040611900435522354 -5.672456726557584e-09
0.009303986470086659 -0.040704410913408505 0.002174483146518469
0.00951207965824097 -0.04041867135132473 0.002174483146518469
0.009718197460269066 -0.040124379210133704 -5.64406610337187e-09
0.00970858788202626 -0.04013827727021512 0.0021744833793491125
0.00893987322167674 -0.04117874649754615 0.0021744833793491125
0.008385962730019972 -0.04183405027935343 0.0021744833793491125
0.007459474902830492 -0.042774561032317394 0.0021744833793491125
0.007221402897656783 -0.04298650237808634 0.0021744833793491125
0.0016629836107609115 -0.04540244038843345 0.0021744833793491125
-0.002684042258082663 -0.044826992520356636 -5.689510640394246e-09
-0.0021891167123128364 -0.04498006196110795 0.0021744833793491125
-0.002765275071345708 -0.044801842503723835 0.0021744833793491125
-0.00020344203623860792 -0.045462198682897983 4.486543048187741e-07
7.664335022968728e-05 -0.04548643182370291 -5.673639780212625e-09
8.182466506898404e-05 -0.04548700942560534 0.0021744833793491125
0.00039959737643959875 -0.04549512773811822 -5.562784455293013e-09
0.00040620100105993943 -0.04549480377357972 0.0021744833793491125
0.0007085182700058641 -0.04548654142621245 0.0021744833793491125
-0.0019562549811543216 -0.045050077168081896 -5.93850169039456e-09
-0.0015251496782553269 -0.045175529381241857 -5.645137690635238e-09
-0.0011560017561993944 -0.04527521981136522 -5.614071874049387e-09
-0.0015038230432208547 -0.045182161795818944 0.0021744833793491125
-0.0008356454314601254 -0.04535258459683936 -2.4578803436980934e-09
-0.0010292434358263494 -0.045307219119471144 0.0021744819823652506
-0.0003422263330217523 -0.045444062348917486 0.0021744936238974333
0.001096219194621167 -0.04545969451083557 -5.656588975000432e-09
0.001053361040030688 -0.045462878608690784 0.0021744833793491125
0.0007047898701495423 -0.04548650849960127 -5.6465578879283385e-09
-0.0005089779169613273 -0.045417554508114896 -5.204053299401323e-10
-0.000668471169729584 -0.04538795996752389 0.0021744815167039633
-0.005368725550943715 -0.04400541360090026 -5.670415692549113e-09
-0.005368725550943715 -0.04400541360090026 0.0021744833793491125
-0.0070488111914752925 -0.04579751858258631 -5.6592432962077055e-09
-0.0071105861764227535 -0.04586342394559431 0.0021744833793491125
-0.013174743685122526 -0.0503995710883995 -5.6739133391658925e-09
-0.012652574814693129 -0.05014330025501127 -5.663599811356335e-09
-0.012781241487483299 -0.050207463878917336 0.0021744833793491125
-0.011869985388619896 -0.0497309017746045 0.0021744833793491125
-0.01209293529088658 -0.04985218336517084 -5.661820789981675e-09
-0.01162953276539338 -0.04959608951040535 -5.608602915430083e-09
-0.011381351519049381 -0.04945210594104188 0.0021744833793491125
-0.01116917687179253 -0.04932408381051073 -5.455853990810056e-09
-0.010914722094077399 -0.049164813526974646 0.0021744833793491125
-0.010702079138160937 -0.049026503835810774 -5.666747071586542e-09
-0.010307886389111192 -0.04875580455342114 -5.626804799874208e-09
-0.010503860850677962 -0.04889270427642406 0.002174483146518469
-0.0099311847841779 -0.04847907202238492 -5.6402695847168616e-09
-0.01011703351306927 -0.04861787720804371 0.0021744833793491125
-0.009573583375668583 -0.04819881280503947 -5.638414179998108e-09
-0.009745514910439968 -0.048335765607477724 0.0021744833793491125
-0.009373818399384273 -0.04803505450099559 0.0021744833793491125
-0.00922179916415815 -0.0479068187367742 -5.657309731788018e-09
-0.008545716940875159 -0.04730063600045618 -5.665829139189782e-09
-0.008242507588515326 -0.047012377662179555 -5.672696978820113e-09
-0.008276498168431871 -0.04704521182685861 0.0021744833793491125
-0.00784797658980936 -0.046623056684090426 -5.636270561382162e-09
-0.007799005272876583 -0.04657449342681627 0.0021744833793491125
-0.007458640511677291 -0.046226140179484586 -5.637811106851132e-09
-0.01317359009986646 -0.050399015723797014 0.0021744833793491125
-0.008644536097326924 -0.04739290031755657 0.0021744833793491125
-0.008847756147396092 -0.04757858868433455 -5.658036261735333e-09
-0.009002728454752541 -0.04771672696186439 0.0021744833793491125
-0.012306380451818045 -0.04996511850143756 0.0021744833793491125
-0.018720473312407438 -0.05161591434655112 0.002174483612179756
-0.01873162556062769 -0.05161209708679283 -5.807568204119207e-09
-0.018418613736062538 -0.05170915567474276 -5.1801465339451624e-09
-0.018396270363637512 -0.05171510759311619 0.002174482913687825
-0.018174721009211647 -0.051766039930658696 -5.5013953392801795e-09
-0.01786811144173427 -0.051814571470799514 0.002174483146518469
-0.01795645231934681 -0.05180427359892834 -5.672134317791233e-09
-0.01771613471331692 -0.05182862926587758 -5.2383373194686556e-09
-0.01755943873901385 -0.05183615090529014 -5.390521362613754e-09
-0.017544958065541783 -0.05183623207759478 0.0021744826808571815
-0.017311260639940734 -0.051834467292184085 -5.385623946807527e-09
-0.017383283371385852 -0.05183597997344222 0.002174483146518469
-0.017137030691800833 -0.05182268165122861 0.0021744833793491125
-0.017051983337890216 -0.051813699281775004 -5.422950533073845e-09
-0.01687303553213009 -0.0517904889102614 -5.051155049784484e-09
-0.016611628427852958 -0.05174476335145218 -5.603206787441195e-09
-0.016776633483000212 -0.051776358719067585 0.002174483146518469
-0.016318654879972125 -0.05167618765577406 -5.616534792807215e-09
-0.01606376460666704 -0.051605976902296964 -5.629661625761173e-09
-0.016232833479685106 -0.05165402797616948 0.002174483146518469
-0.01574053988295399 -0.051503198081416936 -5.631806132555539e-09
-0.015899890408098978 -0.051555432537135945 0.0021744833793491125
-0.015174514442246032 -0.05129544514992016 0.0021744833793491125
-0.015253348445826436 -0.05132667735319478 -5.751005005549814e-09
-0.014773223815844106 -0.051132048147055555 0.0021744833793491125
-0.014709227915323881 -0.05110457697761928 -5.6247202451231715e-09
-0.014295398072814066 -0.05092352357598612 -5.679062109464894e-09
-0.014315848053118042 -0.050932774358699494 0.0021744833793491125
-0.01381367690728395 -0.050703465222269525 0.0021744833793491125
-0.013766298200401548 -0.05068084790958407 -5.654482659878113e-09
-0.015531133661436346 -0.05142998270748335 0.0021744833793491125
-0.01650741054871508 -0.05172173145807431 0.002174483146518469
-0.01770332237806053 -0.051829724640523864 0.002174483146518469
-0.018097772416726273 -0.05178151555074493 0.002174483146518469
-0.021635223868535777 -0.04872204148115615 0.0021744833793491125
-0.021784522499840916 -0.04843426319362871 -5.7161164690455735e-09
-0.021583452867318928 -0.048816318638490154 -5.670531599832884e-09
-0.02059148504026025 -0.050320916004409674 0.0021744833793491125
-0.020772662591467737 -0.0500963384578202 -5.621025422897219e-09
-0.020572604296484123 -0.05034300725391937 -5.725476537321583e-09
-0.019978921566647212 -0.050927713181482634 0.002174483146518469
-0.020195443532053776 -0.05073978235124021 -5.685999227011962e-09
-0.019904456677999994 -0.0509874310657482 -6.1287113162222795e-09
-0.019768305001344418 -0.05108691351342818 0.0010866251541301608
-0.019629867249644068 -0.05118012387130985 -5.670415692549113e-09
-0.019568148177682796 -0.051218845662401154 0.0010872388957068324
-0.019396831048026645 -0.051318778272172766 -5.199723318582983e-09
-0.019232889098287673 -0.05140370923487615 -5.66559776871145e-09
-0.019080116367881043 -0.051474957369837204 0.002174481749534607
-0.019233996146139024 -0.05140315169193622 0.0021744833793491125
-0.01896711033373017 -0.051522811775999856 -4.325956481920912e-09
-0.019410002958873462 -0.05131143103368734 0.002174483146518469
-0.019711793697708983 -0.051127307765880405 0.002174483146518469
-0.02042211061778343 -0.05051177003655979 -5.6286384442216786e-09
-0.02035689298737398 -0.05058101432899833 0.0021744833793491125
-0.021407442123896538 -0.04913104056791851 -5.670393043999411e-09
-0.021354089032789448 -0.04922324535896456 0.0021744833793491125
-0.020958175447222293 -0.04984244032023987 0.002174483146518469
-0.020769246479727714 -0.050100563027901494 0.0021744833793491125
-0.020156591177293987 -0.05077456593238639 0.002174483146518469
-0.020926364446990444 -0.049887010074004035 -5.508479894444918e-09
-0.0210732821395298 -0.04967304677051032 -5.6654099189756835e-09
-0.021150710778310995 -0.049553862911387345 0.0021744833793491125
-0.021241156186175822 -0.0494096437555776 -5.669682945352861e-09
-0.024068117532457283 -0.03892911800416957 0.0021744833793491125
-0.024066832198896555 -0.03863581799772975 -5.670415692549113e-09
-0.024066392404916506 -0.03913607555916224 -5.6432170048026364e-09
-0.02405925223933159 -0.039441465105195535 0.002174483146518469
-0.024053923763725366 -0.0395838582165332 -5.670415692549113e-09
-0.02404319180727244 -0.03982475047111601 0.002174483146518469
-0.024034099584189592 -0.0399887000523068 -5.370316191743996e-09
-0.02401362619835688 -0.040293122796815954 -5.405348613152228e-09
-0.023979961272076168 -0.04069659186430486 -5.670417024816743e-09
-0.024001795211723853 -0.04045321285178143 0.002174483146518469
-0.023959317931691183 -0.04089928727403615 0.002174483146518469
-0.023907419585059434 -0.04135526053779481 -5.73914116230867e-09
-0.023907030576910016 -0.041358232686170074 0.0021744833793491125
-0.023844188419246303 -0.041815311037952226 -5.599952501711414e-09
-0.02381128501462157 -0.042033295443697494 0.0021744833793491125
-0.02376016601466308 -0.04234453922191235 -5.599456454064011e-09
-0.02368791901358764 -0.042747799101984514 0.002174483146518469
-0.02366184990200293 -0.04288298976247726 -5.535520486432688e-09
-0.023503798930304052 -0.043622684774150024 0.0021744833793491125
-0.02359475624778323 -0.04320835716123782 0.002174483146518469
-0.02351821516498169 -0.043557436936759744 -5.188177443216091e-09
-0.023411540817709013 -0.044005933407928535 0.002174482913687825
-0.023323409210834298 -0.044349297075156745 0.002174482913687825
-0.02324989013319574 -0.044620935035869495 -5.63337421155552e-09
-0.023154402462853885 -0.044954389212898155 0.0021744833793491125
-0.023055061092494628 -0.04528241144619398 -5.685340642713754e-09
-0.023026068957782447 -0.045374007359301236 0.0021744833793491125
-0.022921638294817744 -0.04569600077380921 -5.628707278049205e-09
-0.02287456092534015 -0.04583709745592196 0.0021744833793491125
-0.02281001853853004 -0.0460229141039256 -5.510955247700622e-09
-0.02266353657531649 -0.04642940310939692 0.0021744833793491125
-0.022692994380234713 -0.04634845647501394 -5.3799453780811746e-09
-0.022571154440751157 -0.04667065346583424 -5.269384040218483e-09
-0.022424714368220106 -0.04703921990758326 0.0021744833793491125
-0.022445665549618396 -0.046986539223270445 -5.231654220949622e-09
-0.022274021822451685 -0.04739501085011407 0.002174483146518469
-0.022138082313210305 -0.04770103513418072 -5.221898913276846e-09
-0.022025879020952505 -0.047943676140834404 0.002174483146518469
-0.023425630036517642 -0.04395097320653337 -5.6457345465332764e-09
-0.022298217172308774 -0.04734034461770758 -5.661170199289245e-09
-0.021978191409904767 -0.048043103422966325 -5.670415692549113e-09
-0.021853296203032023 -0.04829808650372014 0.002174483146518469
-0.024066832198896555 -0.03863581799772975 0.0021744833793491125
-0.02407141708095175 -0.037072230619349014 -5.670415692549113e-09
-0.02407141708095175 -0.037072230619349014 0.0021744833793491125
-0.02626885712476623 -0.03627196402039352 -5.644501310797523e-09
-0.026075677900751135 -0.03634273933923606 0.002174482448026538
-0.0324172329467846 -0.030924659948765608 0.0021744833793491125
-0.03240607654208387 -0.030950635591613825 -5.659904989130382e-09
-0.03226126175352251 -0.03127205290380563 0.0021744833793491125
-0.032258288213125236 -0.03127827697335837 -5.670415692549113e-09
-0.03215773200893824 -0.031483695218823125 0.0021744833793491125
-0.03208117590541446 -0.03163165205644806 -5.6580198304345686e-09
-0.03196666926282003 -0.03183904770802314 0.0021744833793491125
-0.03192065648968557 -0.031917714500545265 -5.670415692549113e-09
-0.031812965114349244 -0.03209625860093214 0.002174483146518469
-0.03172608103048116 -0.032234432224196786 -5.67519364835789e-09
-0.03168626921298571 -0.03229381111506077 0.002174483146518469
-0.03155349976263684 -0.03248831349974472 -5.144248582666933e-09
-0.031119836290894754 -0.03305158636640942 0.002174482913687825
-0.03126983031766433 -0.03286773468460034 -5.0382746863419925e-09
-0.030996282116312363 -0.03319588769135119 -5.479218412318687e-09
-0.030867274376362285 -0.033339256174604544 0.0021744826808571815
-0.030663007590339228 -0.0335553413656358 -5.686908721713735e-09
-0.030702088813435988 -0.03351431781485996 0.002174482913687825
-0.030490247288814044 -0.03372608754717471 0.002174483146518469
-0.03030931432238371 -0.03389612543469242 -5.559550153577675e-09
-0.030123807350129407 -0.03406149305911305 0.002174483146518469
-0.029966183837451914 -0.03419513782652096 -5.139170866641507e-09
-0.029714848147031608 -0.034398332515132406 -5.668418179283208e-09
-0.02976025416587527 -0.03436187718213801 0.002174482913687825
-0.029546855327524345 -0.034525598647108184 0.0021744826808571815
-0.029287304364125404 -0.03471418957146799 -5.669086089454822e-09
-0.029327214601501707 -0.03468528465892605 0.0021744826808571815
-0.029062517576339472 -0.03486718159057591 0.0021744833793491125
-0.028835477660310218 -0.03501479736921962 -1.125516568833973e-09
-0.02878719170833853 -0.035044372169886005 0.0021743150427937508
-0.028544751181023505 -0.03519193615502239 6.616676984094738e-08
-0.028349604423737434 -0.03530545389577704 0.0021744640544056892
-0.02810765208360108 -0.035439916345422484 -5.6824549510281486e-09
-0.028042404522171178 -0.03547420181410933 0.002174462890252471
-0.027780881628119165 -0.03560993198668673 6.5919860681162845e-09
-0.027577149946345598 -0.0357110816220358 0.0021744808182120323
-0.027324232513121337 -0.035831140357130364 -6.033860078247244e-09
-0.027238395379640797 -0.03586970471219216 0.0021744794212281704
-0.026957618600945733 -0.03599370710770548 0.0021744812838733196
-0.02675543371233407 -0.036079157787404434 -5.559818383460424e-09
-0.02648201239959966 -0.03618945413176069 0.0021744833793491125
-0.031306935026311634 -0.03282172183182212 0.0021744833793491125
-0.031414968834104245 -0.03267923987590355 -5.29889243594539e-09
-0.031526962472753925 -0.03252554844895191 0.0021744833793491125
-0.03204855200281162 -0.02024194525667574 -3.924556235546106e-09
-0.032143712128834274 -0.020353624830855597 -5.1892423691413114e-09
-0.03215176903823766 -0.020364373400427887 0.002174482448026538
-0.03225231873231531 -0.020502270082263897 -5.662758262303669e-09
-0.03233624075692142 -0.020634325627457838 -5.662515789595091e-09
-0.0324572125586911 -0.02085196182678667 -5.401510350111494e-09
-0.03241805193156376 -0.02077858072336568 0.0021744833793491125
-0.032497303120822225 -0.02093431875152028 0.002174482913687825
-0.032574934995188605 -0.021104287563159487 -5.3774931174643825e-09
-0.03265107122778267 -0.02129072760490632 -5.4804254467910596e-09
-0.03272426719980254 -0.02148939751871872 -5.4889648382072664e-09
-0.03268575855635719 -0.02138039908247991 0.002174483146518469
-0.0328177449171045 -0.021776429008149793 -5.501852751166325e-09
-0.03278223790839904 -0.02166365815132653 0.002174483146518469
-0.03288216397113327 -0.0220024166571956 0.002174483146518469
-0.03293154672136696 -0.02219449897480559 -5.542907022260124e-09
-0.03298772793157564 -0.022437277000963433 0.002174483146518469
-0.03301215166947823 -0.0225542007695912 -5.535647495946705e-09
-0.033078936801096616 -0.022900668708419763 -5.536749725365553e-09
-0.03305864490812971 -0.022790843756578468 0.002174483146518469
-0.0331882111873445 -0.023648025937016738 0.002174483146518469
-0.03315040748882086 -0.02335487960249722 -5.7762861160881585e-09
-0.033202412278741295 -0.023776706224971886 -5.667387892316356e-09
-0.033245314528003264 -0.024225751059226242 0.0021744833793491125
-0.033235472487242367 -0.024105648854171505 -4.922067642354477e-09
-0.0332682938581294 -0.024548562902652175 -5.662746271895003e-09
-0.0332886606913371 -0.024951414821269807 -5.602082353561855e-09
-0.033288711826307035 -0.024942956063523557 0.002174483146518469
-0.033299688313066185 -0.025357079207949697 -5.661091151409892e-09
-0.03329947520273631 -0.025346734442061297 0.0021744833793491125
-0.03330234165166886 -0.02571294651723611 -5.394593660668079e-09
-0.03330201684460878 -0.025779840604679256 0.002174483146518469
-0.033295158735775134 -0.026171273275141328 -5.6505355949809655e-09
-0.03329550647375145 -0.026156244637784775 0.0021744833793491125
-0.03328351756553673 -0.026504232004464865 0.0021744819823652506
-0.033276641687332645 -0.02663569957674908 -5.641911382525677e-09
-0.03325173676173381 -0.027031655135833003 -5.428468341506232e-09
-0.033256476503607704 -0.026964256238706 0.0021744833793491125
-0.033223393568123274 -0.027372139899979067 0.002174482913687825
-0.033218120847781266 -0.027423784120341372 -5.672635694509154e-09
-0.03317177845561864 -0.027853112472951694 -5.3390398768726754e-09
-0.03317354468201415 -0.027835739972941215 0.002174483146518469
-0.03312153006342347 -0.028224710111653655 -5.675632408497222e-09
-0.03311989258988832 -0.028236184337665077 0.0021744833793491125
-0.0330681319526513 -0.028565782793193262 -5.6011737470385015e-09
-0.03306647709269517 -0.028574420893243014 0.0021744833793491125
-0.033028318873577656 -0.02879089664276363 0.0010671670315787196
-0.03281209381377623 -0.02975409886472812 -5.564785521272597e-09
-0.032712502682133035 -0.030104396624549647 -5.372828848493327e-09
-0.03277262863432082 -0.0298999651701476 0.002174483146518469
-0.032633899955134875 -0.030350150141873762 0.002174483146518469
-0.032604063849356935 -0.030435706277145775 -5.558465687727221e-09
-0.032522621051864625 -0.030660542772637064 -5.4885265221571444e-09
-0.03298614323391545 -0.02900784748536927 -5.6647997404013495e-09
-0.03298764810701019 -0.02900055636106151 0.0021744833793491125
-0.033268798331863615 -0.02455723569433704 0.0021744833793491125
-0.03189558688435951 -0.020091662997642177 0.0021744826808571815
-0.03195928461652603 -0.020151564209320287 -4.85935824912076e-09
-0.03205845362702362 -0.020252708241172757 0.0021744819823652506
-0.03252182526328654 -0.030662881995867315 0.002174483146518469
-0.032904637274075506 -0.02938655628495184 -5.62697444195237e-09
-0.032893855005718786 -0.02943198371106873 0.002174483612179756
-0.033119664632296326 -0.02314631606661921 0.002174483146518469
-0.032572764942405484 -0.021099202199762235 0.002174483146518469
-0.03233761249384749 -0.02063641707258203 0.002174483146518469
-0.03225060478982118 -0.02049996820041985 0.0021744833793491125
-0.030238066724493105 -0.019806208367310077 -6.244051942161377e-09
-0.030402619694638703 -0.019741705420590883 -4.688622379234175e-09
-0.03023940592726296 -0.019804823007302883 0.0021744840778410435
-0.030468779635581214 -0.019719193080169565 0.0021744852419942617
-0.031145215969148616 -0.019666747046248368 0.0021744603291153908
-0.03101581019946993 -0.019647558644861507 0.0021735287737101316
-0.030980080480831212 -0.019643548118027696 4.246258811235748e-07
-0.03137797304136828 -0.01974236740837921 3.2758185053438638e-09
-0.03148805595458492 -0.019796561357064126 -2.234589402405618e-09
-0.031490729584024345 -0.01979810164682818 0.0021744798868894577
-0.031606584209540475 -0.019868452775282115 0.0021744822151958942
-0.03171792980552858 -0.019947251881502714 0.0021744812838733196
-0.03183186261871421 -0.020038382032222572 -5.028633509596148e-09
-0.030767772973078485 -0.01965173463564978 3.183204588808053e-09
-0.030858026929844604 -0.01964416765875422 0.002174502005800605
-0.02838904548863152 -0.021024413057053576 -5.640615086122125e-09
-0.028810623599029538 -0.02070382535779816 -5.689360538241317e-09
-0.02860565097969419 -0.020858168651017677 0.0021744833793491125
-0.02902356811953767 -0.020546638013222644 0.0021744833793491125
-0.029132661123598084 -0.0204688674975575 -5.57016699431756e-09
-0.029363996467841606 -0.02030861978670082 0.002174483146518469
-0.029470749931164015 -0.020237072517109538 -5.730333541009713e-09
-0.030567593714168093 -0.019690068219225147 -2.7392861312591776e-09
-0.03065934968231702 -0.01966928244257242 0.0021744882687926292
-0.030015553846968916 -0.01991227306106301 -5.750823817152195e-09
-0.02992400192972706 -0.019960713363139572 0.002174483612179756
-0.029757803609910947 -0.020056394344887724 -5.6981588336668665e-09
-0.02961451992334009 -0.02014427820105051 0.002174483146518469
-0.03171992345095772 -0.019948813696051785 -3.409183602087751e-09
-0.03160696508288695 -0.0198686550846383 -4.553524224348848e-09
-0.03126376314256973 -0.01969863503836087 0.002174468943849206
-0.03126516797509292 -0.019699091027694418 9.146213564292793e-09
-0.031145861899260028 -0.019666729987326634 2.7158758797440896e-08
-0.03137726683495879 -0.019741968343069224 0.0021744745317846537
-0.02824716523750627 -0.021135540616309255 0.0021744833793491125
-0.02151194847212084 -0.023680736239359266 -5.594089635962973e-09
-0.021848604869413656 -0.02370793366484042 -5.413586912084156e-09
-0.021532237213565106 -0.023682451955315518 0.002174483146518469
-0.02182915569292117 -0.023706354399613164 0.0021744826808571815
-0.022131586729995704 -0.02372185392416571 -4.912294127024097e-09
-0.02210522783599515 -0.023721051213697355 0.002174482913687825
-0.02239808496253157 -0.023727042130327343 -5.274094938556573e-09
-0.022393990135804506 -0.02372702408215488 0.002174482913687825
-0.022685097833226035 -0.023723429607946704 -5.180336604126978e-09
-0.022657108611651638 -0.023724064699238368 0.002174482448026538
-0.022946200201863973 -0.02371019298722529 -4.310565682175138e-09
-0.022921950550895246 -0.023711980397425017 0.0021744826808571815
-0.023196413498423836 -0.023688332786276106 -4.9582102867873346e-09
-0.023471110199879085 -0.02365383088147664 -4.882095172575873e-09
-0.02344899705096073 -0.023656747531038903 0.0021744815167039633
-0.0237236175594467 -0.023610754877889325 -2.9566105119727126e-09
-0.023700603693447463 -0.023615275889162915 0.0021744819823652506
-0.02396746739397349 -0.02355897252166454 -4.125990216152786e-09
-0.023963828588046705 -0.023559815267617665 0.002174481749534607
-0.024236176244292258 -0.023490395842447092 -3.6172171924420127e-09
-0.024209437291636673 -0.02349755118407361 0.0021744794212281704
-0.024479830674777173 -0.023416537648150278 1.2452890274516903e-08
-0.024723780705643655 -0.023332169354263906 -1.2787768621791429e-09
-0.02472369213463454 -0.02333213023279447 0.0021744787227362394
-0.024974434191173595 -0.02323453648703833 1.2659607806497775e-09
-0.024970199454620007 -0.023236309720804996 0.00217447686009109
-0.025228644472451215 -0.023124540527831684 -3.2972160557420693e-09
-0.025493418893119252 -0.022997882724467685 -4.549121968011605e-09
-0.025492711772731057 -0.022998161899282256 0.002174482448026538
-0.025818370779053804 -0.022828011637954938 -5.194206842418225e-09
-0.025796006244927817 -0.022840005031419985 0.002174483146518469
-0.026192903571379607 -0.022611229991118344 0.0021744838450104
-0.02623274842801571 -0.022586725540949062 -6.094181159710388e-09
-0.02659276269332621 -0.022359065464687716 0.0021744833793491125
-0.027079201326827413 -0.022025449390008594 0.002174483612179756
-0.026940195725638987 -0.0221231102874979 -5.2813464712642144e-09
-0.027279370992125428 -0.021881175444100533 -5.380744294569695e-09
-0.02753289532297362 -0.021692674935716725 0.002174483612179756
-0.02776777137747619 -0.021513814209872306 -5.445631501288517e-09
-0.027863194932539265 -0.021438945600659162 0.002174483146518469
-0.02664261762899314 -0.022325635119175645 -5.939028380197442e-09
-0.025227213275435173 -0.023125340929109676 0.0021744812838733196
-0.024464211414156563 -0.02342189751566463 0.002174477558583021
-0.02319666558219468 -0.023688371859534322 0.0021744826808571815
-0.01922285270816192 -0.02296570103152676 -5.634312572055933e-09
-0.019322218820698546 -0.02305042227537145 -5.661767055187283e-09
-0.019219192873851043 -0.022962959710940502 0.0021744833793491125
-0.019369370664409368 -0.02308742957491271 0.0021744833793491125
-0.01944954276216995 -0.023143538798235355 -5.756577436955013e-09
-0.019539558688500925 -0.023199787705459766 0.0021744833793491125
-0.01958444271499198 -0.023224777842684823 -5.510817580045568e-09
-0.019999076337756997 -0.023405296865591174 0.002174483146518469
-0.02021979896966343 -0.023473160483562558 -4.9845914062984775e-09
-0.020221017503371873 -0.023472976639872356 0.0021744826808571815
-0.020765751558628868 -0.023588325111835298 -5.5646127705699655e-09
-0.021172691729180862 -0.023644717051824114 -5.7932068031618655e-09
-0.020798674732492046 -0.023593640589964455 0.002174482913687825
-0.021216941421133968 -0.02364995169087937 0.0021744833793491125
-0.019812729610133722 -0.0233356411012247 0.002174483146518469
-0.019936206131534268 -0.023384040441098708 -5.681866532825097e-09
-0.01970567531038859 -0.02328767693179303 -4.165642497611088e-09
-0.02048060818254851 -0.02353431693125949 0.002174483146518469
-0.020480981887338625 -0.023534494099158882 -5.5948410349060396e-09
-0.01958213370550412 -0.02157207509002948 -5.38626787616181e-09
-0.019271469594175354 -0.02169289990715584 -5.64578384043557e-09
-0.019578206457844884 -0.02157397426925913 0.002174483146518469
-0.018764719540451676 -0.022401522887063333 -5.578352002544307e-09
-0.01874201194141711 -0.022342115961986417 0.002174483146518469
-0.018731674425495837 -0.022308357719502576 -5.531631597222031e-09
-0.01881245956895123 -0.022493367344568815 -5.60710100572237e-09
-0.01877533025630699 -0.02242570882808412 0.002174483146518469
-0.018834693966862614 -0.022527917443629763 0.002174483146518469
-0.019303969776928383 -0.021680113412397235 0.0021744833793491125
-0.019133938070116933 -0.021756812765291466 0.0021744833793491125
-0.019064118617897023 -0.021793061576160632 -5.6425650818425765e-09
-0.018988361610022337 -0.021837362536054058 0.0021744833793491125
-0.018935724151103967 -0.02187287998178248 -5.619636311848808e-09
-0.018875249240404738 -0.02192088543070709 0.0021744833793491125
-0.018832862144867093 -0.02196066025710478 -5.621468623928649e-09
-0.019036797598647938 -0.022779465903001048 -5.615525822122436e-09
-0.019026769855328307 -0.022768691338723772 0.0021744833793491125
-0.018905405174573453 -0.02262671544133788 0.0021744833793491125
-0.018903364592498393 -0.022624913026207265 -5.628628674259062e-09
-0.01877664546981937 -0.02203207948001771 -5.649698930909608e-09
-0.018794138827558562 -0.022005488179175196 0.0021744833793491125
-0.018741180129185853 -0.022099489982674254 0.0021744833793491125
-0.018722651760937372 -0.022257280261692967 0.002174483146518469
-0.01872015475581952 -0.022203328147325428 -5.600010677397904e-09
-0.018722992916763537 -0.02217782902478281 0.002174483146518469
-0.01873845766833367 -0.02210693487359072 -5.597488250685956e-09
-0.0222264294818599 -0.018669514477467473 0.0021744826808571815
-0.022327501667442375 -0.01842544213704299 0.0021744833793491125
-0.02231092115153793 -0.018466993752269376 -5.265778035834501e-09
-0.020019270715239568 -0.02133231906388749 0.002174483146518469
-0.019879578383106743 -0.021419262478263812 -5.1208299822746994e-09
-0.01988113575073998 -0.021418378493110974 0.002174482913687825
-0.01974175291822804 -0.021495805770513514 -5.034413330662346e-09
-0.020445447278929576 -0.021013231143601006 0.002174483146518469
-0.020302251440320444 -0.021129196363600635 -5.263566027480238e-09
-0.020229852971890148 -0.021185246337448428 0.002174482913687825
-0.020656770676919237 -0.020827172615303507 0.002174483146518469
-0.02050921967300507 -0.020959611181624364 -5.4612270261600315e-09
-0.020792865516368535 -0.020697682725538177 -5.5906914653292006e-09
-0.0213298266630579 -0.020103680852909343 -5.466613828275513e-09
-0.021580790740474934 -0.019775440455331417 0.002174483146518469
-0.0215866377691055 -0.019766652167449827 -5.413836934309302e-09
-0.021328624892238676 -0.020104586057509484 0.002174483146518469
-0.022415469864840682 -0.018163387732343217 0.002174483146518469
-0.022370001380791166 -0.018305615400749806 -5.372859934738017e-09
-0.022421442412039038 -0.018140700264519576 -5.747446962800495e-09
-0.020085191963632773 -0.021289068758894737 -5.335049291232963e-09
-0.020918149812828326 -0.020570347548999175 0.002174483146518469
-0.0210664424754766 -0.020411202632083757 -5.534470659540602e-09
-0.021133382506750405 -0.020335267931353262 0.002174483146518469
-0.021770847334714728 -0.019496691014513366 -5.2633177816119314e-09
-0.021898753940224995 -0.019293179435497576 -5.351629805971925e-09
-0.021900141367126983 -0.01929046431649714 0.002174482913687825
-0.022022019714435476 -0.019079370704820638 -5.243531830956272e-09
-0.02202078829087774 -0.0190814442985054 0.002174482913687825
-0.022128743045372715 -0.018875941757156435 -5.182354101407327e-09
-0.022128901410211864 -0.018875753292821488 0.002174482913687825
-0.022226849402920454 -0.018668838341711316 -4.899987970929942e-09
-0.02177344190568125 -0.01949294385752079 0.002174483146518469
-0.0197394645435054 -0.021497183771828004 0.002174482913687825
-0.02189963527173051 -0.014526162238313219 -5.656836332690318e-09
-0.022205992912181345 -0.01536578711586739 -5.644773981572371e-09
-0.021994546267544667 -0.014782211811438455 0.0021744833793491125
-0.02238720208115938 -0.01589422639343508 -5.6405036197304526e-09
-0.02248916269721931 -0.016232151219731976 -5.618454590461397e-09
-0.022488279697344783 -0.016228268389818057 0.0021744833793491125
-0.022515541340798795 -0.017775007824728083 -5.6487468036436894e-09
-0.022375495987994442 -0.01585802867332268 0.0021744833793491125
-0.02261708071313181 -0.01705422821035337 -5.67024915909542e-09
-0.02261195190221069 -0.0171959064215655 -5.167423822172168e-09
-0.022617079278387683 -0.01705341008991884 0.0021744833793491125
-0.02249644826429987 -0.01785179746248042 0.0021744833793491125
-0.022209294374000352 -0.01537555489695696 0.0021744833793491125
-0.02261130885868125 -0.017204634135419103 0.002174482913687825
-0.022590332210520113 -0.017392229656299815 0.002174483146518469
-0.02258499646956022 -0.01743253096225675 -5.091837174120428e-09
-0.022550132292705413 -0.01761768846877067 0.0021744833793491125
-0.022613655673180626 -0.016903022948893866 -5.2096522651368105e-09
-0.022613228866908426 -0.016903015754456345 0.002174483146518469
-0.022591508806405862 -0.016695511157971202 -5.825466775633004e-09
-0.022591880657525917 -0.016696957599313448 0.002174483612179756
-0.022550279187372888 -0.016474318297860467 -5.5860858161338456e-09
-0.02255146052493081 -0.01648048305753025 0.0021744833793491125
-0.020487279530530887 -0.01222660636908487 -5.605375275052893e-09
-0.020697180828527874 -0.012418435913061547 -5.300677674568988e-09
-0.02070360286261321 -0.012424913263022249 0.002174482913687825
-0.02083498218485314 -0.012557785189952453 -5.197178687410542e-09
-0.020836700960205633 -0.0125594767818112 0.002174482913687825
-0.02095234409426671 -0.012690010699771988 0.0021744822151958942
-0.021064111843983234 -0.01283075802837835 -5.260812674379167e-09
-0.021209153473822642 -0.013038515574086779 -5.570039984803543e-09
-0.021207926659148703 -0.013035980891020057 0.002174482913687825
-0.021374264260980613 -0.013320664321999784 -5.184777496225479e-09
-0.021547509333089205 -0.013670891980807204 -5.610889530771601e-09
-0.021512207073516993 -0.013595969775639247 0.002174483146518469
-0.02180348644139858 -0.014277699068144356 0.0021744833793491125
-0.02164009349432967 -0.013880727402753588 0.0021744833793491125
-0.0217060007744504 -0.01403675724328499 -5.64634516919682e-09
-0.020953648489357487 -0.012691470551897467 -4.560074540194137e-09
-0.020430888370424515 -0.01217661482133522 0.0021744833793491125
-0.021372693496684372 -0.01331848079551217 0.002174483146518469
-0.02106503345462532 -0.01283174074293832 0.002174482913687825
-0.020110395268932192 -0.011928798328392888 -5.634809507881755e-09
-0.019983935131146043 -0.011841654899314089 0.0021744833793491125
-0.019914726782903156 -0.011795662412183005 -5.569459116117059e-09
-0.017065726845792932 -0.01092739232204547 0.0021744784899055958
-0.01683220912863733 -0.010929316387571449 -5.4480615574448166e-09
-0.017283286885728142 -0.010934562839703876 -5.489856569340645e-09
-0.020178705364271167 -0.011977736219976288 0.002174483146518469
-0.020292800700534287 -0.012064700128641177 -5.492474031143502e-09
-0.019782056221745982 -0.011713237302455068 0.0021744838450104
-0.019511679603585345 -0.011561817621347633 0.002174483146518469
-0.01968568300798122 -0.011657183302257365 -5.200359698420698e-09
-0.019472363265571935 -0.011541613783032777 -5.6669526848907026e-09
-0.019014775499529155 -0.011331364490858543 -4.607934922518098e-09
-0.019249777823519745 -0.011433143211541603 -5.290878402064436e-09
-0.01926377526692362 -0.011439194388223382 0.002174482913687825
-0.01683270033604124 -0.010929696579027136 0.0021744822151958942
-0.01661526862237282 -0.01094324671260046 -5.533463465212662e-09
-0.016606898647680782 -0.010944223732519206 0.0021744833793491125
-0.018700285752770357 -0.011215001906335164 0.002174483146518469
-0.018465290105871102 -0.011141536276197371 0.0021744833793491125
-0.018698924987067805 -0.011214228585784577 -5.306076911182345e-09
-0.018940467883678376 -0.011302453152684369 0.002174483146518469
-0.018229027717635182 -0.011078545703679167 -5.544109171751188e-09
-0.017990181277662665 -0.011025564148040526 0.002174482913687825
-0.017991480126116264 -0.01102602303308053 -5.309354289551038e-09
-0.01776564191691038 -0.010986311060136724 0.002174481749534607
-0.017759613701683507 -0.010985351493809834 -4.085860094704685e-09
-0.017529412401441225 -0.010955201888663973 -5.270383240940646e-09
-0.017289544443669976 -0.010935074209964962 0.002174483146518469
-0.018473451019975606 -0.011143949562375698 -5.639755773501065e-09
-0.01823131732089519 -0.01107890563195487 0.002174483146518469
-0.01752484078172942 -0.01095457639783293 0.002174482913687825
-0.015482668620925859 -0.011076306403181123 -5.670415692549113e-09
-0.015482668620925859 -0.011076306403181123 0.0021744833793491125
-0.01618455079737397 -0.00906462973604517 -5.671565439513415e-09
-0.016183885455645575 -0.009066276279103306 0.0021744833793491125
-0.019147563984938932 -0.00452689863315926 -5.592506013840648e-09
-0.018851540600687354 -0.004803191536706529 -5.670415692549113e-09
-0.018850996983334384 -0.004803707538025154 0.0021744833793491125
-0.01861051845119024 -0.0050449173769949365 0.0021744833793491125
-0.018609721266689788 -0.005045760558197184 -5.66855984374115e-09
-0.018376305398494094 -0.005296773591109746 0.0021744833793491125
-0.017935877275154034 -0.005822816314738486 0.0021744833793491125
-0.018151038244907002 -0.005556589961254314 0.0021744833793491125
-0.01793375503181452 -0.0058255193968850495 -5.663674862432799e-09
-0.01772439916996309 -0.0061037767489912804 0.0021744833793491125
-0.017525739257904967 -0.006387385016131751 0.0021744833793491125
-0.01752297840060534 -0.0063914404695956705 -5.657644575052245e-09
-0.017332344021537695 -0.006684088189317654 0.0021744833793491125
-0.017329316427784746 -0.006688873044106475 -5.656344725935014e-09
-0.017146639666923216 -0.006990684044648235 0.0021744833793491125
-0.017144116311674524 -0.006994978132867834 -5.659719359840665e-09
-0.01696654553315434 -0.007311117235151155 0.0021744833793491125
-0.016798056959670033 -0.0076344255447625 0.0021744833793491125
-0.01679636091429876 -0.007637771333224961 -5.66595259599012e-09
-0.01663365775070874 -0.007974848258945639 0.0021744833793491125
-0.016479411801107083 -0.008320233675492597 0.0021744833793491125
-0.01647842565950614 -0.008322485588897472 -5.668630898014726e-09
-0.016331125687868545 -0.008679431260126717 0.0021744833793491125
-0.016330562443555158 -0.008680846388579345 -5.669729574719895e-09
-0.016635030322525394 -0.007971945283661427 -5.670415692549113e-09
-0.016968567458740782 -0.007307395151866879 -5.670415692549113e-09
-0.017726896369971254 -0.006100369297613581 -5.670415692549113e-09
-0.018152766577371544 -0.005554533726074913 -5.670415692549113e-09
-0.018377618719810144 -0.005295314399387596 -5.670415692549113e-09
-0.01916139416643348 -0.004514837019837125 0.0021744833793491125
-0.02100595064984012 -0.003362956895051794 0.0021744833793491125
-0.021015822227401823 -0.0033587098134173635 -5.653611800937597e-09
-0.02071342691445546 -0.003496485642707207 -5.726666696403981e-09
-0.020297781706467517 -0.0037085022921669775 0.002174483612179756
-0.020473042239217715 -0.003615603288877394 -5.0657424921496386e-09
-0.020244578653236825 -0.003739083808032015 -5.570791827835819e-09
-0.0200601009121781 -0.00384756372135892 -5.5967546153112835e-09
-0.02006471124254676 -0.003844818291407399 0.002174483146518469
-0.019856672237991646 -0.003977628214205844 -5.2705209085956994e-09
-0.019861281805948976 -0.003974455900759919 0.002174482913687825
-0.01965007445548454 -0.00412204950620459 -5.3521489462582394e-09
-0.019655815488970847 -0.004117814225026646 0.002174483146518469
-0.019447432845067055 -0.00427739475178789 -5.370486722000578e-09
-0.02135253131592711 -0.0032159513279292687 0.0021744833793491125
-0.021486952433147414 -0.00316120039902632 -5.659226864906941e-09
-0.019446035923890017 -0.00427840369137132 0.002174483146518469
-0.02070694472325804 -0.0034994416052112013 0.0021744833793491125
-0.02286192913674424 -0.002643328377169606 0.0021744833793491125
-0.022118621541635436 -0.0029185917827109927 -5.661312307836397e-09
