ply
format ascii 1.0
element vertex 753
property float x
property float y
property float z
end_header
0.008620907552540302 0.004875717684626579 -0.12529999017715454
0.0419808030128479 0.005280406679958105 -0.13570000231266022
0.042627543210983276 0.005272624082863331 -0.1354999989271164
-0.03353710472583771 0.0046111661940813065 -0.13689999282360077
-0.0328211709856987 0.0046111661940813065 -0.13689999282360077
-0.03215213865041733 0.0046179024502635 -0.1370999962091446
-0.031458087265491486 0.004621271044015884 -0.1371999979019165
-0.030762987211346626 0.004624639172106981 -0.13729999959468842
-0.006419453304260969 0.00420023687183857 -0.12469999492168427
-0.005776569712907076 0.004206973593682051 -0.12489999830722809
-0.005123389419168234 0.004206973593682051 -0.12489999830722809
-0.004470209591090679 0.004206973593682051 -0.12489999830722809
-0.0038323099724948406 0.004223814699798822 -0.12539999186992645
-0.0032246443443000317 0.004287811927497387 -0.12729999423027039
0.0073628732934594154 0.004250760655850172 -0.12619999051094055
0.0080101378262043 0.004244024399667978 -0.12600000202655792
0.04194986820220947 0.004567378666251898 -0.1356000006198883
0.042627543210983276 0.004564010538160801 -0.1354999989271164
-0.034303080290555954 0.003900921205058694 -0.1370999962091446
-0.03358610346913338 0.003900921205058694 -0.1370999962091446
-0.0328691229224205 0.003900921205058694 -0.1370999962091446
-0.03215213865041733 0.003900921205058694 -0.1370999962091446
-0.031458087265491486 0.003903766628354788 -0.1371999979019165
-0.005115185398608446 0.0035481026861816645 -0.12469999492168427
-0.004470209591090679 0.0035537932999432087 -0.12489999830722809
-0.003823142033070326 0.0035594841465353966 -0.1251000016927719
-0.0032018464989960194 0.0035964730195701122 -0.12639999389648438
0.04201174154877663 0.0038639323320239782 -0.13580000400543213
0.04265900328755379 0.003858241718262434 -0.1356000006198883
-0.034303080290555954 0.0031839399598538876 -0.1370999962091446
-0.03358610346913338 0.0031839399598538876 -0.1370999962091446
-0.0328691229224205 0.0031839399598538876 -0.1370999962091446
-0.03215213865041733 0.0031839399598538876 -0.1370999962091446
-0.03148101642727852 0.0031885849311947823 -0.13729999959468842
-0.003810917492955923 0.002895968733355403 -0.12469999492168427
-0.0031638499349355698 0.002900613471865654 -0.12489999830722809
-0.0025267512537539005 0.002919192425906658 -0.1256999969482422
0.04201174154877663 0.003153749741613865 -0.13580000400543213
0.0426904633641243 0.0031514272559434175 -0.13570000231266022
-0.03576311096549034 0.002468758262693882 -0.1371999979019165
-0.03502006083726883 0.002466958947479725 -0.1370999962091446
-0.034303080290555954 0.002466958947479725 -0.1370999962091446
-0.03353710472583771 0.002463360084220767 -0.13689999282360077
-0.0328211709856987 0.002463360084220767 -0.13689999282360077
-0.03215213865041733 0.002466958947479725 -0.1370999962091446
-0.0031638499349355698 0.002247433876618743 -0.12489999830722809
-0.0025207207072526217 0.002256430685520172 -0.12539999186992645
0.023304231464862823 0.00241837534122169 -0.13439999520778656
0.02391778491437435 0.002409378532320261 -0.1339000016450882
0.04065115377306938 0.002447165548801422 -0.13599999248981476
0.04133196547627449 0.002445366233587265 -0.13589999079704285
0.0419808030128479 0.002441767603158951 -0.13570000231266022
0.0426904633641243 0.002441767603158951 -0.13570000231266022
-0.03502006083726883 0.0017499775858595967 -0.1370999962091446
-0.034253038465976715 0.0017474247142672539 -0.13689999282360077
-0.03353710472583771 0.0017474247142672539 -0.13689999282360077
-0.0328211709856987 0.0017474247142672539 -0.13689999282360077
-0.03215213865041733 0.0017499775858595967 -0.1370999962091446
-0.002510670106858015 0.0015942538157105446 -0.12489999830722809
0.01930401287972927 0.001673392136581242 -0.13109999895095825
0.01998961716890335 0.001673392136581242 -0.13109999895095825
0.020659448578953743 0.0016721157589927316 -0.13099999725818634
0.02140970528125763 0.0016772215021774173 -0.131400004029274
0.02216414175927639 0.0016823271289467812 -0.13179999589920044
0.0228707455098629 0.0016836035065352917 -0.13189999759197235
0.023739159107208252 0.001696367864497006 -0.13289999961853027
0.02412162534892559 0.0016746686305850744 -0.13120000064373016
0.024732116609811783 0.0016695628874003887 -0.13079999387264252
0.025241268798708916 0.0016580750234425068 -0.1298999935388565
0.04124072939157486 0.00173083133995533 -0.1356000006198883
0.04185705631971359 0.0017270019743591547 -0.13529999554157257
-0.03502006083726883 0.0010329963406547904 -0.1370999962091446
-0.034303080290555954 0.0010329963406547904 -0.1370999962091446
-0.03353710472583771 0.0010314893443137407 -0.13689999282360077
-0.0328211709856987 0.0010314893443137407 -0.13689999282360077
0.01787867769598961 0.0010239547118544579 -0.13589999079704285
0.017672911286354065 0.0009734727791510522 -0.12919999659061432
0.018291769549250603 0.0009704589028842747 -0.12879998981952667
0.018935898318886757 0.0009689520811662078 -0.12860000133514404
0.01962367445230484 0.0009697055211290717 -0.12870000302791595
0.020359808579087257 0.0009727193391881883 -0.1290999948978424
0.02111642062664032 0.0009764867136254907 -0.12960000336170197
0.02199597656726837 0.0009855282260105014 -0.13079999387264252
0.02338191121816635 0.0009862816659733653 -0.13089999556541443
0.024029696360230446 0.0009847746696323156 -0.1306999921798706
0.0245430339127779 0.0009779935935512185 -0.1297999918460846
0.025027524679899216 0.0009704589028842747 -0.12879998981952667
0.025621283799409866 0.000967445143032819 -0.12839999794960022
0.026149427518248558 0.0009621708886697888 -0.12770000100135803
0.04044191911816597 0.0010194339556619525 -0.13529999554157257
0.0410582460463047 0.001017173519358039 -0.13499999046325684
0.04176424443721771 0.001017173519358039 -0.13499999046325684
-0.03504560515284538 0.00031624556868337095 -0.1371999979019165
-0.034303080290555954 0.0003160150663461536 -0.1370999962091446
-0.03358610346913338 0.0003160150663461536 -0.1370999962091446
-0.0328691229224205 0.0003160150663461536 -0.1370999962091446
0.015967857092618942 0.0002913515781983733 -0.12639999389648438
0.016602570191025734 0.00029089057352393866 -0.12619999051094055
0.017262548208236694 0.00029089057352393866 -0.12619999051094055
0.017965132370591164 0.00029158208053559065 -0.1264999955892563
0.01870030350983143 0.0002927345922216773 -0.12700000405311584
0.0194864459335804 0.00029457861091941595 -0.12780000269412994
0.020249415189027786 0.0002959615958388895 -0.12839999794960022
0.02189507894217968 0.0003001105797011405 -0.13019999861717224
0.02266267128288746 0.0003012630622833967 -0.1306999921798706
0.023364048451185226 0.00030149356462061405 -0.13079999387264252
0.024011310189962387 0.0003010325599461794 -0.1305999904870987
0.02442958392202854 0.00029780558543279767 -0.12919999659061432
0.025008095428347588 0.00029665310285054147 -0.12870000302791595
0.025581374764442444 0.0002955005911644548 -0.1281999945640564
0.02604703977704048 0.0002931955677922815 -0.12719999253749847
0.026502246037125587 0.00029089057352393866 -0.12619999051094055
0.040262576192617416 0.0003104830684605986 -0.1347000002861023
0.04090617969632149 0.0003100220637861639 -0.13449999690055847
-0.03576311096549034 -0.0004012586723547429 -0.1371999979019165
-0.03504560515284538 -0.0004012586723547429 -0.1371999979019165
-0.03432810306549072 -0.0004012586723547429 -0.1371999979019165
-0.03363509848713875 -0.0004015511367470026 -0.13729999959468842
-0.032917071133852005 -0.0004015511367470026 -0.13729999959468842
0.015318943187594414 -0.00036996518610976636 -0.1264999955892563
0.01592995971441269 -0.00036879535764455795 -0.12610000371932983
0.016576260328292847 -0.00036850289325229824 -0.12600000202655792
0.017262548208236694 -0.00036908776382915676 -0.12619999051094055
0.01793672889471054 -0.0003693802282214165 -0.12629999220371246
0.02459975890815258 -0.00038049384602345526 -0.13009999692440033
0.025105250999331474 -0.0003778616664931178 -0.12919999659061432
0.025681147351861 -0.0003763993736356497 -0.12870000302791595
0.026169905439019203 -0.0003737672232091427 -0.12780000269412994
0.026544246822595596 -0.00036967272171750665 -0.12639999389648438
0.027097655460238457 -0.00036821039975620806 -0.125900000333786
0.038940247148275375 -0.00039482448482885957 -0.13499999046325684
0.03949941322207451 -0.00039336219197139144 -0.13449999690055847
0.04008323326706886 -0.0003921923052985221 -0.13409999012947083
0.04075411334633827 -0.0003918998991139233 -0.1340000033378601
-0.03568490967154503 -0.0011163166491314769 -0.13689999282360077
-0.03502006083726883 -0.0011179475113749504 -0.1370999962091446
-0.03432810306549072 -0.0011187628842890263 -0.1371999979019165
-0.03361060097813606 -0.0011187628842890263 -0.1371999979019165
-0.032893095165491104 -0.0011187628842890263 -0.1371999979019165
0.01463422179222107 -0.001029881532303989 -0.12629999220371246
0.015258395113050938 -0.0010274354135617614 -0.12600000202655792
0.01590469479560852 -0.0010266199242323637 -0.125900000333786
0.016576260328292847 -0.0010274354135617614 -0.12600000202655792
0.02541615068912506 -0.0010665756417438388 -0.13079999387264252
0.026565246284008026 -0.0010315123945474625 -0.1264999955892563
0.027140703052282333 -0.0010282507864758372 -0.12610000371932983
0.03932320699095726 -0.0010918539483100176 -0.1339000016450882
0.03993378207087517 -0.0010894075967371464 -0.13359999656677246
0.040480393916368484 -0.0010853304993361235 -0.1331000030040741
-0.03563277795910835 -0.0018295750487595797 -0.13669998943805695
-0.03494343161582947 -0.001830913475714624 -0.13679999113082886
-0.034253038465976715 -0.0018322517862543464 -0.13689999282360077
-0.03353710472583771 -0.0018322517862543464 -0.13689999282360077
-0.0328211709856987 -0.0018322517862543464 -0.13689999282360077
0.013962656259536743 -0.0016890444094315171 -0.12619999051094055
0.014587875455617905 -0.001685029361397028 -0.125900000333786
0.015234175138175488 -0.0016836909344419837 -0.1257999986410141
0.01590469479560852 -0.001685029361397028 -0.125900000333786
0.02637467533349991 -0.0017238424625247717 -0.12879998981952667
0.0267962496727705 -0.0017077819211408496 -0.12759999930858612
0.027162224054336548 -0.0016890444094315171 -0.12619999051094055
0.0375838503241539 -0.0018094992265105247 -0.13519999384880066
0.03800767660140991 -0.0017961154226213694 -0.13419999182224274
0.038565270602703094 -0.0017894235206767917 -0.13369999825954437
0.03917636722326279 -0.0017854082398116589 -0.13339999318122864
0.039545200765132904 -0.0017706860089674592 -0.1322999894618988
0.03984170779585838 -0.0017532870406284928 -0.13099999725818634
-0.03558064624667168 -0.0025407420471310616 -0.13650000095367432
-0.03489234670996666 -0.0025426035281270742 -0.13660000264644623
-0.034202996641397476 -0.0025444645434617996 -0.13669998943805695
-0.033488109707832336 -0.0025444645434617996 -0.13669998943805695
-0.0327732227742672 -0.0025444645434617996 -0.13669998943805695
0.013302678242325783 -0.002349022775888443 -0.12619999051094055
0.013929465785622597 -0.002343439031392336 -0.125900000333786
0.014576287940144539 -0.002341577550396323 -0.1257999986410141
0.015234175138175488 -0.002341577550396323 -0.1257999986410141
0.02649754099547863 -0.002408586209639907 -0.12939999997615814
0.026922250166535378 -0.0023862498346716166 -0.1281999945640564
0.03660404682159424 -0.0024979307781904936 -0.13419999182224274
0.03716687113046646 -0.0024886243045330048 -0.13369999825954437
0.037724461406469345 -0.0024793173652142286 -0.13319998979568481
0.038161441683769226 -0.0024625652004033327 -0.1322999894618988
0.03853028267621994 -0.0024420905392616987 -0.13120000064373016
0.03891750052571297 -0.0024234771262854338 -0.13019999861717224
-0.03555458039045334 -0.003252201247960329 -0.1363999992609024
-0.03484125807881355 -0.003252201247960329 -0.1363999992609024
-0.034127939492464066 -0.003252201247960329 -0.1363999992609024
-0.03341462090611458 -0.003252201247960329 -0.1363999992609024
-0.03270129859447479 -0.003252201247960329 -0.1363999992609024
0.012642700225114822 -0.0030090012587606907 -0.12619999051094055
0.013281597755849361 -0.0030042328871786594 -0.12600000202655792
0.013918401673436165 -0.002999464049935341 -0.1257999986410141
0.014576287940144539 -0.002999464049935341 -0.1257999986410141
0.015234175138175488 -0.002999464049935341 -0.1257999986410141
0.0261201411485672 -0.0031210638117045164 -0.13089999556541443
0.026579447090625763 -0.0030948363710194826 -0.1297999918460846
0.027048250660300255 -0.003070993348956108 -0.12879998981952667
0.0356079526245594 -0.0031735189259052277 -0.1331000030040741
0.03616763651371002 -0.0031615972984582186 -0.13259999454021454
0.03661089390516281 -0.0031401384621858597 -0.13169999420642853
0.0371013842523098 -0.0031234482303261757 -0.13099999725818634
0.03755570948123932 -0.003104373812675476 -0.13019999861717224
0.037825457751750946 -0.003070993348956108 -0.12879998981952667
-0.034790173172950745 -0.003959706984460354 -0.13619999587535858
-0.0341029167175293 -0.003962614107877016 -0.1362999975681305
-0.03339012339711189 -0.003962614107877016 -0.1362999975681305
-0.03270129859447479 -0.003965521696954966 -0.1363999992609024
0.012612647376954556 -0.0036602579057216644 -0.125900000333786
0.01326051540672779 -0.0036573505494743586 -0.1257999986410141
0.013918401673436165 -0.0036573505494743586 -0.1257999986410141
0.0266408808529377 -0.003782363375648856 -0.13009999692440033
0.026964250952005386 -0.0037329397164285183 -0.12839999794960022
0.02742050215601921 -0.0037038668524473906 -0.1273999959230423
0.034256141632795334 -0.0037968994583934546 -0.1305999904870987
0.03491238132119179 -0.003793992567807436 -0.13050000369548798
0.03545846417546272 -0.0037794560194015503 -0.12999999523162842
0.03591592609882355 -0.0037561978679150343 -0.12919999659061432
0.03642166778445244 -0.0037387541960924864 -0.12860000133514404
0.037036504596471786 -0.0037329397164285183 -0.12839999794960022
-0.035502444952726364 -0.004671981558203697 -0.13619999587535858
-0.034790173172950745 -0.004671981558203697 -0.13619999587535858
-0.03407789766788483 -0.004671981558203697 -0.13619999587535858
-0.03339012339711189 -0.004675411619246006 -0.1362999975681305
-0.03267732635140419 -0.004675411619246006 -0.1362999975681305
0.012592610903084278 -0.00431180652230978 -0.1256999969482422
0.013249973766505718 -0.00431180652230978 -0.1256999969482422
0.02557160146534443 -0.0045141903683543205 -0.13159999251365662
0.026180004701018333 -0.004500469658523798 -0.13120000064373016
0.026661358773708344 -0.004466167185455561 -0.13019999861717224
0.027162224054336548 -0.004328957758843899 -0.12619999051094055
0.03154132887721062 -0.004387271590530872 -0.12789998948574066
0.03218501806259155 -0.004383841995149851 -0.12780000269412994
0.03293048217892647 -0.004394132178276777 -0.12809999287128448
0.033652856945991516 -0.004400992766022682 -0.1282999962568283
0.034350570291280746 -0.004404423292726278 -0.12839999794960022
0.03496750071644783 -0.004397562704980373 -0.1281999945640564
0.035554543137550354 -0.004387271590530872 -0.12789998948574066
-0.035502444952726364 -0.0053842561319470406 -0.13619999587535858
-0.034790173172950745 -0.0053842561319470406 -0.13619999587535858
-0.03407789766788483 -0.0053842561319470406 -0.13619999587535858
-0.03339012339711189 -0.005388209130614996 -0.1362999975681305
-0.03270129859447479 -0.005392162594944239 -0.1363999992609024
0.012552537955343723 -0.004953356925398111 -0.12529999017715454
0.01321835070848465 -0.004957310389727354 -0.12539999186992645
0.02557160146534443 -0.005202408879995346 -0.13159999251365662
0.026160050183534622 -0.0051826429553329945 -0.13109999895095825
0.026702312752604485 -0.005154970567673445 -0.13040000200271606
0.027140703052282333 -0.004984983243048191 -0.12610000371932983
0.027645833790302277 -0.004957310389727354 -0.12539999186992645
0.0282564926892519 -0.004949404392391443 -0.12520000338554382
0.030389703810214996 -0.004977076780050993 -0.125900000333786
0.031072774901986122 -0.004981029778718948 -0.12600000202655792
0.03178207203745842 -0.004988935776054859 -0.12619999051094055
0.0324934646487236 -0.004996842239052057 -0.12639999389648438
0.03320695087313652 -0.005004749167710543 -0.1265999972820282
0.03389577567577362 -0.005008702166378498 -0.1266999989748001
0.03455836698412895 -0.005008702166378498 -0.1266999989748001
-0.034815713763237 -0.006101007107645273 -0.1362999975681305
-0.034127939492464066 -0.0061054835096001625 -0.1363999992609024
-0.03341462090611458 -0.0061054835096001625 -0.1363999992609024
-0.03270129859447479 -0.0061054835096001625 -0.1363999992609024
0.012532503344118595 -0.005599677562713623 -0.1251000016927719
0.02512919344007969 -0.005948817823082209 -0.13289999961853027
0.02555217035114765 -0.005886150989681482 -0.1314999908208847
0.02610018663108349 -0.0058548180386424065 -0.13079999387264252
0.026354201138019562 -0.005760819185525179 -0.12870000302791595
0.026565246284008026 -0.005662343464791775 -0.1264999955892563
0.027033085003495216 -0.00562205770984292 -0.12559999525547028
0.027579696848988533 -0.005599677562713623 -0.1251000016927719
0.028233923017978668 -0.005599677562713623 -0.1251000016927719
0.028957422822713852 -0.005613105371594429 -0.12539999186992645
0.02966044843196869 -0.00562205770984292 -0.12559999525547028
0.030365565791726112 -0.005631010513752699 -0.1257999986410141
0.031048113480210304 -0.005635486450046301 -0.125900000333786
0.03173170983791351 -0.00563996285200119 -0.12600000202655792
0.03241634741425514 -0.0056444392539560795 -0.12610000371932983
0.03310202807188034 -0.005648914724588394 -0.12619999051094055
-0.034127939492464066 -0.006818803958594799 -0.1363999992609024
-0.033439118415117264 -0.006823803298175335 -0.13650000095367432
-0.03272527456283569 -0.006823803298175335 -0.13650000095367432
-0.0048567452467978 -0.006783810444176197 -0.13570000231266022
0.01187827717512846 -0.006253903266042471 -0.1251000016927719
0.01249243039637804 -0.006233906373381615 -0.12469999492168427
0.013186728581786156 -0.006253903266042471 -0.1251000016927719
0.013874145224690437 -0.006268899887800217 -0.12539999186992645
0.014553113840520382 -0.0062788985669612885 -0.12559999525547028
0.025167010724544525 -0.006653833203017712 -0.1331000030040741
0.02557160146534443 -0.006578845903277397 -0.13159999251365662
0.02596050687134266 -0.00650385906919837 -0.13009999692440033
0.02637467533349991 -0.00643886998295784 -0.12879998981952667
0.026502246037125587 -0.0063088927417993546 -0.12619999051094055
0.02699003927409649 -0.006268899887800217 -0.12539999186992645
0.027579696848988533 -0.006253903266042471 -0.1251000016927719
0.028279058635234833 -0.006263901013880968 -0.12529999017715454
0.028957422822713852 -0.006268899887800217 -0.12539999186992645
0.02966044843196869 -0.0062788985669612885 -0.12559999525547028
0.030365565791726112 -0.006288896780461073 -0.1257999986410141
0.031048113480210304 -0.006293896120041609 -0.125900000333786
0.03173170983791351 -0.006298895459622145 -0.12600000202655792
0.03239063918590546 -0.006298895459622145 -0.12600000202655792
-0.034177981317043304 -0.0075431689620018005 -0.13660000264644623
-0.033488109707832336 -0.007548690307885408 -0.13669998943805695
-0.0327732227742672 -0.007548690307885408 -0.13669998943805695
-0.03205833211541176 -0.007548690307885408 -0.13669998943805695
-0.004842428490519524 -0.0074713812209665775 -0.13529999554157257
-0.00414708536118269 -0.00749346986413002 -0.13570000231266022
-0.0034424914047122 -0.0075045134872198105 -0.13589999079704285
0.011840296909213066 -0.006886040326207876 -0.12469999492168427
0.01249243039637804 -0.006886040326207876 -0.12469999492168427
0.01316564716398716 -0.006897084414958954 -0.12489999830722809
0.013852018862962723 -0.006913651246577501 -0.12520000338554382
0.014518353156745434 -0.006919172592461109 -0.12529999017715454
0.015318943187594414 -0.006985437590628862 -0.1264999955892563
0.016132084652781487 -0.007051703054457903 -0.12770000100135803
0.025532741099596024 -0.007256020326167345 -0.131400004029274
0.026040324941277504 -0.007206321693956852 -0.13050000369548798
0.026067517697811127 -0.00702961441129446 -0.12729999423027039
0.026460247114300728 -0.006957827601581812 -0.12600000202655792
0.02699003927409649 -0.006924694404006004 -0.12539999186992645
0.027645833790302277 -0.006924694404006004 -0.12539999186992645
0.028301628306508064 -0.006924694404006004 -0.12539999186992645
-0.034202996641397476 -0.008263579569756985 -0.13669998943805695
-0.033488109707832336 -0.008263579569756985 -0.13669998943805695
-0.0327971950173378 -0.008269624784588814 -0.13679999113082886
-0.032081782817840576 -0.008269624784588814 -0.13679999113082886
-0.014682977460324764 -0.008142678998410702 -0.1347000002861023
-0.013978547416627407 -0.008142678998410702 -0.1347000002861023
-0.004140973091125488 -0.00819103978574276 -0.1354999989271164
-0.0034399586729705334 -0.008209174498915672 -0.13580000400543213
0.011840296909213066 -0.00753817381337285 -0.12469999492168427
0.012472394853830338 -0.007526084315031767 -0.12449999898672104
0.01314456481486559 -0.00753817381337285 -0.12469999492168427
0.013818826526403427 -0.0075502642430365086 -0.12489999830722809
0.014495180919766426 -0.007562354672700167 -0.1251000016927719
0.015258395113050938 -0.007616760209202766 -0.12600000202655792
0.015980489552021027 -0.00764698488637805 -0.1264999955892563
0.01686568558216095 -0.00774975074455142 -0.1281999945640564
0.017727626487612724 -0.00783438142389059 -0.12960000336170197
-0.034228019416332245 -0.008985036984086037 -0.13679999113082886
-0.03351260721683502 -0.008985036984086037 -0.13679999113082886
-0.0328211709856987 -0.0089916056022048 -0.13689999282360077
-0.03210523724555969 -0.0089916056022048 -0.13689999282360077
-0.01606794446706772 -0.008833973668515682 -0.13449999690055847
-0.015364560298621655 -0.008833973668515682 -0.13449999690055847
-0.0034399586729705334 -0.008919358253479004 -0.13580000400543213
-0.0027358061634004116 -0.008939061313867569 -0.13609999418258667
0.014472005888819695 -0.008203445002436638 -0.12489999830722809
0.015149406157433987 -0.008216580376029015 -0.1251000016927719
0.0158415287733078 -0.008236284367740154 -0.12539999186992645
0.016589416190981865 -0.008282260969281197 -0.12610000371932983
0.017371978610754013 -0.008341372944414616 -0.12700000405311584
-0.03353710472583771 -0.009707540273666382 -0.13689999282360077
-0.0328691229224205 -0.009721722453832626 -0.1370999962091446
-0.03219904378056526 -0.00973590463399887 -0.13729999959468842
-0.03143515810370445 -0.009721722453832626 -0.1370999962091446
-0.01606794446706772 -0.009537357836961746 -0.13449999690055847
-0.015364560298621655 -0.009537357836961746 -0.13449999690055847
-0.002737816423177719 -0.009657904505729675 -0.13619999587535858
-0.002027028938755393 -0.009664995595812798 -0.1362999975681305
0.015803631395101547 -0.00887080654501915 -0.1251000016927719
0.0164710134267807 -0.008877897635102272 -0.12520000338554382
0.017207834869623184 -0.008920443244278431 -0.1257999986410141
-0.03353710472583771 -0.010423475876450539 -0.13689999282360077
-0.032893095165491104 -0.010446318425238132 -0.1371999979019165
-0.03222249448299408 -0.01046154648065567 -0.13740000128746033
-0.03150394558906555 -0.01046154648065567 -0.13740000128746033
-0.016091836616396904 -0.010255970060825348 -0.1347000002861023
-0.002737816423177719 -0.010370178148150444 -0.13619999587535858
-0.002027028938755393 -0.0103777926415205 -0.1362999975681305
-0.0013151956954970956 -0.010385407134890556 -0.1363999992609024
0.017084725201129913 -0.009509803727269173 -0.12489999830722809
-0.032893095165491104 -0.011163822375237942 -0.1371999979019165
-0.03219904378056526 -0.011171959340572357 -0.13729999959468842
-0.03150394558906555 -0.011180096305906773 -0.13740000128746033
-0.016758859157562256 -0.010935989208519459 -0.13439999520778656
-0.01606794446706772 -0.010944126173853874 -0.13449999690055847
-0.002030003350228071 -0.011106864549219608 -0.13650000095367432
-0.0013151956954970956 -0.011098727583885193 -0.1363999992609024
-0.0006018750718794763 -0.011098727583885193 -0.1363999992609024
0.017084725201129913 -0.010162984021008015 -0.12489999830722809
0.01773790456354618 -0.010162984021008015 -0.12489999830722809
-0.0328211709856987 -0.011855346150696278 -0.13689999282360077
-0.03215213865041733 -0.011872665956616402 -0.1370999962091446
-0.031458087265491486 -0.011881326325237751 -0.1371999979019165
-0.03067336417734623 -0.011855346150696278 -0.13689999282360077
-0.01679626666009426 -0.011664830148220062 -0.1347000002861023
-0.01606794446706772 -0.011647510342299938 -0.13449999690055847
-0.01533028855919838 -0.011621530167758465 -0.13419999182224274
-0.0018574901623651385 -0.010816163383424282 -0.12489999830722809
-0.0012062388705089688 -0.01083348412066698 -0.1251000016927719
-0.032081782817840576 -0.012562098912894726 -0.13679999113082886
-0.03136637061834335 -0.012562098912894726 -0.13679999113082886
-0.030628550797700882 -0.012552916072309017 -0.13669998943805695
-0.016091836616396904 -0.01236926019191742 -0.1347000002861023
-0.01533028855919838 -0.012323345057666302 -0.13419999182224274
-0.003810917492955923 -0.011450977995991707 -0.12469999492168427
-0.003158783772960305 -0.011450977995991707 -0.12469999492168427
-0.002510670106858015 -0.011469343677163124 -0.12489999830722809
-0.0018693875754252076 -0.011542806401848793 -0.1256999969482422
-0.001219737809151411 -0.011616268195211887 -0.1264999955892563
0.017207834869623184 -0.011551989242434502 -0.1257999986410141
0.017808912321925163 -0.011515256948769093 -0.12539999186992645
-0.03127465769648552 -0.013238688930869102 -0.1363999992609024
-0.030561337247490883 -0.013238688930869102 -0.1363999992609024
-0.029848016798496246 -0.013238688930869102 -0.1363999992609024
-0.01685861311852932 -0.013122218661010265 -0.13519999384880066
-0.016127675771713257 -0.013102807104587555 -0.13499999046325684
-0.015364560298621655 -0.013054278679192066 -0.13449999690055847
-0.014617572538554668 -0.01301545463502407 -0.13409999012947083
-0.004484525416046381 -0.012161345221102238 -0.12529999017715454
-0.00382925383746624 -0.012161345221102238 -0.12529999017715454
-0.003176515456289053 -0.01217105146497488 -0.12539999186992645
0.016602570191025734 -0.012248697690665722 -0.12619999051094055
0.017221512272953987 -0.012219581753015518 -0.125900000333786
0.017837315797805786 -0.012190463952720165 -0.12559999525547028
-0.030516523867845535 -0.01393155101686716 -0.13619999587535858
-0.029804250225424767 -0.01393155101686716 -0.13619999587535858
-0.02909197472035885 -0.01393155101686716 -0.13619999587535858
-0.015410254709422588 -0.013798578642308712 -0.13490000367164612
-0.014650274999439716 -0.013747433200478554 -0.13439999520778656
-0.013926658779382706 -0.01372697576880455 -0.13419999182224274
-0.004495262634009123 -0.012847304344177246 -0.12559999525547028
-0.0038445345126092434 -0.01286776177585125 -0.1257999986410141
0.016043655574321747 -0.012990507297217846 -0.12700000405311584
0.016602570191025734 -0.012908675707876682 -0.12619999051094055
0.01723519153892994 -0.012888220138847828 -0.12600000202655792
-0.029782366007566452 -0.014633073471486568 -0.13609999418258667
-0.029049254953861237 -0.014622322283685207 -0.13599999248981476
-0.028275517746806145 -0.01459006778895855 -0.13570000231266022
-0.01670898124575615 -0.01440728921443224 -0.1340000033378601
-0.013978547416627407 -0.014482550323009491 -0.1347000002861023
-0.0051562050357460976 -0.013514896854758263 -0.1256999969482422
-0.004502420779317617 -0.013525648042559624 -0.1257999986410141
-0.003853702684864402 -0.01355790439993143 -0.12610000371932983
0.014681811444461346 -0.014267516322433949 -0.13269999623298645
0.01546426210552454 -0.013729930855333805 -0.12770000100135803
0.016043655574321747 -0.013654669746756554 -0.12700000405311584
0.016602570191025734 -0.013568654656410217 -0.12619999051094055
0.017221512272953987 -0.01353640016168356 -0.125900000333786
-0.028985178098082542 -0.015299727208912373 -0.13570000231266022
-0.028192169964313507 -0.015254627913236618 -0.13529999554157257
-0.027322091162204742 -0.015164431184530258 -0.13449999690055847
-0.013274116441607475 -0.015186980366706848 -0.1347000002861023
-0.004509578924626112 -0.014206084422767162 -0.12600000202655792
0.014842785894870758 -0.014442851766943932 -0.12809999287128448
0.015379493124783039 -0.014318831264972687 -0.12700000405311584
0.015980489552021027 -0.014262457378208637 -0.1264999955892563
0.016589416190981865 -0.014217359013855457 -0.12610000371932983
0.017207834869623184 -0.014183535240590572 -0.1257999986410141
-0.02724083513021469 -0.01582062430679798 -0.13409999012947083
-0.026420798152685165 -0.015749838203191757 -0.13349999487400055
-0.014715677127242088 -0.015926802530884743 -0.13499999046325684
-0.0039025996811687946 -0.015065576881170273 -0.12770000100135803
0.014194998890161514 -0.015136362053453922 -0.1282999962568283
0.014692157506942749 -0.014959397725760937 -0.12680000066757202
0.015282613225281239 -0.014888610690832138 -0.12619999051094055
0.015917327255010605 -0.01486501656472683 -0.12600000202655792
-0.023870786651968956 -0.016139978542923927 -0.13099999725818634
-0.005152103025466204 -0.01547466591000557 -0.12559999525547028
-0.004534631967544556 -0.015610192902386189 -0.1266999989748001
-0.004027898423373699 -0.016238542273640633 -0.13179999589920044
-0.003379163797944784 -0.016435671597719193 -0.13339999318122864
0.01395159400999546 -0.01553627010434866 -0.12610000371932983
0.014587875455617905 -0.015511628240346909 -0.125900000333786
0.015246285125613213 -0.015511628240346909 -0.125900000333786
0.024599645286798477 -0.016484955325722694 -0.13379999995231628
0.025299368426203728 -0.016484955325722694 -0.13379999995231628
0.02599909156560898 -0.016484955325722694 -0.13379999995231628
0.02669881470501423 -0.016484955325722694 -0.13379999995231628
0.02748044580221176 -0.016534237191081047 -0.13419999182224274
-0.005123389419168234 -0.016041602939367294 -0.12489999830722809
-0.0040615154430270195 -0.01706908643245697 -0.13289999961853027
-0.003399428678676486 -0.017236052080988884 -0.13419999182224274
0.013852018862962723 -0.016080133616924286 -0.12520000338554382
0.014495180919766426 -0.01606728881597519 -0.1251000016927719
0.015161516144871712 -0.016080133616924286 -0.12520000338554382
0.023757021874189377 -0.017081931233406067 -0.13300000131130219
0.024470947682857513 -0.017094774171710014 -0.1331000030040741
0.025223733857274055 -0.017133302986621857 -0.13339999318122864
0.025901934131979942 -0.01712046004831791 -0.13329999148845673
0.026359593495726585 -0.016966339200735092 -0.13210000097751617
0.0270709041506052 -0.01697918213903904 -0.13220000267028809
-0.00406457157805562 -0.017777470871806145 -0.13300000131130219
-0.0034044950734823942 -0.017964601516723633 -0.13439999520778656
-0.0027277658227831125 -0.01813836582005024 -0.13570000231266022
-0.0020210801158100367 -0.018165098503232002 -0.13589999079704285
-0.001310374471358955 -0.018165098503232002 -0.13589999079704285
-0.0005996687104925513 -0.018165098503232002 -0.13589999079704285
0.00011095522495452315 -0.01815173402428627 -0.13580000400543213
0.013774571008980274 -0.016641315072774887 -0.12449999898672104
0.014425658620893955 -0.016641315072774887 -0.12449999898672104
0.015076747164130211 -0.016641315072774887 -0.12449999898672104
0.01575309969484806 -0.01666804775595665 -0.12469999492168427
0.021018657833337784 -0.017242807894945145 -0.1289999932050705
0.0219455286860466 -0.017443308606743813 -0.13050000369548798
0.023524809628725052 -0.01760370470583439 -0.13169999420642853
0.02414001151919365 -0.017550239339470863 -0.13130000233650208
0.02478884346783161 -0.0175235066562891 -0.13109999895095825
0.025357859209179878 -0.017443308606743813 -0.13050000369548798
0.025880688801407814 -0.017336374148726463 -0.12969999015331268
0.02645658515393734 -0.017269542440772057 -0.12919999659061432
0.02727925404906273 -0.017363106831908226 -0.1298999935388565
-0.003985113464295864 -0.018111884593963623 -0.13040000200271606
-0.0033766308333724737 -0.01851467788219452 -0.13329999148845673
-0.0026976135559380054 -0.018639681860804558 -0.13419999182224274
-0.002010669792070985 -0.01877857744693756 -0.13519999384880066
0.00011087352322647348 -0.018848026171326637 -0.13570000231266022
0.000821137975435704 -0.018861915916204453 -0.13580000400543213
0.014402484521269798 -0.017264625057578087 -0.12429999560117722
0.01505252718925476 -0.017264625057578087 -0.12429999560117722
0.015715202316641808 -0.017278514802455902 -0.12439999729394913
0.016378922387957573 -0.017292404547333717 -0.12449999898672104
0.017112083733081818 -0.01737574115395546 -0.1251000016927719
0.017865721136331558 -0.017472967505455017 -0.1257999986410141
0.018611954525113106 -0.01755630411207676 -0.12639999389648438
0.019532186910510063 -0.01779242418706417 -0.12809999287128448
0.020312495529651642 -0.01788965053856373 -0.12879998981952667
0.02111642062664032 -0.01800076849758625 -0.12960000336170197
0.021979160606861115 -0.01815355010330677 -0.1306999921798706
0.02268001064658165 -0.018167439848184586 -0.13079999387264252
0.0233461856842041 -0.01815355010330677 -0.1306999921798706
0.023882614448666573 -0.018042435869574547 -0.1298999935388565
0.02435394935309887 -0.01788965053856373 -0.12879998981952667
0.024891506880521774 -0.01779242418706417 -0.12809999287128448
0.025341926142573357 -0.0176396407186985 -0.12700000405311584
0.025903699919581413 -0.017570193856954575 -0.1264999955892563
0.026607248932123184 -0.017597973346710205 -0.1266999989748001
-0.0026895729824900627 -0.019283849745988846 -0.13379999995231628
-0.0020002597011625767 -0.019384736195206642 -0.13449999690055847
-0.0013016965240240097 -0.01945679634809494 -0.13499999046325684
-0.0005965799209661782 -0.01948562264442444 -0.13519999384880066
0.00011071010521845892 -0.019528860226273537 -0.1354999989271164
0.000821137975435704 -0.019572097808122635 -0.13580000400543213
0.0015335759380832314 -0.019600922241806984 -0.13599999248981476
0.014379311352968216 -0.01788584142923355 -0.12409999966621399
0.015040417201817036 -0.0179002545773983 -0.1241999939084053
0.01568993553519249 -0.0179002545773983 -0.1241999939084053
0.016352610662579536 -0.0179146658629179 -0.12429999560117722
0.017057368531823158 -0.017972316592931747 -0.12469999492168427
0.01773790456354618 -0.018001141026616096 -0.12489999830722809
0.018582504242658615 -0.01818850263953209 -0.12619999051094055
0.019440703094005585 -0.018375864252448082 -0.1274999976158142
0.020249415189027786 -0.018505576997995377 -0.12839999794960022
0.020953485742211342 -0.018534401431679726 -0.12860000133514404
0.021659646183252335 -0.018563225865364075 -0.12879998981952667
0.02233322151005268 -0.018563225865364075 -0.12879998981952667
0.022971075028181076 -0.018534401431679726 -0.12860000133514404
0.023588448762893677 -0.018491163849830627 -0.1282999962568283
0.024089233949780464 -0.018361452966928482 -0.1273999959230423
0.02456117421388626 -0.01821732707321644 -0.12639999389648438
0.025142382830381393 -0.01815967820584774 -0.12600000202655792
0.0257398821413517 -0.018116440623998642 -0.1256999969482422
0.02637624554336071 -0.018102027475833893 -0.12559999525547028
-0.0005793709424324334 -0.01961018703877926 -0.13130000233650208
0.00010907600517384708 -0.019938765093684196 -0.13349999487400055
0.000814486644230783 -0.02011799067258835 -0.1347000002861023
0.015677303075790405 -0.018534839153289795 -0.12409999966621399
0.0163262989372015 -0.018534839153289795 -0.12409999966621399
0.01701633259654045 -0.018579643219709396 -0.12439999729394913
0.017709501087665558 -0.018624449148774147 -0.12469999492168427
0.018508881330490112 -0.018773803487420082 -0.1256999969482422
0.01928822696208954 -0.0188932865858078 -0.1264999955892563
0.020060166716575623 -0.018997834995388985 -0.12719999253749847
0.02082313783466816 -0.019087448716163635 -0.12780000269412994
0.02152511477470398 -0.019117318093776703 -0.12799999117851257
0.022194506600499153 -0.019117318093776703 -0.12799999117851257
0.022792451083660126 -0.01905757747590542 -0.12759999930858612
0.02442515455186367 -0.018773803487420082 -0.1256999969482422
0.025535110384225845 -0.018624449148774147 -0.12469999492168427
0.026145244017243385 -0.01859457977116108 -0.12449999898672104
0.00010548099089646712 -0.01995675265789032 -0.1290999948978424
0.0008090446353890002 -0.020683296024799347 -0.13379999995231628
0.01842053420841694 -0.019338417798280716 -0.1251000016927719
0.01919674128293991 -0.019462084397673607 -0.125900000333786
0.019902460277080536 -0.01950845867395401 -0.12619999051094055
0.02426970563828945 -0.01930750161409378 -0.12489999830722809
0.025535110384225845 -0.019276583567261696 -0.12469999492168427
0.026145244017243385 -0.01924566738307476 -0.12449999898672104
0.00010221280535915866 -0.01999264396727085 -0.1251000016927719
0.0007624853169545531 -0.020152457058429718 -0.12610000371932983
0.0015301931416615844 -0.02168666571378708 -0.13570000231266022
0.02426970563828945 -0.019960680976510048 -0.12489999830722809
0.02492288500070572 -0.019960680976510048 -0.12489999830722809
0.025576064363121986 -0.019960680976510048 -0.12489999830722809
0.026229243725538254 -0.019960680976510048 -0.12489999830722809
-0.0011985250748693943 -0.02051483653485775 -0.12429999560117722
0.00010155915515497327 -0.02051483653485775 -0.12429999560117722
0.0007528105634264648 -0.02054784633219242 -0.12449999898672104
0.02436686120927334 -0.020696382969617844 -0.12539999186992645
0.02510247379541397 -0.020762400701642036 -0.1257999986410141
0.0257398821413517 -0.0207458958029747 -0.1256999969482422
-0.001851541455835104 -0.021198933944106102 -0.12449999898672104
-0.0005480416584759951 -0.021147850900888443 -0.1241999939084053
0.0001014774534269236 -0.021147850900888443 -0.1241999939084053
0.0007522059022448957 -0.021181905642151833 -0.12439999729394913
0.024522310122847557 -0.02148839458823204 -0.12619999051094055
0.0252421535551548 -0.0215394776314497 -0.1264999955892563
0.025883221998810768 -0.02152245119214058 -0.12639999389648438
-0.0005484828725457191 -0.021814920008182526 -0.12429999560117722
0.00010155915515497327 -0.021814920008182526 -0.12429999560117722
0.02407032437622547 -0.022341426461935043 -0.12729999423027039
0.025601329281926155 -0.022516928613185883 -0.1282999962568283
0.026210857555270195 -0.02246427722275257 -0.12799999117851257
-0.0012004534946754575 -0.022501109167933464 -0.12449999898672104
0.024467401206493378 -0.023386694490909576 -0.12939999997615814
0.025241268798708916 -0.023477060720324516 -0.1298999935388565
0.025920597836375237 -0.023477060720324516 -0.1298999935388565
0.02637467533349991 -0.02327825501561165 -0.12879998981952667
0.024029696360230446 -0.024305157363414764 -0.1306999921798706
0.02478884346783161 -0.024379542097449303 -0.13109999895095825
0.025474445894360542 -0.024379542097449303 -0.13109999895095825
0.02614009566605091 -0.02436094544827938 -0.13099999725818634
0.024996835738420486 -0.02527545765042305 -0.13220000267028809
0.02568819187581539 -0.02527545765042305 -0.13220000267028809
0.02629972994327545 -0.025198979303240776 -0.13179999589920044
-0.008039606735110283 -0.02549540065228939 -0.1297999918460846
0.024489330127835274 -0.02616323158144951 -0.13319998979568481
0.025167010724544525 -0.026143591850996017 -0.1331000030040741
0.02584364265203476 -0.026123948395252228 -0.13300000131130219
-0.009505814872682095 -0.026476683095097542 -0.13130000233650208
-0.007847597822546959 -0.025549091398715973 -0.1266999989748001
0.021735573187470436 -0.026900148019194603 -0.13339999318122864
0.023130837827920914 -0.026900148019194603 -0.13339999318122864
0.023828471079468727 -0.026900148019194603 -0.13339999318122864
0.02452610246837139 -0.026900148019194603 -0.13339999318122864
0.025223733857274055 -0.026900148019194603 -0.13339999318122864
-0.009172785095870495 -0.026211684569716454 -0.1266999989748001
-0.008483324199914932 -0.02612893097102642 -0.12629999220371246
-0.007804241497069597 -0.026066869497299194 -0.12600000202655792
-0.007133967243134975 -0.026025492697954178 -0.1257999986410141
0.01983410120010376 -0.027866724878549576 -0.1347000002861023
0.020462291315197945 -0.027763282880187035 -0.13419999182224274
0.02176816202700138 -0.027639156207442284 -0.13359999656677246
0.022450022399425507 -0.027618467807769775 -0.13349999487400055
0.023148177191615105 -0.027618467807769775 -0.13349999487400055
0.023828471079468727 -0.027597779408097267 -0.13339999318122864
0.02452610246837139 -0.027597779408097267 -0.13339999318122864
-0.008402722887694836 -0.026534903794527054 -0.1251000016927719
-0.007754690945148468 -0.026556113734841347 -0.12520000338554382
-0.0070999423041939735 -0.026556113734841347 -0.12520000338554382
0.01980465091764927 -0.02852873131632805 -0.13449999690055847
0.02044704370200634 -0.02844388596713543 -0.13409999012947083
0.021101025864481926 -0.02838025614619255 -0.13379999995231628
0.02176816202700138 -0.028337832540273666 -0.13359999656677246
0.022450022399425507 -0.028316622599959373 -0.13349999487400055
0.023130837827920914 -0.02829541079699993 -0.13339999318122864
0.023828471079468727 -0.02829541079699993 -0.13339999318122864
0.02452610246837139 -0.02829541079699993 -0.13339999318122864
-0.00843630637973547 -0.027297796681523323 -0.12559999525547028
-0.007798047736287117 -0.027363000437617302 -0.125900000333786
-0.007156650070101023 -0.027428200468420982 -0.12619999051094055
-0.006512116175144911 -0.027493402361869812 -0.1264999955892563
0.01905866153538227 -0.02916691266000271 -0.13419999182224274
0.019731028005480766 -0.029123447835445404 -0.1340000033378601
0.020401302725076675 -0.0290799792855978 -0.13379999995231628
0.02106948383152485 -0.0290365107357502 -0.13359999656677246
0.02175186760723591 -0.02901477739214897 -0.13349999487400055
0.02243320643901825 -0.028993042185902596 -0.13339999318122864
0.023130837827920914 -0.028993042185902596 -0.13339999318122864
-0.006063316948711872 -0.029178766533732414 -0.13109999895095825
-0.0053777131251990795 -0.029178766533732414 -0.13109999895095825
0.018315810710191727 -0.029801959171891212 -0.1339000016450882
0.019001856446266174 -0.029779702425003052 -0.13379999995231628
0.019672129303216934 -0.02973518893122673 -0.13359999656677246
0.020355558022856712 -0.02971293032169342 -0.13349999487400055
-0.0074742198921740055 -0.030023828148841858 -0.13179999589920044
-0.0068879141472280025 -0.030479425564408302 -0.13379999995231628
-0.0061465660110116005 -0.03027440793812275 -0.13289999961853027
-0.005455650854855776 -0.030297188088297844 -0.13300000131130219
-0.0047708479687571526 -0.03036552481353283 -0.13329999148845673
-0.004076795652508736 -0.030388304963707924 -0.13339999318122864
0.018261095508933067 -0.03041108511388302 -0.13349999487400055
0.01894504763185978 -0.030388304963707924 -0.13339999318122864
-0.007598979398608208 -0.03122575581073761 -0.1340000033378601
-0.0069445413537323475 -0.03143548220396042 -0.13490000367164612
-0.005537690129131079 -0.031458780169487 -0.13499999046325684
-0.004838849417865276 -0.031505387276411057 -0.13519999384880066
-0.004131804686039686 -0.031505387276411057 -0.13519999384880066
-0.003424759954214096 -0.031505387276411057 -0.13519999384880066
-0.00271972524933517 -0.031528688967227936 -0.13529999554157257
-0.0005970211932435632 -0.031528688967227936 -0.13529999554157257
0.01815166510641575 -0.030922817066311836 -0.13269999623298645
0.01866101659834385 -0.03061988390982151 -0.131400004029274
-0.007610320579260588 -0.031974174082279205 -0.13419999182224274
-0.0069445413537323475 -0.032140959054231644 -0.13490000367164612
-0.006252939812839031 -0.032212432473897934 -0.13519999384880066
-0.005545894615352154 -0.032212432473897934 -0.13519999384880066
-0.004842428490519524 -0.032236259430646896 -0.13529999554157257
-0.004134860821068287 -0.032236259430646896 -0.13529999554157257
-0.0034323593135923147 -0.03228390961885452 -0.1354999989271164
-0.002723745536059141 -0.03228390961885452 -0.1354999989271164
-0.002016618615016341 -0.032307736575603485 -0.1356000006198883
-0.001307481899857521 -0.032307736575603485 -0.1356000006198883
-0.0005979037377983332 -0.03228390961885452 -0.1354999989271164
0.00011071010521845892 -0.03228390961885452 -0.1354999989271164
0.0008193239918909967 -0.03228390961885452 -0.1354999989271164
0.001527937944047153 -0.03228390961885452 -0.1354999989271164
0.002231599995866418 -0.032212432473897934 -0.13519999384880066
0.002938644727692008 -0.032212432473897934 -0.13519999384880066
0.017273515462875366 -0.03128322958946228 -0.13130000233650208
0.017768660560250282 -0.030949667096138 -0.1298999935388565
0.01837698183953762 -0.030830539762973785 -0.12939999997615814
-0.0069445413537323475 -0.03284643217921257 -0.13490000367164612
-0.006252939812839031 -0.03291947767138481 -0.13519999384880066
-0.005545894615352154 -0.03291947767138481 -0.13519999384880066
-0.004838849417865276 -0.03291947767138481 -0.13519999384880066
0.0029342975467443466 -0.03287078067660332 -0.13499999046325684
0.003645689692348242 -0.03291947767138481 -0.13519999384880066
0.004352734889835119 -0.03291947767138481 -0.13519999384880066
0.016984086483716965 -0.031434204429388046 -0.1290999948978424
0.017344621941447258 -0.030874185264110565 -0.12680000066757202
0.017837315797805786 -0.030581999570131302 -0.12559999525547028
0.0008108585607260466 -0.03335293382406235 -0.13409999012947083
0.0015132785774767399 -0.03337780386209488 -0.13419999182224274
0.0029321243055164814 -0.033551909029483795 -0.13490000367164612
0.003645689692348242 -0.03362652286887169 -0.13519999384880066
0.004352734889835119 -0.03362652286887169 -0.13519999384880066
0.01664203777909279 -0.03146268427371979 -0.1264999955892563
0.01701633259654045 -0.030940379947423935 -0.12439999729394913
-0.0026895729824900627 -0.033978044986724854 -0.13379999995231628
-0.001989849377423525 -0.033978044986724854 -0.13379999995231628
-0.0012901258887723088 -0.033978044986724854 -0.13379999995231628
0.0015087681822478771 -0.033978044986724854 -0.13379999995231628
0.002215093933045864 -0.034079618752002716 -0.13419999182224274
0.0029234299436211586 -0.03415580466389656 -0.13449999690055847
0.0036376004572957754 -0.03425738587975502 -0.13490000367164612
0.004352734889835119 -0.034333568066358566 -0.13519999384880066
0.005071007180958986 -0.03440975397825241 -0.1354999989271164
0.016378922387957573 -0.031616341322660446 -0.12449999898672104
0.01694793812930584 -0.031463973224163055 -0.12389999628067017
0.002914735581725836 -0.03475551679730415 -0.13409999012947083
0.003632207401096821 -0.03491102531552315 -0.1347000002861023
0.004352734889835119 -0.035040613263845444 -0.13519999384880066
0.005063522141426802 -0.03506653010845184 -0.13529999554157257
0.0057796211913228035 -0.03511836752295494 -0.1354999989271164
0.016299987211823463 -0.03211192041635513 -0.12389999628067017
0.01694793812930584 -0.03211192041635513 -0.12389999628067017
0.004343076609075069 -0.03566833585500717 -0.13490000367164612
0.005059779621660709 -0.03574765846133232 -0.13519999384880066
0.005771090276539326 -0.035774096846580505 -0.13529999554157257
0.006488234736025333 -0.03582698106765747 -0.1354999989271164
0.016286831349134445 -0.032733432948589325 -0.12379999458789825
0.004343076609075069 -0.0363738127052784 -0.13490000367164612
0.005059779621660709 -0.0364546999335289 -0.13519999384880066
0.005766824819147587 -0.0364546999335289 -0.13519999384880066
0.006473869550973177 -0.0364546999335289 -0.13519999384880066
0.007180914282798767 -0.0364546999335289 -0.13519999384880066
0.007887959480285645 -0.0364546999335289 -0.13519999384880066
0.015445303171873093 -0.03594239428639412 -0.13329999148845673
0.016286831349134445 -0.03338085860013962 -0.12379999458789825
0.005048552993685007 -0.03707928955554962 -0.13490000367164612
0.005758293438702822 -0.037106771022081375 -0.13499999046325684
0.006464292760938406 -0.037106771022081375 -0.13499999046325684
