ply
format ascii 1.0
element vertex 751
property float x
property float y
property float z
end_header
0.01419844664633274 0.010008082725107668 0.0004949920112267137
0.01419844664633274 0.010008082725107668 0.00039599460433237255
0.01419844664633274 0.010008082725107668 0.00029699719743803144
0.014205911196768284 0.01001063361763954 0.00039599460433237255
0.014221776276826859 0.010020717978477476 0.00039599460433237255
0.014238905161619186 0.010037194937467573 0.00039599460433237255
0.014257132075726986 0.010059778578579424 0.00039599460433237255
0.01427637692540884 0.01008818484842777 0.00039599460433237255
0.014296503737568855 0.010122181847691534 0.00039599460433237255
0.014317391440272331 0.010161473415791987 0.00039599460433237255
0.014338930137455463 0.010205771774053572 0.00039599460433237255
0.014368639327585697 0.010272654704749582 0.00039599460433237255
0.014399012550711632 0.010347409173846243 0.00039599460433237255
0.014429781585931778 0.010429411195218561 0.00039599460433237255
0.014460629783570766 0.010517995804548262 0.00039599460433237255
0.014491316862404346 0.010612497106194494 0.00039599460433237255
0.014521527104079723 0.010712264105677603 0.00039599460433237255
0.0145509522408247 0.010816632770001887 0.00039599460433237255
0.0145509522408247 0.010816632770001887 0.0004949920112267137
0.014579384587705135 0.01092493813484907 0.0009899960132315755
0.0145509522408247 0.010816632770001887 0.0005939961993135512
0.0145509522408247 0.010816632770001887 0.0006929969531483948
0.014521527104079723 0.010712264105677603 0.0005939961993135512
0.014521527104079723 0.010712264105677603 0.0006929969531483948
0.014491316862404346 0.010612497106194494 0.0005939961993135512
0.014491316862404346 0.010612497106194494 0.0006929969531483948
0.014460629783570766 0.010517995804548262 0.0005939961993135512
0.014460629783570766 0.010517995804548262 0.0006929969531483948
0.014429781585931778 0.010429411195218561 0.0005939961993135512
0.014429781585931778 0.010429411195218561 0.0006929969531483948
0.014399012550711632 0.010347409173846243 0.0005939961993135512
0.014399012550711632 0.010347409173846243 0.0006929969531483948
0.014368639327585697 0.010272654704749582 0.0005939961993135512
0.014368639327585697 0.010272654704749582 0.0006929969531483948
0.014338930137455463 0.010205771774053572 0.0005939961993135512
0.014338930137455463 0.010205771774053572 0.0006929969531483948
0.014317391440272331 0.010161473415791987 0.0005939961993135512
0.014317391440272331 0.010161473415791987 0.0006929969531483948
0.014296503737568855 0.010122181847691534 0.0005939961993135512
0.014296503737568855 0.010122181847691534 0.0006929969531483948
0.01427637692540884 0.01008818484842777 0.0005939961993135512
0.01427637692540884 0.01008818484842777 0.0006929969531483948
0.014257132075726986 0.010059778578579424 0.0005939961993135512
0.014257132075726986 0.010059778578579424 0.0006929969531483948
0.014238905161619186 0.010037194937467573 0.0005939961993135512
0.014238905161619186 0.010037194937467573 0.0006929969531483948
0.014221776276826859 0.010020717978477476 0.0005939961993135512
0.014221776276826859 0.010020717978477476 0.0006929969531483948
0.014205911196768284 0.01001063361763954 0.0005939961993135512
0.014205911196768284 0.01001063361763954 0.0006929969531483948
0.01419844664633274 0.010008082725107668 0.0005939961993135512
0.014195487834513187 0.010007525794208048 0.0019799971487373114
0.01419844664633274 0.010008082725107668 0.0010889932746067643
0.01419844664633274 0.010008082725107668 0.0009899960132315755
0.014205911196768284 0.01001063361763954 0.0010889932746067643
0.014205911196768284 0.01001063361763954 0.0009899960132315755
0.014221776276826859 0.010020717978477476 0.0010889932746067643
0.014221776276826859 0.010020717978477476 0.0009899960132315755
0.014238905161619186 0.010037194937467573 0.0010889932746067643
0.014238905161619186 0.010037194937467573 0.0009899960132315755
0.014257132075726986 0.010059778578579424 0.0010889932746067643
0.014257132075726986 0.010059778578579424 0.0009899960132315755
0.01427637692540884 0.01008818484842777 0.0010889932746067643
0.01427637692540884 0.01008818484842777 0.0009899960132315755
0.014296503737568855 0.010122181847691534 0.0010889932746067643
0.014296503737568855 0.010122181847691534 0.0009899960132315755
0.014317391440272331 0.010161473415791987 0.0010889932746067643
0.014317391440272331 0.010161473415791987 0.0009899960132315755
0.014338930137455463 0.010205771774053572 0.0010889932746067643
0.014338930137455463 0.010205771774053572 0.0009899960132315755
0.014368639327585697 0.010272654704749582 0.0010889932746067643
0.014368639327585697 0.010272654704749582 0.0009899960132315755
0.014399012550711632 0.010347409173846243 0.0010889932746067643
0.014399012550711632 0.010347409173846243 0.0009899960132315755
0.014429781585931778 0.010429411195218561 0.0010889932746067643
0.014429781585931778 0.010429411195218561 0.0009899960132315755
0.014460629783570766 0.010517995804548262 0.0010889932746067643
0.014460629783570766 0.010517995804548262 0.0009899960132315755
0.014491316862404346 0.010612497106194494 0.0010889932746067643
0.014491316862404346 0.010612497106194494 0.0009899960132315755
0.014521527104079723 0.010712264105677603 0.0010889932746067643
0.014521527104079723 0.010712264105677603 0.0009899960132315755
0.0145509522408247 0.010816632770001887 0.0010889932746067643
0.0145509522408247 0.010816632770001887 0.0011879975209012628
0.0145509522408247 0.010816632770001887 0.0012869950151070952
0.0145509522408247 0.010816632770001887 0.0013859957689419389
0.014521527104079723 0.010712264105677603 0.0012869950151070952
0.014521527104079723 0.010712264105677603 0.0013859957689419389
0.014491316862404346 0.010612497106194494 0.0012869950151070952
0.014491316862404346 0.010612497106194494 0.0013859957689419389
0.014460629783570766 0.010517995804548262 0.0012869950151070952
0.014460629783570766 0.010517995804548262 0.0013859957689419389
0.014429781585931778 0.010429411195218561 0.0012869950151070952
0.014429781585931778 0.010429411195218561 0.0013859957689419389
0.014399012550711632 0.010347409173846243 0.0012869950151070952
0.014399012550711632 0.010347409173846243 0.0013859957689419389
0.014368639327585697 0.010272654704749582 0.0012869950151070952
0.014368639327585697 0.010272654704749582 0.0013859957689419389
0.014338930137455463 0.010205771774053572 0.0012869950151070952
0.014338930137455463 0.010205771774053572 0.0013859957689419389
0.014317391440272331 0.010161473415791987 0.0012869950151070952
0.014317391440272331 0.010161473415791987 0.0013859957689419389
0.014296503737568855 0.010122181847691534 0.0012869950151070952
0.014296503737568855 0.010122181847691534 0.0013859957689419389
0.01427637692540884 0.01008818484842777 0.0012869950151070952
0.01427637692540884 0.01008818484842777 0.0013859957689419389
0.014257132075726986 0.010059778578579424 0.0012869950151070952
0.014257132075726986 0.010059778578579424 0.0013859957689419389
0.014238905161619186 0.010037194937467573 0.0012869950151070952
0.014238905161619186 0.010037194937467573 0.0013859957689419389
0.014221776276826859 0.010020717978477476 0.0012869950151070952
0.014221776276826859 0.010020717978477476 0.0013859957689419389
0.014205911196768284 0.01001063361763954 0.0012869950151070952
0.014205911196768284 0.01001063361763954 0.0013859957689419389
0.01419844664633274 0.010008082725107668 0.0012869950151070952
0.01419844664633274 0.010008082725107668 0.0011879975209012628
0.014199708588421345 0.010008394718170164 0.0019799971487373114
0.01419844664633274 0.010008082725107668 0.001880996278487146
0.01419844664633274 0.010008082725107668 0.0017819989006966352
0.01419844664633274 0.010008082725107668 0.0016829947708174586
0.014205911196768284 0.01001063361763954 0.0017819989006966352
0.014205911196768284 0.01001063361763954 0.0016829947708174586
0.014221776276826859 0.010020717978477476 0.0017819989006966352
0.014221776276826859 0.010020717978477476 0.0016829947708174586
0.014238905161619186 0.010037194937467573 0.0017819989006966352
0.014238905161619186 0.010037194937467573 0.0016829947708174586
0.014257132075726986 0.010059778578579424 0.0017819989006966352
0.014257132075726986 0.010059778578579424 0.0016829947708174586
0.01427637692540884 0.01008818484842777 0.0017819989006966352
0.01427637692540884 0.01008818484842777 0.0016829947708174586
0.014296503737568855 0.010122181847691534 0.0017819989006966352
0.014296503737568855 0.010122181847691534 0.0016829947708174586
0.014317391440272331 0.010161473415791987 0.0017819989006966352
0.014317391440272331 0.010161473415791987 0.0016829947708174586
0.014338930137455463 0.010205771774053572 0.0017819989006966352
0.014338930137455463 0.010205771774053572 0.0016829947708174586
0.014368639327585697 0.010272654704749582 0.0017819989006966352
0.014368639327585697 0.010272654704749582 0.0016829947708174586
0.014399012550711632 0.010347409173846243 0.0017819989006966352
0.014399012550711632 0.010347409173846243 0.0016829947708174586
0.014429781585931778 0.010429411195218561 0.0017819989006966352
0.014429781585931778 0.010429411195218561 0.0016829947708174586
0.014460629783570766 0.010517995804548262 0.0017819989006966352
0.014460629783570766 0.010517995804548262 0.0016829947708174586
0.014491316862404346 0.010612497106194494 0.0017819989006966352
0.014491316862404346 0.010612497106194494 0.0016829947708174586
0.014521527104079723 0.010712264105677603 0.0017819989006966352
0.014521527104079723 0.010712264105677603 0.0016829947708174586
0.0145509522408247 0.010816632770001887 0.0017819989006966352
0.0145509522408247 0.010816632770001887 0.001880996278487146
0.014579384587705135 0.01092493813484907 0.0019799971487373114
0.014529100619256496 0.010738431476056574 0.0019799971487373114
0.014521527104079723 0.010712264105677603 0.001880996278487146
0.01450292021036148 0.010650036856532095 0.0019799971487373114
0.014491316862404346 0.010612497106194494 0.001880996278487146
0.014476305805146694 0.010565456934273241 0.0019799971487373114
0.014460629783570766 0.010517995804548262 0.001880996278487146
0.014449432492256165 0.010485123842954634 0.0019799971487373114
0.014429781585931778 0.010429411195218561 0.001880996278487146
0.014422520063817501 0.010409473441541193 0.0019799971487373114
0.014399012550711632 0.010347409173846243 0.001880996278487146
0.014395701698958874 0.01033895369619131 0.0019799971487373114
0.014368639327585697 0.010272654704749582 0.001880996278487146
0.014369222335517406 0.010273998603224753 0.0019799971487373114
0.014343218877911568 0.010215055197477339 0.0019799971487373114
0.014338930137455463 0.010205771774053572 0.001880996278487146
0.014317934401333332 0.010162545368075369 0.0019799971487373114
0.014317391440272331 0.010161473415791987 0.001880996278487146
0.014296503737568855 0.010122181847691534 0.001880996278487146
0.014205911196768284 0.01001063361763954 0.001880996278487146
0.014208517037332058 0.010011896491050718 0.0019799971487373114
0.014217786490917206 0.010017678141593931 0.0019799971487373114
0.014221776276826859 0.010020717978477476 0.001880996278487146
0.014227490872144699 0.010025644674897192 0.0019799971487373114
0.014238905161619186 0.010037194937467573 0.001880996278487146
0.014248119667172432 0.010048024356365202 0.0019799971487373114
0.014257132075726986 0.010059778578579424 0.001880996278487146
0.01427018828690052 0.010078589431941508 0.0019799971487373114
0.01427637692540884 0.01008818484842777 0.001880996278487146
0.014293517917394638 0.010116902180016039 0.0019799971487373114
0.0145509522408247 0.010816632770001887 0.0014849998988211155
0.0145509522408247 0.010816632770001887 0.0015839972766116261
0.0145509522408247 0.010816632770001887 0.0016829947708174586
0.014521527104079723 0.010712264105677603 0.0015839972766116261
0.014491316862404346 0.010612497106194494 0.0015839972766116261
0.014460629783570766 0.010517995804548262 0.0015839972766116261
0.014429781585931778 0.010429411195218561 0.0015839972766116261
0.014399012550711632 0.010347409173846243 0.0015839972766116261
0.014368639327585697 0.010272654704749582 0.0015839972766116261
0.014338930137455463 0.010205771774053572 0.0015839972766116261
0.014317391440272331 0.010161473415791987 0.0015839972766116261
0.014296503737568855 0.010122181847691534 0.0015839972766116261
0.01427637692540884 0.01008818484842777 0.0015839972766116261
0.014257132075726986 0.010059778578579424 0.0015839972766116261
0.014238905161619186 0.010037194937467573 0.0015839972766116261
0.014221776276826859 0.010020717978477476 0.0015839972766116261
0.014205911196768284 0.01001063361763954 0.0015839972766116261
0.01419844664633274 0.010008082725107668 0.0015839972766116261
0.01419844664633274 0.010008082725107668 0.0014849998988211155
0.01419844664633274 0.010008082725107668 0.0013859957689419389
0.0145509522408247 0.010816632770001887 0.0007919943891465664
0.014521527104079723 0.010712264105677603 0.0007919943891465664
0.014491316862404346 0.010612497106194494 0.0007919943891465664
0.014460629783570766 0.010517995804548262 0.0007919943891465664
0.014429781585931778 0.010429411195218561 0.0007919943891465664
0.014399012550711632 0.010347409173846243 0.0007919943891465664
0.014368639327585697 0.010272654704749582 0.0007919943891465664
0.014338930137455463 0.010205771774053572 0.0007919943891465664
0.014317391440272331 0.010161473415791987 0.0007919943891465664
0.014296503737568855 0.010122181847691534 0.0007919943891465664
0.01427637692540884 0.01008818484842777 0.0007919943891465664
0.014257132075726986 0.010059778578579424 0.0007919943891465664
0.014238905161619186 0.010037194937467573 0.0007919943891465664
0.014221776276826859 0.010020717978477476 0.0007919943891465664
0.014205911196768284 0.01001063361763954 0.0007919943891465664
0.01419844664633274 0.010008082725107668 0.0006929969531483948
0.01419844664633274 0.010008082725107668 0.0007919943891465664
0.01419844664633274 0.010008082725107668 0.0008909985772334039
0.0145509522408247 0.010816632770001887 0.0009899960132315755
0.0145509522408247 0.010816632770001887 0.0008909985772334039
0.014521527104079723 0.010712264105677603 0.0014849998988211155
0.014491316862404346 0.010612497106194494 0.0014849998988211155
0.014460629783570766 0.010517995804548262 0.0014849998988211155
0.014429781585931778 0.010429411195218561 0.0014849998988211155
0.014399012550711632 0.010347409173846243 0.0014849998988211155
0.014368639327585697 0.010272654704749582 0.0014849998988211155
0.014338930137455463 0.010205771774053572 0.0014849998988211155
0.014317391440272331 0.010161473415791987 0.0014849998988211155
0.014296503737568855 0.010122181847691534 0.0014849998988211155
0.01427637692540884 0.01008818484842777 0.0014849998988211155
0.014257132075726986 0.010059778578579424 0.0014849998988211155
0.014238905161619186 0.010037194937467573 0.0014849998988211155
0.014221776276826859 0.010020717978477476 0.0014849998988211155
0.014205911196768284 0.01001063361763954 0.0014849998988211155
0.014205911196768284 0.01001063361763954 0.0011879975209012628
0.014221776276826859 0.010020717978477476 0.0011879975209012628
0.014238905161619186 0.010037194937467573 0.0011879975209012628
0.014257132075726986 0.010059778578579424 0.0011879975209012628
0.01427637692540884 0.01008818484842777 0.0011879975209012628
0.014296503737568855 0.010122181847691534 0.0011879975209012628
0.014317391440272331 0.010161473415791987 0.0011879975209012628
0.014338930137455463 0.010205771774053572 0.0011879975209012628
0.014368639327585697 0.010272654704749582 0.0011879975209012628
0.014399012550711632 0.010347409173846243 0.0011879975209012628
0.014429781585931778 0.010429411195218561 0.0011879975209012628
0.014460629783570766 0.010517995804548262 0.0011879975209012628
0.014491316862404346 0.010612497106194494 0.0011879975209012628
0.014521527104079723 0.010712264105677603 0.0011879975209012628
0.014521527104079723 0.010712264105677603 0.0008909985772334039
0.014491316862404346 0.010612497106194494 0.0008909985772334039
0.014460629783570766 0.010517995804548262 0.0008909985772334039
0.014429781585931778 0.010429411195218561 0.0008909985772334039
0.014399012550711632 0.010347409173846243 0.0008909985772334039
0.014368639327585697 0.010272654704749582 0.0008909985772334039
0.014338930137455463 0.010205771774053572 0.0008909985772334039
0.014317391440272331 0.010161473415791987 0.0008909985772334039
0.014296503737568855 0.010122181847691534 0.0008909985772334039
0.01427637692540884 0.01008818484842777 0.0008909985772334039
0.014257132075726986 0.010059778578579424 0.0008909985772334039
0.014238905161619186 0.010037194937467573 0.0008909985772334039
0.014221776276826859 0.010020717978477476 0.0008909985772334039
0.014205911196768284 0.01001063361763954 0.0008909985772334039
0.014205911196768284 0.01001063361763954 0.0004949920112267137
0.014221776276826859 0.010020717978477476 0.0004949920112267137
0.014238905161619186 0.010037194937467573 0.0004949920112267137
0.014257132075726986 0.010059778578579424 0.0004949920112267137
0.01427637692540884 0.01008818484842777 0.0004949920112267137
0.014296503737568855 0.010122181847691534 0.0004949920112267137
0.014317391440272331 0.010161473415791987 0.0004949920112267137
0.014338930137455463 0.010205771774053572 0.0004949920112267137
0.014368639327585697 0.010272654704749582 0.0004949920112267137
0.014399012550711632 0.010347409173846243 0.0004949920112267137
0.014429781585931778 0.010429411195218561 0.0004949920112267137
0.014460629783570766 0.010517995804548262 0.0004949920112267137
0.014491316862404346 0.010612497106194494 0.0004949920112267137
0.014521527104079723 0.010712264105677603 0.0004949920112267137
0.017079804092645645 0.013891473412513731 -5.163252492224046e-09
0.016973033547401428 0.0138336019590497 -5.163252492224046e-09
0.017079804092645645 0.013891473412513731 0.0009899960132315755
0.016898034140467644 0.013790511526167391 0.0006599967018701136
0.016898034140467644 0.013790511526167391 0.0009899960132315755
0.01671864092350006 0.013679289259016512 0.0006599967018701136
0.01671864092350006 0.013679289259016512 0.0009899960132315755
0.016542190685868263 0.013558525592088698 0.0006599967018701136
0.016542190685868263 0.013558525592088698 0.0009899960132315755
0.016369231045246124 0.01342885848134756 0.0006599967018701136
0.016369231045246124 0.01342885848134756 0.0009899960132315755
0.016200287267565727 0.01329099480062723 0.0006599967018701136
0.016200287267565727 0.01329099480062723 0.0009899960132315755
0.016035955399274826 0.013145584613084791 0.0006599967018701136
0.016035955399274826 0.013145584613084791 0.0009899960132315755
0.015876730903983116 0.012993334792554377 0.0006599967018701136
0.015876730903983116 0.012993334792554377 0.0009899960132315755
0.01572321727871895 0.012834921479225157 0.0006599967018701136
0.01572321727871895 0.012834921479225157 0.0009899960132315755
0.01562354527413845 0.012725369073450564 0.0006599967018701136
0.01562354527413845 0.012725369073450564 0.0009899960132315755
0.015526845119893551 0.012613536790013312 0.0006599967018701136
0.015526845119893551 0.012613536790013312 0.0009899960132315755
0.015433305874466896 0.012499639764428137 0.0006599967018701136
0.015433305874466896 0.012499639764428137 0.0009899960132315755
0.01534305326640606 0.01238389778882265 0.0006599967018701136
0.01534305326640606 0.01238389778882265 0.0009899960132315755
0.015256301499903202 0.01226648688316345 0.0006599967018701136
0.015256301499903202 0.01226648688316345 0.0009899960132315755
0.015173198655247688 0.012147636152803896 0.0006599967018701136
0.015173198655247688 0.012147636152803896 0.0009899960132315755
0.01509389840066433 0.012027538381516932 0.0006599967018701136
0.01509389840066433 0.012027538381516932 0.0009899960132315755
0.015018587000668049 0.011906408704817293 0.0006599967018701136
0.015018587000668049 0.011906408704817293 0.0009899960132315755
0.014947429299354553 0.011784465052187441 0.0006599967018701136
0.014947429299354553 0.011784465052187441 0.0009899960132315755
0.014880560338497162 0.011661882512271403 0.0006599967018701136
0.014880560338497162 0.011661882512271403 0.0009899960132315755
0.014818198047578335 0.011538879014551638 0.0006599967018701136
0.014818198047578335 0.011538879014551638 0.0009899960132315755
0.014760475605726242 0.011415700428187845 0.0006599967018701136
0.014760475605726242 0.011415700428187845 0.0009899960132315755
0.01470757182687521 0.01129249297082424 0.0006599967018701136
0.01470757182687521 0.01129249297082424 0.0009899960132315755
0.014659635722637177 0.011169491335749624 0.0006599967018701136
0.014659635722637177 0.011169491335749624 0.0009899960132315755
0.0146168302744627 0.011046908795833586 0.0006599967018701136
0.0146168302744627 0.011046908795833586 0.00032999407267197967
0.01461176760494709 0.011031273752450941 -5.163252492224046e-09
0.01464818138629198 0.011138085275888441 -5.163252492224046e-09
0.014659635722637177 0.011169491335749624 0.00032999407267197967
0.014688570983707905 0.01124526374042034 -5.163252492224046e-09
0.01470757182687521 0.01129249297082424 0.00032999407267197967
0.014732775278389454 0.011352658271789549 -5.163252492224046e-09
0.014760475605726242 0.011415700428187845 0.00032999407267197967
0.014780739322304726 0.011460120789706705 -5.163252492224046e-09
0.014818198047578335 0.011538879014551638 0.00032999407267197967
0.014832312241196632 0.011567530222237108 -5.163252492224046e-09
0.014880560338497162 0.011661882512271403 0.00032999407267197967
0.014887360855937004 0.011674734763801096 -5.163252492224046e-09
0.014947429299354553 0.011784465052187441 0.00032999407267197967
0.014945815317332745 0.011781614273786543 -5.163252492224046e-09
0.01500755362212658 0.011888018809258936 -5.163252492224046e-09
0.015018587000668049 0.011906408704817293 0.00032999407267197967
0.015072482638061047 0.011993826366961 -5.163252492224046e-09
0.01509389840066433 0.012027538381516932 0.00032999407267197967
0.015173198655247688 0.012147636152803896 0.00032999407267197967
0.016898034140467644 0.013790511526167391 0.00032999407267197967
0.016867009922862053 0.013772107660770415 -5.163252492224046e-09
0.01676182635128498 0.013707138597965239 -5.163252492224046e-09
0.01671864092350006 0.013679289259016512 0.00032999407267197967
0.016657620668411255 0.013638830743730066 -5.163252492224046e-09
0.016542190685868263 0.013558525592088698 0.00032999407267197967
0.016554487869143486 0.013567320071160792 -5.163252492224046e-09
0.01645253598690033 0.013492728583514689 -5.163252492224046e-09
0.016369231045246124 0.01342885848134756 0.00032999407267197967
0.01625262014567852 0.013334914110600947 -5.163252492224046e-09
0.016200287267565727 0.01329099480062723 0.00032999407267197967
0.016058756038546562 0.013166471384465693 -5.163252492224046e-09
0.016035955399274826 0.013145584613084791 0.00032999407267197967
0.01587185636162758 0.012988475151360033 -5.163252492224046e-09
0.015876730903983116 0.012993334792554377 0.00032999407267197967
0.01572321727871895 0.012834921479225157 0.00032999407267197967
0.015692776069045067 0.012802050448954104 -5.163252492224046e-09
0.01562354527413845 0.012725369073450564 0.00032999407267197967
0.015522433444857597 0.012608283199369906 -5.163252492224046e-09
0.015526845119893551 0.012613536790013312 0.00032999407267197967
0.015433305874466896 0.012499639764428137 0.00032999407267197967
0.015361673198640347 0.012408260256052015 -5.163252492224046e-09
0.01534305326640606 0.01238389778882265 0.00032999407267197967
0.015256301499903202 0.01226648688316345 0.00032999407267197967
0.015211391262710094 0.012203077785670756 -5.163252492224046e-09
0.01461176760494709 0.011031273752450941 0.0019799971487373114
0.0146168302744627 0.011046908795833586 0.0013199951499700546
0.0146168302744627 0.011046908795833586 0.0009899960132315755
0.014659635722637177 0.011169491335749624 0.0013199951499700546
0.01470757182687521 0.01129249297082424 0.0013199951499700546
0.014760475605726242 0.011415700428187845 0.0013199951499700546
0.014818198047578335 0.011538879014551638 0.0013199951499700546
0.014880560338497162 0.011661882512271403 0.0013199951499700546
0.014947429299354553 0.011784465052187441 0.0013199951499700546
0.015018587000668049 0.011906408704817293 0.0013199951499700546
0.01509389840066433 0.012027538381516932 0.0013199951499700546
0.015173198655247688 0.012147636152803896 0.0013199951499700546
0.015256301499903202 0.01226648688316345 0.0013199951499700546
0.01534305326640606 0.01238389778882265 0.0013199951499700546
0.015433305874466896 0.012499639764428137 0.0013199951499700546
0.015526845119893551 0.012613536790013312 0.0013199951499700546
0.01562354527413845 0.012725369073450564 0.0013199951499700546
0.01572321727871895 0.012834921479225157 0.0013199951499700546
0.015876730903983116 0.012993334792554377 0.0013199951499700546
0.016035955399274826 0.013145584613084791 0.0013199951499700546
0.016200287267565727 0.01329099480062723 0.0013199951499700546
0.016369231045246124 0.01342885848134756 0.0013199951499700546
0.016542190685868263 0.013558525592088698 0.0013199951499700546
0.01671864092350006 0.013679289259016512 0.0013199951499700546
0.016898034140467644 0.013790511526167391 0.0013199951499700546
0.016898034140467644 0.013790511526167391 0.0016499977791681886
0.017079804092645645 0.013891473412513731 0.0019799971487373114
0.016973033547401428 0.0138336019590497 0.0019799971487373114
0.016867009922862053 0.013772107660770415 0.0019799971487373114
0.01676182635128498 0.013707138597965239 0.0019799971487373114
0.01671864092350006 0.013679289259016512 0.0016499977791681886
0.016657620668411255 0.013638830743730066 0.0019799971487373114
0.016542190685868263 0.013558525592088698 0.0016499977791681886
0.016554487869143486 0.013567320071160792 0.0019799971487373114
0.01645253598690033 0.013492728583514689 0.0019799971487373114
0.016369231045246124 0.01342885848134756 0.0016499977791681886
0.01625262014567852 0.013334914110600947 0.0019799971487373114
0.016200287267565727 0.01329099480062723 0.0016499977791681886
0.016058756038546562 0.013166471384465693 0.0019799971487373114
0.016035955399274826 0.013145584613084791 0.0016499977791681886
0.01587185636162758 0.012988475151360033 0.0019799971487373114
0.015876730903983116 0.012993334792554377 0.0016499977791681886
0.01572321727871895 0.012834921479225157 0.0016499977791681886
0.0146168302744627 0.011046908795833586 0.0016499977791681886
0.01464818138629198 0.011138085275888441 0.0019799971487373114
0.014659635722637177 0.011169491335749624 0.0016499977791681886
0.014688570983707905 0.01124526374042034 0.0019799971487373114
0.01470757182687521 0.01129249297082424 0.0016499977791681886
0.014732775278389454 0.011352658271789549 0.0019799971487373114
0.014760475605726242 0.011415700428187845 0.0016499977791681886
0.014780739322304726 0.011460120789706705 0.0019799971487373114
0.014818198047578335 0.011538879014551638 0.0016499977791681886
0.014832312241196632 0.011567530222237108 0.0019799971487373114
0.014880560338497162 0.011661882512271403 0.0016499977791681886
0.014887360855937004 0.011674734763801096 0.0019799971487373114
0.014947429299354553 0.011784465052187441 0.0016499977791681886
0.014945815317332745 0.011781614273786543 0.0019799971487373114
0.01500755362212658 0.011888018809258936 0.0019799971487373114
0.015018587000668049 0.011906408704817293 0.0016499977791681886
0.015072482638061047 0.011993826366961 0.0019799971487373114
0.01509389840066433 0.012027538381516932 0.0016499977791681886
0.015173198655247688 0.012147636152803896 0.0016499977791681886
0.015211391262710094 0.012203077785670756 0.0019799971487373114
0.015256301499903202 0.01226648688316345 0.0016499977791681886
0.015361673198640347 0.012408260256052015 0.0019799971487373114
0.01534305326640606 0.01238389778882265 0.0016499977791681886
0.015433305874466896 0.012499639764428137 0.0016499977791681886
0.015522433444857597 0.012608283199369906 0.0019799971487373114
0.015526845119893551 0.012613536790013312 0.0016499977791681886
0.01562354527413845 0.012725369073450564 0.0016499977791681886
0.015692776069045067 0.012802050448954104 0.0019799971487373114
0.021648690104484558 0.014029052108526228 -5.163252492224046e-09
0.021678656339645386 0.014015344902873038 0.00032999407267197967
0.021757345646619797 0.01397684123367071 -5.163252492224046e-09
0.021678656339645386 0.014015344902873038 0.0006599967018701136
0.021757345646619797 0.01397684123367071 0.0009899960132315755
0.021678656339645386 0.014015344902873038 0.0009899960132315755
0.021678656339645386 0.014015344902873038 0.0013199951499700546
0.021596206352114677 0.014051921665668486 0.0009899960132315755
0.021596206352114677 0.014051921665668486 0.0013199951499700546
0.02151017263531685 0.014086557552218435 0.0009899960132315755
0.02151017263531685 0.014086557552218435 0.0013199951499700546
0.02142077498137951 0.014119278639554976 0.0009899960132315755
0.02142077498137951 0.014119278639554976 0.0013199951499700546
0.021328158676624298 0.014150073751807211 0.0009899960132315755
0.021328158676624298 0.014150073751807211 0.0013199951499700546
0.02123250439763069 0.014178954996168612 0.0009899960132315755
0.02123250439763069 0.014178954996168612 0.0013199951499700546
0.021133972331881523 0.014205895364284514 0.0009899960132315755
0.021133972331881523 0.014205895364284514 0.0013199951499700546
0.021032750606536865 0.0142309358343482 0.0009899960132315755
0.021032750606536865 0.0142309358343482 0.0013199951499700546
0.020822929218411446 0.014275288209319113 0.0009899960132315755
0.020822929218411446 0.014275288209319113 0.0013199951499700546
0.020604433491826057 0.014312000945210455 0.0009899960132315755
0.020604433491826057 0.014312000945210455 0.0013199951499700546
0.020378651097416878 0.014341112226247786 0.0009899960132315755
0.020378651097416878 0.014341112226247786 0.0013199951499700546
0.020146949216723442 0.014362665824592112 0.0009899960132315755
0.020146949216723442 0.014362665824592112 0.0013199951499700546
0.01994199864566326 0.014375260099768637 0.0009899960132315755
0.01994199864566326 0.014375260099768637 0.0013199951499700546
0.0197345782071352 0.014382154680788515 0.0009899960132315755
0.0197345782071352 0.014382154680788515 0.0013199951499700546
0.019525542855262756 0.014383403584361075 0.0009899960132315755
0.019525542855262756 0.014383403584361075 0.0013199951499700546
0.019315842539072037 0.01437900587916374 0.0009899960132315755
0.019315842539072037 0.01437900587916374 0.0013199951499700546
0.019106440246105194 0.014368962496519087 0.0009899960132315755
0.019106440246105194 0.014368962496519087 0.0013199951499700546
0.018898149952292442 0.014353328384459017 0.0009899960132315755
0.018898149952292442 0.014353328384459017 0.0013199951499700546
0.018691938370466232 0.014332060702145098 0.0009899960132315755
0.018691938370466232 0.014332060702145098 0.0013199951499700546
0.01848873868584633 0.01430524233728647 0.0009899960132315755
0.01848873868584633 0.01430524233728647 0.0013199951499700546
0.01828940585255623 0.014272832311689852 0.0009899960132315755
0.01828940585255623 0.014272832311689852 0.0013199951499700546
0.018094893544912338 0.014234871603548525 0.0009899960132315755
0.018094893544912338 0.014234871603548525 0.0013199951499700546
0.01790609396994114 0.014191401191055773 0.0009899960132315755
0.01790609396994114 0.014191401191055773 0.0013199951499700546
0.017723916098475456 0.014142391271889208 0.0009899960132315755
0.017723916098475456 0.014142391271889208 0.0013199951499700546
0.01754930056631565 0.014087873511016367 0.0009899960132315755
0.01754930056631565 0.014087873511016367 0.0013199951499700546
0.017383111640810966 0.014027871191501616 0.0009899960132315755
0.017383111640810966 0.014027871191501616 0.0013199951499700546
0.017226342111825943 0.013962400145828722 0.0009899960132315755
0.017226342111825943 0.013962400145828722 0.0006599967018701136
0.017226342111825943 0.013962400145828722 0.00032999407267197967
0.017194366082549095 0.013947810046374796 -5.163252492224046e-09
0.01731538586318493 0.014000754803419111 -5.163252492224046e-09
0.017383111640810966 0.014027871191501616 0.00032999407267197967
0.017442502081394196 0.014050318859517573 -5.163252492224046e-09
0.01754930056631565 0.014087873511016367 0.00032999407267197967
0.017575209960341454 0.014096464961767195 -5.163252492224046e-09
0.017723916098475456 0.014142391271889208 0.00032999407267197967
0.017713071778416634 0.014139229431748388 -5.163252492224046e-09
0.017855660989880562 0.01417856104671955 -5.163252492224046e-09
0.01790609396994114 0.014191401191055773 0.00032999407267197967
0.018002523109316826 0.014214485883712767 -5.163252492224046e-09
0.018094893544912338 0.014234871603548525 0.00032999407267197967
0.018153199926018715 0.014246950857341288 -5.163252492224046e-09
0.01828940585255623 0.014272832311689852 0.00032999407267197967
0.018307266756892204 0.014275994151830671 -5.163252492224046e-09
0.018464254215359688 0.014301590621471403 -5.163252492224046e-09
0.01848873868584633 0.01430524233728647 0.00032999407267197967
0.018623724579811096 0.014323727227747439 -5.163252492224046e-09
0.018691938370466232 0.014332060702145098 0.00032999407267197967
0.018785260617733 0.014342415146529673 -5.163252492224046e-09
0.018898149952292442 0.014353328384459017 0.00032999407267197967
0.018948353826999664 0.014357630163431166 -5.163252492224046e-09
0.019106440246105194 0.014368962496519087 0.00032999407267197967
0.019112614914774895 0.01436934247612953 -5.163252492224046e-09
0.019277622923254967 0.014377593994140623 -5.163252492224046e-09
0.019315842539072037 0.01437900587916374 0.00032999407267197967
0.01944282092154026 0.014382343739271162 -5.163252492224046e-09
0.019525542855262756 0.014383403584361075 0.00032999407267197967
0.019607869908213615 0.014383593574166296 -5.163252492224046e-09
0.0197345782071352 0.014382154680788515 0.00032999407267197967
0.019772253930568695 0.014381326735019682 -5.163252492224046e-09
0.01994199864566326 0.014375260099768637 0.00032999407267197967
0.019935565069317818 0.014375559054315088 -5.163252492224046e-09
0.02009737119078636 0.014366248622536658 -5.163252492224046e-09
0.020146949216723442 0.014362665824592112 0.00032999407267197967
0.020257195457816124 0.014353409409523009 -5.163252492224046e-09
0.020378651097416878 0.014341112226247786 0.00032999407267197967
0.02041458897292614 0.014337054453790186 -5.163252492224046e-09
0.020569119602441788 0.014317131601274012 -5.163252492224046e-09
0.020604433491826057 0.014312000945210455 0.00032999407267197967
0.020720310509204865 0.014293638989329336 -5.163252492224046e-09
0.020822929218411446 0.014275288209319113 0.00032999407267197967
0.02086779661476612 0.014266602694988249 -5.163252492224046e-09
0.021032750606536865 0.0142309358343482 0.00032999407267197967
0.021011048927903175 0.014235970564186571 -5.163252492224046e-09
0.0211496464908123 0.014201783575117586 -5.163252492224046e-09
0.021133972331881523 0.014205895364284514 0.00032999407267197967
0.02123250439763069 0.014178954996168612 0.00032999407267197967
0.02123250439763069 0.014178954996168612 0.0006599967018701136
0.021328158676624298 0.014150073751807211 0.0006599967018701136
0.021596206352114677 0.014051921665668486 0.00032999407267197967
0.021533122286200523 0.014077654108405111 -5.163252492224046e-09
0.02151017263531685 0.014086557552218435 0.00032999407267197967
0.021411124616861343 0.014122630469501017 -5.163252492224046e-09
0.02142077498137951 0.014119278639554976 0.00032999407267197967
0.021328158676624298 0.014150073751807211 0.00032999407267197967
0.02142077498137951 0.014119278639554976 0.0006599967018701136
0.021283181384205818 0.014164011925458906 -5.163252492224046e-09
0.017194366082549095 0.013947810046374796 0.0019799971487373114
0.017226342111825943 0.013962400145828722 0.0013199951499700546
0.017226342111825943 0.013962400145828722 0.0016499977791681886
0.01731538586318493 0.014000754803419111 0.0019799971487373114
0.017383111640810966 0.014027871191501616 0.0016499977791681886
0.017442502081394196 0.014050318859517573 0.0019799971487373114
0.01754930056631565 0.014087873511016367 0.0016499977791681886
0.017575209960341454 0.014096464961767195 0.0019799971487373114
0.017723916098475456 0.014142391271889208 0.0016499977791681886
0.017713071778416634 0.014139229431748388 0.0019799971487373114
0.017855660989880562 0.01417856104671955 0.0019799971487373114
0.01790609396994114 0.014191401191055773 0.0016499977791681886
0.018002523109316826 0.014214485883712767 0.0019799971487373114
0.018094893544912338 0.014234871603548525 0.0016499977791681886
0.018153199926018715 0.014246950857341288 0.0019799971487373114
0.01828940585255623 0.014272832311689852 0.0016499977791681886
0.018307266756892204 0.014275994151830671 0.0019799971487373114
0.018464254215359688 0.014301590621471403 0.0019799971487373114
0.01848873868584633 0.01430524233728647 0.0016499977791681886
0.018623724579811096 0.014323727227747439 0.0019799971487373114
0.018691938370466232 0.014332060702145098 0.0016499977791681886
0.018785260617733 0.014342415146529673 0.0019799971487373114
0.018898149952292442 0.014353328384459017 0.0016499977791681886
0.018948353826999664 0.014357630163431166 0.0019799971487373114
0.019106440246105194 0.014368962496519087 0.0016499977791681886
0.019112614914774895 0.01436934247612953 0.0019799971487373114
0.019277622923254967 0.014377593994140623 0.0019799971487373114
0.019315842539072037 0.01437900587916374 0.0016499977791681886
0.01944282092154026 0.014382343739271162 0.0019799971487373114
0.019525542855262756 0.014383403584361075 0.0016499977791681886
0.019607869908213615 0.014383593574166296 0.0019799971487373114
0.0197345782071352 0.014382154680788515 0.0016499977791681886
0.019772253930568695 0.014381326735019682 0.0019799971487373114
0.01994199864566326 0.014375260099768637 0.0016499977791681886
0.019935565069317818 0.014375559054315088 0.0019799971487373114
0.02009737119078636 0.014366248622536658 0.0019799971487373114
0.020146949216723442 0.014362665824592112 0.0016499977791681886
0.020257195457816124 0.014353409409523009 0.0019799971487373114
0.020378651097416878 0.014341112226247786 0.0016499977791681886
0.02041458897292614 0.014337054453790186 0.0019799971487373114
0.020569119602441788 0.014317131601274012 0.0019799971487373114
0.020604433491826057 0.014312000945210455 0.0016499977791681886
0.020720310509204865 0.014293638989329336 0.0019799971487373114
0.020822929218411446 0.014275288209319113 0.0016499977791681886
0.02086779661476612 0.014266602694988249 0.0019799971487373114
0.021032750606536865 0.0142309358343482 0.0016499977791681886
0.021011048927903175 0.014235970564186571 0.0019799971487373114
0.0211496464908123 0.014201783575117586 0.0019799971487373114
0.021283181384205818 0.014164011925458906 0.0019799971487373114
0.02123250439763069 0.014178954996168612 0.0016499977791681886
0.021133972331881523 0.014205895364284514 0.0016499977791681886
0.021328158676624298 0.014150073751807211 0.0016499977791681886
0.021411124616861343 0.014122630469501017 0.0019799971487373114
0.02142077498137951 0.014119278639554976 0.0016499977791681886
0.02151017263531685 0.014086557552218435 0.0016499977791681886
0.021533122286200523 0.014077654108405111 0.0019799971487373114
0.021596206352114677 0.014051921665668486 0.0016499977791681886
0.021648690104484558 0.014029052108526228 0.0019799971487373114
0.021678656339645386 0.014015344902873038 0.0016499977791681886
0.021757345646619797 0.01397684123367071 0.0019799971487373114
0.017383111640810966 0.014027871191501616 0.0006599967018701136
0.01754930056631565 0.014087873511016367 0.0006599967018701136
0.017723916098475456 0.014142391271889208 0.0006599967018701136
0.01790609396994114 0.014191401191055773 0.0006599967018701136
0.018094893544912338 0.014234871603548525 0.0006599967018701136
0.01828940585255623 0.014272832311689852 0.0006599967018701136
0.01848873868584633 0.01430524233728647 0.0006599967018701136
0.018691938370466232 0.014332060702145098 0.0006599967018701136
0.018898149952292442 0.014353328384459017 0.0006599967018701136
0.019106440246105194 0.014368962496519087 0.0006599967018701136
0.019315842539072037 0.01437900587916374 0.0006599967018701136
0.019525542855262756 0.014383403584361075 0.0006599967018701136
0.0197345782071352 0.014382154680788515 0.0006599967018701136
0.01994199864566326 0.014375260099768637 0.0006599967018701136
0.020146949216723442 0.014362665824592112 0.0006599967018701136
0.020378651097416878 0.014341112226247786 0.0006599967018701136
0.020604433491826057 0.014312000945210455 0.0006599967018701136
0.020822929218411446 0.014275288209319113 0.0006599967018701136
0.021032750606536865 0.0142309358343482 0.0006599967018701136
0.021133972331881523 0.014205895364284514 0.0006599967018701136
0.02151017263531685 0.014086557552218435 0.0006599967018701136
0.021596206352114677 0.014051921665668486 0.0006599967018701136
0.024537986144423485 0.010241981595754622 -5.163252492224046e-09
0.024511927738785744 0.010398616082966326 -5.163252492224046e-09
0.024537986144423485 0.010241981595754622 0.0009899960132315755
0.024508479982614517 0.010417507961392401 0.0006599967018701136
0.024508479982614517 0.010417507961392401 0.0009899960132315755
0.024474333971738815 0.010589465498924254 0.0006599967018701136
0.024474333971738815 0.010589465498924254 0.0009899960132315755
0.02443547733128071 0.01075786631554365 0.0006599967018701136
0.02443547733128071 0.01075786631554365 0.0009899960132315755
0.02439195103943348 0.010922766290605066 0.0006599967018701136
0.02439195103943348 0.010922766290605066 0.0009899960132315755
0.024343661963939667 0.011084191501140593 0.0006599967018701136
0.024343661963939667 0.011084191501140593 0.0009899960132315755
0.024290582165122032 0.011242195963859556 0.0006599967018701136
0.024290582165122032 0.011242195963859556 0.0009899960132315755
0.024232711642980576 0.01139680854976177 0.0006599967018701136
0.024232711642980576 0.01139680854976177 0.0009899960132315755
0.024169981479644775 0.011548080481588839 0.0006599967018701136
0.024169981479644775 0.011548080481588839 0.0009899960132315755
0.024102380499243736 0.011696029454469679 0.0006599967018701136
0.024102380499243736 0.011696029454469679 0.0009899960132315755
0.02402987703680992 0.01184071972966194 0.0006599967018701136
0.02402987703680992 0.01184071972966194 0.0009899960132315755
0.023952409625053406 0.011982181109488009 0.0006599967018701136
0.023952409625053406 0.011982181109488009 0.0009899960132315755
0.02387000061571598 0.012120425701141356 0.0006599967018701136
0.02387000061571598 0.012120425701141356 0.0009899960132315755
0.02378254197537899 0.012255520559847353 0.0006599967018701136
0.02378254197537899 0.012255520559847353 0.0009899960132315755
0.023690035566687584 0.012387507595121859 0.0006599967018701136
0.023690035566687584 0.012387507595121859 0.0009899960132315755
0.023592494428157806 0.012516401708126066 0.0006599967018701136
0.023592494428157806 0.012516401708126066 0.0009899960132315755
0.023489808663725853 0.012642267160117624 0.0006599967018701136
0.023489808663725853 0.012642267160117624 0.0009899960132315755
0.023405825719237328 0.012738697230815886 0.0006599967018701136
0.023405825719237328 0.012738697230815886 0.0009899960132315755
0.02331872098147869 0.012833293527364729 0.0006599967018701136
0.02331872098147869 0.012833293527364729 0.0009899960132315755
0.023228425532579422 0.012926084920763968 0.0006599967018701136
0.023228425532579422 0.012926084920763968 0.0009899960132315755
0.02313488908112049 0.01301708538085222 0.0006599967018701136
0.02313488908112049 0.01301708538085222 0.0009899960132315755
0.023038161918520927 0.013106334954500197 0.0006599967018701136
0.023038161918520927 0.013106334954500197 0.0009899960132315755
0.022938231006264687 0.01319384668022394 0.0006599967018701136
0.022938231006264687 0.01319384668022394 0.0009899960132315755
0.022835001349449158 0.013279594480991362 0.0006599967018701136
0.022835001349449158 0.013279594480991362 0.0009899960132315755
0.022728528827428818 0.013363672420382498 0.0006599967018701136
0.022728528827428818 0.013363672420382498 0.0009899960132315755
0.022618800401687622 0.013446041382849215 0.0006599967018701136
0.022618800401687622 0.013446041382849215 0.0009899960132315755
0.022505758330225945 0.013526740483939646 0.0006599967018701136
0.022505758330225945 0.013526740483939646 0.0009899960132315755
0.022389406338334084 0.013605768792331217 0.0006599967018701136
0.022389406338334084 0.013605768792331217 0.0009899960132315755
0.022269675508141518 0.013683198019862173 0.0006599967018701136
0.022269675508141518 0.013683198019862173 0.0009899960132315755
0.022146686911582947 0.013758983463048933 0.0006599967018701136
0.022146686911582947 0.013758983463048933 0.0009899960132315755
0.022020248696208 0.013833181932568548 0.0006599967018701136
0.022020248696208 0.013833181932568548 0.0009899960132315755
0.021890513598918915 0.013905805535614489 0.0006599967018701136
0.021890513598918915 0.013905805535614489 0.00032999407267197967
0.021908728405833244 0.013895802199840544 -5.163252492224046e-09
0.022020248696208 0.013833181932568548 0.00032999407267197967
0.02205568365752697 0.013812742196023462 -5.163252492224046e-09
0.022146686911582947 0.013758983463048933 0.00032999407267197967
0.02219831384718418 0.013727618381381033 -5.163252492224046e-09
0.022269675508141518 0.013683198019862173 0.00032999407267197967
0.022336570546030998 0.013640418648719786 -5.163252492224046e-09
0.022389406338334084 0.013605768792331217 0.00032999407267197967
0.022470498457551003 0.013551102019846438 -5.163252492224046e-09
0.022505758330225945 0.013526740483939646 0.00032999407267197967
0.022600125521421432 0.013459653593599795 -5.163252492224046e-09
0.022618800401687622 0.013446041382849215 0.00032999407267197967
0.022725488990545273 0.013366020284593104 -5.163252492224046e-09
0.022728528827428818 0.013363672420382498 0.00032999407267197967
0.022835001349449158 0.013279594480991362 0.00032999407267197967
0.024508479982614517 0.010417507961392401 0.00032999407267197967
0.024482136592268944 0.010552399791777132 -5.163252492224046e-09
0.024474333971738815 0.010589465498924254 0.00032999407267197967
0.024448668584227562 0.010703360661864279 -5.163252492224046e-09
0.02443547733128071 0.01075786631554365 0.00032999407267197967
0.024411441758275032 0.010851526632905005 -5.163252492224046e-09
0.02439195103943348 0.010922766290605066 0.00032999407267197967
0.02437046729028225 0.010996936820447443 -5.163252492224046e-09
0.024343661963939667 0.011084191501140593 0.00032999407267197967
0.024325719103217125 0.01113957818597555 -5.163252492224046e-09
0.024290582165122032 0.011242195963859556 0.00032999407267197967
0.02427714504301548 0.01127954665571451 -5.163252492224046e-09
0.024232711642980576 0.01139680854976177 0.00032999407267197967
0.024224786087870598 0.011416799388825892 -5.163252492224046e-09
0.024169981479644775 0.011548080481588839 0.00032999407267197967
0.024168556556105614 0.01155140623450279 -5.163252492224046e-09
0.024108434095978737 0.011683380231261252 -5.163252492224046e-09
0.024102380499243736 0.011696029454469679 0.00032999407267197967
0.02404441311955452 0.011812762357294558 -5.163252492224046e-09
0.02402987703680992 0.01184071972966194 0.00032999407267197967
0.023976445198059082 0.011939564719796179 -5.163252492224046e-09
0.023952409625053406 0.011982181109488009 0.00032999407267197967
0.02390456758439541 0.012063816189765928 -5.163252492224046e-09
0.02387000061571598 0.012120425701141356 0.00032999407267197967
0.023828743025660515 0.012185530737042425 -5.163252492224046e-09
0.02378254197537899 0.012255520559847353 0.00032999407267197967
0.023748870939016342 0.012304773554205893 -5.163252492224046e-09
0.023690035566687584 0.012387507595121859 0.00032999407267197967
0.023664996027946472 0.01242154650390148 -5.163252492224046e-09
0.023592494428157806 0.012516401708126066 0.00032999407267197967
0.023577077314257622 0.012535877525806425 -5.163252492224046e-09
