ply
format ascii 1.0
element vertex 773
property float x
property float y
property float z
end_header
0.035655671675456226 -0.03261363569465561 0.1777294962117404
0.00023481346979049378 -0.05252505070598215 0.17730808278495633
0.02928700897670227 -0.03751084880675894 0.17674859819191374
0.020748557437501668 -0.03659619475987938 0.1852344985009284
-0.002173524038570464 -0.04964061223413178 0.1795194371493817
0.06005919668160308 0.01635339352622535 0.1680422144869193
0.02243028967961283 -0.04948676174792172 0.17852996717788988
-0.0013883454697180102 -0.004422217805263192 0.16994659990777555
-0.006398376102802013 -0.04658994645493333 0.18429582741828135
-0.005906800299365668 -0.04805895993097289 0.1747086822860186
0.030345655649270407 -0.03289225953648324 0.17786418738967216
0.010659672953881018 -0.024879777570428988 0.18344497387439285
0.016677781974350322 -0.01739027017947368 0.17504829928570656
-0.004345382882701964 -0.03036516469297166 0.17204415528013256
0.061713091480678064 -0.024236526124896067 0.18104967410037073
0.052852197750623914 -0.02190697623743505 0.17367255946612237
0.037466982809983326 -0.03082042906726208 0.1808245377772215
0.028263042280453135 -0.03325595941954716 0.175481025432061
-0.002145841755722312 -0.021548443974284574 0.17111829815404123
0.05672335721950744 0.01746629337602429 0.16776368703620248
0.030243233705533973 -0.03157552388919512 0.18494377046151148
0.03001459135835006 -0.03187264443772844 0.18570702167362896
0.03067365835618606 -0.03985891277457246 0.17531721361982344
0.057433631535756174 -0.02119581328777813 0.1869181719415742
-0.0031403701227515554 -0.05089441552811317 0.18185096308348112
0.030123581711151388 -0.012689792270651892 0.17100864124541648
0.007071417994655799 0.01997308959215006 0.16641307565374752
-0.004542439170980613 -0.04757726329160717 0.1845444006199806
0.006125328560310095 -0.02567828762065749 0.17206585069038416
0.010477227211003672 -0.0010555975160274136 0.17481965391654564
-0.006692967645854699 -0.02305601898502564 0.18062991712311866
-0.002674064073163736 -0.031947756741778986 0.17341427447484348
-0.00089979033087852 0.0009091163014410472 0.16730417425682836
0.00983150416483743 -0.027263574896190863 0.17447857592451424
0.04337381741405842 -0.038486818437372394 0.17575727363483953
0.02395371348561439 -0.03820855068539564 0.17575442047574363
0.017286836873558607 -0.0154864263025376 0.18178182176847507
-0.006187065847291472 -0.04760037631705041 0.18118333678741702
0.013647110944448836 -0.016218463195392392 0.17296133125142263
0.05671538472637244 -0.02202859507879329 0.17492872419694452
0.029344973234930863 -0.03616664255219664 0.17681912794515864
0.00433460581050809 -0.027970288738805145 0.17260541691399756
-0.0023716108281606266 -0.002958673396843088 0.16966901427486147
0.0443352573819337 -0.03565169769005199 0.17750989002458095
0.014738680757592743 -0.019027685229109918 0.17304139712510913
0.0671480408827364 -0.048751395291873584 0.17850620913310458
0.004583872002251722 0.019133387671112865 0.17466490662262701
0.04390341593092102 -0.04558307408654151 0.17902832141339503
0.056872368895912545 -0.01513965042873142 0.17386812813216887
0.039593455371014136 -0.034560096921509506 0.1749537832669801
0.027849154955852953 -0.03097377217338718 0.18254060891015014
-0.0016534868445221233 -0.020917969372398725 0.17144020144222286
-0.0014622622704645316 -0.02114988296187726 0.17207759626790758
0.03616647756039558 -0.04453479522531684 0.1828851582484965
0.017233434264411818 -0.020896824572370503 0.17382770605685066
-0.001693498320485003 -0.02075889448628964 0.17243889168906112
0.006161999788808313 -0.011468256471527528 0.16986336563351756
0.03636263235160335 -0.047270176119067656 0.17890236920120028
-0.00040753793211274324 -0.036657531164913604 0.1731571106425794
0.016041505039488736 -0.017078646476310598 0.17321786436990852
0.06594941601567231 -0.04350460461940703 0.19081667774787983
0.06853825511672615 -0.04665319513552682 0.17825219038179105
0.008446017665930382 -0.018867478032193144 0.17085253718006763
0.037597642086456357 -0.02154685830870825 0.17497545985609292
0.04362841529060137 -0.04102285856610285 0.17757056533925425
0.027907390754786092 -0.011381870252639422 0.17290041620031543
0.011500184054963202 -0.019343596765536354 0.17145150916254462
0.011798633628197684 0.02181543362041258 0.16692244823692726
0.005667730985078289 -0.025795119048228895 0.1740367197962323
0.00028389061410448967 -0.018265872975417416 0.17070769926676563
0.07161498031988328 -0.0015059345439163707 0.17140677012416028
0.01375420050887629 -0.05071946292112582 0.17661870283611805
-0.0031366205066123646 -0.021948196049366073 0.1718939593651848
0.04345844444660288 -0.04000124245522588 0.17813954857222528
-0.006488017898971519 -0.04894401899511775 0.17640694736848175
0.00751593074967755 -0.0067716776654925676 0.16966452978872637
0.006267514806384149 -0.02853504911623072 0.17334455166417795
0.04346292096235889 -0.020051702033348117 0.1816489898965248
-0.00453411541248797 -0.03854392494988715 0.1798634072680584
0.028196317440813634 -0.00963420656078301 0.1720920115660208
0.006591229335464587 -0.011262514253728744 0.16957744227726138
0.0758008008708777 0.01712642253591759 0.1698358673688044
0.06790196399996469 0.020378279379918193 0.17772694634295524
0.04750575650196732 0.012847380521833486 0.16794072725294373
0.023834462391162384 0.01678760210325521 0.1727383682675974
0.01565848210544523 -0.007293985564460778 0.17163656046371814
0.03146332782826612 -0.03350087968074035 0.17596235077501957
0.042400238883408554 -0.046680263907295794 0.1780169466352109
0.01709590791943212 -0.02084297992093303 0.17381228308400604
0.07218166013614194 0.0059552533070800565 0.17248706896843466
0.00732925723554188 -0.0073287690021144325 0.17047755194339878
0.017116711476029847 -0.017881431855732162 0.17339767458727529
-0.003260838278412726 -0.0481935735229098 0.18798599637751767
0.011161013076521252 -0.02412564204881221 0.18171371113565876
0.02771942024712566 0.012058451472235996 0.17039161595891877
-0.00023045526844563298 -0.03559644942840849 0.17447401220349973
0.014435516482401357 0.021168309164969493 0.17485570278611068
0.07587100946440996 0.01983504842145243 0.17756488225496023
-0.0016549924548744412 -0.020763707143987474 0.17244161783653483
0.019814939204426993 -0.04653745853630896 0.17738584720540693
0.016753330312939657 -0.016297219972608416 0.18406690663038608
0.0018566602363070833 -0.04883029634084662 0.1861611226416694
-0.0043685765540433415 -0.02819569942997619 0.17274511203913542
0.001459817091604582 -0.025982173433020065 0.171597066255759
0.019634185515557206 -0.008514097001031517 0.169821619459203
0.031520427762696424 -0.03358155483865109 0.17509435759211184
0.02863260212339796 -0.030628791219557694 0.1825273694829652
0.004533605457777232 -0.05234149911643987 0.17694845337532844
0.04564125972227222 -0.04029465440629664 0.18271448934025197
0.0035164852435780776 0.013497891558610055 0.16557834464808
0.05396290456442922 -0.021973120331431766 0.18686032520101814
0.013920338975203114 0.0223015698378144 0.1713733178071161
0.027666486135604962 -0.0320580243494762 0.1746230758603049
0.028264391418683983 -0.05013592882701101 0.17727414342635875
0.029356127889307734 -0.03771941422560617 0.17540412304381645
0.014867040458171797 -0.016764183139115367 0.17092196822683395
0.009659634777198922 -0.017317802106196847 0.17288313441016284
0.040783676516428134 -0.03242501452596882 0.1768267565844737
0.03998926455349466 -0.023737913411392836 0.17433400398541268
0.024714970555826665 -0.0516546905433636 0.17843158053682695
-0.0010725706666597657 -0.02199099983967924 0.1730563388556532
0.057136527193461475 -0.05530870625952697 0.18235445360286018
0.02965770722080935 -0.0022384696218251867 0.1759892107803838
0.00349618289941709 0.016333145133758435 0.16520308271623874
0.051748416647824154 0.0157918132610321 0.16770207740349402
0.0705811725926254 0.002420845796649607 0.17240092620491745
0.04245793292208514 -0.019404861282676333 0.1737887405345191
0.0361296677856129 -0.043633118516682855 0.18766353958317752
0.05444037589100829 0.016519709676132824 0.1776334629298997
0.009271823182295693 -0.024376736663113727 0.1757513568998637
0.04375733335671744 0.009624287252399853 0.1682480136066729
0.04062048359684432 -0.04471520395761984 0.1897023253477359
-0.0017913129356168025 -0.021189195737714425 0.1706864031062764
-0.0007550239714177367 -0.017161162821199068 0.17232342199970302
0.05357023016338248 0.016729873876184395 0.16765021684211684
0.016907980879455196 -0.016618859279505797 0.18193801672983861
0.02235282204056281 -0.036403727288679785 0.18528711603443204
-0.0037050849533332886 -0.047631822610080816 0.1746900023664297
0.02758886256491227 -0.03252992331817285 0.17395608747852093
0.0032612779694789415 -0.00589902032689164 0.168574224049918
-0.007292865539692755 -0.025977606147292998 0.17335498937157037
-0.0021032686799630114 -0.018118190255079044 0.18228661189486867
0.020569674544004567 -0.013347559043131025 0.1717238184714194
0.024106428136494936 -0.05073335022455491 0.17788926337527974
0.06489445639950572 -0.050708182704353885 0.1809025087650344
0.07574473328002192 0.021726145968689294 0.16911944016179134
0.015593371963231196 -0.019724871972012017 0.1735615887482994
0.012547197590269489 -0.01860943596858413 0.1728638518085888
0.020413278888678665 -0.014795785560638921 0.17304474003796128
0.053211157141498856 -0.05465648217200075 0.18205147388609905
0.07587940206770427 0.017057825356679733 0.17537205801339734
0.06939562860146896 0.00021174667646019912 0.17213051589194503
0.0225522608557788 0.01664561130820076 0.16717296906708157
0.0191055273471051 -0.008612441993277788 0.1829957097110455
0.008978628684106156 -0.02530428563350713 0.17298274780600975
0.07461647353994645 0.0192254610673096 0.17000151702763178
0.04371148808104819 -0.01986106942855187 0.18338158260037232
-0.0035446759147317406 -0.023610250105861756 0.17207613794625212
0.046330352800794825 -0.03973232721088529 0.1778773766932156
0.020558550542103544 -0.04110408247575505 0.18155056237468956
0.02379701019628315 -0.05234771903906062 0.17716673297262905
0.011052599225049257 -0.023278754825530244 0.17240705436890086
0.04457338463990017 -0.04547032051265781 0.1768366695877141
-0.00024635278492344745 -0.0038324732000934586 0.18125933168403024
-0.0008235910364523887 -0.04975351659863098 0.17627157418170483
0.04645783995214754 -0.04101705017390572 0.17734702456789522
0.03719704123661698 -0.02283046547886702 0.17496993675301062
0.0058464801191106235 -0.028366468536049932 0.17384890950168394
0.015658748520281356 -0.052250240932862194 0.17805839029698492
0.04983660227009051 0.011327115678761874 0.1682963903526852
0.02505592487072244 -0.051475087506502704 0.1780899547159456
-0.006115758711781985 -0.0436900956889906 0.1739545993532105
0.06181865375607035 0.017451281534721357 0.16802796288204572
-0.006663682079885271 -0.026758448853779072 0.1713654707238885
0.03340987458729343 -0.031257362752457475 0.1741235421750061
0.03717094183277913 -0.02231571619105322 0.174336592190235
0.039616587225506344 -0.044405159172008074 0.17807306293438308
-0.004870101351491267 -0.045566872088526694 0.18749579051578136
0.022916848656748715 -0.03734541697576924 0.17556721968328892
0.04090967727773196 -0.03303905497099599 0.17806559681147807
0.0459115825262644 -0.04204372214409374 0.17643951359865997
0.008027570612802487 -0.021809782074290754 0.179553317853819
-0.004095871250947746 -0.024983020336750903 0.17152455354395033
0.07443748739396781 0.022126705637028597 0.17451160572856847
0.009206126070610544 -0.024178496483991126 0.17702927246063996
0.026789414933627662 -0.039228904994116943 0.1815799964587033
0.011137638935027117 -0.023999660032458396 0.18169296617262196
0.02876770893975419 -0.031314887484976094 0.17826728452890736
0.046379195675433055 -0.04177566047414945 0.17782876229794703
0.011662191912819968 -0.025806991335518777 0.17215999887014763
-0.004910843883062937 -0.028265443974130895 0.17387609560079997
0.009111220453867218 -0.004441325536740551 0.17085744168201872
0.007525449114078882 -0.006509978669353954 0.1703606209762357
0.01464129445016496 -0.019044295385228168 0.17230276484819343
-0.0031189946208735643 0.0005082456889555775 0.16731788038137213
0.03671567386607937 -0.04640054256140935 0.1832028214099729
0.07211041624294467 0.02171772049834914 0.16782960668191124
-0.0037577443013804487 0.006808097282127716 0.1678986086632322
0.009179194962212736 -0.017893410043718777 0.17211949984225
0.07187864878349712 0.021142668596200453 0.16797250646725212
0.030592552850830117 -0.03329100399571871 0.17429417903886066
-0.0031114154456085737 -0.03171373358454618 0.17887699539564755
-0.0018800281742371947 -0.018168575921714773 0.18339927261665656
0.00997306567513008 -0.017373625081634102 0.171251451106593
0.05249136588376091 -0.014850525704927883 0.1856797618508761
0.03741165381163327 -0.031246982121520862 0.17760776462055078
0.008103556624551297 -0.023834560090229204 0.1724336919396986
0.007704906328265182 -0.020394383012788845 0.17160344938350122
0.022469250857046406 0.017586615549809635 0.16926413520356426
0.005867506958821364 -0.02546364125320278 0.1728475268022413
0.024874700201800923 -0.051556998897884274 0.1784246374858305
0.0034535833833682136 -0.02608587087735512 0.17834146153810915
0.031074800482052647 -0.03418568880117905 0.18757816561159374
0.021700651406758698 -0.04080631165737118 0.17582071446567168
-0.0021892879141521323 -0.021417345756898805 0.1719633965227412
0.031277832431916334 -0.03464474721117488 0.17617946166644693
-0.0012919367158131132 -0.034642856280724575 0.17286472040401377
0.03234850805041295 -0.030314993971477917 0.18048299208730512
0.028427397042535375 -0.034468850622934255 0.1757723786884868
0.06961991063516604 0.020864672489697835 0.16789951058449343
0.06951924929597238 -0.04142333807767691 0.18083703816624044
-0.003991690385094752 -0.024312988831866916 0.17287208127993442
0.05955148838576082 0.019209029266820977 0.16867742680046313
0.07592325587909604 0.0197978812339755 0.173637215582485
0.00823729743552618 -0.022410556836676285 0.17801724706720165
0.006552352344372663 -0.003417628520782246 0.16891063115290664
0.014641415185369166 -0.05143149638521817 0.17787907960186655
0.048087780942176 -0.05398316489231901 0.18054652516723366
0.04322362604961375 -0.051048263437213866 0.1886318495539127
0.06860797760715295 -0.044315102263107295 0.181238782966869
0.029163422410547753 -0.033812827404202925 0.18742206130010114
0.012071394842446511 0.02152359317910375 0.16477313990134934
0.004033867425639326 -0.00835164524627318 0.1821804250780381
0.008338794220949745 -0.026027003429155704 0.17195766600847678
0.0672660547744091 -0.04835815590175734 0.17955557559757324
0.027265368793601537 -0.03967134014386969 0.17839300008846765
0.016032614926610546 -0.05160658555338018 0.18950731775894736
0.028528622165016178 -0.038678280546673376 0.1768907109102657
0.02943108702981098 -0.03651550958897628 0.17540527296707933
0.006502305057060148 -0.001673310123566689 0.18127133126631467
0.02658414521943229 -0.04095928406933889 0.1818378734582468
0.020340371497265003 -0.010791519738147567 0.17076336275946713
-0.002063780431326304 -0.01735549947168578 0.172286286379503
-0.0025039012753114865 -0.018821235082479622 0.1812817095042232
0.044068364271712075 -0.04209957729798281 0.1763534191936817
0.028717828212192154 -0.012735251710520035 0.17100903240019621
0.007805445682274311 -0.021135914813460208 0.18271746218275595
-0.003946913473442139 -0.05203101650084867 0.17646430892346357
-0.0005859882744614318 -0.017220610259754947 0.17234133400314988
0.06216891729282496 -0.027535227219987524 0.1750246261442852
0.04312011544515176 -0.03910379362945962 0.1776148367084516
0.03181188511293669 -0.033567731069199726 0.17461025765815466
0.02169427374050182 -0.04434419081839776 0.18867178227094222
0.04334009470396622 -0.03466558136273919 0.17564929875455626
0.028203490995847284 -0.03150765751846457 0.17530150451614523
0.0757697339759379 0.01859817190741379 0.16988203458909673
0.0747529497947987 0.021295467297226284 0.18121697374666415
0.06133365255466789 0.017859647116360428 0.17121978328310392
0.07256643172341036 0.019131764827858257 0.16935850552660411
0.04213997954735491 -0.050480252307064405 0.18411455896342777
-0.0017291041125701966 -0.021015782325819382 0.1712148470832468
0.045172472123825 -0.03801944717471771 0.1790573424248513
0.014149368926431923 -0.003994926822448584 0.17983787525612327
0.03806061022454429 -0.02386415889101648 0.17315013507575447
-0.002857569896598097 -0.035199029637689644 0.1794307116621783
-0.003865323125295939 -0.04979035530817298 0.18820262524340645
0.03563914303058955 0.00026618430070669136 0.16928236234568628
0.024818961489915924 -0.051233661170701134 0.17781945873920257
0.04361810799118335 -0.03483955888133777 0.18832444527623982
0.04643978078779437 -0.04075916589697963 0.17767419042620142
0.07055363401423606 0.019091988453427966 0.17036550051299737
0.07446900580621046 0.011840179855343365 0.17610895178554883
0.04063887236391461 -0.04715285288273899 0.1784729804308673
0.010475597177397166 -0.003771182537674486 0.16868063085356816
0.0399031744882673 -0.031186109187273846 0.18756671060836985
0.0244221224027876 -0.05102481016526922 0.17721450413305492
0.04291570646391262 -0.03753406765996484 0.17886602719632008
-0.005573335444420916 -0.049881885367064865 0.17500861191717793
0.012968005760692933 -0.004900553984276575 0.16891835307274772
0.03856250174169928 -0.023912573231900467 0.17318344751984074
0.009810330471343864 -0.020858975673372852 0.17348395625897542
0.010296245345646061 -0.017162134318139698 0.1709591840109426
0.01848115725568434 -0.040160071142316504 0.18785752416300816
0.005977205168958799 -0.01146612135699501 0.16957746066218332
0.029261112952302996 -0.03135543514223872 0.1742279607761665
0.04577042256150014 -0.04377799288456654 0.17810808286606836
0.017160319603523558 -0.015231640888454063 0.18392252888486285
-0.004452504286910287 -0.022606851601822343 0.1784886844819238
0.028663102800294674 -0.050954262062009356 0.179078043565976
0.006497057063009723 -0.003250775729223346 0.16998621421399843
0.07588857368970203 0.01782674220128378 0.16862743894689808
0.020508759568132473 -0.04756102453682845 0.17758029972546202
0.025073236309279146 -0.0514613376417766 0.1776838020454084
0.011779869196374474 0.020851220046274994 0.17476836637979065
0.04718109259738737 -0.022139482259175884 0.17997728031530733
0.06814252037889207 -0.031780266835783756 0.18583055171542426
0.02865195163784447 -0.034818042290363366 0.1754699929860927
0.0725940793665637 0.019048338424619966 0.1688207139479763
0.04068521986710645 -0.036077891132696174 0.17517975410519013
0.027037437776436923 -0.051126739845816276 0.18671853141233744
0.028331066225941334 -0.01167339348244322 0.17410452838798823
0.027779294648753013 -0.03777400517595892 0.18796539249988284
0.06760306021846552 -0.0406301918168793 0.17837407914625414
0.06616581751738845 -0.005043684057367768 0.17174104241336557
-0.0016613860082292254 -0.020894133748760972 0.1715938530101457
0.026818785155941244 0.012364613101458487 0.1691607126518637
0.00023920360969121625 -0.02036566589453825 0.17066303878371483
0.022236981294946504 -0.03960581088765397 0.1770309598146236
-0.00396277280859734 -0.02460218815212118 0.17157748858772726
0.04403848629473707 -0.04043660930356581 0.17937401362923233
0.02179865188081362 -0.03999531485674057 0.17488211294847741
0.06329473387141475 -0.025301729446315955 0.17632687441107547
0.0229326208062107 -0.03720889320201041 0.17665115356191063
0.031507346856407936 -0.03373658788677013 0.1763324676998667
0.05914894142233737 -0.05526849389054285 0.18076241799124346
-0.0054190308835979275 -0.022742123491533334 0.17080641416921227
0.055732129724712975 -0.0539820499236384 0.17983504335512152
0.044021841364710594 -0.043159290519012 0.186355720021286
0.0027181928753890958 -0.007780753614572384 0.17546402356784485
0.028029136665036154 -0.010903987944654185 0.18052984881718692
0.03222480418914112 -0.037765139449204524 0.17537464599473646
-0.005814229306637408 -0.04234464851135154 0.18038719487554317
0.007758027331392421 -0.0026470245682596524 0.18148693757152717
0.018153975213275702 -0.006148113206081 0.18256450500244445
0.05807220588199334 -0.05187730627735292 0.18843044972473028
0.005666268541753963 -0.004653651934155706 0.1685046724130578
0.02257990849893214 0.01656218490496247 0.16663517748845375
0.005315954024171095 -0.05002615226276434 0.17559080559606466
0.062470787744275204 -0.01103594100775233 0.17351934128269175
-0.004061731030689459 -0.05184178087403757 0.17753335216742866
0.01640599281725636 -0.016389044142551053 0.18187655902315403
0.04488948619813381 -0.041239823896788416 0.18938266508407256
0.018972934232011768 -0.04166904112686168 0.17827658832903776
0.03162309007305533 -0.03405349004189153 0.17605628929388825
0.031030941783847497 -0.0338628869345015 0.18260568283876477
0.04283045511062303 -0.03852719819465726 0.1778785987144818
0.06817800790405548 0.01862315703813158 0.16976395224115468
0.031146760203138165 -0.010881708822649466 0.1724372148431899
0.07016298074112154 0.00033702117824562037 0.17111183817197412
-0.002599155649891863 -0.05101604371049458 0.18189765460376786
0.008625198210778572 -0.04753418503884748 0.1841212929877855
0.010124458692736246 -0.017834004164464075 0.18177778135799516
0.005692789357320503 -0.005706624735358476 0.16873498949083518
-0.0017962479532794302 -0.020813176660703255 0.17252090387405103
0.030244044478464918 -0.03220120479497784 0.18558755494297183
0.06770845179365076 -0.03942232611754072 0.1776399690989972
0.0652940887244044 -0.030010329347006624 0.18868965093890663
0.021875185778455125 -0.0529331531116412 0.17826304786204722
0.026406116771236138 -0.0491840761170408 0.17982451572481942
0.0314934461152332 -0.033558548423879606 0.1754206905817746
0.06198539178582823 0.02130957520985923 0.18055841032868827
0.07596080528723406 0.01939597023443683 0.1763255699458017
0.059202410288207205 -0.010360785337313112 0.1732465799590936
0.01198815822316747 -0.0014190367390292564 0.1694322013065011
0.02449272221089597 -0.05169850134860193 0.17886866733017853
0.0023838679131514776 -0.02668694362629611 0.17285820251394543
0.007519644992890425 -0.01972865319470414 0.18248446394380827
0.05212390248460589 -0.020974063396482855 0.1756333925173354
0.009213737014412186 -0.002378749953643077 0.16839975419477296
0.007945834267876178 -0.02140951387501161 0.17620692022762952
0.04388400361788121 -0.05205748644123421 0.18444889132037903
0.021206693251551598 -0.04844890958351643 0.17720176124214065
0.03808827121015357 -0.02327411705716849 0.17312563358830751
0.04180685659795257 -0.04983526373986883 0.17921207153869387
0.05889366600306143 -0.05315734872132671 0.1788309491561056
0.06777231773775248 -0.00565233418727254 0.17191805045843345
0.001216894733530748 -0.020156204175896246 0.17178510991858453
0.043865117480974956 -0.02100019967248173 0.1752566065701504
0.003703009289623754 -0.0275059306212139 0.17360522123117855
0.0754490236612081 0.006736060731635498 0.17253391787188005
0.020561682484560216 -0.039787533753233455 0.18353322205331676
0.013475848072768377 0.02163430354177692 0.1780141803235203
0.04078367368796505 -0.04860292978671324 0.18812707347676122
0.023020894824543177 0.016274195783380307 0.16725467820464876
0.02411534366836731 -0.04179498806372957 0.17668718509847753
0.017683278879984263 -0.012164516322543653 0.17249620895964365
0.044898857424244765 -0.018576189027986176 0.18586738793168903
0.06481921481745814 -0.04686703125388436 0.18030277140388062
0.028068396486485164 -0.03263501212517532 0.17406265065186857
0.05074893332123205 0.013858685235822218 0.17457638642714451
0.026818763772309753 -0.048295488849255885 0.18954818620382252
-0.0010288726331454928 -0.03773191111969572 0.17439613600328996
0.0740186853200028 0.008665524192306151 0.1700180763320778
-0.0016829375774475332 -0.018763294231375193 0.17956554029479674
0.04792278320831697 -0.01707964614030097 0.17260467905003332
0.07562195043965368 0.020776295062245622 0.18134218673740382
0.006041864389685278 -0.003564558459612309 0.17498084323652421
0.010312216374785708 -0.0208555256156676 0.17346548248631583
0.040607275333361656 -0.04705750925444403 0.1790875940110116
0.007226734975779917 -0.008225113934806641 0.17024323001556518
0.04723994602795091 -0.020550740469621333 0.17494854191062806
0.018565257225965845 -0.04310968307973438 0.1762377038553446
0.018594571702879724 -0.007733542067260185 0.16971269594420807
0.027808076529134754 -0.033476136177723444 0.1748503434761468
0.010692634045269794 -0.016806359374292278 0.1712004451607731
0.04063556048631961 -0.0235423789710138 0.17544119863900823
0.012616967740334628 -0.04943670363534073 0.17801770294326863
0.007805684027950111 -0.051638896858762565 0.17590337470475514
0.010316250223157752 -0.016447007046693086 0.17719901304831193
0.007479067606690693 -0.006660443611493986 0.17038157781159516
0.03148031282134464 -0.03625151184624449 0.1813592772522259
0.010891150573408323 -0.026286193424337273 0.17547480045079664
-0.003385714871004113 -0.04845932037833145 0.18583406563022978
0.027516430203833042 -0.03254545973473834 0.17542717493803364
-0.004001926519922988 -0.02051667323529669 0.170534037805344
0.05825161324546556 -0.0529579460544351 0.1820471115504666
-0.001979675030655835 -0.0328861053204027 0.18239714483094113
0.06761748625929226 -0.040117322342432093 0.17884741507495994
0.002777934634817115 -0.007196061002068172 0.18193659489554873
0.003288829241176971 0.01869874820684015 0.17794585601385893
0.05659028534738268 0.015343112301498926 0.16912490361543864
-0.0017166809122197008 -0.020727282095918568 0.17266942873072993
0.009783847384414205 -0.02150536787649095 0.17576960323048849
-0.0036225640649371602 -0.04523665654045942 0.17542698974765655
0.06624579725457592 0.01796835764626179 0.16810973930233747
0.04240098512588113 -0.019238747274798303 0.17486434564398665
0.0744461938704145 0.003852869476308654 0.1707210223776611
0.027972015990441627 -0.0527627984082882 0.1782187676053085
0.021478676660226566 -0.05311623957038644 0.17793977624559262
0.02144835769386408 -0.03757495710823331 0.17479113076634656
0.00721103112129718 0.016931723444878224 0.16744420050772119
0.04065718146871798 -0.04441600244954159 0.177576086963489
-0.005065557794662658 -0.04169836476043536 0.17376522533146394
0.0177187218194223 -0.01322906576379596 0.17266317223735808
0.026678524677935404 -0.048853566150744876 0.1786501409712603
0.04032677490540773 -0.0474496483956533 0.1772409198600349
0.009305255492024838 -0.017676124328798747 0.17264442810064393
0.07286604215371524 0.019321042438288732 0.17044884782958278
0.025730527497368618 0.015456264672249836 0.1796025736706614
0.029565486969493633 -0.01301654358375132 0.1721349397894328
0.022373786472333956 -0.052902577087332384 0.1774004938055214
0.047812193401983935 -0.016745942839588725 0.1747558304591472
0.01886349343838934 0.018466902897903648 0.16559649640564178
0.017810750147968284 -0.01023513762021635 0.17880740072581192
0.010643802154783747 -0.024562994272557155 0.18503506936510336
0.022613757980949983 -0.040851514200549506 0.17565381095870117
-0.0017066738272486087 -0.020848289727444375 0.17197880877303606
0.007826115403152877 -0.019406838557866013 0.17311294148215792
0.0524486852060543 -0.023858525558694464 0.17554540253738093
0.017336767777555037 -0.015254252647890465 0.18174837211654152
0.031197009354877972 0.007893862424598448 0.17449653968837917
0.0456842568024201 -0.044009090239263984 0.17777140345219633
0.028023032651595635 -0.030862220375401754 0.1825322431101353
0.031202055484501105 -0.011048561614208365 0.17136163178209812
0.00692041390914214 0.020760063643023578 0.1745326846772824
0.02476093547507615 -0.054319168809223245 0.17725643011193573
0.06780703051040977 -0.03172393583204389 0.17596426420500824
0.04004105113737035 -0.04750625893071969 0.17755052327262713
0.06625853917526606 -0.02843279899506979 0.1775171053073456
-0.0016477490192028429 -0.020742921382790935 0.17283315755786444
-0.006403772146685086 -0.04927280316985409 0.17591012737565054
-0.003995275748483702 0.005505740750537745 0.16864057600302157
-0.0046911164851774125 -0.024751939888836866 0.17334234967520595
0.028071526956301652 -0.032580595365007424 0.18061457192451788
0.07561049367485172 0.02081941945509995 0.1813349079593638
-0.004454430599711082 -0.026369009681850478 0.17282542731107192
0.040264391490858045 -0.03231488192988962 0.17512651938271137
0.03857784968874683 -0.049988807486697234 0.17943798780629544
0.01085617983532302 -0.004106047902058815 0.16979083678896884
-0.003309188270341607 -0.037683054777275994 0.17323263351837018
-0.004025485451858237 0.004022384140015621 0.16776483105752052
-0.003333466325226844 -0.03142183710249329 0.17882029860397416
-0.0034794898670946575 -0.043839060172848124 0.17632184080467542
0.03794632016153042 -0.021430103416464306 0.17442312624580913
0.025074376660832697 -0.051442211131715966 0.17808580327646573
0.03143858862898548 0.0064480334549345975 0.17473324738939106
0.020111180596319365 -0.0099081450997911 0.17227100057030995
0.006857878224542599 -0.05184065162690141 0.17643809324613288
-0.004278863058986138 -0.028723666188581624 0.1731997257566651
0.06710875116375929 -0.04305063034028524 0.1781719894457528
0.011252732521795084 -0.019268022829005527 0.1728994689983302
0.003889457186544888 -0.04928122493398758 0.18196211296058373
0.005866615362625763 -0.011132418056282768 0.1717286120712972
0.005750924562069961 -0.011355840581182858 0.16982479360040903
-0.006414581765879134 -0.04490214090416493 0.17523156060816605
0.0027152867305047027 -0.022663750511831504 0.18433284222725954
-0.004223568154995663 -0.028890517841424025 0.17212415003608086
0.03169288834889664 -0.034236304341184944 0.17553608258236825
0.0299783665377038 -0.03171576922618668 0.18713864530250462
0.0327423181677303 -0.033186814025689425 0.17653152992018187
-0.0018238781489709859 -0.021225348572572588 0.17069033725040422
0.006334689554070957 -0.049383744791910184 0.17773025854726895
0.06842716839634717 0.0184031858204092 0.16815442877177508
0.010444440057998489 -0.01709701208729862 0.18386663914522006
0.009006276327259496 -0.02538771203674542 0.17244495622738193
0.02931748220945304 -0.013033751234164833 0.17267701393625187
0.0320341040112772 -0.03834301436866902 0.17619068906859417
0.07013224847405378 0.001721130620206653 0.17303853953084938
0.04547276981242726 -0.037497324027563186 0.17675037528362075
0.022398691585056495 0.016760779330398712 0.1671472083768684
0.017000019495529154 0.01995448906517606 0.16861564136026835
-0.0016351388470419708 -0.019101027582577187 0.17568427112458535
0.031054069363699865 -0.011145269686147114 0.17192118066697729
0.040411499559539335 -0.050417652480429384 0.19057618963363726
0.025083592468112186 -0.051481468509734535 0.177871505106153
-0.002992403455888349 -0.02281080266657431 0.17134948125709057
0.06883604290288997 0.018828346058957817 0.17031809811691836
0.009498451240648721 -0.026670418738296894 0.17874290530102016
0.00779948199572824 -0.019486458043807973 0.17312392346222247
-0.00161854092323078 -0.020923059650244602 0.17136390624249415
0.04741306687599843 0.012546404688195702 0.1811686641363103
0.011036539579343514 -0.026477364019594232 0.1738718772887609
-0.0005931812649691316 -0.004643167103690171 0.16824685853401797
-0.003038602110781396 -0.031395825141233194 0.17386206839650062
-0.004056101390779233 -0.024678940731371828 0.17213675171031181
0.010788265826222939 -0.017657869417292464 0.1795978494653397
0.004061212244083599 0.017833136824373007 0.16659028829874406
0.010439342200142854 -0.003939632200054447 0.1708478933091784
-0.0016118217804039284 -0.019043627530227446 0.1769886037090017
0.028447792954135936 -0.0421243357664086 0.17622480686862804
0.02378977775223986 -0.05051390992751642 0.1780229947122547
0.056051358787923396 0.015311554013699264 0.17020639485611402
0.04670489760115573 -0.020603844712105482 0.17364091616697566
-0.0008264658844112094 0.0005800799053706195 0.16791113359691365
0.010671705431592689 -0.026154567679274467 0.1770831457097774
0.04189660495003428 -0.05381445389324645 0.1790977659384059
0.04196003888233699 -0.05377063926756825 0.180198531852142
0.07356748787404208 0.019177921903727992 0.16940280916643816
0.06898058704392629 -0.0006906411106408312 0.17114486240834856
-0.0029988968398495745 -0.049371417416199805 0.17610046841744756
0.06930952907932336 -0.0370099140402637 0.18998191296898487
0.03182620999454795 -0.03140348639270289 0.17406479446482132
0.037322062122924916 -0.021786175625158825 0.17499841716324094
0.029626664389581704 -0.031087373808162864 0.1753094716023092
0.01702016575410698 -0.004583036990851188 0.1696295643271596
0.07037584692012931 -0.037539464551179826 0.17914147103347258
-0.005007466255153645 -0.020846881504203687 0.17102010663200326
0.01534785255567603 -0.019654108222944396 0.17206558826005286
-0.0001746235863302071 -0.03586712926533282 0.17332254493701174
0.017908183873156572 -0.021291939892160786 0.17171508457938556
-0.004741899319897812 -0.024975983994168744 0.1733744944109529
0.06724489549372802 0.01853308116879865 0.17028210166633476
-0.005220534328572259 -0.020833292626068915 0.17708070802439244
0.017040791054597423 -0.017512468183572365 0.17596061513798456
0.0040857161052003065 -0.02791721762515447 0.17203224171265005
0.045632873371544744 -0.040578098892450086 0.18275802830980034
0.007060017578429898 -0.009296681307077802 0.17067696253034548
-0.0005943214259809988 -0.0012728131597051218 0.17428416634582936
0.015428551730563811 -0.003206077986575715 0.17540779868659254
0.007593209833539567 -0.019188285962046792 0.18185773760100987
0.015010735007322166 -0.0021322404381982074 0.18177993897126363
0.027623074935307898 -0.049640190349761776 0.1897981360412263
0.03115590516335838 -0.0351983269070133 0.1877394234514057
0.030031864657697097 -0.03196319723973726 0.18426413004228262
0.02177209491523263 0.020495233697391906 0.172057186220471
-0.003972238318340166 0.003189172614376793 0.16679252094378166
0.05493175419844573 -0.024267162013884472 0.17628859402917313
0.025314705421767284 -0.04232953424859708 0.17609556811237692
0.017099478658119196 -0.01797963228050657 0.17253732881395695
0.0012651450860704395 -0.02567319058508004 0.17264342819597286
0.013393149194319765 -0.05121390269120053 0.17619030393100688
0.03575603708929721 -0.044075245396792084 0.18935297082156433
0.0055243427434943405 -0.010753735275993992 0.16950927667536916
0.03545362587847979 -0.03328080236541843 0.17668549733151045
0.05359778705347251 0.016695695346186368 0.18084294788102181
0.03914813218158256 -0.04482423142226352 0.17870987699498767
0.008299164119195623 -0.04690663431592592 0.18838065133373208
0.028081524724708335 -0.03045206018752301 0.18465835748666692
0.02168546018273203 -0.03765675865796056 0.1767002542342151
0.052958020483493455 -0.014471861993123766 0.17245899880594276
0.030580404371233206 0.011555961283953494 0.16837523862290735
0.005895154601974706 -0.025547067656441068 0.17230973522361348
0.009342127267487092 -0.02843533704575705 0.17265891988765983
0.051995924054367836 0.01466004595369692 0.1745161804126396
0.017495613634296282 -0.015339540918800297 0.17958303434035874
0.009133222538853585 -0.048278675101516205 0.17572643277630037
0.012052391704879217 -0.024940933666829757 0.17382060510108094
-0.00039824904767859354 -0.002019638028698114 0.1678498977287193
0.06347008219941165 -0.02647556207845171 0.17492713501489984
0.030059558395624082 -0.03204134309969405 0.18354876764835468
0.01731612276402256 -0.01794926492044163 0.17341844903072978
-0.0034043833959416306 -0.0006797782109579029 0.16742189580826813
0.008110076302231607 -0.021905112075220487 0.17301214581437627
0.02207281098865005 -0.05303164301824621 0.17729461534350344
0.03025091780944178 -0.032306969283848706 0.18068416650781632
0.05434225021850757 -0.02442238475914984 0.17407376379851097
0.04225377149350038 0.005257503856395873 0.16891373378175525
0.07594748156677102 0.007652095090482839 0.17131313936223924
0.04156011263590486 -0.019711835218267276 0.17434235872817075
-0.00210553782202208 0.0037582345458945614 0.17670611989626706
-0.0003012889593270729 -0.0009380032721434985 0.16817362956959855
0.06949457959665803 -0.0401335698473111 0.18391578998572608
0.02852456912030108 -0.008609611812121207 0.1769192976383559
0.048064807400791526 -0.019705850089938942 0.17467583394250794
0.00901057461952901 -0.02388529114055458 0.18484597524223015
0.02415322234236878 -0.039653049212046744 0.18807046951210793
0.0028864289932734235 -0.02718780977290969 0.17185743545042598
0.007993665350265466 -0.005697524947509455 0.16989055837046133
0.01987163466899734 -0.044832084391804666 0.18646703137802118
0.04303790876320486 -0.05158087700656794 0.18214472718358313
0.016721579855451762 -0.017522429715441573 0.1741963593395976
0.008914092506443995 -0.024811550852420605 0.18061123356905334
0.05456286699577202 -0.05416278417720781 0.1809072706069122
0.07778260056301906 0.02057243256591989 0.16829887728949514
0.017258565696703858 -0.02112599451322587 0.1722080923232551
0.012752162784402176 -0.018867746496925665 0.17107395597013655
0.009658484291769213 -0.04799159475135967 0.1765371303587664
0.037169023043055686 -0.021075659244219752 0.18585773755286164
-0.002581488871769226 -0.0026724374903336033 0.16850951966403904
-0.005322361126736044 -0.040212823233537566 0.17566456953798412
0.00025382072425297365 -0.04965081777638778 0.17741533370366566
0.027572367314832417 -0.03138416991256761 0.18433942983386034
0.001622496574219751 -0.02113607882542795 0.17085366573691813
0.07510993884383223 0.014149172153427265 0.1713665062877191
0.024896492455386478 -0.047914023854403937 0.1828299851341129
-0.006497197782778038 -0.04493454073764452 0.17633664113264802
-0.0006813578750426352 -0.035647641928433775 0.17469202969134986
0.016270428313648753 -0.0165378752538779 0.1797059429903587
0.030635335060737554 -0.03369816319060148 0.17435954014871102
0.069216172489764 -0.03876347751996953 0.19024913992083564
-0.004594158509954221 -0.03904071338009376 0.17331157592619598
0.008144926286083886 -0.01914690557053368 0.17143255224601045
0.059165355773178614 0.01831740020018026 0.1677571988786026
0.053533371395156126 -0.05709698322692175 0.1813095203904827
-0.0033631808111199563 -0.018693152503953963 0.1707705355115621
0.062349761249410926 0.018130057673698536 0.17123007282764272
0.005771259766884219 -0.026123046696507415 0.1719061774396072
0.035319650542169276 -0.03342130900071347 0.17559610452821667
0.0023362596601740337 -0.00478823247713216 0.1700108115586041
0.007007527727768463 0.01963909245564989 0.16480514695943507
0.021390684030394333 -0.03779326004608728 0.176706275068507
0.024483809489324933 -0.05091427794415888 0.17848888589180578
0.029377252154938048 -0.037834879602736626 0.17487097383768832
-0.003639039279255502 -0.0486162567947658 0.17595041258271074
0.05262277175139868 0.01502394209205318 0.17449195600107556
-0.004010168552176542 -0.02445917211297141 0.1724994128044979
0.026156374721592244 -0.039243502717710564 0.1815497166347783
-0.002992314443800742 -0.03445578588497532 0.18149521868344454
0.019783356630119688 -0.04525090912131796 0.1777805314301268
0.00833585814418547 -0.02273058894454283 0.17479186096100413
0.02926506689198949 -0.03416067526222743 0.18748124766018093
0.027984705066482783 -0.03372467192375783 0.17637037968496078
0.027405083284506783 -0.03070701297710475 0.18684986777438087
-0.0036308894102060115 -0.02392347280214579 0.1714892629840001
0.008785160892048125 -0.019346356168991996 0.17100986802734097
0.008638901395200575 -0.02553610188195944 0.17410554536796008
0.005457899761821625 -0.005366591214549014 0.17195026822592233
0.018817075827841274 -0.041814609331112015 0.18157125631808405
0.04362134894918775 -0.04081371673317896 0.18487789945896793
0.011038697330839283 -0.023686705712407476 0.183279380795702
0.0044265806525972985 -0.04810070387653502 0.18836679675250728
-0.0064192088264842986 -0.029415690564294834 0.1816305525610262
0.008331647608136096 -0.018595563527740017 0.17273700586496288
0.036902726475428166 -0.048106385017338896 0.17795555276478614
0.017075647352952077 0.02215339388268276 0.1715585171129585
0.02972668832640607 -0.00010901957594169724 0.16903661002608145
0.02790285520852534 -0.011468610136137519 0.17291363879363156
0.007594166952307106 -0.021634450512729032 0.17261835343638215
0.008863308461603825 -0.0025414677571151817 0.17824728246816968
0.02921577042990671 0.00868254285411323 0.17099223984816087
0.03674750915228849 -0.03331151806343362 0.17461378510404102
0.0645043126293145 -0.04811555979620385 0.19145767272966627
0.030452570274831017 -0.03319424011565131 0.17718762016104367
0.035209512977666196 -0.03332840093876367 0.17612818436681052
0.03890693492891468 0.0037118418253513225 0.16898144938439583
0.019172419724264835 0.021641577964010027 0.1673285013761873
0.037832280544370774 -0.023742575487407214 0.17330358733023737
0.01489923377969863 -0.002829879678021778 0.16869641764037055
0.047652424578566416 -0.019916674839368292 0.1746873382830237
0.016858129630803343 -0.019280420278827013 0.18016160134051967
0.021765113293223448 -0.05308148876944084 0.17761782198214957
0.06590514734279353 -0.049929385724799435 0.17972935327181935
0.03622292231118398 -0.03091163797503479 0.17414891994626408
0.016380575403785253 -0.017063850290016443 0.1758570806346223
0.04003073582789053 -0.023863052441919465 0.17352732031977933
0.07650118566657714 0.021863055217043927 0.17728267920089794
0.028410605588394613 0.011095079553272148 0.1771367939018661
0.021501621350390188 -0.04348345743181378 0.17755094556777964
-0.00025463997552113444 -0.0361767849410342 0.1733664675189748
0.028336431916932116 -0.03225916123425516 0.17401812533573954
0.0063156065425217 -0.02483157589452499 0.1826674874723765
-0.0033046121900652784 -0.050398817228453074 0.1850457381378267
0.06488749471557413 -0.02763984779160943 0.17846071959369983
0.06550426189731645 -0.0490769385893212 0.18181791522830223
0.02076620618817971 -0.05310713448083581 0.1790060376466647
0.015547410224227379 -0.05363080691891582 0.18651628415423244
0.04639462482018355 -0.016072735178544725 0.1855559295270111
0.012758497689659013 -0.015892666651807844 0.1750518430036252
0.027800306980011867 -0.04032901570419453 0.18398935563425592
0.044663275652736666 -0.053346341466139105 0.17812868868121248
-0.004980200116472421 -0.028584235902216246 0.18048218190143842
0.028818428246349986 -0.039809992907089774 0.18396118198426825
-0.0022898607846028184 -0.049933646303366344 0.17737217896302382
-0.0017271930819134076 -0.03782094552276352 0.17497540345449406
0.03732194473175285 -0.04439498251048027 0.1785056647091672
-0.003257801748459596 -0.02014107361961036 0.180354328637804
0.020141607804120276 -0.05350210625835171 0.17710266849827772
0.021540667406238986 -0.04505231109784048 0.17565333057511007
0.01925054653580613 -0.007669353963193036 0.17022300072313024
0.07573014764494806 0.018743611616886754 0.16958136419508635
0.03176685731847659 -0.03442309215865588 0.17501670658873666
0.037472619983290614 -0.02207552159924438 0.1728424394425494
0.033230946641270874 -0.03321606184495194 0.17628511371644978
0.06125470501652609 -0.02723759916722799 0.1767063523023643
0.011071030986052874 -0.023334372424374063 0.1720485266711854
0.04085109369773256 -0.020223910924288796 0.1732810362460376
0.07394838695723127 0.004204225661096105 0.17070653357257165
-0.006543545407993393 -0.04634051335746671 0.18752977268485838
0.0066190402000983525 -0.010788713530060473 0.17116182872699603
0.05809060005878993 -0.023178207252192932 0.17413906678778063
0.017204307261303536 -0.018145750997283806 0.17169379424629266
0.07584508241336231 0.018302955112071303 0.16882740277657057
0.02800259534659434 -0.05215014876519472 0.1770866072863239
-0.004345203240000924 -0.05046573940226529 0.18172252354265586
-0.004315806473973156 -0.028345422861663427 0.17166674942289442
0.017672275210085193 -0.053339259326544784 0.17722653258931334
0.005594758088137943 -0.005925145081647806 0.168763848315692
0.02864847517768656 0.01454897248512024 0.17989333036206023
0.020954373910135323 -0.04684821710602762 0.18027525483706655
0.011014132632798773 -0.026173785447497745 0.17546368531000922
0.012995425498470353 -0.05002914264733163 0.17592045960649552
0.018403944946237677 -0.0061682487928119995 0.1710509234698836
0.051690723882838525 -0.02369193384156328 0.17603274013978304
0.037699779918357434 -0.023614905014582695 0.1736450658242223
0.01995108797177265 -0.017281156455259558 0.17285438193338182
0.006478013570635871 -0.04823984095871406 0.18412037393398034
0.015248941596651758 -0.05515969535038544 0.17904080652164928
0.027853123062125687 -0.049799401506782186 0.177200795560293
0.030692049377598687 0.011272333869776033 0.16732067496726738
0.028590510214023694 0.010610858359738885 0.18050126123227933
0.05848976505852974 -0.022601772502810234 0.1751088600878636
0.0031231069146134376 -0.023506438938428856 0.17295497650124703
0.03744152009489272 -0.021916865698984 0.17944203890325766
0.053178614577199565 -0.055177318853164764 0.17885049416339194
0.008666840819155445 -0.02704741932532011 0.17875863580918394
0.04004016759140647 -0.05176516396713009 0.17868442550283528
0.0204255278060665 -0.015002769421608476 0.17252533161128958
0.0681080904550858 -0.0472478045497185 0.1788744633021437
0.02928346858158217 0.0063484873060054535 0.1691163874654555
-0.0021686929862095253 -0.03235679100764279 0.18558541851034585
-0.007163161056111266 -0.02646851274780398 0.18113511718923928
-0.0018123752430398085 -0.03308037028440435 0.17363427334449216
0.050953514118324765 -0.05329484848981164 0.19156448322586694
0.029002731653429488 -0.04165743991595372 0.17728520926251876
0.04525565378673105 -0.03835145371798905 0.17583301924049788
-0.004725945094547182 -0.039336147440684775 0.1733506308564713
0.07680532017149254 0.022109663328895593 0.1811961808538333
0.01944418933812938 -0.01076955376149832 0.1833477481021377
0.028647523885309285 -0.04203848807630068 0.17622175759347122
0.06840099424979366 -0.04676152988238763 0.17881408666521342
0.01115103930113336 -0.024063331823733186 0.1817035323423052
0.022091263488445055 -0.03790952453270305 0.1745735920085313
-0.0016777854107227208 -0.020744290180610764 0.17251630777909444
0.04222729049585733 -0.022238109207070342 0.17973790717086605
0.030342763587258813 -0.03286415441573523 0.1778596788255157
0.02165481935551651 -0.0532093830148121 0.17707983711344483
0.02432080113329493 0.016649811540105537 0.1760648456087622
0.040739676805795204 -0.03606829867480288 0.17573321273871068
0.025141642099993942 -0.0516368615134611 0.1767942934175059
0.00874396060405109 -0.018340593790737252 0.1718904216960736
0.03148247060321947 -0.0036529014656832334 0.18286264084142853
0.006462555324875829 -0.011269146257041604 0.17040008423159433
-0.0015508171427663607 -0.0042259104052315526 0.1695396914782564
-0.0036393470285983713 0.006731714562655932 0.166260088148518
-0.005900109897578809 -0.048895314849872015 0.1813989699890418
0.02827045025817627 -0.032302571190727 0.18714187130594453
0.018672203620170195 0.0217955353467428 0.17169610920516024
0.03285004500526513 -0.03335168398011666 0.17545834235305086
-0.0041770429739738345 -0.046729208192113764 0.17459132698703902
0.05640969519740873 -0.011857818626932897 0.1788567475130047
0.030679610538285843 -0.010898821899530689 0.1708250055761121
-0.0016179402288197843 -0.02102523082245768 0.17074876201400788
0.03150302606450005 -0.03364922416799652 0.17521438754783542
0.07701704891243116 0.020765463319305174 0.17091926466980395
0.0377633255446129 -0.02287427086244711 0.17304690102096748
0.027584175582575816 -0.03260296956374074 0.1739671780231849
0.03714329437913598 -0.02223229035965946 0.17487438008258174
0.045728110945063266 0.01134863689618261 0.16808183597065104
-0.0012408454318650931 -0.019867800230397303 0.17713552751529615
0.03152818522537362 -0.033512448685922264 0.17541532515598132
0.0036324029990617637 -0.0500259755007138 0.17769096292211206
0.00655872876106953 0.01967015646390092 0.16643371184957848
-0.0007451590072138359 -0.0032552214699104118 0.1811441404937798
