ply
format ascii 1.0
element vertex 773
property float x
property float y
property float z
end_header
-0.003879088367663458 -0.03637628931365337 0.18284265035911304
0.028591755013340374 -0.012991695191009296 0.172632621493181
0.0272193261664969 0.011599219268024423 0.1670872499921363
0.020348700744638962 -0.04032949480441255 0.1857969585367669
0.020622652595326148 -0.04226884561463337 0.18829919480811075
0.0009804792534122975 -0.006492946747772503 0.16861138873313553
0.005318741396562673 0.015535887588957482 0.16755770102094034
0.05264360099489775 0.01340228178271931 0.16922034348535134
0.008171703763564915 -0.022247378289099354 0.17798867599923357
0.03857163495104771 -0.02143000601126072 0.18598753554156464
0.03534208274339003 -0.03358528434973461 0.17452080476388301
0.020681467414447867 -0.04155657154873307 0.17944353415231046
0.042504897253481416 -0.05037912769644169 0.18849767769405426
0.007573420939710147 -0.020626739934504566 0.17301235205432558
0.031121029129708138 -0.03411360456056425 0.18101226713971807
0.04079034941361335 -0.05269892275428935 0.17776886619915855
-0.0007754997414110738 -0.035472255277389085 0.17630095770705842
0.06577666545357365 -0.04600335275275759 0.17801534440999778
0.010306905427982087 -0.019008006470636954 0.17540859866818287
0.009739805246964942 -0.020233040365213943 0.17556961213930902
0.04159177183333936 -0.05347355795990566 0.17903483647007565
0.02086669031963939 -0.037752520238558226 0.17886243978647756
0.058546621937260054 -0.05463854661551923 0.18233009395827163
-0.0012451097464306008 -0.016115439997185434 0.18311300384433082
0.007927605778378437 -0.020687369919896004 0.1744533651862546
0.007681042797475213 -0.006117669721839129 0.17030498173585948
0.041581107862987625 -0.03587235430009919 0.17854318260512062
0.038317487470013616 -0.044447638644891624 0.17774102868008812
0.01904287685389101 -0.041063420517743414 0.1781891143579157
0.032045169129151924 -0.03797045379585938 0.17724086326091015
0.009816939487144459 -0.028006084023077544 0.1737213363285525
0.04090285106062857 -0.04716749493632789 0.17802028026847827
0.023985926567365628 0.01823966766959443 0.16595542832881302
0.06887341004941815 -0.0016470894898121778 0.17135347198873813
0.02050014490331322 -0.014259995176933457 0.17241306431523817
-0.0015025620148504445 -0.021101055101985296 0.17179051422858102
0.06455612818302647 -0.02631240251236607 0.18808301818977646
0.015221481016259919 -0.005422548141364149 0.17792628175129488
0.03741853353613477 -0.023249875910805587 0.17449557234468616
0.008732252418999425 -0.0247429824636808 0.17371109690710376
0.06504605274424231 -0.03139666985801197 0.17736654136647323
0.06403626837867692 -0.04923615582926856 0.1883349289417139
-0.001663259175098417 -0.020787169032832356 0.17236462452046478
-0.0036118600629078575 -0.04592102376374022 0.1744311183275726
0.031698965861350764 -0.03596326754440229 0.17476812221061652
0.07056347627127575 0.01975172633590335 0.17139855875849205
0.07180515264757877 -0.0009133406452425524 0.1724292772546496
0.002500905067330795 -0.04999613661070716 0.1753784573790943
0.0193023739362425 -0.013479846840941155 0.18376137788603764
0.027590106502114083 -0.03287216845149413 0.17511553715830772
0.043168976888950356 -0.046081868698822206 0.17907280957830182
0.04099091359333076 -0.04704280406055171 0.17863656926338073
0.015798420275699044 -0.017996341178864034 0.18428227234456382
0.05960826238449165 0.020660760372449346 0.1805351634525716
0.01909117499071221 -0.019512843539473745 0.17370833709483993
0.01615367020725781 -0.020231180651143533 0.17366867410867962
-0.0019844571974992915 -0.021132385599045185 0.17208613171910792
0.017881356808679208 -0.021039133826903283 0.17333082304475175
0.0324803982802511 -0.03341538859523815 0.1751754732110239
0.015087603418983821 -0.01736279022825813 0.1841473195131418
-0.0023688287590250615 -0.002970015391266796 0.17003529916668852
-0.007096158774789493 -0.023399034816609383 0.183942720656761
0.041160181908895546 -0.03578258254761459 0.17522703952101598
-0.0016927852373798905 -0.02075027156328732 0.17259404031820158
0.0698562559058165 0.0013894861662011992 0.17749366731939015
0.07587884402959601 0.02093933560758376 0.1682072106605202
-0.005093840648609481 -0.019897915607175937 0.1802216475843206
0.0710744164506165 0.019092129243466243 0.16983778801590618
0.02923844596694023 -0.03155020260679871 0.1761433202455688
0.015551633182273573 -0.017780671688113616 0.1842360846969507
0.021719914392094163 -0.039660618610316264 0.1770155859557712
0.022847750188040455 0.01639888122375773 0.16722148359961206
0.07583757046188751 0.017731081681658278 0.16946593036398372
0.01637544248353028 -0.016676727260231207 0.179295629041158
0.03167532802258876 -0.03419054804799912 0.17519916667109262
0.03808340374043398 -0.0319078089105371 0.17446706865609626
0.06127865823129125 -0.0528465473693367 0.182192481595464
0.021086738744676065 -0.038001182182656856 0.17672534743681745
-0.003111334587420301 -0.034828673918580855 0.17498729434732946
0.043547500698848655 -0.05164936361500766 0.17958856909357174
0.013192576844437245 -0.015826410497632497 0.17209606838834318
0.07564984549327115 0.018806280512757543 0.18164875926390953
0.04761841856085929 0.009874389441651232 0.1695094467879438
0.04437443654512291 -0.04536481525677408 0.17828722269579433
0.015472805452484004 -0.0072434453974327545 0.16996044019383816
-0.00404606473879565 -0.024370758397552282 0.1731928198661051
0.04216789806681092 -0.04459322157272351 0.1766468717920414
-0.0006885663689873258 -0.03553329438845107 0.17467463749683224
0.03162251770080999 0.008817900079079885 0.16774571881037817
-0.003459922527637466 -0.049036715191162275 0.1754749103069206
0.00010700197374552065 -0.0018098994449100153 0.18096147841181276
0.06171942289792908 -0.053628384806467685 0.1800948501801905
-0.0033882782074356223 0.004567388531965498 0.16666926864681558
0.05763349611272163 -0.022442942792589633 0.17393815730539378
0.07388700351799099 0.01022634583013657 0.17632909485238396
0.004252469721042533 0.017781230373722246 0.16549752454707725
-0.005192243911197377 -0.019302803808607 0.18340472311200903
0.06134665693270158 -0.02539096835830125 0.18777476147368957
0.03770009439881832 -0.02225174142037231 0.17950918652366804
0.030471415794888775 0.010345701815891523 0.16751487756089825
0.06326389921945169 -0.04889420190606903 0.17943930202435548
-0.0016382760937390817 -0.019233872526698337 0.1748288460204282
0.02189610143579195 -0.05295940807941214 0.17816215865695845
-0.004622602579968568 -0.042806065429976364 0.18708322596542995
0.018224796987162745 -0.014815899119379186 0.17079120302315506
-0.001963939495853096 -0.018871177087959885 0.17803630319527006
-0.001663900957415223 -0.020766788556519433 0.17251919963805923
0.055063146685005296 -0.024054963558652172 0.17412176483463995
0.045723988002756934 -0.021394261811291476 0.17322796805343646
0.022824828061157612 -0.04101805862511659 0.17547235120980031
0.04324172408924449 -0.01924441143857197 0.1727007963922456
0.03670373109013736 -0.04458669549717138 0.17795567643437438
-0.0014402010906026282 -0.01928900021147297 0.18097126524751514
-0.0010643938624070983 -0.03762542506256822 0.1752070259556363
-0.0027885575156718252 -0.0183516426946071 0.17353915012842577
-0.0040288930521928355 -0.04911377446900521 0.1749709861803339
0.03236007724281375 0.003807927665033583 0.17077044126022842
0.006338327720562116 -0.04830588723849462 0.18412725305865613
0.008406588073789443 -0.018444036488601073 0.17741024787788967
0.028521779520796542 -0.01240399010869219 0.17094671123802493
0.008429008129447805 -0.024476977742218426 0.17227362159046752
-0.0018295271396033229 -0.01843267158648525 0.18081827052660568
0.0026100872678701 -0.023855154397103263 0.17139097080152457
-0.0016276673691584843 -0.02089453371621008 0.17167312177943167
0.01059159301259006 -0.025918364700463613 0.17868319605503258
0.0712491837027523 -0.0018181097843982356 0.17254113843577365
0.013694825671820489 -0.005383516754886734 0.1690279287477135
0.02008783438249751 -0.05330391577912741 0.17845391281714718
0.010565194863640498 -0.02004940257212283 0.1733528106089878
0.022240680347404947 -0.040574475153622544 0.1764778617342361
0.006185280125595497 -0.010053465353304078 0.1716191238712668
0.04242283317561521 -0.05444143518317274 0.17812343795414506
0.036670398610924 -0.04630917093924114 0.18319141281059684
0.037666769014054316 -0.023503512190083103 0.1743636533809655
0.03166641995082083 0.0026340993601951263 0.175334785447919
0.01044284219081925 -0.021937630367753876 0.17290338429774266
0.00077733846878663 -0.0058499575999295325 0.17287515354234267
0.07029175336562869 0.0017677725529663254 0.17193510497896516
0.02372574331154615 -0.0407774734590966 0.17729223249600357
0.020681879949992904 -0.03894275983770271 0.18559879893033535
0.055722148374642226 -0.024566011577360096 0.17582609041049074
-0.003241560568343991 -0.02331952627500008 0.17109878492970934
0.02775419549790536 -0.04232503528601254 0.17622351349891152
-0.0009453556260340841 -0.035442221773861714 0.17792781612730643
-0.00045228598418528207 -0.02207712036281304 0.17095728711838956
-3.80181171927875e-05 -0.0014577363669704482 0.16992046578445652
0.029685053609218665 -0.0007730533216017636 0.169135115803593
0.0027806279940058784 -0.023095829974769437 0.17287291353837658
0.062486714832152866 -0.024659883135467214 0.17563661086850513
0.05673821384378073 -0.053762565831748044 0.17875485071915412
0.021285245946842123 -0.0374096708357272 0.1762318304722693
0.027902050880642303 -0.03015844634031077 0.18679357206686237
0.02687311737445913 -0.04947135113833043 0.17989757788222113
0.040695968188100756 -0.04523232753449535 0.18651195252046857
-0.0011613620608061995 1.3451658753015072e-05 0.17733255762297162
-0.0013305020470409708 -0.02148802813956206 0.17130722452457423
0.058080848505710436 0.017974152673811684 0.16775152645673283
0.04063282334929197 0.005764046051842326 0.1687492484687135
-0.004297036190069679 -0.050918470790692213 0.17851792678774278
0.017933961277165778 0.021926335198240044 0.16721481022346016
0.02213604389094803 -0.04068145596728227 0.1756055287117785
0.009753426959382222 -0.04780533359935646 0.1776204935634579
-0.001973155312238656 -0.03995617457994741 0.1735893433815102
0.040331254020498426 -0.047962724521103804 0.1792187783535555
0.01717891228790844 -0.02000273049059642 0.17591674613192623
0.03043748015213905 -0.033152947290578924 0.17718289149296465
0.00894803265064113 0.01932303078183263 0.17157429381752
-0.003734979310861152 -0.01888774630625307 0.17188419467885127
0.038658707885712795 -0.023915282689156086 0.17319012025099978
0.01116660530122374 -0.01935981390704357 0.17290854954794085
0.010437935805965838 -0.02666154177022481 0.17551013937524768
0.028724095144221223 -0.036931516178904264 0.18788748897236737
0.009953419481823048 -0.027822744942758142 0.17425212334469395
0.01060182722505085 -0.022685836742146484 0.18474290692494122
0.012812878927693352 -0.014561996396880888 0.18359537969725226
0.03777165574999414 -0.02354768483386257 0.17455998628753372
0.021625994446579172 -0.053085639994758516 0.17794696404520266
-0.0017487022621513193 -0.017616617058141937 0.17013239275951492
0.0021170459680361856 -0.02293103044622289 0.17450265144764118
0.018706925226468482 -0.041768884210707416 0.18484242732954068
0.024645781785023704 -0.051750089163141125 0.1782263649260675
0.07711702428355065 0.021090302909250264 0.1681818833945274
0.020950824060203287 -0.04276967670194779 0.17527169532215267
-0.001209777180704705 -0.0343918476240301 0.17775112220921369
0.029335347510141177 -0.03775930016879425 0.1756880447931772
0.02886249677134113 -0.041943650034365024 0.17622134306219175
0.009510953454462635 -0.017670103816273375 0.1718246831557932
0.032368399538173116 0.0008882496166599217 0.17122418713299414
0.03146170286474661 -0.033384733220151785 0.17638839452260144
0.02297497910290234 -0.05251001363761057 0.17836880193084345
0.054910874703410294 0.014817964653381319 0.17022168634472976
0.02895027695106003 -0.03533406563847465 0.17446333780150405
0.029116905385999745 -0.035549752744277865 0.1752417028440699
0.016093448927746213 -0.016016590702009306 0.18311526618570587
0.0006140543483584022 -0.01883355106816596 0.17154739783319412
0.07597762685822314 0.019621425765304144 0.17235355968267405
0.04777102524538286 -0.020871903857063535 0.17318660967405833
0.029069717382952415 -0.034449969000339344 0.17439783514527854
0.04400251753782548 0.01029143056870105 0.17036303324278138
0.03929951290839477 -0.023836178321609898 0.17376304126640266
0.032291047165832365 -0.03683686409410557 0.17560491722616264
-4.576446391657378e-05 -0.01818143529349287 0.18349550673217616
0.04400783174881841 -0.05174258729458783 0.18769321636011915
0.007670466204098864 -0.02014000988734512 0.17266566560333235
0.040218804369404046 -0.04754466219568397 0.17693918348183013
0.04344319243700022 -0.042063979040811994 0.17809494623716365
0.003927797586049168 0.01670435569820854 0.1651614086988879
-0.0012853497226535913 -0.020052359130723073 0.17060003894444173
0.07430915226032268 0.011064745027257029 0.17014617882076152
0.047674099140750395 -0.020754275009975696 0.1738996579201839
0.0009973654584315272 -0.01968863492356837 0.1709635892197508
-0.0016598867901118641 -0.016399688866232037 0.17985524934458538
0.026317441191719297 -0.051670681079896086 0.18677152350503234
-0.0011582992477574116 -0.02020601250155425 0.17325486449078123
0.04732888688907447 -0.023416517853988447 0.17576783423686748
0.016988944649185427 -0.01765767130562597 0.17466805428247192
0.0018680837338109846 -0.04884717087344777 0.18616823553211592
0.07576484201634132 0.016602941408554665 0.1693612273788543
0.018935508330233594 -0.055987749318440555 0.17936352256348714
0.028794165809127897 -0.038610712787070914 0.17606849309287012
0.01011235049701907 0.01849502736000635 0.16734498472785087
0.024286502524713236 -0.0413874365131317 0.17522877291870273
0.04509033177319481 0.010815617567517498 0.16812873901197484
0.04371445964492749 -0.019856401496673448 0.18338348241244506
0.03794889470472772 -0.04945106596831961 0.17711834438142066
-0.0022571985145087518 -0.021492082539301263 0.17212794123100159
0.027603603097264763 -0.05309350329483017 0.1782558538226798
0.011280942396404831 -0.025094450475463735 0.17859075375999778
0.07241124555901393 0.006525989363245839 0.17240987015830397
-0.007292839175330875 -0.025998064994177894 0.1733572597243688
0.03998695948794708 -0.020618901910850168 0.17329890080985605
0.04347991601278273 -0.05162540397733313 0.17921321833767423
-0.004537109332770552 -0.04230684228313292 0.1870101155162122
0.02937027980890056 -0.037109467836222834 0.1764172863570721
0.026253935171614333 0.013916674177954499 0.17002390323759595
0.031786546686659714 -0.03441632424454194 0.1757921701963189
-0.0038938400403042226 -0.024182864079110057 0.17261926129799757
0.01047065488358193 -0.020245795149806865 0.1733784370848431
0.04476239394245571 -0.03622588193116832 0.17762455456974136
-0.0016397177532563624 -0.020848313339371816 0.17198088152098948
0.04313850972299295 -0.04145958136497453 0.1871454157286166
0.040063508410667296 -0.048722172169677405 0.1771796309893663
0.029310228012018536 -0.03794671341985442 0.1754397322971144
0.01663410303554359 -0.055329240312348545 0.17699954627991102
-0.00439881147868291 -0.022790229122159278 0.17742595323883945
-0.002235384324538507 -0.0017759692492645834 0.176461594640759
0.02751297501078139 -0.0311894355171859 0.18562140448697761
0.048295218732733625 -0.020600476304031078 0.17538034493561572
0.0728731508912458 0.0006776215771901808 0.17113278124179537
0.01245997111482744 -0.053359818883468677 0.17788590479664423
-0.0045070928896144054 -0.027136421163874713 0.1736773871480128
0.0276546326794364 -0.03200758249835697 0.17498462026014064
0.04633452541720339 -0.039594489779350484 0.1763877429945726
7.68678428426108e-05 -0.049524276706525525 0.1818071217930457
0.05498842643788672 -0.05266634332506902 0.1916823542149505
0.028696617173375044 -0.05075514303702269 0.177396822836625
-0.006615807201101616 -0.04757372079387422 0.17618978383180398
0.03170853639161293 -0.03422626351173039 0.17631086622012643
0.014946740939685284 -0.0159335951594497 0.17735709279311396
-0.003109945098155542 -0.03426319631612593 0.18146064011865845
-0.0015048356144111968 -0.021069271890882937 0.17233769056068668
-0.003576907466277148 -0.017881116889210392 0.17998659057775152
0.009403143182889043 -0.024324035969061936 0.1783744862517481
0.023517163574800864 -0.0414801058610025 0.17624239470202424
0.04333723924601363 -0.04104576173802398 0.18709139357022378
0.012268846055192541 -0.025725399271552166 0.17211287181349558
-0.004156957987982855 -0.025080187875980035 0.17190355496946083
0.006453379056769442 -0.007495948691837711 0.17560988449201936
0.006249799657446381 -0.049792804885487804 0.17560546106506353
0.06846012561395878 0.019968708395609908 0.17453714525640432
-0.002167036670109696 -0.021506804340966787 0.17150375506109639
0.012088994196441223 -0.025058312299885414 0.17420893849106794
-0.0011760921328527324 -0.0031739212412532393 0.17673316665916738
0.001815860216836251 -0.021486730873534282 0.17257342341239354
0.037556664161471 -0.021332685999101923 0.18592018457835735
0.029001532909135253 0.007501552225754472 0.17002409354673725
0.010827728497624898 -0.023190159246558185 0.18319256499742242
0.0787014042242806 0.0181298696016659 0.1687230770961693
0.07036070871449479 0.022030023424470257 0.1743149230707066
-0.0016118486622406693 -0.02094225173486141 0.1713657847701288
0.01161614428825818 -0.0504886525211191 0.18911185835480876
0.07222387474261671 0.006975309063856431 0.18002879493413276
0.05920769580607643 0.016701702318259258 0.1680070898109898
-0.0026565492914274735 -0.03647766720983191 0.17307970305940484
0.02455213212460569 -0.05184026059717813 0.17801465362921193
0.028787442825355912 -0.051209186207221646 0.17691977308664342
0.015898105462684328 -0.02024748672036994 0.1714491543430402
0.009205065449777443 -0.01798928124271676 0.17158238512400947
0.03679508083913013 -0.04449611546205128 0.18127605841549385
0.07576824937575027 0.022553076685405283 0.17976089923471483
0.07578603036888037 0.01830780336947247 0.17020207254063952
-0.0019416619337900027 -0.018630149668409788 0.17909354061382235
0.06988335790743681 -0.034805516720798894 0.17759255773934088
0.017293314534179455 -0.017891639224601973 0.17384523713673417
0.013896975930474856 -0.017432135450250942 0.1775357287753456
-0.004781771902715734 -0.02026365972729943 0.17204394425533467
0.017387627320966437 -0.01822231088924921 0.1717144096962939
0.03104313723738167 -0.031114969882981378 0.18710375707499605
0.03232953253680293 -0.008413732617632085 0.17052315843290836
0.02141957933695243 -0.042411745275701795 0.17517463173577164
0.014726272504703633 -0.005066680459361608 0.1756585171315531
0.017006546652036488 -0.015826648563652942 0.18400758223872588
-0.003181173745324375 -0.04914779044556663 0.17716318034517858
0.010940381970154199 -0.0480615459849249 0.1769850662645859
0.06521392839997028 -0.02829669384439803 0.1753028110309577
0.06702517765782096 -0.04316519732860982 0.17874339434140832
0.023718205775291344 -0.05207259656121245 0.17900181134821758
0.04386977635989252 -0.045824121003887275 0.17796441253993248
-0.0018395109934086834 -0.05162904442861778 0.17875474186283538
-0.0018027258732498906 -0.018737800522414194 0.17802389247257874
0.06581538396518119 -0.04376502845318597 0.19085757674439163
0.07381274590653568 0.02096181507980938 0.17793898977490125
0.07190056206999178 0.021721807708567825 0.1678153416462625
0.008999268018572891 -0.02550609642636541 0.17246275689424842
0.00916085411821451 -0.004686490145183249 0.169422642293429
0.03795834029540777 -0.043360713949684576 0.18772072158103129
0.02271624709997712 -0.052823139751586035 0.1771892111627168
0.028723265013508484 -0.04188428646378733 0.17694125647396652
0.04670743659741216 -0.017658188822871478 0.17263289597901393
0.061733606297369084 0.020042930097188372 0.1697616109136676
0.014777568293471644 -0.05520254196456483 0.1771868497142081
0.027943678875194597 -0.031711464514442525 0.1749535214138133
0.044205521655900054 -0.020649470195283706 0.17828303626996045
0.07665949965358258 0.011062608930647859 0.16978087987595478
0.0017083851623859725 -0.025052056129236354 0.1748109340648356
0.005701938207480871 -0.011390901405827186 0.16954925661823986
-0.0020786884377746104 -0.021525656404294224 0.17088011688616828
0.019980826770983843 -0.016996286966601746 0.17336339994278377
0.04382144069550306 -0.052088188693236934 0.1778300528598725
0.06734379865410668 0.018216478174136932 0.16812505141844133
0.01569637790246417 0.02202555314886762 0.16597978771996968
0.028888377333903092 -0.03512950426726917 0.17590098813739538
0.0067518648356231035 -0.026773234562641836 0.18189883037011578
0.027695578855791003 -0.03319234997599397 0.17517067813936654
0.03181511141656382 -0.03453703908174314 0.17448704288243352
0.036693424755615996 -0.04609959740782582 0.18644059547322353
0.04125380534523089 -0.049235155114157644 0.17835937476977623
0.007620421550069683 -0.02129449286586549 0.17173788179402158
0.03770126334072847 -0.04485653342597115 0.1780981235308524
0.004940372247930106 -0.04948866656539838 0.17652967488279311
0.06854112641332917 -0.03267247396750908 0.18599507064515303
0.010614799032382907 -0.004055188008383375 0.17013575606746256
0.005882580727018605 -0.025519964257337945 0.17258061134211636
0.023657701038258393 -0.03789268710751707 0.17569263535339658
0.006984237757628263 0.019614365628723707 0.1681474476684726
0.036864312185446155 -0.0479443391961482 0.1790374794979594
0.013302230809073556 -0.05423505383815202 0.17732885090809622
0.006877816942886732 0.01996275605560699 0.16695061880408746
0.006005518431280391 -0.05183122605059175 0.17805265936352452
0.013710952778488822 -0.004704150430593246 0.1689888955418819
0.02862388131795552 -0.051512309050227634 0.1791673157691117
0.021845763340392163 -0.04062692141643145 0.17624479076977845
0.03593176161141434 -0.033609989170082843 0.17510721201420815
0.03044894948739055 -0.030939809887756787 0.17829788008508002
0.06266569758616033 -0.025716544560002066 0.17477105168167104
0.07496432722867775 0.02107845296714415 0.17994847545078185
0.0197791454753328 -0.037710365102748306 0.18426747752761788
0.000471359714415984 -0.01858042984344289 0.1711326046231085
0.037260717454952845 -0.022976306681308022 0.174813126492393
-0.0015529977846238017 -0.048458534348760116 0.18811883764339085
0.008004771522204749 -0.0023916327777162606 0.17161668871217123
0.00769121694627356 -0.005518993163506517 0.16880557314848316
-0.0020200155309051705 -0.021465362978162254 0.1707948873486562
0.03984905888245822 -0.045872602892203435 0.18328723639228128
0.031539318543045425 -0.033782223769348814 0.17490787358805995
-0.0028253440360795725 -0.052497526664185334 0.17549268704433255
0.04001350883356912 -0.046368675414128896 0.18009218660616297
0.019703992176823677 -0.05574344030589312 0.17722186405338192
-0.00011480619848404199 -0.017598686641110518 0.17242260335592283
-0.005507995806001044 -0.02561478712558077 0.18436848778075307
0.04547462058048393 -0.03935412578506248 0.18584524453263707
0.008251155923154228 -0.022188365986073703 0.18454467860437618
-0.0006327688428421144 -0.00011532597528648991 0.16802475045570636
0.0777420896617911 0.014921080807625612 0.169237523710298
0.028556925598456098 -0.00766553507915191 0.17235609464151708
0.030740610723226043 -0.033416736324505134 0.17924421750556527
0.07622928027773451 0.0189342281857923 0.1685365663794531
0.057996200930644795 -0.022562422997827423 0.17397537664289026
0.07613478645593645 0.021027193967848797 0.1695189595982097
0.06822617139775179 -0.038301434786734034 0.17701121642354675
-0.004529315093180299 -0.029659053930565987 0.17848570947395598
0.037156252200845966 -0.022518511790009577 0.17436851898909267
0.07254226229148499 0.021454174189662285 0.1810776917307441
0.0002375075113965775 -0.020382543097084763 0.17066406898350808
0.07433102422774442 0.004206005230314245 0.1728688889486336
0.05011574344780069 -0.014230400566625265 0.1854638822454101
0.03156355383954287 -0.033599485931388264 0.17488074858763564
0.027691542680977805 -0.03211892359286765 0.1742675066840414
0.035753823675844745 -0.04384657974230751 0.18932296317200192
0.023896324998530505 -0.05049051093242873 0.17876534006895872
0.008341483627748827 -0.020205355006114492 0.17111928885747413
0.07328698955010708 0.004493737465228053 0.1771882730827307
0.008593284758816672 -0.0009461612128670444 0.1779836237750315
0.04343233871256912 -0.04632210721965362 0.17691476747277007
0.06973281923809199 -0.03714138323861285 0.18018919074186338
0.06992345592833382 -0.043460147015890606 0.17783391531448256
0.04337017460978725 -0.03450357744783986 0.18826435739172992
0.02460411557020074 0.018750138134395848 0.16805127000151954
0.022509737148324438 -0.04566032980401422 0.17573512688868348
0.013616273120426655 -0.05109218487951905 0.1794669003028527
0.07167663746159465 0.021145707311937795 0.16795888025892647
-0.003017076421491809 -0.022757716616097733 0.17181199975148284
0.01961398905500083 -0.04478387471339748 0.1798896710676359
0.06981341384200825 -0.038317755767039705 0.1803759859111178
0.027782269179376668 -0.031767852040305064 0.17532211680398535
0.039127203425643034 -0.044911874042420495 0.1896619924321058
0.006457453187660946 -0.011282272298282832 0.17039961559089056
-0.0009538797224969342 -0.03431597618026458 0.17276609247793515
-0.0022829527692899455 -0.0021923540582538953 0.16777569687335556
0.07768824760952818 0.020674372632221993 0.1682758629095902
0.02213676872633731 -0.03928321730635433 0.17916547139832303
-0.007060592578126879 -0.027332845975269766 0.18127478685432621
0.004645683897167997 0.018309008037986293 0.1665402754215257
0.011481641691550897 -0.023933991055818796 0.17253051553021492
-0.0010298091525463198 -0.03412079927552228 0.17383632945827907
-0.0006119859304476501 -0.03701679699160586 0.1737552475572856
0.017698594195234216 -0.015157127005261103 0.1773781746611302
0.006018076615018419 -0.003921172596670318 0.16951020579099588
0.023345547896657604 -0.0413143327891701 0.17657597150132753
0.0017242621913056873 -0.050025252794653474 0.1753430040522992
0.009532249578586732 -0.02826276899216865 0.17319431630993476
0.015217917836146504 -0.005623332552959624 0.17577024961853246
0.04101854797316237 -0.049263423086404495 0.18387389865872483
0.004795050952392103 -0.02825926989280644 0.1721216098150664
0.007834934828115725 -0.019555360008226844 0.1725833564374654
0.04551481954817218 -0.054055999938352875 0.19141050751858008
0.030455363501428648 -0.03321982584931526 0.1764651857282606
0.01967306580972666 -0.008593560851639924 0.17093847953820765
0.06259112927307642 -0.025298806281006322 0.17798289410959195
-0.0022580504380775007 -0.021755584776635473 0.17098547253261845
0.06608876869265684 -0.04634917766338582 0.19127287027958734
0.026859730319952136 0.013490045626242626 0.17340185891146268
0.030531957403238972 -0.03715299141285781 0.18801492693584798
0.001965803125511028 -0.05018450204722098 0.17763280537236187
0.07781653729919469 0.013455061192754901 0.17161225436348077
0.07507079890596721 0.008648491477856356 0.17663500723149345
-0.0005531247448254742 -0.004516410416424362 0.1704125977085658
-0.0018034463376372222 -0.03759191524293565 0.17657715349626746
0.008381029944778122 -0.001604106593602269 0.17479431695830272
0.026594699497869398 -0.04096485884247178 0.1818430411435672
0.008277128605066603 -0.018612305873658384 0.17301191558677212
0.01037649810029115 -0.02121899152746376 0.1720520949812607
0.008882717857918186 -0.026032862320636764 0.1742389682605486
-0.003044759063722936 -0.02267421036965383 0.17234983767446344
0.04623362219888731 -0.0430893156608978 0.1765570177644542
0.028448290744224586 -0.031607523147076245 0.17422705519329632
0.029371065890036355 -0.013203466731990833 0.17160115674430373
0.0651543178972545 -0.005658530339469841 0.1849070281844992
0.020458334142179613 -0.040660210111032324 0.1836669234653216
-0.0005619911272592253 -0.017538069106496818 0.17018127747747133
0.05505521791842599 -0.021613242698353484 0.17478107994029912
0.03088807687994091 -0.011638309633012659 0.17088400630354744
0.032076644842203864 -0.0378363493981696 0.177221661892732
0.03393821637670699 -0.030997037976478584 0.18723445702416874
0.04844664312795735 -0.02145367965746596 0.17337732912602555
0.04365849050382485 -0.04351812680635128 0.18639828254578178
0.017102580538180773 -0.017362451245339267 0.17725249989468428
0.027621491211419744 -0.032166706436988005 0.17463947213401707
0.032002491634174325 -0.03494965325837504 0.17456075103678914
0.008684736926491958 -0.01818829162781395 0.17296706162288078
0.07324915859631057 0.007645524455209276 0.17341643480316518
0.03975353293282211 0.0013258192714309617 0.16932746583042882
-0.006449874917614866 -0.049049667581052926 0.17587525599646264
0.043897041387890356 -0.021430361277309098 0.17313953959464465
0.04859246228856431 -0.016836378845361582 0.1857900902153702
0.011783455500803609 0.02162727784356571 0.16584022605665247
0.003578712759103304 -0.0515808976602775 0.17902614368767797
0.005027287405849189 -0.003735452971429583 0.18151369356051872
0.0123378479313296 -0.0156100932669823 0.17717258464244826
0.009811219774533078 -0.019314786299181243 0.17761773968972216
0.013713639433129804 -0.004465782622128097 0.1711390507435275
-0.0032305437114362335 -0.04911548809993818 0.18157341887340636
0.039810249639088705 -0.022059176726822255 0.18177492165357514
-0.004194047882203983 -0.02545633566136999 0.17122374727491943
0.04087096796438229 -0.04625484903403497 0.18011864721816168
0.007223963439000876 -0.025883951563971837 0.17325838692738071
-0.003793502549629296 -0.049544862582336965 0.17505003375113812
0.042785823802925955 -0.05404086894820873 0.17814554518915646
0.0464670043174841 -0.04020301972607361 0.1761208954756961
0.03604217088310572 -0.04662172493734491 0.1787898108414917
0.017321847412462118 -0.018023882097490194 0.17299242821303934
0.024298980570870973 -0.047912217305215554 0.17952301091011474
0.018831529409301096 0.021572017777821355 0.16621157188513028
0.028747829361627307 -0.0076131526721278705 0.1701488899448952
0.014298831101496504 0.022316748247176964 0.17138488755789066
-0.005364133572781307 -0.027292026353029353 0.18463630533851702
0.028897507751101822 -0.03867377840877452 0.17525526536807856
0.004534989017835127 -0.023896262090464637 0.1846185794439869
-0.0015323418184403094 -0.05166853300519034 0.17877668304005223
0.012617315441039603 -0.017994662082714045 0.17318315501830697
0.008454371855082469 -0.005056141156756542 0.17054812133038458
0.041746483965272224 -0.036051711961029305 0.17857954213216917
0.029885776385561315 0.004135805325289156 0.17500997617043715
-0.003728504526203329 -0.046680616915586885 0.175647500011712
-0.0016755482157661834 -0.02077371201770273 0.17244079077582677
0.009164023639102445 -0.023504985024041358 0.18479608613527854
0.0685969104688357 0.02103457937335158 0.18093977104557965
0.06017041958037864 -0.05425047916143795 0.17907287903091876
0.00406490180691226 -0.0499349304243364 0.18863722169015662
0.05424319814293318 0.014724125584517645 0.16805861015985246
0.02885457519869531 -0.03882344395111646 0.1783463396039322
0.037804692574335684 -0.02349567268963041 0.17510583556710616
0.05032393614150387 -0.023891855057938095 0.17378689480535742
0.07581823677783553 0.0181408959695143 0.16967741662323693
0.03922167048966528 -0.05091697382223259 0.17741145547022996
0.05747017337061777 -0.054592839367037946 0.18554812795877268
0.045636350195736045 -0.037765663680303416 0.17735638759429473
0.03234381060990266 0.004736379950852236 0.1695210011603248
-0.003473150923013797 -0.020233646230157144 0.18145070368812158
-0.007063104251528486 -0.029594576893860833 0.17392748890612184
0.00786536552511721 -0.025830066124310474 0.17383526174092842
0.04030980844900564 -0.04810837904095366 0.17703139176440721
0.068389946236083 -0.0314414938532939 0.1764411555266409
-0.00020380248698528922 -0.03595370878768517 0.17361119875371886
0.07629474837421159 0.013949272741403881 0.18243606541241403
0.007574539196286839 -0.02592381893234156 0.1732826210637164
0.006293097536385298 -0.00922468569178932 0.1736830208236484
0.06222621065701907 -0.02498877115251852 0.17791597472774898
0.04269933402958177 -0.033929640831920516 0.176609626869669
0.0726198365096786 0.0014544893560776966 0.17106474146697634
0.07620216757356141 0.01901357035287167 0.16983506865252795
0.03658862892074344 -0.044570203439219636 0.1812769353976946
-0.000791354147020612 -0.03755093782372688 0.1732767270573506
0.0013986199324487088 -0.021115999693670652 0.18402547835060712
0.07582171769475692 0.018261876451595802 0.16938270171193492
-0.0011316180788546164 -0.02036479233126913 0.1706564608154931
-0.00532280525342978 -0.04053382720164703 0.1801333165963127
0.05254063822008789 -0.05318867811900806 0.19163746517602182
0.04287445142662511 0.0053135323274997644 0.16997340535719768
0.06783639262898311 -0.04129805178773914 0.18073695741342632
0.03875829992949279 0.0009242486863688913 0.1694042070264951
-0.0017619744640016855 -0.021174299332899306 0.17068408551026998
0.04477669477539102 0.010972942002596109 0.17029706691957092
-0.0008721564116178672 -0.0005407778781921467 0.1785270066967155
0.02841408948172549 -0.03916107690717155 0.17502993276858303
0.008674344736310777 -0.024666412496398178 0.17369622791427394
0.019058915424269032 -0.03803807845697538 0.18756182794605264
0.04522036370677372 -0.03798147452148305 0.18233849964673493
0.02239797845688796 -0.03996547146795849 0.17491079180895955
0.01703680062637645 -0.01716402244362561 0.1785305184755445
0.07006654161636577 -0.042959147755831234 0.17776349339711636
0.06951382294447121 -0.03369426372418213 0.17850545009538937
0.02051179009476785 -0.013128650315004937 0.1727902284751692
0.02014319966530976 -0.05347092826703789 0.17737823700324334
0.013655672767435702 0.02217092478339959 0.1669566300498071
0.04018858960527084 -0.04723580657767122 0.1787830120632987
0.012238358735536276 -0.0017080170691272795 0.1717284523044695
0.06749057326657437 -0.04355317596893142 0.17778875529847654
0.043270553579040305 -0.03807344771542888 0.17897188679398696
0.017668232180378343 -0.021310509909831715 0.1717053111798452
0.017787167561233885 -0.014611370338169241 0.17729799781956534
0.03633038858602962 -0.04471800502032608 0.18128659180204845
0.024999416658412682 0.01872054864421529 0.17905508095648345
0.016991120589083277 -0.021078264084602456 0.1716344009419836
0.009179797908816074 -0.023620950800887733 0.18481490321710356
0.07442094559535313 0.0190987163659619 0.16890455559729134
0.03685666830549913 -0.0460716361560001 0.18972519543066035
-0.003988100192316928 -0.024343786527041392 0.17279717496905522
0.02783378781119726 -0.03353709210230522 0.17449501695222583
-0.005313862431107213 -0.02345804598389304 0.18404361810335496
-0.00373411450043358 -0.030265428015352303 0.1742029910323533
0.07395393762216056 0.0033932631494160695 0.17297566886216592
0.017907017222096224 -0.052073181484887945 0.18968166951501203
0.026994648878604924 0.016484807467476003 0.16742158428076012
0.002323034521576622 -0.02527785834541978 0.17815816459863743
0.03947182136898467 -0.022410781691732523 0.17962507076551484
0.039244583355301524 -0.043507858242369406 0.18726301573504125
0.022958753565632074 -0.04097225940471612 0.17679747351254935
0.033037141641987414 -0.030521480801329007 0.17576722327403774
-0.0009630043002480815 -0.022315330349338247 0.1717307069182645
-0.0037757483146396275 -0.024044254439873992 0.17220937032679773
0.018231355519525455 -0.012310538510672951 0.17258957775790976
0.014839581466251342 -0.05291381226242179 0.18965430661423816
0.06697864912016366 -0.029689380957218226 0.1854514860679198
0.06300873855171565 -0.02502785909224034 0.1762728406508276
0.005689920456110754 -0.028568069455362343 0.1722156140541267
0.013841757903297754 -0.005394586243868297 0.1701416588713001
0.03211065701041803 -0.03532240239959382 0.1760967895302136
0.006597434382740488 -0.006575183688319306 0.1754743384582879
0.04144550001664794 -0.0440636895336762 0.17867075358495751
0.04277088008585926 -0.038451950734101015 0.17713137625644743
0.04633272184621992 0.010803771102596779 0.17700824000804033
0.04049316589949608 -0.044264956111717144 0.1786529859494404
0.03163604247197345 -0.029364450311124335 0.18686248339431716
0.028266710234492093 -0.03136302903557271 0.17602049753712384
0.05794212905168991 -0.05195843585048848 0.1884439311246035
-0.001497346216159396 -0.019148174665275984 0.18094645899964323
0.02855652696222958 -0.039584841974517365 0.18610380033221682
0.006689983646231345 -0.028694719770618292 0.17283897222802622
0.045339290816227444 -0.03849443418459822 0.1758631890248437
0.04781435915008298 -0.020768852442457807 0.17390914046893907
0.018616510722507397 -0.04158372099264435 0.1752699440694105
0.02779076760141605 -0.03161507902611813 0.17603513465856194
0.019105801264303775 -0.03970632192190963 0.17610808641887477
0.043520118218302595 -0.05181648683217859 0.17777235851818424
0.0005542566827428791 0.015543007460368526 0.17500969789019583
0.04657228915679661 -0.02038750894783324 0.17525859943427882
0.009024886164224788 -0.023735177642689818 0.17957580236463966
0.03978249447198047 -0.03205076924025868 0.1750633212013725
0.04458447097740516 0.00982682608034997 0.16832184189700605
-0.0015093829769788156 -0.01595846716907598 0.183075029592072
-0.0028798975468164786 -0.04078331216154345 0.17373671396081622
0.01953117695183506 -0.03803395128799255 0.1843049554423372
0.044581487126294096 -0.019635222632660033 0.18470598477919523
0.04360286560381071 -0.051816374963111776 0.17851290062080846
0.04336369938037826 -0.04274030818998946 0.1763551142804262
0.04688781633463392 0.012124547533487417 0.18120579585054486
0.06907953388487671 0.01888970135767198 0.17031876108063299
0.02793598897242551 -0.03192153108383303 0.1738812923387831
-0.0014610382396038554 -0.02122631390423663 0.1709837609986517
0.06866947680184923 -0.0032083649526343204 0.17814645897333983
-0.004939276377730866 -0.03951744128382404 0.17999524994628355
0.02196253939929645 -0.05315982193107114 0.17687135498294554
0.006896370191326883 -0.025772055199084185 0.17350027008477834
-0.000659104479436963 -0.0035832291384540783 0.17901035216946976
0.01723140943282533 -0.02105156633856517 0.1727470723036023
0.00553495107961895 -0.004733022151893189 0.16905916107487376
0.037418989526000465 -0.03124728364222744 0.17761085578025812
0.03721161710580802 -0.022685523138113697 0.1732928505163294
0.024460897402875673 -0.051966399292940134 0.1775877675082072
0.03016182881659049 -0.0013167217592491877 0.16930968411951663
0.03039586640546981 -0.03262647868421762 0.17855702488366315
0.022991972544909325 -0.04107246632307964 0.17615207172362896
0.0089840772144304 -0.0048870583022138266 0.1690765322131861
0.05362995742290651 0.016968429186580175 0.16871742128463676
0.07447595446694989 0.021925658977653556 0.16902069596747238
0.04364670198308568 -0.04083889313438542 0.17717891018473886
0.029228074737121815 -0.002002070059725164 0.1824901837155569
0.037478219460911205 -0.023263793311666926 0.1750530296684051
0.04462098442904306 -0.019467531573658728 0.18162014508383317
0.0015455552438897076 0.011329079824343027 0.16580775768634562
0.007361134517182685 -0.02849446610840235 0.17449910147895925
-0.006534146727179104 -0.04636067616236277 0.18753673732391288
0.06575300304544329 -0.027960433421236122 0.17576495210230758
-0.004245390633370589 -0.03795298822253463 0.17978806297170577
-0.0020679497561846647 -0.020160394178344372 0.17276355875189991
0.018626679417675433 -0.019766122776655435 0.1715804738166077
0.07127823620222455 0.004068957012425547 0.1771508347054364
0.02367170622515127 -0.04158399798077084 0.17626647963412473
-0.0024973544152317 -0.01762854983698406 0.17230460969319125
0.04015666171883217 -0.04825840792527718 0.18367349566008503
0.020094736642327887 -0.009808316071896906 0.17004434057845455
0.011419991271002454 -0.026938920668860427 0.17308593435330072
0.00396454524591219 -0.009034371038241604 0.17572064347179675
0.0298138766389038 -0.03035777160898246 0.1825488694809949
0.03639627986387764 -0.04563546985821384 0.18635323959283537
0.0197489120003066 -0.03900240710807583 0.1749274468856165
0.02706195028854668 -0.04848704619759793 0.18959608246659776
0.06295365976491857 -0.02891433469112174 0.17595305452490462
0.010871989224945042 -0.019839439471063584 0.17223155320856628
0.02805824333377259 -0.05247922829569105 0.17928832888491036
0.03223568226087031 -0.036669852746001444 0.17668058569892592
0.014589514369210004 -0.0026409952085474087 0.16864816688213816
0.020125748268450004 -0.038365941006993226 0.1759524719718023
0.009559015400454802 -0.024758892660852815 0.1758255929281755
0.010392236716143022 -0.047921326976547475 0.17629082370160065
0.07705583635225766 0.02120662426558018 0.17478736613452722
0.07401203000952729 0.008684863982729454 0.17001378944829074
0.039848489205709034 -0.03434257362820981 0.1782164862218857
-0.005939163777204711 -0.030888537304632174 0.1720429619189271
0.01094852231915423 -0.016857818612993507 0.17292075229832132
0.003508599966048541 -0.008610418631939024 0.17563135180579728
-0.004950517680490613 -0.02847481022468218 0.176093138464113
0.03250471087942663 0.002050637056246963 0.16884183001170572
-0.00393668967945918 -0.024498869229070446 0.17179833521871923
0.015180134365209439 -0.015494287067435724 0.1816749462037334
0.048294289665051275 -0.02087004510962842 0.17358140195000668
0.02027442746070933 -0.04063644913207229 0.18802782105674803
0.02784944565633687 0.010618019436646047 0.16837647507326647
0.012128551758711614 -0.015849609098199206 0.17278120506370115
0.028032650556093865 -0.03391831650345153 0.17456444244904779
0.00894114578738081 -0.018007094589135002 0.1726760155773905
0.06414936291565157 -0.048158650458828105 0.18161238121456275
0.06638447984847179 -0.029132419451238116 0.18205389212528192
0.02798138064617091 -0.010944171766506548 0.1722833010698862
0.00656263058350073 -0.01131633223562312 0.16958197883223827
0.013723748363438515 -0.015729264143011765 0.17284462510151063
-0.0020801734835914926 -0.03276257572350595 0.18237416546853452
0.00929854787695669 -0.024298937208592476 0.17705299289364876
0.0317029996750666 -0.03420956169502708 0.1764184374592641
0.030330071146631967 -0.032677237684098005 0.18147754823445847
0.06544475463552116 -0.03204618981599136 0.1769356808553967
0.01502269241516445 -0.005607541375302328 0.1735707269702713
-0.005715365955086025 -0.04177518333202266 0.17478360421710726
0.010877340994101294 -0.027121248224022315 0.17446687172270323
0.07462772641961973 0.02212215186075611 0.17452024333523516
0.008320235025558193 -0.002209553111702362 0.1682584986973042
0.013160238633214917 -0.015227186453809684 0.17934248517471624
0.010102570488097002 -0.025982826433196746 0.18030830244364118
0.046414045485128064 -0.03990301251175049 0.17607158969852746
0.00018061639935447807 0.009491061041098491 0.16712732880250647
0.008238008377012322 -0.02411763388734616 0.17276022624491208
0.011517915759551557 -0.016323702949818643 0.1711667077342809
0.013247941749399295 -0.015993421845736617 0.1710203999155799
0.007772089598173049 -0.019582712452704383 0.17313658919927677
0.054369788121254724 -0.0573066044675086 0.17918320482352837
0.07522870247365597 0.020826352693929084 0.17868900758989556
-0.0019851466527441852 -0.01810868886957253 0.18207217539738746
0.009081798431703317 0.020704829132073464 0.1652921649493528
0.006901019375844999 0.020751291791108545 0.17452771418685803
0.03794188327731865 -0.020014823384122818 0.18573539679546863
0.07617302095386679 0.01899933739271975 0.1711479912277193
0.02993071952447424 -0.036147720064629775 0.17470574878606693
0.054782775504222114 0.016691893174269692 0.17762247302496195
0.03700757151404482 -0.0014737738073530892 0.16968642042663784
0.018793887091167166 -0.006757506688515137 0.17171260572066416
0.0541154694463944 -0.016897676126373943 0.17289610977686742
-0.0027686593695884065 -0.03513541389745425 0.1772395834960407
0.009172014246104171 -0.001834299588423318 0.1682440770408159
-0.0020086172841997417 -0.03355644093905874 0.17429976227899008
0.06619195102188652 -0.033301990288192154 0.1782735670896345
0.027381519747663764 -0.039590006602684226 0.17559560361275173
0.028810375686319122 -0.04170955123608482 0.17765491060349542
-0.004078499622094153 0.005180862285618669 0.17966064411723884
0.015185301760858751 -0.05433256174620894 0.18005076870313977
0.018237813534105342 -0.012494643015250079 0.1726184947426988
0.032361642783521063 -0.008893898019915279 0.1727426434403198
0.0436660474498847 -0.05259475181896683 0.1779663222430598
0.02943131336515473 -0.04139846504733977 0.1772704219856477
0.0019729500661474914 -0.02179337736555413 0.17262911967022598
0.036510405064207 -0.04604656815367392 0.1831424054499864
0.019984006834053786 -0.00947429338066599 0.17219567749192372
0.012525067920995519 -0.05338802062907541 0.17826178614253757
-0.0011635389250232268 -0.017310855821218392 0.17121948669931078
0.0315427835725819 -0.033773365877776684 0.1746857929339794
0.0369439489494173 0.0013374722055582416 0.18236881470956806
-0.004037252029134538 -0.02458436086668429 0.17235866109870462
0.024874709711927734 -0.05120910316897584 0.1783750478299175
0.0033284999253549753 -0.023909156085750158 0.17137071504589857
0.007742044994301598 -0.02260931371978031 0.17194828460816874
0.0023901752590566967 -0.049662113919476246 0.17752979429256346
0.031531908708063744 -0.03368806714982269 0.1747824313282022
0.02917754213449471 -0.03798068166931058 0.17654263324334693
0.038206769644737855 -0.02104397175099801 0.17934774345989726
0.07855026679970165 0.016471712896515833 0.17007719695394
0.025954865160617825 -0.04243593445800917 0.1761481200715183
0.0063058595533580855 -0.011388991736576197 0.1704083825951684
0.04715553267370391 -0.053676539943142594 0.18045716879564036
0.014612750279862861 -0.01912340561877753 0.17157661711373123
0.055401623545667016 0.01695587578399259 0.16777172669628374
0.0014469137733061077 -0.007922905445790288 0.16989624741264894
0.058562229910064025 -0.05156878636379694 0.1884153497710098
0.016999946012539735 -0.0094310955903468 0.16982648266387812
-0.0013628966909984865 -0.019925905849005453 0.17057641408768726
-0.00030784581992610374 -0.0017633677960718248 0.17437182586153632
0.04179339596879232 -0.04674538342331583 0.17910502729462424
0.0762007575245873 0.013652991749464362 0.1824772291115889
0.07053919478396663 0.0034262630462639776 0.18049311905139212
-0.0016503538106303114 -0.017459912335129717 0.173459281143046
-0.001132567877191265 -0.020149193148327887 0.17849622569975884
0.013399048354124815 -0.015991432588722966 0.17102786854975263
-0.004249595148047807 -0.0241330978670809 0.1710810556558728
0.02521676072470078 -0.04810265167862965 0.18288035234407887
0.0434435668030687 -0.018962488607654496 0.17377186194969868
0.0240221048617598 -0.03838702767807801 0.17468369521885516
0.04643369952829149 -0.041366153843592365 0.17777236988761477
0.0741593008861524 0.010789247981243396 0.17073346859658217
0.028071721529719193 -0.03280957742041788 0.17409177620324934
0.020223056332689074 -0.04601052811112169 0.1779244473444076
0.028832696549711555 -0.011754598210026765 0.17742296317995185
0.021549456351527566 -0.053293053316163026 0.176870779386967
0.042826244990821306 -0.03861896208220513 0.17605570778368415
0.04498885508359874 -0.051906458142450304 0.19104969202982885
0.04795111969163604 -0.05388136649081663 0.18494771476194113
0.013046518173487967 -0.018789514439670033 0.17144416189052034
0.00937713801382924 -0.024216238320948477 0.1809808402936693
-0.0028833810991260624 -0.02058445868192206 0.1760679657316178
-0.001250421341832014 -0.019834021293118637 0.17844122527556655
0.06892910531402603 -0.03241327659191678 0.1760675673204593
0.020490188377247177 -0.041624715281881025 0.18600534055505819
0.04202719617014135 -0.042690683528568425 0.18727936058840125
0.07606468836244026 0.019187619029846177 0.17373761510818272
0.03104116564440695 -0.033978976212370324 0.18754832936943527
