ply
format ascii 1.0
element vertex 781
property float x
property float y
property float z
end_header
0.05372839421033859 0.028910666704177856 -0.13669998943805695
0.05432380735874176 0.0288472231477499 -0.1363999992609024
0.05495642498135567 0.028804924339056015 -0.13619999587535858
0.05562782660126686 0.028783774003386497 -0.13609999418258667
0.08340524137020111 0.0300738625228405 -0.14219999313354492
0.08403053879737854 0.030031563714146614 -0.1419999897480011
0.08465375751256943 0.029989268630743027 -0.14180000126361847
0.08533509075641632 0.02996811829507351 -0.14169999957084656
0.08607613295316696 0.02996811829507351 -0.14169999957084656
0.08681716024875641 0.02996811829507351 -0.14169999957084656
0.08755820244550705 0.02996811829507351 -0.14169999957084656
0.0882992371916771 0.02996811829507351 -0.14169999957084656
0.08897744119167328 0.02994696982204914 -0.14159999787807465
0.08952786773443222 0.029883520677685738 -0.1412999927997589
0.02857051230967045 0.03116592764854431 -0.15109999477863312
0.02932184375822544 0.031124673783779144 -0.1508999913930893
0.030051132664084435 0.03106279857456684 -0.15060000121593475
0.0306544192135334 0.030877163633704185 -0.14970000088214874
0.03112228773534298 0.030567770823836327 -0.14819999039173126
0.03127314895391464 0.02996961958706379 -0.1453000009059906
0.05123847723007202 0.03054714761674404 -0.14810000360012054
0.05197786167263985 0.030526522547006607 -0.14800000190734863
0.0527162030339241 0.030505895614624023 -0.14790000021457672
0.05345349758863449 0.03048526868224144 -0.1477999985218048
0.05418974533677101 0.030464641749858856 -0.1476999968290329
0.05485052242875099 0.030402762815356255 -0.14739999175071716
0.054670605808496475 0.029474591836333275 -0.1428999900817871
0.053595222532749176 0.028505170717835426 -0.13819999992847443
0.0535711795091629 0.02811327576637268 -0.1362999975681305
0.05424414947628975 0.028092648833990097 -0.13619999587535858
0.054916076362133026 0.028072021901607513 -0.13609999418258667
0.08334659039974213 0.029309583827853203 -0.142099991440773
0.08397136628627777 0.029268333688378334 -0.14190000295639038
0.08465375751256943 0.0292477086186409 -0.14180000126361847
0.08533509075641632 0.029227081686258316 -0.14169999957084656
0.08607613295316696 0.029227081686258316 -0.14169999957084656
0.08681716024875641 0.029227081686258316 -0.14169999957084656
0.08755820244550705 0.029227081686258316 -0.14169999957084656
0.0882992371916771 0.029227081686258316 -0.14169999957084656
0.08897744119167328 0.029206454753875732 -0.14159999787807465
0.08946450799703598 0.029123948886990547 -0.141199991106987
0.02932184375822544 0.030335525050759315 -0.1508999913930893
0.030071087181568146 0.030295319855213165 -0.15070000290870667
0.03079775907099247 0.030235011130571365 -0.15039999783039093
0.031311292201280594 0.029973668977618217 -0.14909999072551727
0.031832750886678696 0.029732434079051018 -0.14790000021457672
0.051942743360996246 0.029732434079051018 -0.14790000021457672
0.05268055945634842 0.029712330549955368 -0.1477999985218048
0.05341733247041702 0.02969222702085972 -0.1476999968290329
0.05415305495262146 0.02967212349176407 -0.147599995136261
0.054813310503959656 0.02961181290447712 -0.14729999005794525
0.054753467440605164 0.02916954830288887 -0.14509999752044678
0.053634002804756165 0.027802539989352226 -0.13830000162124634
0.05353187769651413 0.02738037519156933 -0.13619999587535858
0.05420432239770889 0.02736027166247368 -0.13609999418258667
0.05487572401762009 0.02734016813337803 -0.13599999248981476
0.08328793197870255 0.028546351939439774 -0.1419999897480011
0.08397136628627777 0.028526250272989273 -0.14190000295639038
0.08459405601024628 0.028486043214797974 -0.14169999957084656
0.08527486771345139 0.028465939685702324 -0.14159999787807465
0.08595463633537292 0.028445838019251823 -0.14149999618530273
0.0866946280002594 0.028445838019251823 -0.14149999618530273
0.08749641478061676 0.028465939685702324 -0.14159999787807465
0.08811229467391968 0.028425734490156174 -0.14139999449253082
0.08878892660140991 0.028405630961060524 -0.1412999927997589
0.08927443623542786 0.028325220569968224 -0.14090000092983246
0.030091039836406708 0.02952679432928562 -0.15079998970031738
0.030818236991763115 0.029468055814504623 -0.15049999952316284
0.0314582958817482 0.029330994933843613 -0.14980000257492065
0.03189731761813164 0.02901771105825901 -0.14819999039173126
0.03203301504254341 0.02844989113509655 -0.1453000009059906
0.0325220488011837 0.02821492776274681 -0.14409999549388885
0.051942743360996246 0.028958972543478012 -0.14790000021457672
0.05268055945634842 0.028939392417669296 -0.1477999985218048
0.05341733247041702 0.02891981229186058 -0.1476999968290329
0.05415305495262146 0.028900232166051865 -0.147599995136261
0.05485052242875099 0.028861070051789284 -0.14739999175071716
0.054791200906038284 0.028430309146642685 -0.1451999992132187
0.05367278307676315 0.027098864316940308 -0.13840000331401825
0.05353187769651413 0.02666809968650341 -0.13619999587535858
0.05420432239770889 0.026648519560694695 -0.13609999418258667
0.054835375398397446 0.026609359309077263 -0.13589999079704285
0.08305332809686661 0.027725426480174065 -0.14159999787807465
0.08379383385181427 0.027725426480174065 -0.14159999787807465
0.08441495150327682 0.027686264365911484 -0.14139999449253082
0.08503397554159164 0.027647104114294052 -0.141199991106987
0.08583314716815948 0.027666684240102768 -0.1412999927997589
0.0865720883011818 0.027666684240102768 -0.1412999927997589
0.08737283200025558 0.027686264365911484 -0.14139999449253082
0.08798766136169434 0.027647104114294052 -0.141199991106987
0.08860041946172714 0.02760794572532177 -0.14100000262260437
0.08895763009786606 0.027490463107824326 -0.1403999924659729
0.03083871491253376 0.028700055554509163 -0.15060000121593475
0.03156329318881035 0.02864288166165352 -0.15029999613761902
0.032069504261016846 0.028395138680934906 -0.14899998903274536
0.032650306820869446 0.02822362631559372 -0.14810000360012054
0.03265745937824249 0.02757568098604679 -0.14469999074935913
0.032813794910907745 0.027080196887254715 -0.142099991440773
0.051942743360996246 0.028185512870550156 -0.14790000021457672
0.05268055945634842 0.028166454285383224 -0.1477999985218048
0.05341733247041702 0.028147397562861443 -0.1476999968290329
0.05415305495262146 0.02812833897769451 -0.147599995136261
0.054813310503959656 0.028071166947484016 -0.14729999005794525
0.054715730249881744 0.027632854878902435 -0.14499999582767487
0.053595222532749176 0.026336969807744026 -0.13819999992847443
0.0535711795091629 0.025974882766604424 -0.1362999975681305
0.05420432239770889 0.02593676745891571 -0.13609999418258667
0.08164564520120621 0.026527540758252144 -0.13920000195503235
0.08284701406955719 0.026679998263716698 -0.14000000059604645
0.08399706333875656 0.02681339718401432 -0.14069999754428864
0.08491353690624237 0.026870569214224815 -0.14100000262260437
0.08571165055036545 0.026889624074101448 -0.1410999894142151
0.08651081472635269 0.02690868265926838 -0.141199991106987
0.08724924176931381 0.02690868265926838 -0.141199991106987
0.08792534470558167 0.026889624074101448 -0.1410999894142151
0.08847474306821823 0.026832453906536102 -0.14079999923706055
0.08883090317249298 0.026718109846115112 -0.14019998908042908
0.03083871491253376 0.027912473306059837 -0.15060000121593475
0.03156329318881035 0.027856869623064995 -0.15029999613761902
0.032198645174503326 0.02772713080048561 -0.14959999918937683
0.032760534435510635 0.027541790157556534 -0.1485999971628189
0.03331196308135986 0.027356447651982307 -0.147599995136261
0.033437278121709824 0.026837490499019623 -0.14479999244213104
0.033580537885427475 0.026355601847171783 -0.14219999313354492
0.05268055945634842 0.027393516153097153 -0.1477999985218048
0.05341733247041702 0.027374980971217155 -0.1476999968290329
0.05415305495262146 0.027356447651982307 -0.147599995136261
0.05473889037966728 0.02726377733051777 -0.14710000157356262
0.054677996784448624 0.02685602381825447 -0.14489999413490295
0.05390546843409538 0.025762507691979408 -0.13899999856948853
0.053610485047101974 0.025280620902776718 -0.1363999992609024
0.05420432239770889 0.025225017219781876 -0.13609999418258667
0.07994469255208969 0.02526208572089672 -0.1362999975681305
0.08130842447280884 0.025465961545705795 -0.13740000128746033
0.08292247354984283 0.02574397437274456 -0.1388999968767166
0.08431130647659302 0.025947850197553635 -0.14000000059604645
0.08565091341733932 0.02613319270312786 -0.14100000262260437
0.08644954860210419 0.02615172415971756 -0.1410999894142151
0.08724924176931381 0.026170259341597557 -0.141199991106987
0.08792534470558167 0.02615172415971756 -0.1410999894142151
0.08847474306821823 0.026096124202013016 -0.14079999923706055
0.03156329318881035 0.02707085758447647 -0.15029999613761902
0.032241690903902054 0.026980802416801453 -0.14980000257492065
0.032936904579401016 0.02690875716507435 -0.149399995803833
0.033447377383708954 0.026692621409893036 -0.14819999039173126
0.034147296100854874 0.026044217869639397 -0.14459998905658722
0.05268055945634842 0.02662057802081108 -0.1477999985218048
0.05345349758863449 0.02662057802081108 -0.1477999985218048
0.05344635620713234 0.02516166865825653 -0.1396999955177307
0.053866688162088394 0.02501758001744747 -0.1388999968767166
0.05372839421033859 0.024621332064270973 -0.13669998943805695
0.05424414947628975 0.024531276896595955 -0.13619999587535858
0.07836104929447174 0.0240629855543375 -0.13359999656677246
0.07953312993049622 0.02420707419514656 -0.13439999520778656
0.08166877925395966 0.024639343842864037 -0.13679999113082886
0.08364886045455933 0.02501758001744747 -0.1388999968767166
0.08534718304872513 0.02530575916171074 -0.1404999941587448
0.08644954860210419 0.02541382424533367 -0.1410999894142151
0.08724924176931381 0.025431836023926735 -0.141199991106987
0.08798766136169434 0.025431836023926735 -0.141199991106987
0.088663250207901 0.02541382424533367 -0.1410999894142151
0.03228473663330078 0.02623238041996956 -0.14999999105930328
0.03300304338335991 0.02617991715669632 -0.14970000088214874
0.03362793102860451 0.026057496666908264 -0.14899998903274536
0.03417622670531273 0.025882616639137268 -0.14800000190734863
0.03459598496556282 0.025620291009545326 -0.14649999141693115
0.034903500229120255 0.025288013741374016 -0.14459998905658722
0.03524046763777733 0.024990713223814964 -0.1428999900817871
0.05317855253815651 0.024308674037456512 -0.13899999856948853
0.053767696022987366 0.023923931643366814 -0.13679999113082886
0.05424414947628975 0.023819001391530037 -0.13619999587535858
0.07725545018911362 0.023241890594363213 -0.13289999961853027
0.07795047760009766 0.023241890594363213 -0.13289999961853027
0.07900054007768631 0.02334681898355484 -0.13349999487400055
0.07987780123949051 0.02339928410947323 -0.13379999995231628
0.08334775269031525 0.024203745648264885 -0.13840000331401825
0.08480047434568405 0.02441360242664814 -0.1395999938249588
0.08651081472635269 0.024693414568901062 -0.141199991106987
0.0873110368847847 0.02471090294420719 -0.1412999927997589
0.088049978017807 0.02471090294420719 -0.1412999927997589
0.08872608840465546 0.024693414568901062 -0.141199991106987
0.03302508965134621 0.025414008647203445 -0.14980000257492065
0.033763349056243896 0.025380076840519905 -0.14959999918937683
0.034360963851213455 0.02524435520172119 -0.14880000054836273
0.03492659702897072 0.025091666728258133 -0.14790000021457672
0.03541040048003197 0.024888083338737488 -0.14669999480247498
0.03575835004448891 0.024599673226475716 -0.14499999582767487
0.03611370548605919 0.02432822994887829 -0.14339999854564667
0.05316245183348656 0.02458270825445652 -0.14489999413490295
0.053510889410972595 0.02439608797430992 -0.14379999041557312
0.05347047746181488 0.024039819836616516 -0.14169999957084656
0.053981963545084 0.023938026279211044 -0.1410999894142151
0.05382790416479111 0.02354782447218895 -0.1387999951839447
0.05439656600356102 0.023479964584112167 -0.13840000331401825
0.06987178325653076 0.024073749780654907 -0.14190000295639038
0.07006647437810898 0.023887131363153458 -0.14079999923706055
0.07009879499673843 0.023649616166949272 -0.13939999043941498
0.07057376205921173 0.023564791306853294 -0.1388999968767166
0.071146160364151 0.02351389452815056 -0.13859999179840088
0.0715598538517952 0.023412102833390236 -0.1379999965429306
0.071914903819561 0.023293346166610718 -0.13729999959468842
0.07268583029508591 0.023310311138629913 -0.13740000128746033
0.07351122051477432 0.023344241082668304 -0.13759998977184296
0.07708106189966202 0.022495977580547333 -0.13259999454021454
0.07759854942560196 0.022445080801844597 -0.1322999894618988
0.078467957675457 0.022495977580547333 -0.13259999454021454
0.0796390026807785 0.022631699219346046 -0.13339999318122864
0.08449675142765045 0.023598721250891685 -0.13910000026226044
0.08620447665452957 0.023870166391134262 -0.14069999754428864
0.08724924176931381 0.02395499125123024 -0.141199991106987
0.08798766136169434 0.02395499125123024 -0.141199991106987
0.033135317265987396 0.0247128214687109 -0.15029999613761902
0.033876191824674606 0.024679936468601227 -0.1500999927520752
0.034591883420944214 0.024630611762404442 -0.14980000257492065
0.03520997241139412 0.024515513330698013 -0.14909999072551727
0.03574833273887634 0.02435109205543995 -0.14810000360012054
0.036325547844171524 0.02421955019235611 -0.14729999005794525
0.03651664778590202 0.02384137734770775 -0.14499999582767487
0.03681221976876259 0.023545416072010994 -0.14319999516010284
0.05432628467679024 0.023348107933998108 -0.1419999897480011
0.054952554404735565 0.023298781365156174 -0.14169999957084656
0.05498611927032471 0.02300282008945942 -0.13989999890327454
0.055279649794101715 0.022821953520178795 -0.1387999951839447
0.06848400086164474 0.02336454950273037 -0.142099991440773
0.06893482804298401 0.0232658963650465 -0.14149999618530273
0.06864077597856522 0.022920606657862663 -0.13939999043941498
0.06902144104242325 0.022805510088801384 -0.1386999934911728
0.06924393028020859 0.02264108695089817 -0.13769999146461487
0.06955757737159729 0.02250954881310463 -0.13689999282360077
0.07017084956169128 0.022476663812994957 -0.13669998943805695
0.07078203558921814 0.022443780675530434 -0.13650000095367432
0.07149587571620941 0.022443780675530434 -0.13650000095367432
0.07242131978273392 0.02250954881310463 -0.13689999282360077
0.07329753041267395 0.022558877244591713 -0.1371999979019165
0.0743926614522934 0.022673971951007843 -0.1378999948501587
0.07713919132947922 0.021818971261382103 -0.13269999623298645
0.07777450978755951 0.02180252969264984 -0.13259999454021454
0.078467957675457 0.02180252969264984 -0.13259999454021454
0.07934051007032394 0.021851856261491776 -0.13289999961853027
0.08057752251625061 0.021999837830662727 -0.13379999995231628
0.0851016491651535 0.022838396951556206 -0.1388999968767166
0.08607521653175354 0.02290416695177555 -0.13930000364780426
0.08680369704961777 0.02290416695177555 -0.13930000364780426
0.03394389897584915 0.023942729458212852 -0.15039999783039093
0.034707341343164444 0.023926809430122375 -0.15029999613761902
0.03535166755318642 0.02383129484951496 -0.14970000088214874
0.03596557304263115 0.02371985651552677 -0.14899998903274536
0.03647351637482643 0.02354474551975727 -0.14790000021457672
0.03671811893582344 0.0232104379683733 -0.14579999446868896
0.03709499537944794 0.02297164872288704 -0.14429999887943268
0.05312800407409668 0.02338555082678795 -0.1468999981880188
0.05363941192626953 0.023274116218090057 -0.1462000012397766
0.05410628765821457 0.02314676158130169 -0.1454000025987625
0.054677996784448624 0.023067163303494453 -0.14489999413490295
0.05543576925992966 0.023067163303494453 -0.14489999413490295
0.05592207610607147 0.022955728694796562 -0.14419999718666077
0.05604732409119606 0.022701019421219826 -0.14259999990463257
0.05647445470094681 0.022573664784431458 -0.14180000126361847
0.06723374873399734 0.022955728694796562 -0.14419999718666077
0.06770496815443039 0.022860212251544 -0.1436000019311905
0.0678362175822258 0.022653259336948395 -0.14229999482631683
0.06805025041103363 0.022478146478533745 -0.141199991106987
0.06752202659845352 0.022064242511987686 -0.13859999179840088
0.06790217757225037 0.021952807903289795 -0.1378999948501587
0.06853993237018585 0.02169809862971306 -0.1362999975681305
0.06920191645622253 0.02168217860162258 -0.13619999587535858
0.06991419196128845 0.02168217860162258 -0.13619999587535858
0.07062646746635437 0.02168217860162258 -0.13619999587535858
0.07144349813461304 0.021714018657803535 -0.1363999992609024
0.072315514087677 0.021761775016784668 -0.13669998943805695
0.07356464862823486 0.02192096784710884 -0.13769999146461487
0.07477028667926788 0.022064242511987686 -0.13859999179840088
0.07560405135154724 0.02209608256816864 -0.1387999951839447
0.07702130079269409 0.021284194663167 -0.13369999825954437
0.07742983847856522 0.021204596385359764 -0.13319998979568481
0.07795047760009766 0.02115684002637863 -0.13289999961853027
0.07852713018655777 0.021124999970197678 -0.13269999623298645
0.0794002115726471 0.02117276005446911 -0.13300000131130219
0.08051729947328568 0.021284194663167 -0.13369999825954437
0.08243141323328018 0.021602582186460495 -0.13570000231266022
0.08387628197669983 0.021793613210320473 -0.13689999282360077
0.08453042805194855 0.021777693182229996 -0.13679999113082886
0.03456879034638405 0.023048419505357742 -0.14970000088214874
0.03509189933538437 0.022879058495163918 -0.1485999971628189
0.035700056701898575 0.022771283984184265 -0.14790000021457672
0.0363008938729763 0.022663509473204613 -0.14720000326633453
0.036642566323280334 0.02240176871418953 -0.14549998939037323
0.03686363250017166 0.022078445181250572 -0.14339999854564667
0.03745618462562561 0.021986067295074463 -0.1428000032901764
0.03814946860074997 0.021955274045467377 -0.14259999990463257
0.05327266454696655 0.022678904235363007 -0.14729999005794525
0.0539696142077446 0.02264811284840107 -0.14710000157356262
0.05466446653008461 0.022617319598793983 -0.1468999981880188
0.055281754583120346 0.02255573309957981 -0.14649999141693115
0.05593312531709671 0.02250954508781433 -0.1462000012397766
0.056309886276721954 0.02235558070242405 -0.1451999992132187
0.05687270313501358 0.022278597578406334 -0.14469999074935913
0.05719133839011192 0.02210923843085766 -0.1436000019311905
0.06581668555736542 0.022232409566640854 -0.1444000005722046
0.06666404008865356 0.02226320095360279 -0.14459998905658722
0.06732700020074844 0.022232409566640854 -0.1444000005722046
0.06746922433376312 0.022032255306839943 -0.14309999346733093
0.06750252097845078 0.021801309660077095 -0.14159999787807465
0.06665262579917908 0.02129322849214077 -0.13830000162124634
0.06706508994102478 0.020969903096556664 -0.13619999587535858
0.06767784059047699 0.020939109846949577 -0.13599999248981476
0.06838907301425934 0.020939109846949577 -0.13599999248981476
0.06910029798746109 0.020939109846949577 -0.13599999248981476
0.06986285746097565 0.02095450647175312 -0.13609999418258667
0.07062646746635437 0.020969903096556664 -0.13619999587535858
0.07144349813461304 0.0210006982088089 -0.1363999992609024
0.07263292372226715 0.021139265969395638 -0.13729999959468842
0.07409888505935669 0.021354813128709793 -0.1386999934911728
0.07509396970272064 0.02143179625272751 -0.13920000195503235
0.07609428465366364 0.021508777514100075 -0.1396999955177307
0.07774920761585236 0.020969903096556664 -0.13619999587535858
0.07771259546279907 0.02076975256204605 -0.13490000367164612
0.07777862995862961 0.020600391551852226 -0.13379999995231628
0.07824373990297318 0.020538805052638054 -0.13339999318122864
0.07876384258270264 0.020492617040872574 -0.1331000030040741
0.07945990562438965 0.020492617040872574 -0.1331000030040741
0.08033663034439087 0.020538805052638054 -0.13339999318122864
0.08133799582719803 0.02061578817665577 -0.1339000016450882
0.08240584284067154 0.02070816606283188 -0.13449999690055847
0.0832328200340271 0.020738959312438965 -0.1347000002861023
0.03469044342637062 0.02184908837080002 -0.1468999981880188
0.035096608102321625 0.02162598818540573 -0.1454000025987625
0.035413097590208054 0.021358264610171318 -0.1436000019311905
0.03581149876117706 0.02115003578364849 -0.14219999313354492
0.03645232319831848 0.021090542897582054 -0.14180000126361847
0.03714142367243767 0.021060796454548836 -0.14159999787807465
0.037935443222522736 0.021090542897582054 -0.14180000126361847
0.03873155266046524 0.021120287477970123 -0.1419999897480011
0.05309183523058891 0.02183421514928341 -0.1467999964952469
0.053896233439445496 0.02184908837080002 -0.1468999981880188
0.054627254605293274 0.02183421514928341 -0.1467999964952469
0.055394962430000305 0.02183421514928341 -0.1467999964952469
0.056162670254707336 0.02183421514928341 -0.1467999964952469
0.056814033538103104 0.021789593622088432 -0.14649999141693115
0.05734435096383095 0.021700354292988777 -0.14589999616146088
0.05786839500069618 0.021611113101243973 -0.1453000009059906
0.065196692943573 0.02152187190949917 -0.14469999074935913
0.06595341861248016 0.02152187190949917 -0.14469999074935913
0.06666404008865356 0.02150699682533741 -0.14459998905658722
0.0670006275177002 0.021373139694333076 -0.1437000036239624
0.06718634068965912 0.021194657310843468 -0.14249999821186066
0.06612248718738556 0.020406363531947136 -0.1371999979019165
0.06635281443595886 0.020257629454135895 -0.13619999587535858
0.0683387815952301 0.020213007926940918 -0.13589999079704285
0.06910029798746109 0.020227883011102676 -0.13599999248981476
0.06986285746097565 0.020242756232619286 -0.13609999418258667
0.07062646746635437 0.020257629454135895 -0.13619999587535858
0.07160063087940216 0.02033199556171894 -0.13669998943805695
0.07321483641862869 0.020584845915436745 -0.13840000331401825
0.07441943883895874 0.020718706771731377 -0.13930000364780426
0.07579527795314789 0.020897187292575836 -0.1404999941587448
0.07685685902833939 0.02098642662167549 -0.1410999894142151
0.0785640999674797 0.02065921202301979 -0.1388999968767166
0.07843422889709473 0.020436111837625504 -0.13740000128746033
0.07811584323644638 0.02016839012503624 -0.1356000006198883
0.0781274065375328 0.01998990774154663 -0.13439999520778656
0.07836104929447174 0.019870920106768608 -0.13359999656677246
0.07882300764322281 0.019811425358057022 -0.13319998979568481
0.0794002115726471 0.019781680777668953 -0.13300000131130219
0.08015596866607666 0.019796553999185562 -0.1331000030040741
0.08097352087497711 0.01982629857957363 -0.13329999148845673
0.0817318931221962 0.01984117180109024 -0.13339999318122864
0.08242952823638916 0.01984117180109024 -0.13339999318122864
0.03482123464345932 0.020262878388166428 -0.141199991106987
0.03530781716108322 0.020119372755289078 -0.14019998908042908
0.03596389293670654 0.020076323300600052 -0.13989999890327454
0.036774203181266785 0.020119372755289078 -0.14019998908042908
0.037694670259952545 0.0202198289334774 -0.14090000092983246
0.03851334750652313 0.020262878388166428 -0.141199991106987
0.0393073707818985 0.020291579887270927 -0.14139999449253082
0.052874840795993805 0.020980404689908028 -0.1462000012397766
0.05374947562813759 0.021023454144597054 -0.14649999141693115
0.05459003895521164 0.021052155643701553 -0.14669999480247498
0.055394962430000305 0.02106650546193123 -0.1467999964952469
0.056162670254707336 0.02106650546193123 -0.1467999964952469
0.05693037807941437 0.02106650546193123 -0.1467999964952469
0.06448449939489365 0.020779496058821678 -0.14479999244213104
0.0652417466044426 0.020779496058821678 -0.14479999244213104
0.06595341861248016 0.020765144377946854 -0.14469999074935913
0.06652574241161346 0.020707745105028152 -0.14429999887943268
0.06630124151706696 0.020406384021043777 -0.14219999313354492
0.06553614884614944 0.019947169348597527 -0.13899999856948853
0.06564333289861679 0.019760612398386 -0.13769999146461487
0.06828850507736206 0.019487954676151276 -0.13580000400543213
0.06904948502779007 0.0195023026317358 -0.13589999079704285
0.06986285746097565 0.0195310041308403 -0.13609999418258667
0.07067832350730896 0.0195597056299448 -0.1362999975681305
0.07186252623796463 0.019688859581947327 -0.1371999979019165
0.07347933948040009 0.019932817667722702 -0.1388999968767166
0.07500708848237991 0.020148074254393578 -0.1403999924659729
0.07633474469184875 0.020305929705500603 -0.14149999618530273
0.07712920755147934 0.020320281386375427 -0.14159999787807465
0.07845412939786911 0.020090673118829727 -0.14000000059604645
0.07873379439115524 0.019975870847702026 -0.13920000195503235
0.0791192352771759 0.019889766350388527 -0.13859999179840088
0.0785767063498497 0.019574057310819626 -0.1363999992609024
0.078592449426651 0.019401850178837776 -0.13519999384880066
0.07836104929447174 0.019172241911292076 -0.13359999656677246
0.07882300764322281 0.019114838913083076 -0.13319998979568481
0.0794002115726471 0.019086141139268875 -0.13300000131130219
0.07991507649421692 0.01904308795928955 -0.13269999623298645
0.08054830133914948 0.019028738141059875 -0.13259999454021454
0.035131532698869705 0.01928938739001751 -0.1394999921321869
0.03583535552024841 0.019275560975074768 -0.13939999043941498
0.03659059479832649 0.01928938739001751 -0.1394999921321869
0.03737363591790199 0.01931704394519329 -0.1396999955177307
0.03818604350090027 0.019358526915311813 -0.14000000059604645
0.038945987820625305 0.019372355192899704 -0.14010000228881836
0.03970697522163391 0.019386179745197296 -0.14019998908042908
0.05363941192626953 0.0202158335596323 -0.1462000012397766
0.05451561510562897 0.020257314667105675 -0.14649999141693115
0.055357225239276886 0.020284969359636307 -0.14669999480247498
0.06381527334451675 0.02004990167915821 -0.14499999582767487
0.06457357108592987 0.02004990167915821 -0.14499999582767487
0.06533186137676239 0.02004990167915821 -0.14499999582767487
0.06595341861248016 0.020008418709039688 -0.14469999074935913
0.0666179433465004 0.019980765879154205 -0.1445000022649765
0.06550861150026321 0.01942766271531582 -0.1404999941587448
0.06506466120481491 0.019081976264715195 -0.1379999965429306
0.06910029798746109 0.018805425614118576 -0.13599999248981476
0.06991419196128845 0.018833080306649208 -0.13619999587535858
0.07078203558921814 0.01887456327676773 -0.13650000095367432
0.07228154689073563 0.019081976264715195 -0.1379999965429306
0.07379674166440964 0.01928938739001751 -0.1394999921321869
0.07554133236408234 0.019552111625671387 -0.14139999449253082
0.07649658620357513 0.0196074228733778 -0.14180000126361847
0.07723814994096756 0.0196074228733778 -0.14180000126361847
0.0778697207570076 0.01957976631820202 -0.14159999787807465
0.07833265513181686 0.019510628655552864 -0.1410999894142151
0.07856620103120804 0.019386179745197296 -0.14019998908042908
0.07890347391366959 0.01928938739001751 -0.1394999921321869
0.0792904943227768 0.019206423312425613 -0.1388999968767166
0.07909516990184784 0.018985183909535408 -0.13729999959468842
0.07917375862598419 0.018833080306649208 -0.13619999587535858
0.0784783586859703 0.018501220270991325 -0.13379999995231628
0.07870466262102127 0.018390601500868797 -0.13300000131130219
0.07922110706567764 0.018349116668105125 -0.13269999623298645
0.031812552362680435 0.019198475405573845 -0.14429999887943268
0.03515671566128731 0.018573161214590073 -0.1395999938249588
0.0358610637485981 0.018559856340289116 -0.1394999921321869
0.03656436502933502 0.01854655146598816 -0.13939999043941498
0.03729337453842163 0.01854655146598816 -0.13939999043941498
0.03802238404750824 0.01854655146598816 -0.13939999043941498
0.038723599165678024 0.01853324845433235 -0.13930000364780426
0.03942376375198364 0.018519943580031395 -0.13920000195503235
0.04012288153171539 0.018506638705730438 -0.13910000026226044
0.040820952504873276 0.01849333383142948 -0.13899999856948853
0.05447840318083763 0.01947787031531334 -0.14639998972415924
0.06318744271993637 0.019331520423293114 -0.1453000009059906
0.06385928392410278 0.01930491253733635 -0.14509999752044678
0.06461810320615768 0.01930491253733635 -0.14509999752044678
0.06533186137676239 0.019291607663035393 -0.14499999582767487
0.06590783596038818 0.019238388165831566 -0.14459998905658722
0.06624912470579147 0.019118648022413254 -0.1437000036239624
0.06490248441696167 0.018519943580031395 -0.13920000195503235
0.06910029798746109 0.018094196915626526 -0.13599999248981476
0.06996552646160126 0.018134111538529396 -0.1362999975681305
0.07114501297473907 0.018253851681947708 -0.1371999979019165
0.072752945125103 0.018480028957128525 -0.1388999968767166
0.0744844526052475 0.018732815980911255 -0.14079999923706055
0.0757550299167633 0.018865860998630524 -0.14180000126361847
0.07660447806119919 0.018892468884587288 -0.1419999897480011
0.07729262113571167 0.01887916587293148 -0.14190000295639038
0.0779247134923935 0.018852557986974716 -0.14169999957084656
0.07838816940784454 0.018786033615469933 -0.141199991106987
0.07884640246629715 0.018719511106610298 -0.14069999754428864
0.07912971824407578 0.018613075837492943 -0.13989999890327454
0.07951883971691132 0.01853324845433235 -0.13930000364780426
0.07978645712137222 0.018426809459924698 -0.13849999010562897
0.07918219268321991 0.017961150035262108 -0.13499999046325684
0.07900054007768631 0.017761582508683205 -0.13349999487400055
0.0795195996761322 0.017721667885780334 -0.13319998979568481
0.0271735992282629 0.018891196697950363 -0.1477999985218048
0.027889810502529144 0.018852850422263145 -0.14749999344348907
0.02860288880765438 0.018814507871866226 -0.14720000326633453
0.02921305224299431 0.018712254241108894 -0.14639998972415924
0.02993771620094776 0.01868669129908085 -0.1462000012397766
0.0306392852216959 0.01864834688603878 -0.14589999616146088
0.03144533559679985 0.018673909828066826 -0.1460999995470047
0.032099150121212006 0.018610000610351562 -0.14559999108314514
0.03261232376098633 0.01846940442919731 -0.1445000022649765
0.032975442707538605 0.018252117559313774 -0.1428000032901764
0.033580537885427475 0.018175426870584488 -0.14219999313354492
0.03420350328087807 0.018111519515514374 -0.14169999957084656
0.03484589606523514 0.018060391768813133 -0.1412999927997589
0.03543373942375183 0.017983702942728996 -0.14069999754428864
0.036015309393405914 0.01790701411664486 -0.14010000228881836
0.0386958010494709 0.017791980877518654 -0.13920000195503235
0.03936711698770523 0.01776641607284546 -0.13899999856948853
0.04006519168615341 0.017753634601831436 -0.1388999968767166
0.04076221585273743 0.017740853130817413 -0.1387999951839447
0.041428305208683014 0.01771528832614422 -0.13859999179840088
0.062642402946949 0.018635563552379608 -0.14579999446868896
0.06327441334724426 0.01859721913933754 -0.14549998939037323
0.06399131566286087 0.018584439530968666 -0.1454000025987625
0.06470717489719391 0.018571658059954643 -0.1453000009059906
0.06533186137676239 0.018533311784267426 -0.14499999582767487
0.06590783596038818 0.018482184037566185 -0.14459998905658722
0.06838907301425934 0.017382968217134476 -0.13599999248981476
0.06920191645622253 0.01740853115916252 -0.13619999587535858
0.07022218406200409 0.01748521998524666 -0.13679999113082886
0.07171542197465897 0.0176769457757473 -0.13830000162124634
0.07306721061468124 0.017830323427915573 -0.1394999921321869
0.07490766048431396 0.01809873804450035 -0.14159999787807465
0.0758618712425232 0.018149863928556442 -0.1419999897480011
0.07665842026472092 0.018162645399570465 -0.142099991440773
0.07734708487987518 0.018149863928556442 -0.1419999897480011
0.07797970622777939 0.018124300986528397 -0.14180000126361847
0.07861024141311646 0.01809873804450035 -0.14159999787807465
0.07912658900022507 0.01804761029779911 -0.141199991106987
0.07946908473968506 0.01795814000070095 -0.1404999941587448
0.0798613429069519 0.017881451174616814 -0.13989999890327454
0.08013211190700531 0.017779197543859482 -0.13910000026226044
0.08033636957406998 0.017664164304733276 -0.13819999992847443
0.07965143024921417 0.01735740527510643 -0.13580000400543213
0.025731755420565605 0.018191808834671974 -0.14839999377727509
0.02650783397257328 0.018191808834671974 -0.14839999377727509
0.02721036970615387 0.01814277470111847 -0.14800000190734863
0.027946537360548973 0.018118256703019142 -0.1477999985218048
0.02868061140179634 0.018093740567564964 -0.147599995136261
0.029432550072669983 0.018081480637192726 -0.14749999344348907
0.030244873836636543 0.018105998635292053 -0.1476999968290329
0.03101728856563568 0.018105998635292053 -0.1476999968290329
0.03178970515727997 0.018105998635292053 -0.1476999968290329
0.03254007175564766 0.018093740567564964 -0.147599995136261
0.033221691846847534 0.01804470643401146 -0.14720000326633453
0.03401457890868187 0.0180569626390934 -0.14729999005794525
0.03450152650475502 0.017909860238432884 -0.1460999995470047
0.03483108803629875 0.017689205706119537 -0.14429999887943268
0.03543775901198387 0.017615653574466705 -0.1437000036239624
0.03588705137372017 0.01746854931116104 -0.14249999821186066
0.03647803142666817 0.01739499904215336 -0.14190000295639038
0.03706273436546326 0.017321445047855377 -0.1412999927997589
0.03764116391539574 0.017247894778847694 -0.14069999754428864
0.03815876692533493 0.017149826511740685 -0.13989999890327454
0.03877919167280197 0.01710079051554203 -0.1394999921321869
0.03942376375198364 0.017064016312360764 -0.13920000195503235
0.0400940366089344 0.017039498314261436 -0.13899999856948853
0.04076221585273743 0.01701498031616211 -0.1387999951839447
0.04145819693803787 0.01700272224843502 -0.1386999934911728
0.04215313121676445 0.016990462318062782 -0.13859999179840088
0.06277129799127579 0.017909860238432884 -0.1460999995470047
0.063404880464077 0.017873084172606468 -0.14579999446868896
0.06407933682203293 0.01784856617450714 -0.14559999108314514
0.06475170701742172 0.017824050039052963 -0.1454000025987625
0.06533186137676239 0.01777501590549946 -0.14499999582767487
0.0652809739112854 0.017358222976326942 -0.14159999787807465
0.06925272196531296 0.01670851558446884 -0.1362999975681305
0.07078684121370316 0.01690465211868286 -0.1378999948501587
0.07202655076980591 0.0170272383838892 -0.1388999968767166
0.07369574904441833 0.017247894778847694 -0.14069999754428864
0.07506636530160904 0.01739499904215336 -0.14190000295639038
0.07591529935598373 0.017419515177607536 -0.142099991440773
0.07671236991882324 0.017431773245334625 -0.14219999313354492
0.07808968424797058 0.017407255247235298 -0.1419999897480011
0.07872126996517181 0.01738273911178112 -0.14180000126361847
0.07935074716806412 0.017358222976326942 -0.14159999787807465
0.07986501604318619 0.01730918698012829 -0.141199991106987
0.08020384609699249 0.017223376780748367 -0.1404999941587448
0.08059296756982803 0.017149826511740685 -0.13989999890327454
0.02434254065155983 0.017533089965581894 -0.149399995803833
0.025073396041989326 0.01749788224697113 -0.14909999072551727
0.02583579160273075 0.017486145719885826 -0.14899998903274536
0.02661500871181488 0.017486145719885826 -0.14899998903274536
0.027339067310094833 0.017450939863920212 -0.14869999885559082
0.028078895062208176 0.017427468672394753 -0.148499995470047
0.02883606217801571 0.017415732145309448 -0.14839999377727509
0.029612137004733086 0.017415732145309448 -0.14839999377727509
0.030429169535636902 0.017439205199480057 -0.1485999971628189
0.031248291954398155 0.017462676391005516 -0.14880000054836273
0.03209102526307106 0.01749788224697113 -0.14909999072551727
0.03284871578216553 0.017486145719885826 -0.14899998903274536
0.03356022387742996 0.017450939863920212 -0.14869999885559082
0.03422240912914276 0.01739226095378399 -0.14819999039173126
0.03490297868847847 0.01734531857073307 -0.1477999985218048
0.0355069525539875 0.017263170331716537 -0.14710000157356262
0.03598029911518097 0.017122341319918633 -0.14589999616146088
0.03651664778590202 0.01701672002673149 -0.14499999582767487
0.03706928715109825 0.016922835260629654 -0.14419999718666077
0.03745618462562561 0.01675853691995144 -0.1428000032901764
0.0380157008767128 0.016676384955644608 -0.142099991440773
0.03859517723321915 0.01660597138106823 -0.14149999618530273
0.03897378221154213 0.01645340770483017 -0.14019998908042908
0.03950872644782066 0.016371257603168488 -0.1394999921321869
0.040180571377277374 0.016347788274288177 -0.13930000364780426
0.04085032269358635 0.016324317082762718 -0.13910000026226044
0.04151798039674759 0.01630084402859211 -0.1388999968767166
0.04218354821205139 0.01627737283706665 -0.1386999934911728
0.042877957224845886 0.016265636309981346 -0.13859999179840088
0.06213456764817238 0.017181018367409706 -0.14639998972415924
0.06281425803899765 0.017157549038529396 -0.1462000012397766
0.06353534013032913 0.017145812511444092 -0.1460999995470047
0.06421136856079102 0.017122341319918633 -0.14589999616146088
0.06475170701742172 0.01706366427242756 -0.1454000025987625
0.06528680771589279 0.017004985362291336 -0.14489999413490295
0.06531530618667603 0.016817213967442513 -0.14329999685287476
0.06950676441192627 0.016054395586252213 -0.13679999113082886
0.071146160364151 0.016265636309981346 -0.13859999179840088
0.07228582352399826 0.016359522938728333 -0.13939999043941498
0.07395763695240021 0.016570763662457466 -0.141199991106987
0.0751192644238472 0.016664650291204453 -0.1419999897480011
0.07596872001886368 0.016688121482729912 -0.14219999313354492
0.07676631957292557 0.016699858009815216 -0.14229999482631683
0.07751049846410751 0.016699858009815216 -0.14229999482631683
0.07814468443393707 0.016676384955644608 -0.142099991440773
0.07883229851722717 0.016664650291204453 -0.1419999897480011
0.0795188695192337 0.016652915626764297 -0.14190000295639038
0.08014783263206482 0.016629444435238838 -0.14169999957084656
0.02370316907763481 0.01685269922018051 -0.15029999613761902
0.024440299719572067 0.0168190598487854 -0.14999999105930328
0.025191113352775574 0.01679663546383381 -0.14980000257492065
0.025957170873880386 0.01678542234003544 -0.14970000088214874
0.02672218345105648 0.016774209216237068 -0.14959999918937683
0.02744937874376774 0.016740571707487106 -0.1492999941110611
0.028173435479402542 0.016706932336091995 -0.14899998903274536
0.03525720536708832 0.016740571707487106 -0.1492999941110611
0.03586902096867561 0.016662083566188812 -0.1485999971628189
0.03652283921837807 0.01660601980984211 -0.14810000360012054
0.03719661384820938 0.016561169177293777 -0.1476999968290329
0.03781478852033615 0.016493892297148705 -0.14710000157356262
0.038531605154275894 0.016471466049551964 -0.1468999981880188
0.03887179121375084 0.016292063519358635 -0.1453000009059906
0.038813382387161255 0.01595568284392357 -0.14229999482631683
0.039251770824193954 0.015832342207431793 -0.141199991106987
0.03984858840703964 0.01577627845108509 -0.14069999754428864
0.04038248211145401 0.015697790309786797 -0.14000000059604645
0.04096778854727745 0.015641726553440094 -0.1394999921321869
0.041607651859521866 0.015608089044690132 -0.13920000195503235
0.04227478802204132 0.015585662797093391 -0.13899999856948853
0.04293983057141304 0.015563237480819225 -0.1387999951839447
0.04363424330949783 0.015552024357020855 -0.1386999934911728
0.06136895343661308 0.01641540229320526 -0.14639998972415924
0.06213456764817238 0.01641540229320526 -0.14639998972415924
0.06290018558502197 0.01641540229320526 -0.14639998972415924
0.06353534013032913 0.0163817647844553 -0.1460999995470047
0.06421136856079102 0.016359340399503708 -0.14589999616146088
0.06470717489719391 0.016292063519358635 -0.1453000009059906
0.06528680771589279 0.016247212886810303 -0.14489999413490295
0.06495067477226257 0.01597810722887516 -0.14249999821186066
0.06843935698270798 0.015260494314134121 -0.13609999418258667
0.06991323828697205 0.01542868372052908 -0.13759998977184296
0.071146160364151 0.015540811233222485 -0.13859999179840088
0.07228582352399826 0.015630513429641724 -0.13939999043941498
0.07401001453399658 0.015843555331230164 -0.1412999927997589
0.0751192644238472 0.015922043472528458 -0.1419999897480011
0.07596872001886368 0.0159444697201252 -0.14219999313354492
0.0768202617764473 0.01596689410507679 -0.14239999651908875
0.07756496965885162 0.01596689410507679 -0.14239999651908875
0.07830966264009476 0.01596689410507679 -0.14239999651908875
0.07899884879589081 0.01595568284392357 -0.14229999482631683
0.02145874686539173 0.01615220494568348 -0.15109999477863312
0.022234218195080757 0.016141515225172043 -0.1509999930858612
0.02296290174126625 0.016098756343126297 -0.15060000121593475
0.02371894009411335 0.016077376902103424 -0.15039999783039093
0.024489181116223335 0.016066687181591988 -0.15029999613761902
0.02527519501745701 0.016066687181591988 -0.15029999613761902
0.026061207056045532 0.016066687181591988 -0.15029999613761902
0.03889882192015648 0.01585289090871811 -0.14829999208450317
0.03978138789534569 0.015895651653409004 -0.14869999885559082
0.03977994620800018 0.015297024510800838 -0.14309999346733093
0.040245089679956436 0.015190127305686474 -0.142099991440773
0.04084399715065956 0.015136678703129292 -0.14159999787807465
0.04134957119822502 0.0150511609390378 -0.14079999923706055
0.04181688651442528 0.014954953454434872 -0.13989999890327454
0.04239644110202789 0.014901503920555115 -0.13939999043941498
0.043063580989837646 0.014880125410854816 -0.13920000195503235
0.04376008361577988 0.01486943569034338 -0.13910000026226044
0.04445553943514824 0.014858745969831944 -0.13899999856948853
0.061285119503736496 0.015628406777977943 -0.1462000012397766
0.06213456764817238 0.015649786219000816 -0.14639998972415924
0.06281425803899765 0.015628406777977943 -0.1462000012397766
0.06353534013032913 0.015617717988789082 -0.1460999995470047
0.06421136856079102 0.015596337616443634 -0.14589999616146088
0.06470717489719391 0.015532199293375015 -0.1453000009059906
0.06528680771589279 0.01548944041132927 -0.14489999413490295
0.0646316185593605 0.015158059075474739 -0.14180000126361847
0.06940515339374542 0.014602191746234894 -0.13660000264644623
0.07083816826343536 0.014751847833395004 -0.1379999965429306
0.0720784068107605 0.014858745969831944 -0.13899999856948853
0.07369574904441833 0.015040471218526363 -0.14069999754428864
0.07501346617937088 0.015158059075474739 -0.14180000126361847
0.020654872059822083 0.015351841226220131 -0.1509999930858612
0.021416140720248222 0.015331507660448551 -0.15079998970031738
0.022175319492816925 0.015311175025999546 -0.15060000121593475
0.022917157039046288 0.015280674211680889 -0.15029999613761902
0.02370316907763481 0.015280674211680889 -0.15029999613761902
0.024489181116223335 0.015280674211680889 -0.15029999613761902
0.025308826938271523 0.015301007777452469 -0.15049999952316284
0.04094749316573143 0.014975669793784618 -0.14729999005794525
0.041009772568941116 0.014721500687301159 -0.14479999244213104
0.041363198310136795 0.014579166658222675 -0.14339999854564667
0.04170197993516922 0.014436830766499043 -0.1419999897480011
0.042205460369586945 0.014355496503412724 -0.141199991106987
0.04279181733727455 0.014304663054645061 -0.14069999754428864
0.043218258768320084 0.014202995225787163 -0.1396999955177307
0.0441061332821846 0.014253828674554825 -0.14019998908042908
0.061243198812007904 0.014853669330477715 -0.1460999995470047
0.062007248401641846 0.014853669330477715 -0.1460999995470047
0.06277129799127579 0.014853669330477715 -0.1460999995470047
0.06353534013032913 0.014853669330477715 -0.1460999995470047
0.06416735798120499 0.014823168516159058 -0.14579999446868896
0.06470717489719391 0.01477233599871397 -0.1453000009059906
0.06533186137676239 0.014741835184395313 -0.14499999582767487
0.0646316185593605 0.014416498132050037 -0.14180000126361847
0.020613836124539375 0.014533238485455513 -0.15070000290870667
0.021373536437749863 0.014513949863612652 -0.15049999952316284
0.022131145000457764 0.014494662173092365 -0.15029999613761902
0.022917157039046288 0.014494662173092365 -0.15029999613761902
0.02370316907763481 0.014494662173092365 -0.15029999613761902
0.041968934237957 0.014031757600605488 -0.14549998939037323
0.042583007365465164 0.013983539305627346 -0.14499999582767487
0.042922839522361755 0.013848526403307915 -0.1436000019311905
0.04330884665250778 0.013732800260186195 -0.14239999651908875
0.043929796665906906 0.013694223947823048 -0.1419999897480011
0.06115936115384102 0.014070333912968636 -0.14589999616146088
0.062007248401641846 0.014089621603488922 -0.1460999995470047
0.06268536299467087 0.014070333912968636 -0.14589999616146088
0.06344836950302124 0.014070333912968636 -0.14589999616146088
0.06416735798120499 0.014060690067708492 -0.14579999446868896
0.0646626353263855 0.014002827927470207 -0.1451999992132187
0.06537692248821259 0.01399318315088749 -0.14509999752044678
0.01979942061007023 0.013726891949772835 -0.15049999952316284
0.02058647945523262 0.013726891949772835 -0.15049999952316284
0.02134513296186924 0.013708650134503841 -0.15029999613761902
0.022131145000457764 0.013708650134503841 -0.15029999613761902
0.022917157039046288 0.013708650134503841 -0.15029999613761902
0.06115936115384102 0.013307332061231136 -0.14589999616146088
0.06192236393690109 0.013307332061231136 -0.14589999616146088
0.06268536299467087 0.013307332061231136 -0.14589999616146088
0.063404880464077 0.013298210687935352 -0.14579999446868896
0.06407933682203293 0.013279968872666359 -0.14559999108314514
0.06470717489719391 0.01325260754674673 -0.1453000009059906
0.06546703726053238 0.01325260754674673 -0.1453000009059906
0.06336384266614914 0.01239524595439434 -0.13589999079704285
0.06374450773000717 0.012331400066614151 -0.13519999384880066
0.06435620784759521 0.012313158251345158 -0.13499999046325684
0.018999729305505753 0.012931236065924168 -0.15039999783039093
0.01978626474738121 0.012931236065924168 -0.15039999783039093
0.020572800189256668 0.012931236065924168 -0.15039999783039093
0.02134513296186924 0.012922638095915318 -0.15029999613761902
0.061285119503736496 0.012570124119520187 -0.1462000012397766
0.062007248401641846 0.012561526149511337 -0.1460999995470047
0.06268536299467087 0.012544330209493637 -0.14589999616146088
0.063404880464077 0.012535732239484787 -0.14579999446868896
0.0640353262424469 0.012509938329458237 -0.14549998939037323
0.06470717489719391 0.012492743320763111 -0.1453000009059906
0.06537692248821259 0.012475547380745411 -0.14509999752044678
0.0651329904794693 0.012286392971873283 -0.1428999900817871
0.06392334401607513 0.01178771536797285 -0.1370999962091446
0.0640745460987091 0.011684540659189224 -0.13589999079704285
0.06449922919273376 0.011632952839136124 -0.13529999554157257
0.06501401960849762 0.011598561890423298 -0.13490000367164612
0.065524622797966 0.011564170010387897 -0.13449999690055847
0.06608028709888458 0.011538376100361347 -0.13419999182224274
0.018176864832639694 0.012120475061237812 -0.1500999927520752
0.018949197605252266 0.012112400494515896 -0.14999999105930328
0.02058647945523262 0.0121527761220932 -0.15049999952316284
0.061410870403051376 0.011829777620732784 -0.14649999141693115
0.06213456764817238 0.011821703054010868 -0.14639998972415924
0.06281425803899765 0.011805553920567036 -0.1462000012397766
0.06344836950302124 0.011781328357756138 -0.14589999616146088
0.06407933682203293 0.01175710279494524 -0.14559999108314514
0.0646626353263855 0.011724804528057575 -0.1451999992132187
0.06595341861248016 0.01168442890048027 -0.14469999074935913
0.06471598148345947 0.011208008043467999 -0.1387999951839447
0.06515896320343018 0.011159558780491352 -0.13819999992847443
0.06507128477096558 0.011022284626960754 -0.13650000095367432
0.06559234857559204 0.01098998449742794 -0.13609999418258667
0.06606051325798035 0.010949610732495785 -0.1356000006198883
0.06647420674562454 0.010901160538196564 -0.13499999046325684
0.020600158721208572 0.011373268440365791 -0.15060000121593475
0.061536628752946854 0.011086293496191502 -0.1467999964952469
0.062304336577653885 0.011086293496191502 -0.1467999964952469
0.06290018558502197 0.011056085117161274 -0.14639998972415924
0.06353534013032913 0.011033429764211178 -0.1460999995470047
0.06407933682203293 0.010995669290423393 -0.14559999108314514
