ply
format ascii 1.0
element vertex 756
property float x
property float y
property float z
end_header
0.015999117866158485 0.019774602726101875 -0.16849999129772186
0.017050614580512047 0.019974108785390854 -0.17019999027252197
0.01830963045358658 0.020384857431054115 -0.1736999899148941
0.03431569039821625 0.020725192502141 -0.17659999430179596
0.03521928936243057 0.020713455975055695 -0.17649999260902405
0.036142315715551376 0.020713455975055695 -0.17649999260902405
0.03706534579396248 0.020713455975055695 -0.17649999260902405
0.03792380541563034 0.02067825011909008 -0.1762000024318695
-0.02026522532105446 0.019891342148184776 -0.17739999294281006
-0.019359292462468147 0.019913768395781517 -0.17759999632835388
-0.01843051053583622 0.019913768395781517 -0.17759999632835388
0.0027795962523669004 0.01888219825923443 -0.16839998960494995
0.003634182270616293 0.018747646361589432 -0.1671999990940094
0.004492395557463169 0.01868036948144436 -0.16659998893737793
0.005357212387025356 0.018657945096492767 -0.1664000004529953
0.013204947113990784 0.01868036948144436 -0.16659998893737793
0.0140846511349082 0.01869158260524273 -0.16669999063014984
0.01500129047781229 0.018747646361589432 -0.1671999990940094
0.016037099063396454 0.01893826201558113 -0.1688999980688095
0.03531906008720398 0.019846491515636444 -0.1770000010728836
0.0362447053194046 0.019846491515636444 -0.1770000010728836
0.03710734471678734 0.019812854006886482 -0.17669999599456787
0.03803142160177231 0.019812854006886482 -0.17669999599456787
0.03893344849348068 0.019801640883088112 -0.17659999430179596
-0.0192938894033432 0.01892084814608097 -0.1770000010728836
-0.018368246033787727 0.01892084814608097 -0.1770000010728836
0.0036428761668503284 0.017916012555360794 -0.16759999096393585
0.004497788846492767 0.017830494791269302 -0.16679999232292175
0.005357212387025356 0.017787735909223557 -0.1664000004529953
0.006227421574294567 0.017787735909223557 -0.1664000004529953
0.012304079718887806 0.017766356468200684 -0.16619999706745148
0.013181169517338276 0.01777704618871212 -0.1662999987602234
0.014076202176511288 0.01780911348760128 -0.16659998893737793
0.014992318116128445 0.017862563952803612 -0.1670999974012375
0.016046592965722084 0.018065668642520905 -0.16899999976158142
0.037212345749139786 0.018942227587103844 -0.17719998955726624
0.03813903406262398 0.018942227587103844 -0.17719998955726624
0.03902163356542587 0.01892084814608097 -0.1770000010728836
0.03985700011253357 0.018878089264035225 -0.17659999430179596
-0.019184883683919907 0.017893537878990173 -0.17599999904632568
-0.018326735123991966 0.017954537644982338 -0.17659999430179596
-0.01740318536758423 0.017954537644982338 -0.17659999430179596
0.0036537442356348038 0.017090361565351486 -0.1680999994277954
0.0045085749588906765 0.016998860985040665 -0.1671999990940094
0.00536365108564496 0.01693785935640335 -0.16659998893737793
0.006223679054528475 0.016907360404729843 -0.1662999987602234
0.012296676635742188 0.01688702590763569 -0.16609999537467957
0.013173243030905724 0.01689719222486019 -0.16619999706745148
0.014050855301320553 0.016907360404729843 -0.1662999987602234
0.014965401962399483 0.016958193853497505 -0.16679999232292175
0.033656854182481766 0.01809687167406082 -0.17799998819828033
0.03813903406262398 0.018015537410974503 -0.17719998955726624
0.03902163356542587 0.017995206639170647 -0.1770000010728836
0.03987956792116165 0.01796470582485199 -0.17669999599456787
-0.018108807504177094 0.016828466206789017 -0.1744999885559082
-0.017235657200217247 0.01686704158782959 -0.17489999532699585
0.0045085749588906765 0.01612446829676628 -0.1671999990940094
0.00536365108564496 0.016066603362560272 -0.16659998893737793
0.0062199365347623825 0.01602802984416485 -0.16619999706745148
0.01141427457332611 0.015999097377061844 -0.16589999198913574
0.012296676635742188 0.01601838506758213 -0.16609999537467957
0.013165316544473171 0.01601838506758213 -0.16609999537467957
0.014059305191040039 0.016047317534685135 -0.1664000004529953
0.014992318116128445 0.016114823520183563 -0.1670999974012375
0.03369467332959175 0.017185287550091743 -0.17819999158382416
0.03813903406262398 0.01708884909749031 -0.17719998955726624
0.03902163356542587 0.017069563269615173 -0.1770000010728836
0.03985700011253357 0.01703098602592945 -0.17659999430179596
0.04068818315863609 0.016992412507534027 -0.1762000024318695
0.0045085749588906765 0.015250075608491898 -0.1671999990940094
0.005357212387025356 0.015177108347415924 -0.1664000004529953
0.00621619401499629 0.015149745158851147 -0.16609999537467957
0.007084834389388561 0.015149745158851147 -0.16609999537467957
0.01141427457332611 0.015131503343582153 -0.16589999198913574
0.01228187046945095 0.015131503343582153 -0.16589999198913574
0.013165316544473171 0.015149745158851147 -0.16609999537467957
0.014076202176511288 0.015195349231362343 -0.16659998893737793
0.015037178061902523 0.01528655830770731 -0.16759999096393585
0.03895549476146698 0.016116555780172348 -0.17669999599456787
0.03983442857861519 0.01609831489622593 -0.17649999260902405
0.04064199700951576 0.01605270989239216 -0.17599999904632568
-0.017216337844729424 0.014263909310102463 -0.16589999198913574
-0.01647685468196869 0.01437568198889494 -0.1671999990940094
-0.015826420858502388 0.014582031406462193 -0.1695999950170517
0.005353992804884911 0.014298301190137863 -0.1662999987602234
0.00621619401499629 0.014281105250120163 -0.16609999537467957
0.007076303008943796 0.014263909310102463 -0.16589999198913574
0.01054668053984642 0.014263909310102463 -0.16589999198913574
0.01141427457332611 0.014263909310102463 -0.16589999198913574
0.012296676635742188 0.014281105250120163 -0.16609999537467957
0.013181169517338276 0.014298301190137863 -0.1662999987602234
0.0140846511349082 0.014332692138850689 -0.16669999063014984
0.03893344849348068 0.015183884650468826 -0.17659999430179596
0.03976672515273094 0.015149493701756 -0.1762000024318695
0.040572721511125565 0.015106502920389175 -0.17569999396800995
0.041373491287231445 0.0150635140016675 -0.17520000040531158
-0.016348743811249733 0.013396315276622772 -0.16589999198913574
-0.015602461993694305 0.013501289300620556 -0.1671999990940094
-0.014957093633711338 0.013711238279938698 -0.16979999840259552
0.005350773222744465 0.013420539908111095 -0.16619999706745148
0.006208708975464106 0.013396315276622772 -0.16589999198913574
0.007076303008943796 0.013396315276622772 -0.16589999198913574
0.007939108647406101 0.013388239778578281 -0.16579999029636383
0.01054668053984642 0.013396315276622772 -0.16589999198913574
0.011428034864366055 0.01341246534138918 -0.16609999537467957
0.012311483733355999 0.013428615406155586 -0.1662999987602234
0.013204947113990784 0.013452839106321335 -0.16659998893737793
0.014126897789537907 0.013501289300620556 -0.1671999990940094
0.01518970262259245 0.013670862652361393 -0.16929998993873596
0.03649042919278145 0.014389531686902046 -0.17819999158382416
0.03893344849348068 0.01426033303141594 -0.17659999430179596
0.03972158581018448 0.014211883768439293 -0.17599999904632568
0.0405496284365654 0.014179583638906479 -0.17559999227523804
0.041373491287231445 0.01414728444069624 -0.17520000040531158
-0.015509145334362984 0.012551375664770603 -0.16619999706745148
-0.014833771623671055 0.012717518955469131 -0.16839998960494995
0.005350773222744465 0.012551375664770603 -0.16619999706745148
0.006208708975464106 0.012528719380497932 -0.16589999198913574
0.007076303008943796 0.012528719380497932 -0.16589999198913574
0.007943897508084774 0.012528719380497932 -0.16589999198913574
0.01055939495563507 0.012543823570013046 -0.16609999537467957
0.011434915475547314 0.012551375664770603 -0.16619999706745148
0.01233369205147028 0.012581583112478256 -0.16659998893737793
0.01324457861483097 0.01261934358626604 -0.1670999974012375
0.014160693623125553 0.01265710312873125 -0.16759999096393585
0.015216619707643986 0.012808142229914665 -0.1695999950170517
0.03557846322655678 0.013465164229273796 -0.17829999327659607
0.036510907113552094 0.013465164229273796 -0.17829999327659607
0.03895549476146698 0.013344332575798035 -0.17669999599456787
0.03976672515273094 0.013306573033332825 -0.1762000024318695
0.0405496284365654 0.013261260464787483 -0.17559999227523804
0.041373491287231445 0.01323105301707983 -0.17520000040531158
-0.015499813482165337 0.011675183661282063 -0.16609999537467957
-0.014719259925186634 0.011745473369956017 -0.1670999974012375
-0.014035960659384727 0.011907140724360943 -0.16939999163150787
0.0062199365347623825 0.011682212352752686 -0.16619999706745148
0.007084834389388561 0.011675183661282063 -0.16609999537467957
0.007943897508084774 0.011661125347018242 -0.16589999198913574
0.009690755046904087 0.011675183661282063 -0.16609999537467957
0.010565752163529396 0.011682212352752686 -0.16619999706745148
0.011448676697909832 0.011696270667016506 -0.1664000004529953
0.012341095134615898 0.011717356741428375 -0.16669999063014984
0.013252505101263523 0.011752502992749214 -0.1671999990940094
0.014177591539919376 0.011794676072895527 -0.16779999434947968
0.0356183759868145 0.01254678051918745 -0.1784999966621399
0.036510907113552094 0.01253272220492363 -0.17829999327659607
0.03738034516572952 0.012511635199189186 -0.17799998819828033
0.03983442857861519 0.012406200170516968 -0.17649999260902405
0.0405496284365654 0.012342939153313637 -0.17559999227523804
0.041373491287231445 0.01231482345610857 -0.17520000040531158
0.04219317063689232 0.012286706827580929 -0.17479999363422394
-0.014675215817987919 0.010839072987437248 -0.16659998893737793
-0.014002818614244461 0.01099521853029728 -0.16899999976158142
-0.013351893983781338 0.011190399527549744 -0.171999990940094
0.0070890998467803 0.010813049040734768 -0.16619999706745148
0.007958263158798218 0.010813049040734768 -0.16619999706745148
0.008827426470816135 0.010813049040734768 -0.16619999706745148
0.009696589782834053 0.010813049040734768 -0.16619999706745148
0.010578467510640621 0.010826061479747295 -0.1664000004529953
0.011462436057627201 0.010839072987437248 -0.16659998893737793
0.012370708398520947 0.010871604084968567 -0.1670999974012375
0.013284208253026009 0.010904133319854736 -0.16759999096393585
0.036510907113552094 0.011600281111896038 -0.17829999327659607
0.03738034516572952 0.011580762453377247 -0.17799998819828033
0.03983442857861519 0.011483171954751015 -0.17649999260902405
0.0405496284365654 0.01142461784183979 -0.17559999227523804
0.041326262056827545 0.011385581456124783 -0.17499999701976776
0.04212075471878052 0.011353050358593464 -0.1744999885559082
-0.013953103683888912 0.010075514204800129 -0.16839998960494995
-0.013165588490664959 0.010147311724722385 -0.1695999950170517
-0.012503078207373619 0.010332787409424782 -0.17270000278949738
0.007097630761563778 0.00995585322380066 -0.1664000004529953
0.007963051088154316 0.00994987040758133 -0.1662999987602234
0.008832737803459167 0.00994987040758133 -0.1662999987602234
0.00970825832337141 0.00995585322380066 -0.1664000004529953
0.010578467510640621 0.00995585322380066 -0.1664000004529953
0.011469315737485886 0.009973801672458649 -0.16669999063014984
0.012370708398520947 0.009997734799981117 -0.1670999974012375
0.013284208253026009 0.010027649812400341 -0.16759999096393585
0.03976672515273094 0.010542195290327072 -0.1762000024318695
0.0405496284365654 0.010506296530365944 -0.17559999227523804
0.041326262056827545 0.01047039870172739 -0.17499999701976776
0.04209661856293678 0.010434499941766262 -0.17440000176429749
-0.013150063343346119 0.009249446913599968 -0.16939999163150787
-0.012336562387645245 0.00930404756218195 -0.1703999936580658
-0.011620071716606617 0.009446010924875736 -0.17299999296665192
0.007106160745024681 0.00909656286239624 -0.16659998893737793
0.007967839948832989 0.009085643105208874 -0.1664000004529953
0.008832737803459167 0.009080182760953903 -0.1662999987602234
0.009702424518764019 0.009080182760953903 -0.1662999987602234
0.010578467510640621 0.009085643105208874 -0.1664000004529953
0.011469315737485886 0.00910202320665121 -0.16669999063014984
0.012370708398520947 0.009123863652348518 -0.1670999974012375
0.03972158581018448 0.00960981473326683 -0.17599999904632568
0.0404803566634655 0.009571594186127186 -0.1753000020980835
0.041326262056827545 0.009555214084684849 -0.17499999701976776
0.04202420264482498 0.009506072849035263 -0.17409999668598175
-0.01307243574410677 0.008314177393913269 -0.16839998960494995
-0.012278644368052483 0.008373423479497433 -0.1695999950170517
-0.01146558579057455 0.008427731692790985 -0.17069999873638153
0.00711042620241642 0.008230245672166348 -0.16669999063014984
0.007977415807545185 0.008225307799875736 -0.16659998893737793
0.008832737803459167 0.008210496976971626 -0.1662999987602234
0.009702424518764019 0.008210496976971626 -0.1662999987602234
0.010578467510640621 0.008215433917939663 -0.1664000004529953
0.011462436057627201 0.008225307799875736 -0.16659998893737793
0.012370708398520947 0.008249994367361069 -0.1670999974012375
0.0388011708855629 0.008689401671290398 -0.17599999904632568
0.03963130712509155 0.008669652976095676 -0.17559999227523804
0.040411077439785004 0.008640029467642307 -0.17499999701976776
0.04127902910113335 0.008630155585706234 -0.17479999363422394
-0.012227966450154781 0.007455579936504364 -0.1688999980688095
-0.011405134573578835 0.007495307829231024 -0.16979999840259552
-0.010591469705104828 0.007548277731984854 -0.17099998891353607
0.007967839948832989 0.007345225196331739 -0.1664000004529953
0.008832737803459167 0.007340810727328062 -0.1662999987602234
0.009702424518764019 0.007340810727328062 -0.1662999987602234
0.010572109371423721 0.007340810727328062 -0.1662999987602234
0.011462436057627201 0.0073540532030165195 -0.16659998893737793
0.038712985813617706 0.007751331198960543 -0.17559999227523804
0.03949589282274246 0.007724846247583628 -0.17499999701976776
0.04036489129066467 0.007716017309576273 -0.17479999363422394
0.041208185255527496 0.0077027748338878155 -0.1744999885559082
-0.011378266848623753 0.006591752637177706 -0.16939999163150787
-0.010541918687522411 0.0066228825598955154 -0.17019999027252197
-0.00975391361862421 0.006692925002425909 -0.171999990940094
0.007963051088154316 0.006471124943345785 -0.1662999987602234
0.008827426470816135 0.006467233411967754 -0.16619999706745148
0.009696589782834053 0.006467233411967754 -0.16619999706745148
0.010572109371423721 0.006471124943345785 -0.1662999987602234
0.011462436057627201 0.0064827981404960155 -0.16659998893737793
0.038624804466962814 0.006817444693297148 -0.17520000040531158
0.03947332501411438 0.00680577103048563 -0.17489999532699585
0.04031870886683464 0.006794096902012825 -0.17459999024868011
0.041184574365615845 0.006786314770579338 -0.17440000176429749
-0.010523337870836258 0.005722696427255869 -0.16990000009536743
-0.009719888679683208 0.005773220211267471 -0.17139999568462372
-0.008926489390432835 0.00584058603271842 -0.17339999973773956
0.007963051088154316 0.005601438693702221 -0.1662999987602234
0.008827426470816135 0.005598070099949837 -0.16619999706745148
0.009696589782834053 0.005598070099949837 -0.16619999706745148
0.010572109371423721 0.005601438693702221 -0.1662999987602234
0.011462436057627201 0.0056115430779755116 -0.16659998893737793
0.025547264143824577 0.005843954160809517 -0.17350000143051147
0.02639361284673214 0.005830481182783842 -0.17309999465942383
0.02723577991127968 0.005817008204758167 -0.17270000278949738
0.03855866193771362 0.005891109816730022 -0.17489999532699585
0.039383046329021454 0.005877636838704348 -0.1744999885559082
0.040295615792274475 0.005877636838704348 -0.1744999885559082
0.041137341409921646 0.00586753198876977 -0.17419999837875366
-0.010517144575715065 0.004831337835639715 -0.16979999840259552
-0.009708546102046967 0.0048711723648011684 -0.1711999922990799
-0.008921341970562935 0.004930923692882061 -0.17329999804496765
-0.008052047342061996 0.004953686147928238 -0.17409999668598175
0.008832737803459167 0.004731751978397369 -0.1662999987602234
0.009702424518764019 0.004731751978397369 -0.1662999987602234
0.010572109371423721 0.004731751978397369 -0.1662999987602234
0.011476196348667145 0.004745978396385908 -0.16679999232292175
0.02247004024684429 0.00485979113727808 -0.17080000042915344
0.02329486422240734 0.004845564253628254 -0.17029999196529388
0.02418546937406063 0.004845564253628254 -0.17029999196529388
0.026841511949896812 0.004842719063162804 -0.17019999027252197
0.02773159369826317 0.004842719063162804 -0.17019999027252197
0.028554411605000496 0.004831337835639715 -0.16979999840259552
0.029390381649136543 0.004822801798582077 -0.16949999332427979
0.03847047686576843 0.004965067375451326 -0.1744999885559082
0.03936048224568367 0.004962222184985876 -0.17440000176429749
0.04020325094461441 0.004953686147928238 -0.17409999668598175
0.041066497564315796 0.004947995766997337 -0.17389999330043793
-0.011358117684721947 0.0039270916022360325 -0.16910000145435333
-0.008905897848308086 0.004017663188278675 -0.17299999296665192
-0.008052047342061996 0.00404320890083909 -0.17409999668598175
-0.007162079680711031 0.004054820630699396 -0.17459999024868011
-0.006270462181419134 0.004068755079060793 -0.17520000040531158
0.0088380491361022 0.003864388447254896 -0.1664000004529953
0.00970825832337141 0.003864388447254896 -0.1664000004529953
0.010591180995106697 0.00386903272010386 -0.16659998893737793
0.011476196348667145 0.003873677458614111 -0.16679999232292175
0.021463125944137573 0.003945670556277037 -0.16990000009536743
0.022312169894576073 0.003938703332096338 -0.1695999950170517
0.02318543568253517 0.003936381079256535 -0.16949999332427979
0.02407185733318329 0.003936381079256535 -0.16949999332427979
0.024973003193736076 0.003938703332096338 -0.1695999950170517
0.025859946385025978 0.003938703332096338 -0.1695999950170517
0.026778431609272957 0.003943348303437233 -0.16979999840259552
0.02763383463025093 0.003938703332096338 -0.1695999950170517
0.028503961861133575 0.003936381079256535 -0.16949999332427979
0.02932102605700493 0.0039270916022360325 -0.16910000145435333
0.037536390125751495 0.004050176125019789 -0.17440000176429749
0.03838229551911354 0.00404320890083909 -0.17409999668598175
0.03924763202667236 0.004038564395159483 -0.17389999330043793
0.040133971720933914 0.004036242142319679 -0.17379999160766602
-0.012213487178087234 0.0030355649068951607 -0.16869999468326569
-0.008042797446250916 0.0031291330233216286 -0.17389999330043793
-0.007157977670431137 0.0031399293802678585 -0.1744999885559082
-0.006270462181419134 0.003152525285258889 -0.17520000040531158
-0.005369512364268303 0.0031615220941603184 -0.17569999396800995
0.008880539797246456 0.0030085742473602295 -0.1671999990940094
0.009731595404446125 0.0030013765208423138 -0.16679999232292175
0.010622967965900898 0.0030067749321460724 -0.1670999974012375
0.011531238444149494 0.0030157717410475016 -0.16759999096393585
0.019686101004481316 0.003057157853618264 -0.16990000009536743
0.02053828351199627 0.0030517594423145056 -0.1695999950170517
0.021399959921836853 0.0030481605790555477 -0.16939999163150787
0.02224639244377613 0.0030427626334130764 -0.16910000145435333
0.023158077150583267 0.0030463612638413906 -0.16929998993873596
0.024057654663920403 0.0030481605790555477 -0.16939999163150787
0.024958277121186256 0.0030499601271003485 -0.16949999332427979
0.025859946385025978 0.0030517594423145056 -0.1695999950170517
0.02674688957631588 0.0030517594423145056 -0.1695999950170517
0.02763383463025093 0.0030517594423145056 -0.1695999950170517
0.028520777821540833 0.0030517594423145056 -0.1695999950170517
0.029303686693310738 0.0030409633181989193 -0.16899999976158142
0.036351338028907776 0.0031147380359470844 -0.17309999465942383
0.03725658729672432 0.0031147380359470844 -0.17309999465942383
0.03813978657126427 0.0031129387207329273 -0.17299999296665192
0.03897680714726448 0.0031075405422598124 -0.17270000278949738
0.040018513798713684 0.0031183368992060423 -0.17329999804496765
-0.010498562827706337 0.0021635389421135187 -0.16949999332427979
-0.009640496224164963 0.0021699212957173586 -0.17000000178813934
-0.007982674054801464 0.00220310827717185 -0.17260000109672546
-0.00712926359847188 0.0022184252738952637 -0.17379999160766602
-0.006234671920537949 0.0022235310170799494 -0.17419999837875366
-0.005342008080333471 0.002231189515441656 -0.17479999363422394
-0.004458267241716385 0.0022465067449957132 -0.17599999904632568
0.009824943728744984 0.0021494983229786158 -0.16839998960494995
0.010724683292210102 0.002153327688574791 -0.16869999468326569
0.01878652349114418 0.002167368307709694 -0.16979999840259552
0.019639752805233 0.0021635389421135187 -0.16949999332427979
0.02047773450613022 0.0021584334317594767 -0.16910000145435333
0.021349430084228516 0.002157157054170966 -0.16899999976158142
0.02317175641655922 0.002162262564525008 -0.16939999163150787
0.02773159369826317 0.0021724740508943796 -0.17019999027252197
0.02858804538846016 0.0021699212957173586 -0.17000000178813934
0.029407721012830734 0.002164815552532673 -0.1695999950170517
0.030187495052814484 0.002157157054170966 -0.16899999976158142
0.034852251410484314 0.0021724740508943796 -0.17019999027252197
0.03584733605384827 0.002178856171667576 -0.17069999873638153
0.03697678819298744 0.002192896790802479 -0.17180000245571136
0.03774295747280121 0.002185238292440772 -0.1711999922990799
0.03881882131099701 0.0021954495459795 -0.171999990940094
-0.009600799530744553 0.001275610993616283 -0.16929998993873596
-0.008741164579987526 0.0012793783098459244 -0.16979999840259552
-0.0061666700057685375 0.0012982148909941316 -0.17229999601840973
-0.005308391060680151 0.0013087632833048701 -0.1736999899148941
-0.0044177379459142685 0.0013140375958755612 -0.17440000176429749
0.0099299605935812 0.001282392186112702 -0.17019999027252197
0.01082639954984188 0.0012831456260755658 -0.17029999196529388
0.01789853349328041 0.0012793783098459244 -0.16979999840259552
0.018742267042398453 0.0012763644335791469 -0.16939999163150787
0.019593404605984688 0.001274104113690555 -0.16910000145435333
0.02046562358736992 0.0012733506737276912 -0.16899999976158142
0.021349430084228516 0.0012733506737276912 -0.16899999976158142
0.02868894301354885 0.0012854060623794794 -0.17059999704360962
0.029477080330252647 0.001280885306186974 -0.17000000178813934
0.030258942395448685 0.0012763644335791469 -0.16939999163150787
0.03260573744773865 0.0012643090449273586 -0.16779999434947968
0.03366285562515259 0.0012710902374237776 -0.16869999468326569
0.034667953848838806 0.001275610993616283 -0.16929998993873596
0.03561633080244064 0.0012778714299201965 -0.1695999950170517
0.03654632344841957 0.0012793783098459244 -0.16979999840259552
-0.015001136809587479 0.00039254094008356333 -0.17029999196529388
-0.014052532613277435 0.00039092745282687247 -0.1695999950170517
-0.013150063343346119 0.0003904664481524378 -0.16939999163150787
-0.012227966450154781 0.0003893139655701816 -0.1688999980688095
-0.01131109893321991 0.00038816145388409495 -0.16839998960494995
-0.010393267497420311 0.0003867784689646214 -0.16779999434947968
-0.009515736252069473 0.0003867784689646214 -0.16779999434947968
-0.008669093251228333 0.00038816145388409495 -0.16839998960494995
-0.007816174998879433 0.00038954446790739894 -0.16899999976158142
-0.006952878087759018 0.00039069695048965514 -0.16949999332427979
-0.006084352731704712 0.0003918494621757418 -0.17000000178813934
-0.005213653203099966 0.0003932324470952153 -0.17059999704360962
-0.004364542197436094 0.0003971509577240795 -0.17229999601840973
-0.0034956408198922873 0.00040083893691189587 -0.17389999330043793
-0.0026025683619081974 0.00040337443351745605 -0.17499999701976776
0.01701054349541664 0.00039138845750130713 -0.16979999840259552
0.01785636879503727 0.0003904664481524378 -0.16939999163150787
0.018698012456297874 0.00038954446790739894 -0.16899999976158142
0.019570231437683105 0.0003893139655701816 -0.1688999980688095
0.020429294556379318 0.00038885296089574695 -0.16869999468326569
0.028789840638637543 0.00039461543201468885 -0.1711999922990799
0.02951175719499588 0.000392310437746346 -0.17019999027252197
0.030294667929410934 0.00039092745282687247 -0.1695999950170517
0.031016143038868904 0.00038885296089574695 -0.16869999468326569
0.031690388917922974 0.0003863174351863563 -0.16759999096393585
0.03246971592307091 0.0003851649526041001 -0.1670999974012375
0.03344335779547691 0.0003863174351863563 -0.16759999096393585
0.034401752054691315 0.0003872394736390561 -0.1679999977350235
0.03538532927632332 0.0003883919562213123 -0.16849999129772186
0.036438703536987305 0.0003902359458152205 -0.16929998993873596
-0.016969583928585052 -0.0005036205984652042 -0.17219999432563782
-0.015975726768374443 -0.0005006959545426071 -0.1711999922990799
-0.015009945258498192 -0.0004983562394045293 -0.1703999936580658
-0.014077389612793922 -0.0004968939465470612 -0.16990000009536743
-0.013157825917005539 -0.0004957240889780223 -0.16949999332427979
-0.012213487178087234 -0.0004933843738399446 -0.16869999468326569
-0.011284232139587402 -0.000491337152197957 -0.1679999977350235
-0.010380879044532776 -0.0004901672946289182 -0.16759999096393585
-0.009481711313128471 -0.0004889974370598793 -0.1671999990940094
-0.008607318624854088 -0.0004889974370598793 -0.1671999990940094
-0.007746800314635038 -0.000489874801132828 -0.16749998927116394
-0.006883144378662109 -0.0004907522234134376 -0.16779999434947968
-0.006030666641891003 -0.0004927994450554252 -0.16849999129772186
-0.00516781210899353 -0.0004945542314089835 -0.16910000145435333
-0.004301214590668678 -0.0004966015112586319 -0.16979999840259552
-0.003483579959720373 -0.0005068376776762307 -0.17329999804496765
-0.002586209215223789 -0.000508592464029789 -0.17389999330043793
-0.00168931286316365 -0.0005123944720253348 -0.17520000040531158
0.01701054349541664 -0.0004966015112586319 -0.16979999840259552
0.017824746668338776 -0.0004945542314089835 -0.16910000145435333
0.01866482011973858 -0.0004933843738399446 -0.16869999468326569
0.019512295722961426 -0.0004925070097669959 -0.16839998960494995
0.020429294556379318 -0.0004933843738399446 -0.16869999468326569
0.028823474422097206 -0.0005012808833271265 -0.17139999568462372
0.02952909655869007 -0.0004980638041161001 -0.17029999196529388
0.030294667929410934 -0.0004960165824741125 -0.1695999950170517
0.03107129968702793 -0.0004942617961205542 -0.16899999976158142
0.03172820433974266 -0.0004907522234134376 -0.16779999434947968
0.03248915076255798 -0.0004889974370598793 -0.1671999990940094
0.03342340141534805 -0.000489874801132828 -0.16749998927116394
0.034360796213150024 -0.0004907522234134376 -0.16779999434947968
0.03538532927632332 -0.0004927994450554252 -0.16849999129772186
-0.018770664930343628 -0.0014041615650057793 -0.17219999432563782
-0.01782861538231373 -0.001400899956934154 -0.17180000245571136
-0.016910456120967865 -0.0013992690946906805 -0.17159999907016754
-0.014085675589740276 -0.001386222313158214 -0.17000000178813934
-0.013165588490664959 -0.001382960588671267 -0.1695999950170517
-0.012235206551849842 -0.0013780680019408464 -0.16899999976158142
-0.01129094883799553 -0.0013707291800528765 -0.1680999994277954
-0.009459028020501137 -0.0013601286336779594 -0.16679999232292175
-0.008581578731536865 -0.0013593131443485618 -0.16669999063014984
-0.007709800731390715 -0.0013593131443485618 -0.16669999063014984
-0.006842124275863171 -0.0013601286336779594 -0.16679999232292175
-0.005980560556054115 -0.0013625749852508307 -0.1670999974012375
-0.005118914879858494 -0.0013658365933224559 -0.16749998927116394
-0.004265751224011183 -0.0013731754152104259 -0.16839998960494995
-0.003407194511964917 -0.0013821450993418694 -0.16949999332427979
-0.0016825632192194462 -0.0014229163061827421 -0.1744999885559082
-0.0007717591361142695 -0.0014261780306696892 -0.17489999532699585
0.016990507021546364 -0.001382960588671267 -0.1695999950170517
0.017824746668338776 -0.0013788834912702441 -0.16910000145435333
0.018631627783179283 -0.0013731754152104259 -0.16839998960494995
0.019477536901831627 -0.0013707291800528765 -0.1680999994277954
0.028122641146183014 -0.0014074234059080482 -0.17260000109672546
0.028924373909831047 -0.0014025307027623057 -0.171999990940094
0.029581116512417793 -0.0013911147834733129 -0.17059999704360962
0.03034825623035431 -0.0013854068238288164 -0.16990000009536743
0.031144840642809868 -0.0013813297264277935 -0.16939999163150787
0.03186056390404701 -0.0013739909045398235 -0.16849999129772186
0.03260573744773865 -0.001368282944895327 -0.16779999434947968
0.03352317586541176 -0.0013699138071388006 -0.1679999977350235
-0.022112982347607613 -0.0022779346909374 -0.17019999027252197
-0.02124783769249916 -0.0022806115448474884 -0.1703999936580658
-0.020428389310836792 -0.0022886418737471104 -0.17099998891353607
-0.01962551288306713 -0.002299349056556821 -0.17180000245571136
-0.01872706413269043 -0.002299349056556821 -0.17180000245571136
-0.017787104472517967 -0.002293995348736644 -0.17139999568462372
-0.006842124275863171 -0.0022324295714497566 -0.16679999232292175
-0.005980560556054115 -0.0022364447358995676 -0.1670999974012375
-0.005106690805405378 -0.0022364447358995676 -0.1670999974012375
-0.0042353542521595955 -0.0022377832792699337 -0.1671999990940094
-0.0033790525048971176 -0.0022498287726193666 -0.1680999994277954
-0.0025207733269780874 -0.0022685660514980555 -0.16949999332427979
-0.0007682290743105114 -0.0023301318287849426 -0.17409999668598175
0.00014290183025877923 -0.002340839011594653 -0.17489999532699585
0.01701054349541664 -0.0022725812159478664 -0.16979999840259552
0.01780366525053978 -0.0022605357225984335 -0.1688999980688095
0.018598437309265137 -0.0022498287726193666 -0.1680999994277954
0.01946594938635826 -0.0022484902292490005 -0.1679999977350235
0.020405074581503868 -0.0022551822476089 -0.16849999129772186
0.02826928347349167 -0.0023221017327159643 -0.17350000143051147
0.029092539101839066 -0.002315409481525421 -0.17299999296665192
0.029789190739393234 -0.002299349056556821 -0.17180000245571136
0.030473291873931885 -0.002283288398757577 -0.17059999704360962
0.031236769631505013 -0.0022739197593182325 -0.16990000009536743
0.03203073889017105 -0.002267227740958333 -0.16939999163150787
-0.023963337764143944 -0.0031773236114531755 -0.17069999873638153
-0.023070640861988068 -0.0031773236114531755 -0.17069999873638153
-0.02224290557205677 -0.0031866300851106644 -0.1711999922990799
-0.02139747142791748 -0.0031940757762640715 -0.17159999907016754
-0.020571745932102203 -0.003205243730917573 -0.17219999432563782
-0.019728323444724083 -0.003214550670236349 -0.17270000278949738
-0.0033770424779504538 -0.003127067117020488 -0.1679999977350235
-0.002511850092560053 -0.0031438192818313837 -0.1688999980688095
-0.0016391734825447202 -0.0031642941758036613 -0.17000000178813934
-0.0007669052574783564 -0.003235025331377983 -0.17379999160766602
0.00014249331434257329 -0.0032461935188621283 -0.17440000176429749
0.0010599815286695957 -0.003262945683673024 -0.1753000020980835
0.0019868831150233746 -0.00327969784848392 -0.1762000024318695
0.01703057996928692 -0.0031642941758036613 -0.17000000178813934
0.017814205959439278 -0.0031456805299967527 -0.16899999976158142
0.018587373197078705 -0.003127067117020488 -0.1679999977350235
0.01944277435541153 -0.003123344387859106 -0.16779999434947968
0.020405074581503868 -0.0031363738235086203 -0.16849999129772186
0.02922707051038742 -0.003235025331377983 -0.17379999160766602
0.029997263103723526 -0.003220134414732456 -0.17299999296665192
0.030759090557694435 -0.003205243730917573 -0.17219999432563782
-0.024117760360240936 -0.004096247721463442 -0.17180000245571136
-0.023219309747219086 -0.004096247721463442 -0.17180000245571136
-0.022385822609066963 -0.004108169116079807 -0.17229999601840973
-0.021522166207432747 -0.0041153221391141415 -0.17260000109672546
-0.0007646990125067532 -0.0041320123709738255 -0.17329999804496765
0.00014249331434257329 -0.004158239811658859 -0.17440000176429749
0.0010581674287095666 -0.00417254539206624 -0.17499999701976776
0.01703057996928692 -0.004053330048918724 -0.17000000178813934
0.017814205959439278 -0.004029486794024706 -0.16899999976158142
0.01856524497270584 -0.004000874701887369 -0.16779999434947968
0.019419601187109947 -0.003996106330305338 -0.16759999096393585
0.02039296366274357 -0.0040151807479560375 -0.16839998960494995
-0.025205504149198532 -0.005032490938901901 -0.17309999465942383
-0.02434237115085125 -0.005041212774813175 -0.17339999973773956
-0.023476099595427513 -0.005049934610724449 -0.1736999899148941
-0.0225807074457407 -0.005052841734141111 -0.17379999160766602
0.01703057996928692 -0.004942365922033787 -0.17000000178813934
0.01780366525053978 -0.004910385701805353 -0.1688999980688095
0.018532052636146545 -0.004869683645665646 -0.16749998927116394
0.01940801367163658 -0.004869683645665646 -0.16749998927116394
0.020344525575637817 -0.004884220194071531 -0.1679999977350235
0.021349430084228516 -0.004913292825222015 -0.16899999976158142
0.02233848348259926 -0.004936551209539175 -0.16979999840259552
-0.02620125561952591 -0.005958319641649723 -0.1736999899148941
-0.025321993976831436 -0.005965180229395628 -0.17389999330043793
-0.024440638720989227 -0.005972040817141533 -0.17409999668598175
-0.0235707089304924 -0.005982331931591034 -0.17440000176429749
-0.022658662870526314 -0.005982331931591034 -0.17440000176429749
0.01701054349541664 -0.005824540741741657 -0.16979999840259552
0.017782581970095634 -0.005786808207631111 -0.16869999468326569
0.0184988621622324 -0.0057353549636900425 -0.1671999990940094
0.019361667335033417 -0.005731924436986446 -0.1670999974012375
0.020296085625886917 -0.005749075673520565 -0.16759999096393585
0.021286265924572945 -0.005779947619885206 -0.16849999129772186
0.022285858169198036 -0.005810819566249847 -0.16939999163150787
0.023253830149769783 -0.005831401329487562 -0.17000000178813934
-0.02714085578918457 -0.006874611601233482 -0.17389999330043793
-0.02627667784690857 -0.006886471528559923 -0.17419999837875366
-0.025409359484910965 -0.006898330524563789 -0.1744999885559082
-0.024510828778147697 -0.006902283988893032 -0.17459999024868011
-0.02363828383386135 -0.006914143916219473 -0.17489999532699585
0.016990507021546364 -0.006704624276608229 -0.1695999950170517
0.01775095984339714 -0.00665718549862504 -0.16839998960494995
0.01845460571348667 -0.00659393472597003 -0.16679999232292175
0.019315319135785103 -0.006589981261640787 -0.16669999063014984
0.020235536620020866 -0.006605794187635183 -0.1670999974012375
0.021172570064663887 -0.006625560112297535 -0.16759999096393585
0.02216745726764202 -0.006661138962954283 -0.16849999129772186
0.02318543568253517 -0.006700670812278986 -0.16949999332427979
-0.027234498411417007 -0.007810900453478098 -0.1744999885559082
-0.026367181912064552 -0.007824328728020191 -0.17479999363422394
-0.025467606261372566 -0.007828805595636368 -0.17489999532699585
-0.02459506131708622 -0.007842234335839748 -0.17520000040531158
0.0169804897159338 -0.007587092462927103 -0.16949999332427979
0.01775095984339714 -0.007537854369729757 -0.16839998960494995
0.018532052636146545 -0.00749756908044219 -0.16749998927116394
0.01932690665125847 -0.007466236129403114 -0.16679999232292175
0.020235536620020866 -0.007479664869606495 -0.1670999974012375
0.02112204022705555 -0.007484140805900097 -0.1671999990940094
0.022049054503440857 -0.0075020454823970795 -0.16759999096393585
0.023034969344735146 -0.007537854369729757 -0.16839998960494995
0.024043451994657516 -0.007578140124678612 -0.16929998993873596
-0.0281954575330019 -0.008738466538488865 -0.17479999363422394
-0.02734375 -0.008758463896811008 -0.17520000040531158
-0.026442604139447212 -0.008763463236391544 -0.1753000020980835
-0.025569533929228783 -0.008778459392488003 -0.17559999227523804
-0.02470736764371395 -0.008798456750810146 -0.17599999904632568
0.017814205959439278 -0.008448517881333828 -0.16899999976158142
0.018598437309265137 -0.008403525687754154 -0.1680999994277954
0.019419601187109947 -0.00837852992117405 -0.16759999096393585
0.022075366228818893 -0.008388528600335121 -0.16779999434947968
0.02299393340945244 -0.008403525687754154 -0.1680999994277954
0.023915637284517288 -0.008418522775173187 -0.16839998960494995
-0.02832449972629547 -0.009696781635284424 -0.17559999227523804
-0.02746860682964325 -0.009718869812786579 -0.17599999904632568
-0.02657836303114891 -0.009729914367198944 -0.1762000024318695
-0.02565690316259861 -0.009729914367198944 -0.1762000024318695
0.023034969344735146 -0.00929919071495533 -0.16839998960494995
0.023929839953780174 -0.0093047134578228 -0.16849999129772186
0.024943552911281586 -0.00935441255569458 -0.16939999163150787
-0.028469670563936234 -0.010669508948922157 -0.17649999260902405
-0.027562249451875687 -0.010675553232431412 -0.17659999430179596
-0.0266386978328228 -0.010675553232431412 -0.17659999430179596
-0.0257297083735466 -0.01068159844726324 -0.17669999599456787
0.023103363811969757 -0.010210085660219193 -0.1688999980688095
0.024000849574804306 -0.010216129943728447 -0.16899999976158142
0.024958277121186256 -0.010246355086565018 -0.16949999332427979
0.031473588198423386 -0.010651374235749245 -0.1762000024318695
0.032468587160110474 -0.010675553232431412 -0.17659999430179596
0.033373232930898666 -0.010669508948922157 -0.17649999260902405
0.03429625928401947 -0.010669508948922157 -0.17649999260902405
0.035119518637657166 -0.010639283806085587 -0.17599999904632568
-0.029392698779702187 -0.01159253716468811 -0.17649999260902405
-0.028485801070928574 -0.011599105782806873 -0.17659999430179596
-0.027577856555581093 -0.011605673469603062 -0.17669999599456787
-0.026699036359786987 -0.011625378392636776 -0.1770000010728836
-0.025773392990231514 -0.011625378392636776 -0.1770000010728836
0.022299014031887054 -0.011132776737213135 -0.16949999332427979
0.02317175641655922 -0.011126209050416946 -0.16939999163150787
0.02407185733318329 -0.011132776737213135 -0.16949999332427979
0.025002451613545418 -0.011152480728924274 -0.16979999840259552
0.031259238719940186 -0.011494017206132412 -0.17499999701976776
0.032211195677518845 -0.011507153511047363 -0.17520000040531158
0.033070698380470276 -0.011487449519336224 -0.17489999532699585
0.0339270643889904 -0.011467745527625084 -0.17459999024868011
0.03476034104824066 -0.011441473849117756 -0.17419999837875366
0.03558943048119545 -0.011415201239287853 -0.17379999160766602
-0.02940935268998146 -0.012522656470537186 -0.17659999430179596
-0.028501931577920914 -0.012529747560620308 -0.17669999599456787
-0.027577856555581093 -0.012529747560620308 -0.17669999599456787
-0.02665378339588642 -0.012529747560620308 -0.17669999599456787
-0.025773392990231514 -0.012551020830869675 -0.1770000010728836
-0.002627850277349353 -0.012529747560620308 -0.17669999599456787
-0.0017066688742488623 -0.012551020830869675 -0.1770000010728836
-0.0007819080492481589 -0.012565202079713345 -0.17719998955726624
0.00014478103548754007 -0.012565202079713345 -0.17719998955726624
0.0010726794134825468 -0.012579384259879589 -0.17739999294281006
0.0020004145335406065 -0.012579384259879589 -0.17739999294281006
0.002924848347902298 -0.012565202079713345 -0.17719998955726624
0.003851537359878421 -0.012565202079713345 -0.17719998955726624
0.021501023322343826 -0.012068834155797958 -0.17019999027252197
0.02233848348259926 -0.012040470726788044 -0.16979999840259552
0.023199114948511124 -0.0120262885466218 -0.1695999950170517
0.02407185733318329 -0.012019197456538677 -0.16949999332427979
0.031152065843343735 -0.012366656213998795 -0.17440000176429749
0.03206411004066467 -0.012366656213998795 -0.17440000176429749
0.03291943296790123 -0.012345382943749428 -0.17409999668598175
0.03371332213282585 -0.012302837334573269 -0.17350000143051147
0.034361254423856735 -0.012210654094815254 -0.17219999432563782
0.03495463728904724 -0.01210428960621357 -0.17069999873638153
-0.02940935268998146 -0.013446208089590073 -0.17659999430179596
-0.028485801070928574 -0.013446208089590073 -0.17659999430179596
-0.027577856555581093 -0.013453821651637554 -0.17669999599456787
-0.02665378339588642 -0.013453821651637554 -0.17669999599456787
-0.025773392990231514 -0.013476664200425148 -0.1770000010728836
-0.005369512364268303 -0.01337768230587244 -0.17569999396800995
-0.00445066811516881 -0.01337768230587244 -0.17569999396800995
-0.00354187423363328 -0.013415752910077572 -0.1762000024318695
-0.0026248758658766747 -0.013438593596220016 -0.17649999260902405
-0.0017018476501107216 -0.013438593596220016 -0.17649999260902405
-0.0007792604737915099 -0.013446208089590073 -0.17659999430179596
0.00014437251957133412 -0.013453821651637554 -0.17669999599456787
0.001067842124029994 -0.013446208089590073 -0.17659999430179596
0.0019913935102522373 -0.013446208089590073 -0.17659999430179596
0.0029165956657379866 -0.013453821651637554 -0.17669999599456787
0.003840669756755233 -0.013453821651637554 -0.17669999599456787
0.004772833548486233 -0.013476664200425148 -0.1770000010728836
0.00570491561666131 -0.013491891324520111 -0.17719998955726624
0.021501023322343826 -0.012958915904164314 -0.17019999027252197
0.02233848348259926 -0.012928460724651814 -0.16979999840259552
0.02318543568253517 -0.01290561817586422 -0.16949999332427979
0.024057654663920403 -0.012898004613816738 -0.16939999163150787
0.029042091220617294 -0.013149265199899673 -0.17270000278949738
0.03006662242114544 -0.013202562928199768 -0.17339999973773956
0.03099130466580391 -0.01321017649024725 -0.17350000143051147
0.03188025578856468 -0.013202562928199768 -0.17339999973773956
0.03263580799102783 -0.013141650706529617 -0.17260000109672546
0.03322753682732582 -0.01301982719451189 -0.17099998891353607
0.033922262489795685 -0.012943688780069351 -0.17000000178813934
0.03468843176960945 -0.012898004613816738 -0.16939999163150787
0.035469330847263336 -0.012859934940934181 -0.1688999980688095
-0.02940935268998146 -0.01436975970864296 -0.17659999430179596
-0.028485801070928574 -0.01436975970864296 -0.17659999430179596
-0.027577856555581093 -0.014377896673977375 -0.17669999599456787
-0.02665378339588642 -0.014377896673977375 -0.17669999599456787
-0.0257297083735466 -0.014377896673977375 -0.17669999599456787
-0.007141570094972849 -0.014166337437927723 -0.17409999668598175
-0.006223934702575207 -0.014150062575936317 -0.17389999330043793
-0.005320615600794554 -0.014166337437927723 -0.17409999668598175
-0.0044177379459142685 -0.01419074833393097 -0.17440000176429749
-0.0035137319937348366 -0.014223295263946056 -0.17479999363422394
-0.0026025683619081974 -0.014239569194614887 -0.17499999701976776
-0.0016873844433575869 -0.014239569194614887 -0.17499999701976776
-0.0007730829529464245 -0.014255843125283718 -0.17520000040531158
0.00014322865172289312 -0.014263980090618134 -0.1753000020980835
0.001061795512214303 -0.014288390055298805 -0.17559999227523804
0.001984627917408943 -0.014320937916636467 -0.17599999904632568
0.0029083427507430315 -0.014337212778627872 -0.1762000024318695
0.0038363225758075714 -0.01436162181198597 -0.17649999260902405
0.004762047436088324 -0.01436975970864296 -0.17659999430179596
0.005698476918041706 -0.014402307569980621 -0.1770000010728836
0.006631604861468077 -0.014418580569326878 -0.17719998955726624
0.021501023322343826 -0.01384899765253067 -0.17019999027252197
0.022312169894576073 -0.013800176791846752 -0.1695999950170517
0.023158077150583267 -0.013775765895843506 -0.16929998993873596
0.02398664690554142 -0.013743218965828419 -0.1688999980688095
0.024928826838731766 -0.013775765895843506 -0.16929998993873596
0.02779676951467991 -0.013881545513868332 -0.17059999704360962
0.02885710820555687 -0.013962915167212486 -0.17159999907016754
0.029858548194169998 -0.014011736027896404 -0.17219999432563782
0.030759090557694435 -0.014011736027896404 -0.17219999432563782
0.031586091965436935 -0.013979189097881317 -0.17180000245571136
0.03299436345696449 -0.013816450722515583 -0.16979999840259552
0.03378257900476456 -0.013775765895843506 -0.16929998993873596
0.03442222997546196 -0.013678123243153095 -0.1680999994277954
0.03523832932114601 -0.013653712347149849 -0.16779999434947968
-0.029426004737615585 -0.015301970764994621 -0.17669999599456787
-0.028501931577920914 -0.015301970764994621 -0.17669999599456787
-0.027577856555581093 -0.015301970764994621 -0.17669999599456787
-0.02665378339588642 -0.015301970764994621 -0.17669999599456787
-0.0257297083735466 -0.015301970764994621 -0.17669999599456787
-0.008024298585951328 -0.015024855732917786 -0.17350000143051147
-0.00710054999217391 -0.014990215189754963 -0.17309999465942383
-0.0061953021213412285 -0.014990215189754963 -0.17309999465942383
-0.005302279256284237 -0.015024855732917786 -0.17350000143051147
-0.004405071958899498 -0.01505949441343546 -0.17389999330043793
0.0038080664817243814 -0.015172072686254978 -0.17520000040531158
0.004737778566777706 -0.015215371735394001 -0.17569999396800995
0.005682379473000765 -0.015284650959074497 -0.17649999260902405
0.00660915020853281 -0.015293310396373272 -0.17659999430179596
0.007536966819316149 -0.015301970764994621 -0.17669999599456787
0.021463125944137573 -0.014713100157678127 -0.16990000009536743
0.022299014031887054 -0.01467846054583788 -0.16949999332427979
0.023076005280017853 -0.014609181322157383 -0.16869999468326569
0.024840479716658592 -0.014609181322157383 -0.16869999468326569
0.025814201682806015 -0.014661140739917755 -0.16929998993873596
0.026778431609272957 -0.014704440720379353 -0.16979999840259552
0.02773159369826317 -0.014739079400897026 -0.17019999027252197
0.02863849326968193 -0.0147477388381958 -0.17029999196529388
0.02954643778502941 -0.01475639920681715 -0.1703999936580658
0.030437566339969635 -0.01475639920681715 -0.1703999936580658
0.03129192441701889 -0.014739079400897026 -0.17019999027252197
0.03206855431199074 -0.014687119983136654 -0.1695999950170517
0.032838914543390274 -0.014635161496698856 -0.16899999976158142
0.033622946590185165 -0.014591861516237259 -0.16849999129772186
0.034319840371608734 -0.014513922855257988 -0.16759999096393585
0.03519632667303085 -0.014513922855257988 -0.16759999096393585
-0.029475964605808258 -0.016253594309091568 -0.1770000010728836
-0.028550323098897934 -0.016253594309091568 -0.1770000010728836
-0.027577856555581093 -0.016226043924689293 -0.17669999599456787
-0.02665378339588642 -0.016226043924689293 -0.17669999599456787
-0.0257297083735466 -0.016226043924689293 -0.17669999599456787
-0.0087514603510499 -0.01561079639941454 -0.17000000178813934
-0.007853174582123756 -0.015592430718243122 -0.16979999840259552
-0.006981592159718275 -0.015629161149263382 -0.17019999027252197
-0.00612014252692461 -0.01570262387394905 -0.17099998891353607
-0.005265606101602316 -0.015822000801563263 -0.17229999601840973
-0.004402538761496544 -0.015959743410348892 -0.17379999160766602
0.0037863310426473618 -0.015996474772691727 -0.17419999837875366
0.004716206807643175 -0.016060754656791687 -0.17489999532699585
0.005656623747199774 -0.016134215518832207 -0.17569999396800995
0.006575468461960554 -0.016134215518832207 -0.17569999396800995
0.007515639998018742 -0.0161801315844059 -0.1762000024318695
0.022220080718398094 -0.015509785152971745 -0.1688999980688095
0.022980256006121635 -0.015427139587700367 -0.1679999977350235
0.023802023380994797 -0.015390407294034958 -0.16759999096393585
0.024737408384680748 -0.015427139587700367 -0.1679999977350235
0.025753213092684746 -0.015509785152971745 -0.1688999980688095
0.02673111855983734 -0.015564881265163422 -0.16949999332427979
0.027666421607136726 -0.015592430718243122 -0.16979999840259552
0.028554411605000496 -0.015592430718243122 -0.16979999840259552
0.029407721012830734 -0.01557406410574913 -0.1695999950170517
0.030294667929410934 -0.01557406410574913 -0.1695999950170517
0.03186056390404701 -0.015473052859306335 -0.16849999129772186
0.03260573744773865 -0.01540877390652895 -0.16779999434947968
0.033483266830444336 -0.01540877390652895 -0.16779999434947968
0.034360796213150024 -0.01540877390652895 -0.16779999434947968
0.03528032824397087 -0.015427139587700367 -0.1679999977350235
