ply
format ascii 1.0
element vertex 746
property float x
property float y
property float z
end_header
0.024098547323394955 -0.029309390006970543 5.695005529560149e-05
0.025434766007193334 -0.02831736289115854 5.695064828614704e-05
0.02575139665508451 -0.02796914852614758 5.695045547327027e-05
0.0260544407488956 -0.027584114612536154 5.695009167538956e-05
0.026090310959722574 -0.027534876108179774 0.011446865275502205
0.02712459451023545 -0.02002565581889775 5.69500625715591e-05
0.027167010188505827 -0.020361050744392595 5.695007712347433e-05
0.027165123477478795 -0.020345437939139344 0.011446865275502205
0.02721515403562153 -0.020767858245525992 0.011446865275502205
0.027217567164515028 -0.020789388546258922 5.6950069847516716e-05
0.02725794373457784 -0.021163331871742685 5.695006620953791e-05
0.02726133597372252 -0.021196543618429358 0.011446865275502205
0.027286860015075944 -0.021458767459368085 5.6950069847516716e-05
0.02728708752932794 -0.02146129320715711 0.011446865275502205
0.027310182226665033 -0.021719314968844678 5.695005529560149e-05
0.02731320922197364 -0.021755678522032678 0.011446865275502205
0.027337607008546674 -0.02207549833976162 5.6950131693156436e-05
0.027339879587770916 -0.022107714221951232 0.011446865275502205
0.027355606501885656 -0.02236114499858326 5.69500625715591e-05
0.027369237202913704 -0.022635398452309642 5.695008076145314e-05
0.027369107211945784 -0.0226290016798782 0.011446865275502205
0.02737897953823696 -0.022926302233671415 5.695011714124121e-05
0.027379807709440523 -0.022959309450252506 0.011446865275502205
0.027382993827067336 -0.02318668786527045 5.69500625715591e-05
0.0273830190062505 -0.023189507279599682 0.011446865275502205
0.027382699880508826 -0.023423555025792218 5.695013533113524e-05
0.027382348702984453 -0.023449046890458285 0.011446865275502205
0.027375568210883595 -0.02372321692763498 5.695020081475377e-05
0.02737618486842052 -0.023702179534205677 0.011446865275502205
0.0273654138803117 -0.023933749901134407 5.69500625715591e-05
0.02736535120327568 -0.023934906523853543 0.011446865275502205
0.027351545192311835 -0.02414012827867519 5.695008076145314e-05
0.027349786558057313 -0.024161121450586655 0.011446865275502205
0.02732929153957981 -0.024377602495179097 5.695013533113524e-05
0.02732897981573045 -0.024379844820679265 0.011446865275502205
0.027318157493207727 -0.02447563037432108 0.005751907825469971
0.027280715031425377 -0.024749725427998734 5.6951383157866076e-05
0.027281262662130257 -0.02474554984247775 0.011446863412857056
0.02723922263841517 -0.02498689563731306 5.6951135775307193e-05
0.027239840641821736 -0.024983376310057995 0.01144686434417963
0.027190617513549325 -0.025216085655870187 5.695043000741862e-05
0.027191095414200242 -0.025213973136774943 0.011446865275502205
0.027133596018743582 -0.02544326062314638 5.6950484577100724e-05
0.02713416225873698 -0.025441211096067118 0.011446865275502205
0.02707003069603118 -0.025660805304469875 5.695117943105288e-05
0.02707114589143649 -0.025657453878786145 0.01144686434417963
0.026993689985413776 -0.025886758070554797 0.0029044304974377155
0.027000102522322596 -0.025869930357136563 0.01144686434417963
0.02690644310828536 -0.026114115408497503 5.695129948435351e-05
0.026907794094165185 -0.026110594910305755 0.01144686434417963
0.026819467448074917 -0.02631465020575663 5.695053550880402e-05
0.02672278497240303 -0.026516382980316697 5.695018626283854e-05
0.0267227862208147 -0.026516299274138243 0.011446865275502205
0.02661763778720496 -0.02671622930015806 5.695040090358816e-05
0.02661901534920144 -0.026713789331112108 0.011446865275502205
0.026505653646346033 -0.026911848423655963 5.6950644648168236e-05
0.026384436227326852 -0.0271079460877562 5.6950622820295393e-05
0.026233311548913767 -0.027334481382485558 5.695059371646494e-05
0.026229564408677884 -0.02734003953465232 0.011446865275502205
0.02730081673279155 -0.024610657096854303 5.69500625715591e-05
0.027022775977907306 -0.025804091439137523 5.69500625715591e-05
0.02695636232639014 -0.025987282886271175 5.69500625715591e-05
0.026322103228052667 -0.027203141792102297 5.69500625715591e-05
0.026365037877217078 -0.027138150508456565 0.01144686434417963
0.026431330153430986 -0.02703337489122193 0.011446865275502205
0.026507718258227078 -0.026908524089521515 0.01144686434417963
0.02695636232639014 -0.025987282886271175 0.011446865275502205
0.02730081673279155 -0.024610657096854303 0.011446865275502205
0.0273553764013216 -0.022356863975723527 0.011446865275502205
0.02712425814834821 -0.020023135991253407 0.011446865275502205
0.026818684246464154 -0.026316501194427376 0.011446865275502205
0.02704814154039685 -0.01945204371548751 5.69500625715591e-05
0.02704814154039685 -0.01945204371548751 0.011446865275502205
0.025837428629438847 -0.02046933685152893 5.69500625715591e-05
0.025837428629438847 -0.02046933685152893 0.011446865275502205
0.0193194100997116 -0.02295259297203953 5.69500625715591e-05
0.019465848151542908 -0.022954981401295194 5.695016079698689e-05
0.0193194100997116 -0.02295259297203953 0.011446865275502205
0.019468419999474143 -0.02295485603909759 0.011446865275502205
0.019584976381689927 -0.022953303669538964 0.005751907359808683
0.02126773151093904 -0.022697868101606008 5.6950120779220015e-05
0.021436289861670062 -0.022653854074161588 5.695120489690453e-05
0.021440438259893405 -0.022652867477677786 0.01144686434417963
0.021737251657696823 -0.02256865021313371 5.695073559763841e-05
0.0217412277273073 -0.022567448833156287 0.01144686434417963
0.022017365133185956 -0.022481543815726816 0.01144686434417963
0.022299328010516567 -0.022386870249700496 0.011446865275502205
0.02258606591383151 -0.022282938304311304 5.6950459111249074e-05
0.022588980431001084 -0.022281897328669982 0.011446865275502205
0.022859566574895948 -0.022177023442408735 5.695022264262661e-05
0.022862409612371733 -0.022175889552114355 0.011446865275502205
0.02313504432706633 -0.022063481061496283 0.011446865275502205
0.023691344949514907 -0.021812246393073158 0.011446865275502205
0.023954890811876045 -0.0216822676136033 5.695022991858423e-05
0.023955088520124748 -0.02168220358242797 0.011446865275502205
0.024211533000609818 -0.021548466500772533 5.695046638720669e-05
0.024215029066212104 -0.021546561719760764 0.011446865275502205
0.024472791625671612 -0.02140429325882385 5.6950397265609354e-05
0.02447991465724836 -0.021400249727517993 0.011446865275502205
0.024730909199257356 -0.021252783476266163 5.695055369869806e-05
0.024728520490374196 -0.021254166281259507 0.01144686434417963
0.024966448284444245 -0.02110599699826784 5.6950309954117984e-05
0.025510427342558175 -0.020729203746270828 5.69500625715591e-05
0.02566097974305761 -0.02061377407951879 5.695061554433778e-05
0.02541573460283501 -0.020799419783796336 5.6950782891362906e-05
0.01970173407013151 -0.022949047670260334 5.6950095313368365e-05
0.019866158375269113 -0.022938776578401543 5.69500625715591e-05
0.020026333833748338 -0.02292452164252772 5.6950146245071664e-05
0.019865024712500418 -0.022938864119472248 0.011446865275502205
0.020029601412171083 -0.02292407764301646 0.011446865275502205
0.020155700141818163 -0.022909991572806446 0.005751907359808683
0.02028721488357015 -0.022892800425258174 5.695007712347433e-05
0.020289665432227273 -0.02289254874442712 0.011446865275502205
0.02046198467385184 -0.02286640495774499 5.69500625715591e-05
0.020459428823184415 -0.022866813896507354 0.011446865275502205
0.02076895790017562 -0.022810779620901493 0.005751907359808683
0.020628777912113167 -0.02283760442479403 5.695012441719882e-05
0.020914534093562524 -0.022780599264625657 5.6950084399431944e-05
0.02571439909257864 -0.020570879788930033 0.011446865275502205
0.025635953873990338 -0.02063300180825944 0.009548544883728027
0.025510427342558175 -0.020729203746270828 0.011446865275502205
0.025411887856421893 -0.02080232436383394 0.01144686434417963
0.02109031163107556 -0.022741032088361392 0.011446865275502205
0.020906614052225346 -0.022782300541329317 0.011446865275502205
0.020639415450690157 -0.022835641522086034 0.011446865275502205
0.01970984761081208 -0.02294865953108027 0.011446865275502205
0.02519468737872102 -0.02095515978371647 5.69507283216808e-05
0.025196380389337743 -0.020953935047276977 0.01144686434417963
0.02369404250506712 -0.021811006879023317 5.695048821507953e-05
0.023415948479371815 -0.02194050665035681 5.6950357247842476e-05
0.02341671894566197 -0.02194025992071531 0.011446865275502205
0.023133144091005982 -0.022064335230076726 5.695038998965174e-05
0.02230703865801288 -0.02238419066340113 5.695046638720669e-05
0.022015596273687366 -0.022482159877334977 5.6950520956888795e-05
0.02109423479221735 -0.022740115578357534 5.695006620953791e-05
0.024966587833366815 -0.02110595017098493 0.011446865275502205
0.021279447140113244 -0.022694894364114246 0.011446865275502205
0.01449044792175029 -0.01994120165976525 0.011446865275502205
0.014490718415789399 -0.01994188220691384 5.69500625715591e-05
0.014560065976772568 -0.02011635686558137 5.695006620953791e-05
0.019094247238174527 -0.022943551340916617 5.69500625715591e-05
0.019093791146327418 -0.022943529037144302 0.011446865275502205
0.018873606210931988 -0.0229287409507293 0.011446865275502205
0.0188728862593063 -0.022928679895443935 5.69500625715591e-05
0.018657313241433625 -0.022908163603216784 0.011446865275502205
0.018656345182854476 -0.022908058062858914 5.695006620953791e-05
0.018445641352851226 -0.02288190228714333 0.011446865275502205
0.0184444752321374 -0.022881739993445237 5.6950069847516716e-05
0.01823862874320179 -0.022849974814536787 5.695007348549552e-05
0.018035927460417243 -0.022812380969716682 0.011446865275502205
0.018034330749711492 -0.022812062212639428 5.695007712347433e-05
0.017836040085494664 -0.02276876982075255 0.011446865275502205
0.017835517353071772 -0.022768605268578688 5.695007348549552e-05
0.017643482987298238 -0.022720203227108205 0.011446865275502205
0.017643999259020982 -0.022720314629588772 5.695008803741075e-05
0.017455697413278702 -0.022666153609971987 0.011446865275502205
0.017454025934633497 -0.02266565393671476 5.695007348549552e-05
0.017271870278431273 -0.022606429290434375 5.695012441719882e-05
0.01709272706841527 -0.02254123995566022 0.011446865275502205
0.017090867830077242 -0.022540543008476552 5.6950131693156436e-05
0.016918273832107138 -0.022470591332780804 5.6950146245071664e-05
0.01674838443111476 -0.022394406436911183 5.695016079698689e-05
0.016584209760857466 -0.022313293148499058 0.011446865275502205
0.01658206587144044 -0.02231220624162941 5.6950084399431944e-05
0.016424712425999688 -0.022226764815661045 5.695019353879616e-05
0.016268470129616703 -0.022133963475359356 0.011446865275502205
0.016269369198686594 -0.022134460830174747 5.695018626283854e-05
0.01611720552119631 -0.022035687325878177 0.011446865275502205
0.016118099075474925 -0.022036236242552586 5.695021172869019e-05
0.015970882474780568 -0.021931929694135228 0.011446865275502205
0.01597168587503691 -0.021932467816107793 5.6950208090711385e-05
0.01583088665934976 -0.021823728378237345 0.011446865275502205
0.01582929599781537 -0.021822471827854708 5.695018626283854e-05
0.015694915145227237 -0.021709378431957495 5.6950182624859735e-05
0.015563366289613993 -0.021589010388925557 0.011446865275502205
0.015564001846363116 -0.021589567975041885 5.695016807294451e-05
0.01543902751134265 -0.021465132055406486 0.011446865275502205
0.015437923887423518 -0.021464011423148324 5.6950131693156436e-05
0.015319201809410299 -0.021335331557798442 5.695013896911405e-05
0.015204168880071001 -0.021199655758907747 0.011446865275502205
0.015204558376213078 -0.02120009279209089 5.695012441719882e-05
0.01509527769348231 -0.021059621627728318 0.011446865275502205
0.015095651681322222 -0.02106008412732749 5.6950109865283594e-05
0.014992948002940605 -0.020916008013770467 0.011446865275502205
0.014992213199696439 -0.020914961271249248 5.695009895134717e-05
0.014894731571080117 -0.02076543637485298 5.695008803741075e-05
0.014802478819755794 -0.020610410655961833 0.011446865275502205
0.014802091801152573 -0.020609740805317092 5.695008076145314e-05
0.014716002960980587 -0.020450655924261537 5.695007348549552e-05
0.01463510994170441 -0.020285814657203978 0.011446865275502205
0.014634961178005465 -0.020285508044989353 5.695006620953791e-05
0.014560104554430325 -0.020116447880297223 0.011446865275502205
0.018236621062699333 -0.02284965697431528 0.011446865275502205
0.017270118330427978 -0.022605841956679876 0.011446865275502205
0.01691628310792859 -0.022469761863642825 0.011446865275502205
0.016747516552335976 -0.022394042429304536 0.011446865275502205
0.016422559353904968 -0.022225568266435496 0.011446865275502205
0.015693488762206376 -0.021708155251807394 0.011446865275502205
0.015318261125514489 -0.02133429235539699 0.011446865275502205
0.014893855005392616 -0.020764080471868493 0.011446865275502205
0.014715547898987626 -0.020449808656457586 0.011446865275502205
0.015437899610135489 -0.017669841562582222 0.011446865275502205
0.015439157873533057 -0.01766920321327215 5.6950109865283594e-05
0.015325137849137676 -0.01771568830496042 5.6950109865283594e-05
0.01476935723052676 -0.018029346985118103 0.011446865275502205
0.014693389645169011 -0.01809199835767868 5.695048093912192e-05
0.01469158631965294 -0.018093514983024788 0.011446865275502205
0.014627213295609138 -0.01815385116071647 0.011446865275502205
0.014567697133747086 -0.018217208545469085 5.695037543773651e-05
0.01456840925425226 -0.018216481559008457 0.011446865275502205
0.014515237239065717 -0.018281357463536967 5.6950320868054405e-05
0.014427315850867463 -0.018416114731528693 5.695016079698689e-05
0.014391342602705765 -0.018487494089652407 5.695009167538956e-05
0.014391365427580537 -0.0184874560492939 0.011446865275502205
0.014360804682656195 -0.01856150571375594 5.6950084399431944e-05
0.014296010888953136 -0.01915518313442944 0.011446865275502205
0.014308446526127661 -0.01926013700582524 5.695014260709286e-05
0.014308336925681207 -0.019259883533661672 0.011446865275502205
0.01432695538344012 -0.019370264047097373 5.695025174645707e-05
0.014326478687636156 -0.01936755743455368 0.011446865275502205
0.014348552202061772 -0.019472283922620005 5.6950306316139176e-05
0.014447403235352273 -0.019818117636935504 5.695009895134717e-05
0.014335717393109064 -0.01863810042614225 0.011446865275502205
0.014360799708420384 -0.018561501577673015 0.011446865275502205
0.014427051456835193 -0.018416557845560573 0.011446865275502205
0.014469156439526567 -0.01834668115618964 5.6950295402202755e-05
0.015217393471038709 -0.017763853619327648 5.695018990081735e-05
0.015326007098800259 -0.017715304529647855 0.011446865275502205
0.014409092046188865 -0.019698073953923045 0.011446865275502205
0.014448076764416508 -0.019820221382299708 0.011446865275502205
0.014409416265705239 -0.01969921661768958 5.695020445273258e-05
0.014376302895585044 -0.019583431805073034 0.011446865275502205
0.014376762262273805 -0.019585250759208667 5.6950215366669e-05
0.01429621113213073 -0.019156565176078496 5.695035360986367e-05
0.014289876769603894 -0.01906314897233222 0.011446865275502205
0.014289742414443645 -0.019060841054973608 5.695037907571532e-05
0.014288614126929076 -0.018972023634799145 5.695037543773651e-05
0.014292514039935067 -0.01888416305220882 0.011446865275502205
0.014292598197053879 -0.01888259028115236 5.695034269592725e-05
0.014301632229188763 -0.018799239705170754 5.695022264262661e-05
0.01431595420943482 -0.01871764539207207 5.695025174645707e-05
0.014336002990602491 -0.018636977633774834 5.6950131693156436e-05
0.014625927792772421 -0.018155072276000113 5.695037907571532e-05
0.014768940874586285 -0.018029565920596534 5.695018990081735e-05
0.01485113922833383 -0.017969804380647734 5.6950371799757704e-05
0.014935380261043423 -0.017914774162891386 0.011446865275502205
0.01493429524649707 -0.017915510011807325 5.695029176422395e-05
0.015024110204030716 -0.017862534353592575 0.011446865275502205
0.015023008857534806 -0.01786320082380052 5.6950284488266334e-05
0.01511747989973466 -0.017812615773810207 0.011446865275502205
0.015119011907100802 -0.017811806431163393 5.6950182624859735e-05
0.014349104560373018 -0.019474832172015854 0.011446865275502205
0.014288605427458944 -0.018970044615581504 0.011446865275502205
0.014301771997258675 -0.018798047094867692 0.011446865275502205
0.014316050747145675 -0.018717043350147008 0.011446865275502205
0.014468639228028206 -0.018347430364294995 0.011446865275502205
0.014515774218775555 -0.01828072792026727 0.011446865275502205
0.014853120538842135 -0.0179683914598354 0.011446865275502205
0.015218617931488515 -0.017763261270439014 0.011446865275502205
0.0178906469441514 -0.014186709209429568 0.005751907825469971
0.017867640192331696 -0.014056409280094207 5.695021172869019e-05
0.017896974140937872 -0.014229915296538647 5.69500625715591e-05
0.017909024118758415 -0.014329499060586878 0.005751907825469971
0.017914070533043776 -0.014383324068871071 5.69500625715591e-05
0.017920145226508234 -0.014471754442821609 0.005751907825469971
0.017922808385941284 -0.014536014894658932 5.69500625715591e-05
0.017924066148798205 -0.014613288513380946 0.005751907825469971
0.017923246129276392 -0.014687807932405029 5.69500625715591e-05
0.01792087484537219 -0.014753956272959057 0.005751907825469971
0.017915534006952734 -0.014838497851697552 5.69500625715591e-05
0.017910666830641443 -0.014893598079462653 0.005751907825469971
0.017899761239982163 -0.014987899550455347 5.69500625715591e-05
0.01789352918919288 -0.015032069252116986 0.005751907825469971
0.017871508864405753 -0.015159823860548528 5.6950269936351106e-05
0.017841269611002377 -0.015295388607464459 5.6950146245071664e-05
0.01780513676319353 -0.015426456143485747 5.69500625715591e-05
0.017801522483919374 -0.01543842984534729 0.011446865275502205
0.0177579093487483 -0.015569512317829276 5.69500625715591e-05
0.017704945418345917 -0.015705948672038946 5.695006620953791e-05
0.0177576990663886 -0.015570108186967241 0.011446865275502205
0.017705687963769565 -0.015704108516639014 0.011446865275502205
0.01689226405905426 -0.016836044383604008 0.011446865275502205
0.016977932261481775 -0.016756434950153148 0.01144686434417963
0.016838794219317516 -0.016883377324940184 0.005751907825469971
0.016768385032798108 -0.01694292135026892 0.011446865275502205
0.01670298009183179 -0.0169955794950507 0.005751907825469971
0.016638133688427998 -0.017045431739137074 0.011446865275502205
0.016559931938717635 -0.01710266230741595 0.005751907825469971
0.016501646505431143 -0.017143373247448964 0.011446865275502205
0.016399434347992414 -0.01721123389448336 0.01144686434417963
0.017647294825810282 -0.015835058012139733 5.695014988305047e-05
0.017645469369703116 -0.015838832472979472 0.011446865275502205
0.017575888231205646 -0.015975493335119977 5.695012441719882e-05
0.017576201942958135 -0.015974865767318384 0.011446865275502205
0.01749496024547145 -0.016115610168815037 5.695009895134717e-05
0.017495249748777565 -0.016115185666352793 0.011446865275502205
0.016976239167130418 -0.016757915419007542 5.695060099242255e-05
0.01689226405905426 -0.016836044383604008 5.69500625715591e-05
0.016768385032798108 -0.01694292135026892 5.69500625715591e-05
0.016638133688427998 -0.017045431739137074 5.69500625715591e-05
0.016501646505431143 -0.017143373247448964 5.69500625715591e-05
0.016397524311308177 -0.01721258123003393 5.6950721045723185e-05
0.015739526805370437 -0.017553501171819762 5.6950157159008086e-05
0.015912122373916246 -0.017477926158186774 5.695033541996963e-05
0.01591359082942646 -0.017477195447719696 0.011446865275502205
0.016082384918399525 -0.01739424478148199 0.011446865275502205
0.017872235155607614 -0.015156288905986035 0.011446865275502205
0.017899761239982163 -0.014987899550455347 0.011446865275502205
0.017915534006952734 -0.014838497851697552 0.011446865275502205
0.017923246129276392 -0.014687807932405029 0.011446865275502205
0.017922808385941284 -0.014536014894658932 0.011446865275502205
0.017914070533043776 -0.014383324068871071 0.011446865275502205
0.017896974140937872 -0.014229915296538647 0.011446865275502205
0.01786689502955055 -0.014052880647436547 0.011446865275502205
0.017791999577472795 -0.013759821157423547 0.011446865275502205
0.01774260782984733 -0.013613054876631033 0.011446865275502205
0.01774260782984733 -0.013613054876631033 5.69500625715591e-05
0.017833650176345986 -0.013907557588993567 5.695015352102928e-05
0.017834124266300624 -0.013909252253164719 0.011446865275502205
0.017840672238529205 -0.015297635791282864 0.011446865275502205
0.015737825300732 -0.01755425327529453 0.011446865275502205
0.016079797452381802 -0.017395642444774755 5.6950408179545775e-05
0.016244703093070655 -0.0173053140828 5.695051731890999e-05
0.017094578493174657 -0.01663808923730457 0.01144686434417963
0.01709703036171158 -0.01663556747360369 5.6950531870825216e-05
0.017206393101828907 -0.016512998515347876 5.6950422731461003e-05
0.01731138032386382 -0.016382941723356526 0.011446865275502205
0.01731041924683449 -0.016384116115983418 5.695030267816037e-05
0.017405928250371825 -0.01625254968511337 0.011446865275502205
0.017406784057615924 -0.016251371981657985 5.695017898688093e-05
0.017792952326348734 -0.013762784635086896 5.695008076145314e-05
0.016241550597323528 -0.017307198870446093 0.011446865275502205
0.01720827322898517 -0.016510869191748878 0.011446865275502205
0.013651944679528101 -0.01189031023184769 0.011446865275502205
0.01364525494131042 -0.011892344695949663 5.6949971622088924e-05
0.013831855445524012 -0.011837167173348387 5.6950131693156436e-05
0.013830805855676073 -0.011837420350749446 0.011446865275502205
0.014009491116320952 -0.011792660010725401 5.6950182624859735e-05
0.014008569370181898 -0.011792836924038302 0.011446865275502205
0.014187144969872677 -0.011756118580466633 5.695019353879616e-05
0.014360766593477793 -0.011728115217799432 5.695022991858423e-05
0.014363267888381749 -0.011727801458762583 0.011446865275502205
0.014537241206762168 -0.011707634511269096 5.695027721230872e-05
0.014535801200491675 -0.011707702728008574 0.011446865275502205
0.014710560967126194 -0.011695346764796187 5.695040090358816e-05
0.014877786795489246 -0.01169102734850772 5.695012805517763e-05
0.014881319559155929 -0.01169106959201745 0.011446865275502205
0.015049526081962956 -0.011694629213168458 5.695110303349793e-05
0.015211616214889315 -0.011705550860978239 5.6951110309455544e-05
0.015215679812545653 -0.011705978694901618 0.01144686434417963
0.015390190522339926 -0.01172678812931702 0.005751907825469971
0.016902461424426737 -0.01239186056344246 0.005751907825469971
0.017000202588894477 -0.012478453731891971 5.695033905794844e-05
0.017003096107545752 -0.012481216284444818 0.011446865275502205
0.01710746308590328 -0.012584020487251555 5.695040090358816e-05
0.017204577773515542 -0.01269019177012247 5.6950346333906054e-05
0.017206755677756914 -0.012692760864525162 0.011446865275502205
0.017300039460427297 -0.012806449453978045 5.695029176422395e-05
0.017299534926311824 -0.012805667765007692 0.011446865275502205
0.017388668564850895 -0.012926835244130979 5.695023719454184e-05
0.017388233663608615 -0.012926089658619999 0.011446865275502205
0.0174714729002617 -0.013052704845731245 5.695017534890212e-05
0.01747111249029511 -0.013052011435035834 0.011446865275502205
0.017548881138784216 -0.013184996401317598 5.695013533113524e-05
0.017618629225106132 -0.013319863930439374 5.695007712347433e-05
0.017619658499000632 -0.01332195117985162 0.011446865275502205
0.017684351567472934 -0.013464757769990373 5.695006620953791e-05
0.017683854858428986 -0.013463529223360162 0.011446865275502205
0.015334277493504564 -0.011719184044485978 5.69500625715591e-05
0.01549124882354208 -0.011742999646856172 5.69500625715591e-05
0.015551101041659958 -0.011754123465770226 0.005751907825469971
0.015645248163717634 -0.011773980292574166 5.69500625715591e-05
0.015708783323776048 -0.01178903624385242 0.005751907825469971
0.015796118648639126 -0.011812002697086982 5.69500625715591e-05
0.015863037228066295 -0.011831436769576247 0.005751907825469971
0.015943633973054667 -0.011857022368893957 5.69500625715591e-05
0.01601360954465179 -0.011881244753656423 0.005751907825469971
0.016087592722218023 -0.011908946113379929 5.69500625715591e-05
0.01616029949584847 -0.011938368751791691 0.005751907825469971
0.016227799613909796 -0.011967700307913737 5.69500625715591e-05
0.01629410830842237 -0.011998488314495896 0.005751907825469971
0.016364042255310768 -0.01203319971794315 5.69500625715591e-05
0.016424106061909378 -0.012064889005430773 0.005751907825469971
0.01649612997165291 -0.012105345257635063 5.69500625715591e-05
0.01655012898616848 -0.012137507536547831 0.005751907825469971
0.01662384982313339 -0.012184085588677618 5.69500625715591e-05
0.01667197885176426 -0.012216259464801418 0.005751907825469971
0.0167470124091085 -0.012269325125865512 5.69500625715591e-05
0.016789487667215375 -0.012301067181100746 0.005751907825469971
0.016865406372788553 -0.0123609842041193 5.69500625715591e-05
0.016865406372788553 -0.0123609842041193 0.011446865275502205
0.0167470124091085 -0.012269325125865512 0.011446865275502205
0.01662384982313339 -0.012184085588677618 0.011446865275502205
0.01649612997165291 -0.012105345257635063 0.011446865275502205
0.016364042255310768 -0.01203319971794315 0.011446865275502205
0.016227799613909796 -0.011967700307913737 0.011446865275502205
0.016087592722218023 -0.011908946113379929 0.011446865275502205
0.015943633973054667 -0.011857022368893957 0.011446865275502205
0.015796118648639126 -0.011812002697086982 0.011446865275502205
0.015645248163717634 -0.011773980292574166 0.011446865275502205
0.01549124882354208 -0.011742999646856172 0.011446865275502205
0.015334277493504564 -0.011719184044485978 0.011446865275502205
0.013343028396256057 -0.011996130028420147 0.01144686434417963
0.017548045055597053 -0.013183445385021487 0.011446865275502205
0.017104920801137583 -0.012581324350204542 0.011446865275502205
0.015045637753707337 -0.011694405181451626 0.01144686434417963
0.014707323845552086 -0.011695460547045016 0.011446865275502205
0.014185085687082405 -0.011756467696621932 0.011446865275502205
0.012074136593908732 -0.012216479207494914 5.69500625715591e-05
0.012159180068477647 -0.012222424298441024 5.695090658264235e-05
0.012084102516052596 -0.012218089833835218 0.011446865275502205
0.01227188164897459 -0.012219664423576871 0.01144686434417963
0.012319869878368665 -0.01221688018496833 5.695041181752458e-05
0.012356163374171971 -0.01221318690569997 0.011446865275502205
0.012475497237726948 -0.012199598699490551 5.6950397265609354e-05
0.012589122467074611 -0.012182605540935846 5.695014260709286e-05
0.012707064994435843 -0.012161577157753428 5.695017898688093e-05
0.012708878519037611 -0.012161188648201792 0.011446865275502205
0.01284167394022946 -0.012133703695422429 5.695003710570745e-05
0.012843310567293825 -0.012133391464422319 0.011446865275502205
0.012961937115526949 -0.012105523350996558 0.010307872667908669
0.01334681331482467 -0.011995103277567202 0.001195942866615951
0.013242012338371908 -0.012028468664118844 5.695008076145314e-05
0.012961937115526949 -0.012105523350996558 0.001195942866615951
0.013088398101599757 -0.01207275613770545 5.695006620953791e-05
0.01308133499962161 -0.012074690615020454 0.011446865275502205
0.013233113980758085 -0.012031166264764663 0.011446865275502205
0.01217955440859218 -0.012222194067772621 0.01144686434417963
0.012471558568409384 -0.012200136310009012 0.011446865275502205
0.012588932197659991 -0.012182666864596995 0.011446865275502205
0.011855900290255215 -0.009303648986164707 5.695045183529146e-05
0.011794159295936694 -0.009625452694810943 5.695006620953791e-05
0.011807530228326327 -0.009554490095724406 0.011446865275502205
0.01157386659128508 -0.011081033584728027 0.011446865275502205
0.011561802058418906 -0.011256595359025387 5.695012805517763e-05
0.011562099370852522 -0.011255265128747945 0.011446865275502205
0.012001191592080067 -0.012204190072922332 0.011446861550211906
0.011994208162620645 -0.012202700067937779 5.6952259910758585e-05
0.011564303973315069 -0.011588831655614947 5.6950197176774964e-05
0.011576486813668355 -0.011700098626927327 5.6949709687614813e-05
0.0115712296688458 -0.011660191920092258 0.011446865275502205
0.011561221138422086 -0.011542407030585785 0.011446865275502205
0.011727656650129823 -0.009989326979129357 0.011446865275502205
0.011727957015759875 -0.009988636874609836 5.6950058933580294e-05
0.011597344798993502 -0.010849359533380395 5.69500625715591e-05
0.011578306243109517 -0.011028212874984337 5.69501644349657e-05
0.01159088542892801 -0.010905427780650111 0.011446865275502205
0.011558270567760388 -0.011455711755811724 5.695025538443588e-05
0.011558271901500914 -0.011409096212418444 0.011446865275502205
0.011621669664132063 -0.010655369874669675 0.011446865275502205
0.011885771261997993 -0.009152297368346381 0.011446865275502205
0.011927650330807112 -0.012184564840940808 5.69561161682941e-05
0.011865281706235312 -0.012160283401555963 0.011446855962276459
0.01186523831195811 -0.012160318026544076 5.6958713685162365e-05
0.011806799858276233 -0.012128534687551608 5.6970860896399245e-05
0.011711243464187669 -0.012044454595424725 5.705665535060689e-05
0.011756132847709534 -0.012090312223579775 5.7648474466986954e-05
0.0117112472190228 -0.012044370968075521 0.011446751654148102
0.011671409800364758 -0.011989260209976524 5.6963293900480494e-05
0.011610693581134382 -0.011852349171516131 0.011446863412857056
0.011611000133467206 -0.011853346628415817 5.695192885468714e-05
0.01163820718332833 -0.011925656209539408 5.695580330211669e-05
0.011592031221111628 -0.011781974239895354 5.6951044825837016e-05
0.01158738353296703 -0.011762589280916757 0.01144686434417963
0.011620553900604931 -0.010664620491376727 5.695000072591938e-05
0.011670310279300463 -0.010329038854880764 5.6950058933580294e-05
0.011668456609309926 -0.010342235001800768 0.011446865275502205
0.01193174095180082 -0.012186105747296793 0.011446863412857056
0.011806258934184733 -0.012128335130706746 0.011446845717728138
0.01175539423482234 -0.012089702948479702 0.011446196585893631
0.011671202896582038 -0.011989170995392828 0.011446853168308735
0.011637769479714342 -0.011924716398730082 0.011446859687566757
0.019120298076858524 -0.0005811854856168425 5.695007712347433e-05
0.018910563883243005 -0.0006592564060244188 5.6950157159008086e-05
0.018907127249652655 -0.0006606028788109372 0.011446865275502205
0.018696567193086083 -0.0007426404409542674 5.695017534890212e-05
0.018699926796794344 -0.0007412674946489185 0.011446865275502205
0.018473168814283465 -0.000833909797050824 0.005751907825469971
0.018053184357426023 -0.0010176119678736186 5.6950157159008086e-05
0.017850968026272215 -0.0011121936319639532 5.6950084399431944e-05
0.017852268950335995 -0.001111596247729833 0.011446865275502205
0.017653470514505578 -0.0012087446514089078 5.695011714124121e-05
0.017656036685545086 -0.0012074464149367716 0.011446865275502205
0.0174632687460844 -0.001305734924653907 5.6950259022414684e-05
0.017466234744845224 -0.0013041573652666852 0.011446865275502205
0.01726303662818165 -0.001412526668360232 0.005751907825469971
0.017059465860441048 -0.0015259117462166388 5.695029176422395e-05
0.01706268060812287 -0.001524127196224374 0.011446865275502205
0.016879224132172837 -0.0016310099132243526 5.695016807294451e-05
0.016881726918741416 -0.0016295484213697615 0.011446865275502205
0.016702154576436538 -0.001738620547149264 5.695009895134717e-05
0.01670361892326777 -0.0017377178908820263 0.011446865275502205
0.016525305364199022 -0.0018506133778543599 5.6950106227304786e-05
0.016526884729845554 -0.0018495856063682097 0.011446865275502205
0.016354206025494925 -0.0019635253567097622 5.695025174645707e-05
0.01618835364432405 -0.0020774751091389896 5.6950219004647806e-05
0.016184888143073603 -0.002079954005924771 0.011446865275502205
0.016006123574125723 -0.0022084439706056068 0.005751907825469971
0.015831417089017995 -0.00233944061100138 5.695018626283854e-05
0.015833853088685835 -0.0023376104593022724 0.011446865275502205
0.015675008176862223 -0.002461990539195738 5.695011714124121e-05
0.015676422968004842 -0.002460870039641763 0.011446865275502205
0.015517613625519407 -0.0025903854048157106 5.6950109865283594e-05
0.015518428694364542 -0.002589749294739057 0.011446865275502205
0.015364111146993145 -0.0027209098017581153 5.6950182624859735e-05
0.015218677933748568 -0.0028495765263661784 5.6950219004647806e-05
0.015215809799391836 -0.0028522180834659582 0.011446865275502205
0.015058552925473877 -0.0029976968506323144 0.005751907825469971
0.014906156398716364 -0.0031447931601432735 5.695021172869019e-05
0.014766049621005877 -0.0032860655073514078 5.695013896911405e-05
0.014767479437917175 -0.0032846323001021836 0.011446865275502205
0.014628716873969742 -0.0034304501448492613 5.6950106227304786e-05
0.01449340209584196 -0.003578742580325954 5.69501644349657e-05
0.014366616684390987 -0.0037234162030608162 5.695021172869019e-05
0.0143643310923764 -0.003726136122273248 0.011446865275502205
0.014227997350428194 -0.0038889581817470333 0.005751907825469971
0.014092705625652152 -0.004057687479508561 5.695021172869019e-05
0.014094749619624638 -0.004055139737678658 0.011446865275502205
0.013973368950591206 -0.004213538167081486 5.6950219004647806e-05
0.013855412698817368 -0.004374224447395976 5.695009167538956e-05
0.013733357623384207 -0.004547783295944129 5.695042636943981e-05
0.013734926941175377 -0.004545600594115026 0.011446865275502205
0.013578882707823366 -0.004779393328198526 5.695053550880402e-05
0.013582829049411096 -0.004773168016999321 0.011446865275502205
0.013417510669534727 -0.005037764757132969 5.695081563317217e-05
0.013117522564765642 -0.005569371099463969 0.005751907825469971
0.012981492714446619 -0.005835620032275419 5.6950957514345646e-05
0.012984666514639573 -0.00582908025638612 0.01144686434417963
0.012845822833789476 -0.0061215786332657965 0.005751907825469971
0.012378047134230213 -0.007304047043240297 0.005751907825469971
0.012279537508836721 -0.00760608832321365 5.695101572200656e-05
0.012279435749321542 -0.007606116440813183 0.011446865275502205
0.012181373246695876 -0.007934971535866035 0.0029044304974377155
0.012009109286782341 -0.008592802875086467 0.005751907825469971
0.011930100973334173 -0.008939933239559534 5.6950597354443744e-05
0.011933145548690176 -0.008925817011978265 0.011446865275502205
0.018469870677600007 -0.0008348797915601181 5.6950084399431944e-05
0.018249177235378458 -0.0009297033406549294 5.6950259022414684e-05
0.017255789779784442 -0.0014160012833242242 5.6950084399431944e-05
0.016013519436450678 -0.0022024814906789866 5.695009167538956e-05
0.0150607812301052 -0.0029949829159304463 5.695009167538956e-05
0.014227221629982259 -0.0038891959217242345 5.695009167538956e-05
0.013322061276764507 -0.0051990640789866946 5.694987339666113e-05
0.013262961046296009 -0.005302861273109454 0.005751907825469971
0.01314742840393252 -0.00551225773241038 5.695009167538956e-05
0.012900008702298611 -0.0060046006552235695 5.69498552067671e-05
0.01274752738695483 -0.006341246569389911 5.6950069847516716e-05
0.012719484988783855 -0.006407373595711765 0.005751907825469971
0.01260236149699593 -0.006691652293877993 5.6950822909129784e-05
0.012535251078945518 -0.006864901971832179 5.6949884310597554e-05
0.012485639736953722 -0.006998570987818525 0.0029044304974377155
0.0124043008151902 -0.007226238889243003 5.695004801964387e-05
0.012224879721467716 -0.007785406342667506 5.6949884310597554e-05
0.012115558571960767 -0.008171281622485132 5.6950033467728645e-05
0.012092201360599924 -0.008260511423715162 0.005751907825469971
0.012012896163713118 -0.008574670141107727 5.6950219004647806e-05
0.012012896163713118 -0.008574670141107727 0.011446865275502205
0.012115558571960767 -0.008171281622485132 0.011446865275502205
0.012182875413462168 -0.007929026309487684 0.01144686434417963
0.0124043008151902 -0.007226238889243003 0.011446865275502205
0.012486109722538843 -0.00699660010256124 0.01144686434417963
0.012602039571015314 -0.006692216448197667 0.01144686434417963
0.01274752738695483 -0.006341246569389911 0.011446865275502205
0.012900008702298611 -0.0060046006552235695 0.011446865275502205
0.01314742840393252 -0.00551225773241038 0.011446865275502205
0.013322061276764507 -0.0051990640789866946 0.011446865275502205
0.01342108525921762 -0.0050317788173038615 0.01144686434417963
0.014227221629982259 -0.0038891959217242345 0.011446865275502205
0.014903861588753451 -0.0031470139503735803 0.011446865275502205
0.0150607812301052 -0.0029949829159304463 0.011446865275502205
0.016013519436450678 -0.0022024814906789866 0.011446865275502205
0.017255789779784442 -0.0014160012833242242 0.011446865275502205
0.018252375955009923 -0.0009283403878183393 0.011446865275502205
0.018469870677600007 -0.0008348797915601181 0.011446865275502205
0.019202871960176147 -0.0005509982435285477 0.011446865275502205
0.013855881310136093 -0.00437352959874236 0.011446865275502205
0.013975365978906773 -0.004210921294280623 0.011446865275502205
0.014495144607760703 -0.0035767416409070436 0.011446865275502205
0.014629438000251752 -0.003429637619852947 0.011446865275502205
0.015367235372556139 -0.0027181358869170754 0.011446865275502205
0.016356482408697873 -0.0019619564746732724 0.011446865275502205
0.018050164980603616 -0.0010189611820906929 0.011446865275502205
0.02393913873229996 8.067119419776028e-05 5.695007348549552e-05
0.02379920135396785 0.00010995720367242828 5.695009895134717e-05
0.023797298454204717 0.00011031119877860867 0.011446865275502205
0.023659403906359903 0.00013583622104597364 5.695011714124121e-05
0.0235222995371977 0.0001578995408358073 5.695014260709286e-05
0.02351959521899023 0.00015827701098802336 0.011446865275502205
0.02338034568172444 0.00017712840284417463 5.69501644349657e-05
0.022798902460461686 0.00021782863554664075 0.005751907825469971
0.02266436415401761 0.0002188890781281857 5.6950095313368365e-05
0.022662318632513945 0.0002188234677435932 0.011446865275502205
0.02249873109692616 0.0002154680195022831 5.6950171710923314e-05
0.022348914372075368 0.00020856565919773434 5.695013896911405e-05
0.022351122518327493 0.00020867460266559324 0.011446865275502205
0.022201443072933095 0.00019818192420531573 5.69501135032624e-05
0.022203384499055078 0.00019831569389722247 0.011446865275502205
0.022049451674329604 0.00018397161233790554 5.695008076145314e-05
0.022050988414412036 0.00018411170773854386 0.011446865275502205
0.02189662888525385 0.00016619106618028117 5.695006620953791e-05
0.021896894318403342 0.00016621334398716586 0.011446865275502205
0.021741796157374486 0.00014478348456017353 5.695007348549552e-05
0.0215979931080848 0.0001220067616434599 5.69500625715591e-05
0.02137218612195621 8.118993494755503e-05 5.695004074368626e-05
0.021451201147789513 9.602172107879857e-05 0.011446865275502205
0.021303109409755962 6.717060658190894e-05 0.011446865275502205
0.02107862716107052 1.904892888819903e-05 5.6950084399431944e-05
0.021067182875632504 1.629090138804785e-05 0.011446865275502205
0.019797206277039892 -0.00034532357056845243 0.011446865275502205
0.019976700828719447 -0.00028707772330277564 5.6950171710923314e-05
0.019621461342719883 -0.00040425375305403415 5.695004801964387e-05
0.019510861725090905 -0.00044239323424708236 0.011446865275502205
0.0193229393333192 -0.000508297306215901 5.69500625715591e-05
0.02321889738840742 0.00019492398281243054 5.695006620953791e-05
0.023224752131151653 0.00019401079341790716 0.011446865275502205
0.023086839990444644 0.00020526114515792023 0.005751907825469971
0.02294676523169589 0.00021365248883997611 5.695007348549552e-05
0.02294502802273397 0.00021336608786837264 0.011446865275502205
0.02072071047147063 -6.935238676640597e-05 5.695029904018156e-05
0.020848468805195725 -3.654162517497914e-05 0.011446865275502205
0.0205460408013847 -0.00011633654986724792 5.6950058933580294e-05
0.020542784249077642 -0.0001174752566125493 0.011446865275502205
0.0203756258714562 -0.00016516412924575657 0.005751907825469971
0.020196421199376938 -0.00021832472327767134 5.69500625715591e-05
0.020201644927398194 -0.00021694872094097476 0.011446865275502205
0.021677293329952396 0.00013514004841639262 0.011446865275502205
0.024078793491863516 4.8120733926210475e-05 0.011446865275502205
0.02407808862064589 4.830918244353113e-05 5.695006620953791e-05
0.023938299234928143 8.084830432795365e-05 0.011446865275502205
0.02249596373350185 0.00021539785981468013 0.011446865275502205
0.023382016504107258 0.00017696546227316106 0.011446865275502205
0.02366154916987481 0.00013548619624475518 0.011446865275502205
0.027172425090756777 -0.002682739897194961 0.005751907825469971
0.0272259935548141 -0.002814729120465092 5.695009167538956e-05
0.027118312609283744 -0.0025547673605636266 5.695005529560149e-05
0.027112048945273866 -0.0025416425926958843 0.005751907825469971
0.027050047532432647 -0.00240484253305326 0.005751907825469971
0.026981322597361225 -0.0022610118150888795 5.695005529560149e-05
0.02698635017047408 -0.002272254441931799 0.005751907825469971
0.02692088952703657 -0.0021438185834203732 0.005751907825469971
0.026864848816603164 -0.002039689881216432 5.695010258932598e-05
0.02671766367063687 -0.0017894731156420259 5.695006620953791e-05
0.026644347090131002 -0.0016761375713474857 5.695009167538956e-05
0.026718722590588943 -0.0017911789060709442 0.011446865275502205
0.026641096894228868 -0.00167130857709026 0.011446865275502205
0.026580322976737313 -0.0015827997243700795 0.005751907825469971
0.02650857372394094 -0.001482930566526309 0.011446865275502205
0.026503532005043583 -0.0014771440986338987 0.005751907825469971
0.026424592827783196 -0.001375193088397868 0.005751907825469971
0.026333872838593127 -0.0012648261157483809 0.011446865275502205
0.026343431429870053 -0.0012768903811564544 0.005751907825469971
0.026260000842433143 -0.001182155945087914 0.005751907825469971
0.02618176474177784 -0.0010985944644201257 0.011446865275502205
0.025795725402608095 -0.0007512893897561289 0.011446865275502205
0.025898602413249514 -0.0008344869801849687 0.011446865275502205
0.025797938985881595 -0.0007528890935176309 5.695014260709286e-05
0.025708330879800505 -0.0006851477038681296 0.005751907825469971
0.025618381217058738 -0.0006204761584272423 5.695005529560149e-05
0.02650857372394094 -0.001482930566526309 5.695004801964387e-05
0.026333872838593127 -0.0012648261157483809 5.695005165762268e-05
0.026183318109252524 -0.0011003353578022978 5.695008803741075e-05
0.026089285237674998 -0.0010062338305677993 5.695007348549552e-05
0.026091365893514393 -0.0010082089765769931 0.011446865275502205
0.025995021856851746 -0.0009183391730502901 5.69500625715591e-05
0.02599517164376603 -0.000918472962700763 0.011446865275502205
0.025607328750718635 -0.000613603844227731 0.005751907825469971
0.02550355345775323 -0.0005451258512202214 0.005751907825469971
0.025389275440298405 -0.000474379281061788 5.6950058933580294e-05
0.025396995261600715 -0.00047960527617773305 0.005751907825469971
0.02528755263119847 -0.00041703546530246996 0.005751907825469971
0.025185197739211317 -0.0003624152983414923 5.69501135032624e-05
0.024946115074284486 -0.00024821964183899215 5.69500625715591e-05
0.024824318494758205 -0.00019637036339719652 5.695008076145314e-05
0.02494658936418624 -0.00024843354061767655 0.011446865275502205
0.024819377987212763 -0.00019436375589231044 0.011446865275502205
0.024707931270758456 -0.00015041358851122707 5.6950284488266334e-05
0.02460838229995525 -0.00011315295651146043 0.011446865275502205
0.02459296131383925 -0.00010822546469446032 0.005751907825469971
0.024463701111142506 -6.406404432557205e-05 5.695010258932598e-05
0.024348206756497247 -2.766745098823452e-05 0.011446865275502205
0.024224598684312686 8.67097269443811e-06 0.011446865275502205
0.024219198268806818 1.0149429618246828e-05 5.695007348549552e-05
0.02518672152862969 -0.0003631491049676972 0.011446865275502205
0.025389275440298405 -0.000474379281061788 0.011446865275502205
0.025618381217058738 -0.0006204761584272423 0.011446865275502205
0.026861595911916846 -0.002033769688629254 0.011446865275502205
0.026981322597361225 -0.0022610118150888795 0.011446865275502205
0.027118312609283744 -0.0025547673605636266 0.011446865275502205
0.027224859075668777 -0.002812047845437137 0.011446865275502205
0.02728639842089213 -0.0029722760404610185 0.011446865275502205
0.02741135833630288 -0.0033194236854674703 0.011446865275502205
0.0272961836187142 -0.0029983600870398066 5.695005529560149e-05
0.025064024621419705 -0.00030235089055581096 5.695009895134717e-05
0.025069778207373244 -0.000305066529803896 0.011446865275502205
0.025896161916757206 -0.0008323999877307012 5.695007348549552e-05
0.026790844197443143 -0.0019098523212024855 0.011446865275502205
0.026792580459442945 -0.0019128309245238138 5.69500625715591e-05
0.027490957628120635 -0.006761254873959739 0.011446865275502205
0.02749214284927538 -0.006756843260122219 5.695007712347433e-05
0.027559032941683968 -0.006516933586142288 5.695018626283854e-05
0.027616795622959035 -0.006291675199732325 5.6950171710923314e-05
0.027583385621872847 -0.0064263216294160996 0.011446865275502205
0.02763411308923358 -0.006216893592733039 0.011446865275502205
0.02766581954245253 -0.006073100975482785 5.695008076145314e-05
0.02766541348197806 -0.0060749098409129615 0.011446865275502205
0.027692696314624194 -0.005937245681876188 5.6950095313368365e-05
0.027716654477860318 -0.005799618149688469 5.6950215366669e-05
0.02773972594950648 -0.005641539051023875 5.695024083252065e-05
0.027741067867813506 -0.005629933544957389 0.011446865275502205
0.02775529975373776 -0.005501439815868158 5.6950131693156436e-05
0.027765750897352337 -0.005374104124030838 5.6950095313368365e-05
0.027765669986906782 -0.005374949242384998 0.011446865275502205
0.02777208534090164 -0.005249475921675833 5.6950106227304786e-05
0.02777458901551159 -0.005129587934424209 5.695025538443588e-05
0.02777456683471696 -0.00512776248592484 0.011446865275502205
0.027773166834315792 -0.005005525203235322 5.695031359209679e-05
0.027767573618376562 -0.00487691908107885 5.695013533113524e-05
0.027767470771575067 -0.0048762280610578435 0.011446865275502205
0.027756779501734382 -0.004741833180139596 5.695016807294451e-05
0.027756932672895467 -0.004743729883178548 0.011446865275502205
0.02774327197599519 -0.004621413941934776 5.695015352102928e-05
0.027725358124231755 -0.004495075089930179 5.6950095313368365e-05
0.02772540073651823 -0.0044954916967796365 0.011446865275502205
0.027703433245549358 -0.004367687676499375 5.6950131693156436e-05
0.027703858934681653 -0.0043698429756031335 0.011446865275502205
0.027678244816518385 -0.004241452418913299 5.695024083252065e-05
0.02764629576982637 -0.004101113691240307 0.011446865275502205
0.02760941788958865 -0.003955723434416039 5.695014988305047e-05
0.027609978542690698 -0.003957933675394314 0.011446865275502205
0.027571685454250348 -0.0038200754491341036 5.695016807294451e-05
0.027572389423840032 -0.003822603204784824 0.011446865275502205
0.027529408244360648 -0.0036785086865561045 5.695007712347433e-05
0.027529748345391777 -0.003679677284893046 0.011446865275502205
0.027481407273540197 -0.0035274353635815947 5.6950157159008086e-05
0.027482344961376824 -0.00353032206231397 0.011446865275502205
0.02741833077206463 -0.0033400289339636136 5.695017898688093e-05
0.027646614516755822 -0.004101101741587928 5.695008076145314e-05
0.027416081974586583 -0.0070094933231085585 0.011446865275502205
0.027415359267999935 -0.007011962539328965 5.69500625715591e-05
0.0276787999772856 -0.004243925316339877 0.011446865275502205
0.027743160895765343 -0.004620324526059537 0.011446865275502205
0.02777328061994722 -0.005008234071124972 0.011446865275502205
0.02777207370935904 -0.00525050593624143 0.011446865275502205
0.027755507047435426 -0.005499613106185053 0.011446865275502205
0.027719539920464543 -0.005782276351302361 0.011446865275502205
0.027692515694139695 -0.005938323328087598 0.011446865275502205
