ply
format ascii 1.0
element vertex 757
property float x
property float y
property float z
end_header
0.03850758075714111 0.008685572072863579 -0.13349999487400055
0.03908826783299446 0.008659548126161098 -0.1331000030040741
0.03951531648635864 0.008600994013249874 -0.13220000267028809
0.039872121065855026 0.008529427461326122 -0.13109999895095825
0.040031805634498596 0.008418824523687363 -0.12939999997615814
0.06056555360555649 0.008848222903907299 -0.13599999248981476
0.061141617596149445 0.008828705176711082 -0.13570000231266022
0.06166895478963852 0.008802681230008602 -0.13529999554157257
0.0021193597931414843 0.0076822806149721146 -0.12839999794960022
0.0036672616843134165 0.008136995136737823 -0.13599999248981476
0.02199597656726837 0.007825874723494053 -0.13079999387264252
0.022263865917921066 0.0076822806149721146 -0.12839999794960022
0.022613827139139175 0.0075745852664113045 -0.1265999972820282
0.036464039236307144 0.008154944516718388 -0.1362999975681305
0.03714956343173981 0.008148961700499058 -0.13619999587535858
0.037750642746686935 0.008125029504299164 -0.13580000400543213
0.038234248757362366 0.008077164180576801 -0.13499999046325684
0.038651805371046066 0.008017334155738354 -0.1340000033378601
0.03920573368668556 0.007987418211996555 -0.13349999487400055
0.03987399861216545 0.007981434464454651 -0.13339999318122864
0.0402066707611084 0.007909637875854969 -0.13220000267028809
0.04052678868174553 0.007837841287255287 -0.13099999725818634
0.04080289229750633 0.0077600604854524136 -0.12969999015331268
0.0563809759914875 0.008148961700499058 -0.13619999587535858
0.06118667498230934 0.008125029504299164 -0.13580000400543213
0.06176011636853218 0.0081070801243186 -0.1354999989271164
0.062238212674856186 0.008077164180576801 -0.13499999046325684
0.001438855193555355 0.006967116147279739 -0.12759999930858612
0.0021358656231313944 0.0070653981529176235 -0.12939999997615814
0.002914735581725836 0.007322023157030344 -0.13409999012947083
0.021928712725639343 0.0071199992671608925 -0.13040000200271606
0.02233322151005268 0.007032637018710375 -0.12879998981952667
0.022792451083660126 0.006967116147279739 -0.12759999930858612
0.023257510736584663 0.0069070542231202126 -0.1264999955892563
0.02382451854646206 0.006879753898829222 -0.12600000202655792
0.024464018642902374 0.0068742940202355385 -0.125900000333786
0.02510247379541397 0.006868833675980568 -0.1257999986410141
0.02578083798289299 0.0068742940202355385 -0.125900000333786
0.026481248438358307 0.006885214243084192 -0.12610000371932983
0.02718374691903591 0.006896134000271559 -0.12629999220371246
0.03714956343173981 0.00743668619543314 -0.13619999587535858
0.037834037095308304 0.007431225851178169 -0.13609999418258667
0.038460828363895416 0.0074148462153971195 -0.13580000400543213
0.038997940719127655 0.007382085081189871 -0.13519999384880066
0.039411306381225586 0.0073274835012853146 -0.13419999182224274
0.039993561804294586 0.007305643521249294 -0.13379999995231628
0.04060204327106476 0.00728926295414567 -0.13349999487400055
0.041114579886198044 0.0072565022855997086 -0.13289999961853027
0.04133770614862442 0.007174600847065449 -0.131400004029274
0.04176901653409004 0.007130919024348259 -0.1305999904870987
0.04196442663669586 0.007049017585813999 -0.1290999948978424
0.05499677732586861 0.00744214653968811 -0.1362999975681305
0.06127678230404854 0.007425765972584486 -0.13599999248981476
0.061851274222135544 0.007409385871142149 -0.13570000231266022
0.06237652152776718 0.007387544959783554 -0.13529999554157257
0.0629442110657692 0.00737116439267993 -0.13499999046325684
0.0007763925823383033 0.0063393134623765945 -0.12839999794960022
0.0014738115714862943 0.006452867761254311 -0.1306999921798706
0.0021952870301902294 0.006566422991454601 -0.13300000131130219
0.022575976327061653 0.006428182125091553 -0.13019999861717224
0.022971075028181076 0.006349187809973955 -0.12860000133514404
0.02351490594446659 0.006314627360552549 -0.12789998948574066
0.023919058963656425 0.006245507393032312 -0.1264999955892563
0.024522310122847557 0.006230695638805628 -0.12619999051094055
0.025142382830381393 0.0062208217568695545 -0.12600000202655792
0.02582179196178913 0.0062257591634988785 -0.12610000371932983
0.026523245498538017 0.0062356325797736645 -0.12629999220371246
0.027248317375779152 0.006250444334000349 -0.1265999972820282
0.028042662888765335 0.006280067376792431 -0.12719999253749847
0.0287530105561018 0.0062899417243897915 -0.1273999959230423
0.03922869637608528 0.006714537274092436 -0.13599999248981476
0.03982245549559593 0.006694789044559002 -0.1356000006198883
0.04035224765539169 0.006665165536105633 -0.13499999046325684
0.04081493616104126 0.00662566814571619 -0.13419999182224274
0.04139300808310509 0.006605919916182756 -0.13379999995231628
0.041966892778873444 0.006586171220988035 -0.13339999318122864
0.04231271892786026 0.006531862076371908 -0.1322999894618988
0.04258202761411667 0.006467679515480995 -0.13099999725818634
0.053610485047101974 0.006734286434948444 -0.1363999992609024
0.05503712594509125 0.006734286434948444 -0.1363999992609024
0.061321839690208435 0.00671947468072176 -0.13609999418258667
0.06194242835044861 0.006709599867463112 -0.13589999079704285
0.06256093829870224 0.006699726451188326 -0.13570000231266022
0.06308408826589584 0.006679977290332317 -0.13529999554157257
-0.0005595143302343786 0.00559720303863287 -0.12680000066757202
0.0001049907659762539 0.005672244355082512 -0.12849999964237213
0.0007896952447481453 0.005764941684901714 -0.1305999904870987
0.001496364246122539 0.005857640411704779 -0.13269999623298645
0.023328322917222977 0.005764941684901714 -0.1305999904870987
0.02371714450418949 0.0056943148374557495 -0.1289999932050705
0.02424049936234951 0.005659001413732767 -0.1281999945640564
0.024736056104302406 0.005619273521006107 -0.12729999423027039
0.02526210807263851 0.005588374100625515 -0.1265999972820282
0.02600608766078949 0.005606031510978937 -0.12700000405311584
0.02683825045824051 0.0056413449347019196 -0.12780000269412994
0.02759268693625927 0.005659001413732767 -0.1281999945640564
0.028307218104600906 0.0056678298860788345 -0.12839999794960022
0.028956132009625435 0.005663415417075157 -0.1282999962568283
0.029557814821600914 0.0056501729413867 -0.12799999117851257
0.03999866172671318 0.006012137047946453 -0.13619999587535858
0.04065115377306938 0.006003308575600386 -0.13599999248981476
0.0412711426615715 0.0059900665655732155 -0.13570000231266022
0.04176424443721771 0.005959166679531336 -0.13499999046325684
0.04221856966614723 0.005923853255808353 -0.13419999182224274
0.0426965095102787 0.005892953835427761 -0.13349999487400055
0.04326464235782623 0.0058752973563969135 -0.1331000030040741
0.05436363443732262 0.006025379989296198 -0.13650000095367432
0.05511782690882683 0.006029794458299875 -0.13660000264644623
0.05587306246161461 0.006034207995980978 -0.13669998943805695
0.06198801100254059 0.006003308575600386 -0.13599999248981476
0.06265313178300858 0.005998894572257996 -0.13589999079704285
0.06327059864997864 0.0059900665655732155 -0.13570000231266022
0.06388595700263977 0.005981238093227148 -0.1354999989271164
-0.0012187736574560404 0.004918521735817194 -0.12639999389648438
-0.0005661331815645099 0.004992455244064331 -0.1282999962568283
0.00010678826947696507 0.005085844546556473 -0.1306999921798706
0.0008042072877287865 0.005175343248993158 -0.13300000131130219
0.0015166616067290306 0.005233711563050747 -0.13449999690055847
0.02874814160168171 0.005074171349406242 -0.13040000200271606
0.029362376779317856 0.005062497220933437 -0.13009999692440033
0.029811829328536987 0.005023585166782141 -0.1290999948978424
0.04077071696519852 0.005307645536959171 -0.1363999992609024
0.04142320901155472 0.005299862939864397 -0.13619999587535858
0.042627543210983276 0.005272624082863331 -0.1354999989271164
0.043080300092697144 0.005241494160145521 -0.1347000002861023
0.043622199445962906 0.005222037900239229 -0.13419999182224274
0.044059786945581436 0.0051909079775214195 -0.13339999318122864
0.05519852042198181 0.005323209799826145 -0.13679999113082886
0.056670743972063065 0.005327101331204176 -0.13689999282360077
0.0627453401684761 0.005295971408486366 -0.13609999418258667
0.06336384266614914 0.005288188811391592 -0.13589999079704285
0.06398025155067444 0.005280406679958105 -0.13570000231266022
-0.0012245590332895517 0.004277707543224096 -0.12700000405311584
-0.0005745171220041811 0.004385491833090782 -0.13019999861717224
0.00010866748925764114 0.0044798036105930805 -0.13300000131130219
0.000814486644230783 0.004537064116448164 -0.1347000002861023
0.028990646824240685 0.004429279360920191 -0.1314999908208847
0.029610635712742805 0.004419174510985613 -0.13120000064373016
0.030158208683133125 0.004398964811116457 -0.1305999904870987
0.042135484516620636 0.004587588366121054 -0.13619999587535858
0.04275337979197502 0.0045774830505251884 -0.13589999079704285
0.043336156755685806 0.004564010538160801 -0.1354999989271164
0.04388223960995674 0.004547168966382742 -0.13499999046325684
0.04432401433587074 0.004520222544670105 -0.13419999182224274
0.0627453401684761 0.0045842197723686695 -0.13609999418258667
0.06341046839952469 0.004580851644277573 -0.13599999248981476
0.06398025155067444 0.004570747260004282 -0.13570000231266022
0.06468991190195084 0.004570747260004282 -0.13570000231266022
-0.0018768233712762594 0.0035907821729779243 -0.12619999051094055
-0.0012525212951004505 0.003696058876812458 -0.1298999935388565
-0.0005855485214851797 0.0037757274694740772 -0.13269999623298645
0.0001102198802982457 0.003838324686512351 -0.13490000367164612
0.02932134084403515 0.003784263739362359 -0.13300000131130219
0.029881464317440987 0.003767191432416439 -0.13239999115467072
0.03029676340520382 0.0037330479826778173 -0.13120000064373016
0.04157527536153793 0.0038895397447049618 -0.13669998943805695
0.042135484516620636 0.003875313326716423 -0.13619999587535858
0.04278483986854553 0.003869622712954879 -0.13599999248981476
0.0433681383728981 0.003858241718262434 -0.1356000006198883
0.0437847301363945 0.003832633839920163 -0.1347000002861023
0.04439007118344307 0.003824097802862525 -0.13439999520778656
0.06345709413290024 0.0038724681362509727 -0.13609999418258667
0.06412169337272644 0.003869622712954879 -0.13599999248981476
0.06468991190195084 0.003861087141558528 -0.13570000231266022
-0.001885746605694294 0.0029447381384670734 -0.12680000066757202
-0.000594373675994575 0.003128203796222806 -0.1347000002861023
0.029431570321321487 0.0031003355979919434 -0.13349999487400055
0.03006201609969139 0.003093368373811245 -0.13319998979568481
0.03045840747654438 0.0030631779227405787 -0.13189999759197235
0.04157527536153793 0.0031746504828333855 -0.13669998943805695
0.042135484516620636 0.0031630389858037233 -0.13619999587535858
0.04275337979197502 0.003156071761623025 -0.13589999079704285
0.04327218979597092 0.0031421377789229155 -0.13529999554157257
0.0437847301363945 0.003128203796222806 -0.1347000002861023
0.04432401433587074 0.0031165918335318565 -0.13419999182224274
0.06092182174324989 0.003176972968503833 -0.13679999113082886
0.06350371986627579 0.0031630389858037233 -0.13619999587535858
0.06412169337272644 0.0031583942472934723 -0.13599999248981476
0.06445155292749405 0.003139815293252468 -0.13519999384880066
-0.0025247412268072367 0.0022600293159484863 -0.12559999525547028
-0.0018783105770125985 0.0022726249881088734 -0.12629999220371246
-0.001300732372328639 0.0024273726157844067 -0.13490000367164612
-0.0006031987722963095 0.002459761220961809 -0.13669998943805695
0.029453616589307785 0.002403980353847146 -0.13359999656677246
0.030107155442237854 0.002400381490588188 -0.13339999318122864
0.030527684837579727 0.002378789009526372 -0.13220000267028809
0.042135484516620636 0.00245076441206038 -0.13619999587535858
0.04272192344069481 0.002443566918373108 -0.13580000400543213
0.04324020817875862 0.002432770561426878 -0.13519999384880066
0.04371971637010574 0.002420174889266491 -0.13449999690055847
0.04432401433587074 0.002414776710793376 -0.13419999182224274
0.06416884809732437 0.002448965096846223 -0.13609999418258667
0.06478524953126907 0.002445366233587265 -0.13589999079704285
0.06467665731906891 0.002414776710793376 -0.13419999182224274
-0.0025267512537539005 0.0016044651856645942 -0.1256999969482422
-0.001875336398370564 0.0016095710452646017 -0.12610000371932983
-0.0013161598471924663 0.00174231908749789 -0.13650000095367432
-0.0006049638614058495 0.0017499775858595967 -0.1370999962091446
0.027828559279441833 0.0017346604727208614 -0.13589999079704285
0.028884077444672585 0.00171296123880893 -0.13419999182224274
0.029475662857294083 0.0017065792344510555 -0.13369999825954437
0.030107155442237854 0.0017027498688548803 -0.13339999318122864
0.030435314401984215 0.0016823271289467812 -0.13179999589920044
0.04210454598069191 0.0017372133443132043 -0.13609999418258667
0.042627543210983276 0.0017295548459514976 -0.1354999989271164
0.043080300092697144 0.001719343475997448 -0.1347000002861023
0.043687209486961365 0.0017155141104012728 -0.13439999520778656
0.0642159953713417 0.0017384897219017148 -0.13619999587535858
0.06483292579650879 0.001735936850309372 -0.13599999248981476
0.06539957225322723 0.0017321077175438404 -0.13570000231266022
-0.002528761513531208 0.0009478551219217479 -0.1257999986410141
-0.0018768233712762594 0.0009508688817732036 -0.12619999051094055
-0.0013190524186939 0.0010307359043508768 -0.13679999113082886
0.00796964019536972 0.001029229024425149 -0.13660000264644623
0.008696720004081726 0.0010307359043508768 -0.13679999113082886
0.028287263587117195 0.0010149131994694471 -0.1347000002861023
0.028819508850574493 0.001008885563351214 -0.1339000016450882
0.02940952405333519 0.0010051181307062507 -0.13339999318122864
0.029836328700184822 0.0009960767347365618 -0.13220000267028809
0.03018130175769329 0.0009847746696323156 -0.1306999921798706
0.041392795741558075 0.0010254617081955075 -0.13609999418258667
0.0419808030128479 0.00102244783192873 -0.13570000231266022
0.042533162981271744 0.0010186805156990886 -0.13519999384880066
0.04298434779047966 0.0010126527631655335 -0.13439999520778656
0.0642159953713417 0.0010262151481583714 -0.13619999587535858
0.06488059461116791 0.0010254617081955075 -0.13609999418258667
0.06544777005910873 0.0010232013883069158 -0.13580000400543213
-0.0025307717733085155 0.0002901990956161171 -0.125900000333786
-0.0018768233712762594 0.00029089057352393866 -0.12619999051094055
-0.001312302891165018 0.0003137100429739803 -0.13609999418258667
0.005707109346985817 0.00030840857652947307 -0.13379999995231628
0.006402044091373682 0.00030817807419225574 -0.13369999825954437
0.007164980750530958 0.00031094407313503325 -0.13490000367164612
0.007917131297290325 0.00031278806272894144 -0.13570000231266022
0.008658576756715775 0.00031394054531119764 -0.13619999587535858
0.009377731941640377 0.0003141710767522454 -0.1362999975681305
0.010097933001816273 0.00031440157908946276 -0.1363999992609024
0.027644263580441475 0.0003111745463684201 -0.13499999046325684
0.028140263631939888 0.00030886958120390773 -0.1340000033378601
0.02873341552913189 0.0003077170695178211 -0.13349999487400055
0.02923315390944481 0.00030564257758669555 -0.13259999454021454
0.029633205384016037 0.0003026460763067007 -0.13130000233650208
0.04068104550242424 0.0003137100429739803 -0.13609999418258667
0.041301555931568146 0.00031301856506615877 -0.13580000400543213
0.041826117783784866 0.0003116355510428548 -0.13519999384880066
0.04237586632370949 0.0003104830684605986 -0.1347000002861023
0.0642159953713417 0.00031394054531119764 -0.13619999587535858
0.06488059461116791 0.0003137100429739803 -0.13609999418258667
0.06549596041440964 0.00031324903829954565 -0.13589999079704285
-0.0025327818002551794 -0.00036850289325229824 -0.12600000202655792
-0.0018842593999579549 -0.0003705501148942858 -0.1266999989748001
-0.0005904023419134319 -0.0003913149703294039 -0.13379999995231628
0.004252931103110313 -0.00038634310476481915 -0.13210000097751617
0.004973703995347023 -0.0003886827907990664 -0.13289999961853027
0.005596208851784468 -0.0003837109252344817 -0.13120000064373016
0.0063541606068611145 -0.000388097862014547 -0.13269999623298645
0.007079998962581158 -0.00038985261926427484 -0.13329999148845673
0.0078004454262554646 -0.0003910224768333137 -0.13369999825954437
0.008626790717244148 -0.00039687176467850804 -0.13570000231266022
0.009350210428237915 -0.00039745663525536656 -0.13589999079704285
0.010068319737911224 -0.0003977490996476263 -0.13599999248981476
0.010803327895700932 -0.0003986265219282359 -0.1362999975681305
0.02805626206099987 -0.000390730012441054 -0.13359999656677246
0.028647324070334435 -0.00038926771958358586 -0.1331000030040741
0.028990646824240685 -0.0003845882893074304 -0.1314999908208847
0.028933562338352203 -0.00037493702257052064 -0.1281999945640564
0.03991055488586426 -0.00039745663525536656 -0.13589999079704285
0.040561482310295105 -0.00039687176467850804 -0.13570000231266022
0.04111907258629799 -0.000395409413613379 -0.13519999384880066
0.04167143628001213 -0.0003939471207559109 -0.1347000002861023
0.06020640954375267 -0.000400088814785704 -0.13679999113082886
0.06092182174324989 -0.000400088814785704 -0.13679999113082886
0.06426314264535904 -0.0003986265219282359 -0.1362999975681305
0.06492827087640762 -0.00039833405753597617 -0.13619999587535858
0.06549596041440964 -0.00039745663525536656 -0.13589999079704285
-0.002534792060032487 -0.0010282507864758372 -0.12610000371932983
-0.0018827721942216158 -0.0010323278838768601 -0.1265999972820282
-0.001239986508153379 -0.0010486363898962736 -0.12860000133514404
-0.0005793709424324334 -0.0010706528555601835 -0.13130000233650208
0.0028495292644947767 -0.00106902199331671 -0.13109999895095825
0.003518953686580062 -0.0010641295230016112 -0.13050000369548798
0.004156346898525953 -0.0010527134872972965 -0.1290999948978424
0.004850203171372414 -0.0010567907011136413 -0.12960000336170197
0.005574881564825773 -0.001065760268829763 -0.1306999921798706
0.006272758357226849 -0.0010682066204026341 -0.13099999725818634
0.0070428200997412205 -0.0010812534019351006 -0.13259999454021454
0.00776544027030468 -0.0010853304993361235 -0.1331000030040741
0.008506002835929394 -0.00109103845898062 -0.13379999995231628
0.009233246557414532 -0.0010943000670522451 -0.13419999182224274
0.010009095072746277 -0.0011024543782696128 -0.13519999384880066
0.010779548436403275 -0.001108977827243507 -0.13599999248981476
0.011558369733393192 -0.0011155011598020792 -0.13679999113082886
0.012309671379625797 -0.0011187628842890263 -0.1371999979019165
0.028302950784564018 -0.0010722836013883352 -0.1314999908208847
0.028483586385846138 -0.0010535289766266942 -0.12919999659061432
0.028798149898648262 -0.0010404821950942278 -0.12759999930858612
0.02914215810596943 -0.001029066159389913 -0.12619999051094055
0.03854578733444214 -0.0011097932001575828 -0.13609999418258667
0.0391710102558136 -0.0011073469650000334 -0.13580000400543213
0.03979308903217316 -0.001104900729842484 -0.1354999989271164
0.04035224765539169 -0.0011008235160261393 -0.13499999046325684
0.040967006236314774 -0.0010983772808685899 -0.1347000002861023
0.06426314264535904 -0.0011114240624010563 -0.1362999975681305
0.06488059461116791 -0.0011097932001575828 -0.13609999418258667
0.06539957225322723 -0.0011065315920859575 -0.13570000231266022
-0.002534792060032487 -0.0016877062153071165 -0.12610000371932983
-0.0018812849884852767 -0.001693059573881328 -0.1264999955892563
-0.000570987060200423 -0.0017318729078397155 -0.12939999997615814
0.002152371685951948 -0.0017452568281441927 -0.13040000200271606
0.0027973640244454145 -0.001722504268400371 -0.12870000302791595
0.0034623267129063606 -0.0017184889875352383 -0.12839999794960022
0.004124152008444071 -0.0017144738230854273 -0.12809999287128448
0.004805293865501881 -0.0017184889875352383 -0.12839999794960022
0.005506635177880526 -0.0017278576269745827 -0.1290999948978424
0.011516124941408634 -0.0018242215737700462 -0.1362999975681305
0.012318643741309643 -0.0018376054940745234 -0.13729999959468842
0.02803526073694229 -0.0017867466667667031 -0.13349999487400055
0.028281431645154953 -0.00175864074844867 -0.131400004029274
0.02865995466709137 -0.0017399031203240156 -0.12999999523162842
0.028798149898648262 -0.0017077819211408496 -0.12759999930858612
0.029257619753479958 -0.0016957364277914166 -0.1266999989748001
0.02980213612318039 -0.0016890444094315171 -0.12619999051094055
0.03046211414039135 -0.0016890444094315171 -0.12619999051094055
0.03112209402024746 -0.0016890444094315171 -0.12619999051094055
0.03178207203745842 -0.0016890444094315171 -0.12619999051094055
0.03251917287707329 -0.001693059573881328 -0.1264999955892563
0.034308601170778275 -0.0017506101867184043 -0.13079999387264252
0.036410532891750336 -0.0018215447198599577 -0.13609999418258667
0.03714956343173981 -0.001822883146815002 -0.13619999587535858
0.037834037095308304 -0.0018215447198599577 -0.13609999418258667
0.038460828363895416 -0.0018175296718254685 -0.13580000400543213
0.039026785641908646 -0.001810837653465569 -0.13529999554157257
0.039646249264478683 -0.001806822489015758 -0.13499999046325684
0.06426314264535904 -0.0018242215737700462 -0.1362999975681305
0.06488059461116791 -0.0018215447198599577 -0.13609999418258667
0.06535138189792633 -0.0018148529343307018 -0.1356000006198883
-0.0018783105770125985 -0.0023508842568844557 -0.12629999220371246
-0.001228415872901678 -0.0023713591508567333 -0.1273999959230423
-0.0005661331815645099 -0.0023881113156676292 -0.1282999962568283
0.00010490905697224662 -0.002389972796663642 -0.12839999794960022
0.0014478762168437243 -0.002389972796663642 -0.12839999794960022
0.002116058487445116 -0.0023862498346716166 -0.1281999945640564
0.002779975300654769 -0.002380665857344866 -0.12789998948574066
0.003440754720941186 -0.002375081880018115 -0.12759999930858612
0.004104834981262684 -0.002373220631852746 -0.1274999976158142
0.009875837713479996 -0.0024830400943756104 -0.13339999318122864
0.010533839464187622 -0.002473733387887478 -0.13289999961853027
0.012300699017941952 -0.002551910001784563 -0.1370999962091446
0.028990646824240685 -0.0024476745165884495 -0.1314999908208847
0.02927209809422493 -0.0024141701869666576 -0.12969999015331268
0.029650185257196426 -0.002389972796663642 -0.12839999794960022
0.029872983694076538 -0.0023546069860458374 -0.1264999955892563
0.030486254021525383 -0.0023508842568844557 -0.12629999220371246
0.03112209402024746 -0.002349022775888443 -0.12619999051094055
0.03178207203745842 -0.002349022775888443 -0.12619999051094055
0.03244205191731453 -0.002349022775888443 -0.12619999051094055
0.03709501028060913 -0.0025314351078122854 -0.13599999248981476
0.037834037095308304 -0.002533296588808298 -0.13609999418258667
0.038460828363895416 -0.0025277126114815474 -0.13580000400543213
0.06431028991937637 -0.0025388807989656925 -0.1363999992609024
0.06488059461116791 -0.002533296588808298 -0.13609999418258667
0.06539957225322723 -0.0025258513633161783 -0.13570000231266022
-0.001875336398370564 -0.003006617072969675 -0.12610000371932983
-0.0012187736574560404 -0.0030137698631733656 -0.12639999389648438
-0.0005590731161646545 -0.0030209228862076998 -0.1266999989748001
0.00010392859985586256 -0.003032844280824065 -0.12719999253749847
0.0007691365317441523 -0.003032844280824065 -0.12719999253749847
0.0014343445654958487 -0.003032844280824065 -0.12719999253749847
0.0020962515845894814 -0.003028075909242034 -0.12700000405311584
0.0027604135684669018 -0.003028075909242034 -0.12700000405311584
0.0034191824961453676 -0.003023307304829359 -0.12680000066757202
0.004095176700502634 -0.003032844280824065 -0.12719999253749847
0.009281408973038197 -0.0032164365984499454 -0.13490000367164612
0.01012960635125637 -0.0030471503268927336 -0.12780000269412994
0.010679664090275764 -0.0030137698631733656 -0.12639999389648438
0.030793970450758934 -0.003109142417088151 -0.13040000200271606
0.031234532594680786 -0.0030852993950247765 -0.12939999997615814
0.03112209402024746 -0.0030090012587606907 -0.12619999051094055
0.031756892800331116 -0.003006617072969675 -0.12610000371932983
0.06431028991937637 -0.003252201247960329 -0.1363999992609024
0.06492827087640762 -0.0032474324107170105 -0.13619999587535858
0.06549596041440964 -0.0032402793876826763 -0.13589999079704285
-0.0012168451212346554 -0.0036689795088022947 -0.12619999051094055
-0.0005568667547777295 -0.0036689795088022947 -0.12619999051094055
0.001426451257430017 -0.0036777013447135687 -0.1264999955892563
0.0020879984367638826 -0.0036777013447135687 -0.1264999955892563
0.00274954573251307 -0.0036777013447135687 -0.1264999955892563
0.008595003746449947 -0.00393063435330987 -0.13519999384880066
0.009994861669838428 -0.003666072618216276 -0.12610000371932983
0.010620520450174809 -0.0036544431932270527 -0.1256999969482422
0.06378346681594849 -0.003977150656282902 -0.13679999113082886
0.0643574446439743 -0.003968428820371628 -0.13650000095367432
0.06492827087640762 -0.003959706984460354 -0.13619999587535858
-0.0012158810859546065 -0.00432552769780159 -0.12610000371932983
-0.0005564255407080054 -0.00432552769780159 -0.12610000371932983
0.0007630898617208004 -0.004328957758843899 -0.12619999051094055
0.0014230682281777263 -0.004328957758843899 -0.12619999051094055
0.002084697363898158 -0.004332387819886208 -0.12629999220371246
0.008792913518846035 -0.004383841995149851 -0.12780000269412994
0.00932059995830059 -0.004318667110055685 -0.125900000333786
0.009955230168998241 -0.004308376461267471 -0.12559999525547028
0.06373684108257294 -0.0046891323290765285 -0.13669998943805695
0.0643574446439743 -0.004682272206991911 -0.13650000095367432
0.06497593969106674 -0.004675411619246006 -0.1362999975681305
-0.0005559843266382813 -0.004981029778718948 -0.12600000202655792
0.00010294815001543611 -0.004981029778718948 -0.12600000202655792
0.0007624853169545531 -0.004984983243048191 -0.12610000371932983
0.0014230682281777263 -0.004988935776054859 -0.12619999051094055
0.002084697363898158 -0.004992889240384102 -0.12629999220371246
0.008041922934353352 -0.0050007957033813 -0.1264999955892563
0.008669069968163967 -0.004981029778718948 -0.12600000202655792
0.00932059995830059 -0.004977076780050993 -0.125900000333786
0.009963156655430794 -0.004969170317053795 -0.1256999969482422
0.06306805461645126 -0.0054079750552773476 -0.13679999113082886
0.06369022279977798 -0.005400069057941437 -0.13660000264644623
0.06431028991937637 -0.005392162594944239 -0.1363999992609024
0.06492827087640762 -0.0053842561319470406 -0.13619999587535858
0.00010294815001543611 -0.00563996285200119 -0.12600000202655792
0.0007624853169545531 -0.0056444392539560795 -0.12610000371932983
0.0014230682281777263 -0.005648914724588394 -0.12619999051094055
0.008022851310670376 -0.005648914724588394 -0.12619999051094055
0.008669069968163967 -0.00563996285200119 -0.12600000202655792
0.00932059995830059 -0.005635486450046301 -0.125900000333786
0.009979009628295898 -0.005635486450046301 -0.125900000333786
0.0630219504237175 -0.0061189113184809685 -0.13669998943805695
0.06359697133302689 -0.0061054835096001625 -0.1363999992609024
0.0642159953713417 -0.006096531171351671 -0.13619999587535858
0.008016495034098625 -0.006303894333541393 -0.12610000371932983
0.008669069968163967 -0.006298895459622145 -0.12600000202655792
0.009328003041446209 -0.006298895459622145 -0.12600000202655792
0.009994861669838428 -0.006303894333541393 -0.12610000371932983
0.06235264614224434 -0.006838799919933081 -0.13679999113082886
0.0628836527466774 -0.006818803958594799 -0.1363999992609024
0.06350371986627579 -0.006808805279433727 -0.13619999587535858
0.06402740627527237 -0.006788809318095446 -0.13580000400543213
0.0080037796869874 -0.006952305324375629 -0.125900000333786
0.008662189356982708 -0.006952305324375629 -0.125900000333786
0.009328003041446209 -0.006957827601581812 -0.12600000202655792
0.010002787224948406 -0.006968871224671602 -0.12619999051094055
0.011482328176498413 -0.0075045134872198105 -0.13589999079704285
0.014356774277985096 -0.007521079853177071 -0.13619999587535858
0.015069047920405865 -0.007521079853177071 -0.13619999587535858
0.015781322494149208 -0.007521079853177071 -0.13619999587535858
0.06168229132890701 -0.007559734396636486 -0.13689999282360077
0.062215909361839294 -0.007537646684795618 -0.13650000095367432
0.06279144436120987 -0.007521079853177071 -0.13619999587535858
0.06336384266614914 -0.0075045134872198105 -0.13589999079704285
0.008648429065942764 -0.007598624564707279 -0.1256999969482422
0.009313196875154972 -0.007604669779539108 -0.1257999986410141
0.010002787224948406 -0.007628849241882563 -0.12619999051094055
0.011017628014087677 -0.007882742211222649 -0.13040000200271606
0.011941816657781601 -0.00804595835506916 -0.1331000030040741
0.012837274000048637 -0.008172904141247272 -0.13519999384880066
0.01358439214527607 -0.008197085000574589 -0.1356000006198883
0.014304069802165031 -0.008203129284083843 -0.13570000231266022
0.015013729222118855 -0.008203129284083843 -0.13570000231266022
0.015758149325847626 -0.008221263997256756 -0.13599999248981476
0.016493597999215126 -0.008233354426920414 -0.13619999587535858
0.06154712289571762 -0.00825753528624773 -0.13660000264644623
0.06207916885614395 -0.008233354426920414 -0.13619999587535858
0.06269923597574234 -0.008221263997256756 -0.13599999248981476
0.009305792860686779 -0.008255988359451294 -0.1256999969482422
0.009994861669838428 -0.008282260969281197 -0.12610000371932983
0.010772604495286942 -0.008374213241040707 -0.1274999976158142
0.011735458858311176 -0.008590957149863243 -0.13079999387264252
0.012599899433553219 -0.00871574878692627 -0.13269999623298645
0.013363995589315891 -0.008761725388467312 -0.13339999318122864
0.014082709327340126 -0.008774861693382263 -0.13359999656677246
0.014792450703680515 -0.008781429380178452 -0.13369999825954437
0.015491651371121407 -0.008781429380178452 -0.13369999825954437
0.016348278149962425 -0.008866813033819199 -0.13499999046325684
0.017205871641635895 -0.008945629931986332 -0.13619999587535858
0.060832757502794266 -0.00897190161049366 -0.13660000264644623
0.06136689707636833 -0.008945629931986332 -0.13619999587535858
0.06198801100254059 -0.00893249362707138 -0.13599999248981476
0.06251483410596848 -0.008906221948564053 -0.1356000006198883
0.009305792860686779 -0.008913352154195309 -0.1256999969482422
0.009986935183405876 -0.008934625424444675 -0.12600000202655792
0.010713460855185986 -0.008991353213787079 -0.12680000066757202
0.011538074351847172 -0.00911899097263813 -0.12860000133514404
0.012353028170764446 -0.00922535452991724 -0.13009999692440033
0.013123564422130585 -0.009289173409342766 -0.13099999725818634
0.013829726725816727 -0.00930335558950901 -0.13120000064373016
0.014515853486955166 -0.00930335558950901 -0.13120000064373016
0.01520197931677103 -0.00930335558950901 -0.13120000064373016
0.016093973070383072 -0.00942390225827694 -0.13289999961853027
0.01719323918223381 -0.009650813415646553 -0.13609999418258667
0.06007438153028488 -0.009679177775979042 -0.13650000095367432
0.060654621571302414 -0.009657904505729675 -0.13619999587535858
0.06123172491788864 -0.009636631235480309 -0.13589999079704285
0.06180569529533386 -0.009615358896553516 -0.1356000006198883
0.011376576498150826 -0.009654468856751919 -0.12680000066757202
0.01219161320477724 -0.009776291437447071 -0.12839999794960022
0.012903167866170406 -0.009806746616959572 -0.12879998981952667
0.013608366250991821 -0.009829589165747166 -0.1290999948978424
0.01431670319288969 -0.00985243171453476 -0.12939999997615814
0.014923893846571445 -0.009806746616959572 -0.12879998981952667
0.015512700192630291 -0.009753449819982052 -0.12809999287128448
0.016043655574321747 -0.009669696912169456 -0.12700000405311584
0.033165570348501205 -0.01046154648065567 -0.13740000128746033
0.05890448018908501 -0.010438703931868076 -0.1370999962091446
0.05936053767800331 -0.010393020696938038 -0.13650000095367432
0.059942346066236496 -0.010370178148150444 -0.13619999587535858
0.060521017760038376 -0.010347336530685425 -0.13589999079704285
0.06105150282382965 -0.010316881351172924 -0.1354999989271164
0.014773265458643436 -0.010374543257057667 -0.1274999976158142
0.015942592173814774 -0.010268762707710266 -0.12619999051094055
0.01656310446560383 -0.010244352743029594 -0.125900000333786
0.0338347963988781 -0.011163822375237942 -0.1371999979019165
0.034527119249105453 -0.011155685409903526 -0.1370999962091446
0.03516697883605957 -0.01113127451390028 -0.13679999113082886
0.03588239103555679 -0.01113127451390028 -0.13679999113082886
0.036597803235054016 -0.01113127451390028 -0.13679999113082886
0.05818749964237213 -0.011155685409903526 -0.1370999962091446
0.05864669382572174 -0.011106864549219608 -0.13650000095367432
0.05923007056117058 -0.011082452721893787 -0.13619999587535858
0.05985432490706444 -0.011066178791224957 -0.13599999248981476
0.06034288927912712 -0.011025494895875454 -0.1354999989271164
0.015917327255010605 -0.010911422781646252 -0.12600000202655792
0.01656310446560383 -0.010902762413024902 -0.125900000333786
0.035064153373241425 -0.01181204803287983 -0.1363999992609024
0.03572501242160797 -0.01179472729563713 -0.13619999587535858
0.03643728792667389 -0.01179472729563713 -0.13619999587535858
0.03714956343173981 -0.01179472729563713 -0.13619999587535858
0.03786183521151543 -0.01179472729563713 -0.13619999587535858
0.038630757480859756 -0.01181204803287983 -0.1363999992609024
0.039372920989990234 -0.011820707470178604 -0.13650000095367432
0.05687772482633591 -0.011898646131157875 -0.13740000128746033
0.05747051537036896 -0.011872665956616402 -0.1370999962091446
0.05797529220581055 -0.011829367838799953 -0.13660000264644623
0.05851779878139496 -0.01179472729563713 -0.13619999587535858
0.05918658524751663 -0.011786067858338356 -0.13609999418258667
0.05967828631401062 -0.011742768809199333 -0.1356000006198883
0.01592995971441269 -0.011579537764191628 -0.12610000371932983
0.016589416190981865 -0.011579537764191628 -0.12610000371932983
0.034987032413482666 -0.012497819028794765 -0.13609999418258667
0.03546271473169327 -0.012415173463523388 -0.13519999384880066
0.03587547689676285 -0.012314162217080593 -0.13409999012947083
0.036440394818782806 -0.012268248945474625 -0.13359999656677246
0.03727806359529495 -0.012314162217080593 -0.13409999012947083
0.03843250498175621 -0.012461088597774506 -0.13570000231266022
0.03928638622164726 -0.012507001869380474 -0.13619999587535858
0.04005739837884903 -0.012525368481874466 -0.1363999992609024
0.04077071696519852 -0.012525368481874466 -0.1363999992609024
0.04154486581683159 -0.012543734163045883 -0.13660000264644623
0.042259231209754944 -0.012543734163045883 -0.13660000264644623
0.04300505295395851 -0.012552916072309017 -0.13669998943805695
0.055521320551633835 -0.01263556070625782 -0.13759998977184296
0.056118302047252655 -0.012608013115823269 -0.13729999959468842
0.05675353482365608 -0.012589647434651852 -0.1370999962091446
0.05730284005403519 -0.012552916072309017 -0.13669998943805695
0.05784796550869942 -0.012516184709966183 -0.1362999975681305
0.05851779878139496 -0.012507001869380474 -0.13619999587535858
0.015942592173814774 -0.012248697690665722 -0.12619999051094055
0.016602570191025734 -0.012248697690665722 -0.12619999051094055
0.03488420695066452 -0.013170748017728329 -0.13570000231266022
0.03509549796581268 -0.012986337766051292 -0.13379999995231628
0.035500939935445786 -0.012879574671387672 -0.13269999623298645
0.035758499056100845 -0.012724282220005989 -0.13109999895095825
0.03544335067272186 -0.012374873273074627 -0.1274999976158142
0.03588355332612991 -0.012297227047383785 -0.1266999989748001
0.03640192002058029 -0.012248697690665722 -0.12619999051094055
0.03996929153800011 -0.01320957113057375 -0.13609999418258667
0.04074082523584366 -0.01322898268699646 -0.1362999975681305
0.0414840392768383 -0.013238688930869102 -0.1363999992609024
0.041207388043403625 -0.012928102165460587 -0.13319998979568481
0.042879220098257065 -0.01322898268699646 -0.1362999975681305
0.04359201714396477 -0.01322898268699646 -0.1362999975681305
0.04430481418967247 -0.01322898268699646 -0.1362999975681305
0.04498458281159401 -0.013219276443123817 -0.13619999587535858
0.04569685831665993 -0.013219276443123817 -0.13619999587535858
0.04640913009643555 -0.013219276443123817 -0.13619999587535858
0.047121405601501465 -0.013219276443123817 -0.13619999587535858
0.04783368110656738 -0.013219276443123817 -0.13619999587535858
0.048545952886343 -0.013219276443123817 -0.13619999587535858
0.049330562353134155 -0.013238688930869102 -0.1363999992609024
0.050080571323633194 -0.01324839424341917 -0.13650000095367432
0.050906047224998474 -0.013277511112391949 -0.13679999113082886
0.051734667271375656 -0.013306628912687302 -0.1370999962091446
0.05256642401218414 -0.013335746712982655 -0.13740000128746033
0.053401313722133636 -0.013364862650632858 -0.13769999146461487
0.05412143096327782 -0.013364862650632858 -0.13769999146461487
0.054841551929712296 -0.013364862650632858 -0.13769999146461487
0.05540027469396591 -0.013326040469110012 -0.13729999959468842
0.05595480650663376 -0.013287216424942017 -0.13689999282360077
0.05654656141996384 -0.013258100487291813 -0.13660000264644623
0.057135168462991714 -0.01322898268699646 -0.1362999975681305
0.015967857092618942 -0.01292913407087326 -0.12639999389648438
0.01662888191640377 -0.01292913407087326 -0.12639999389648438
0.03512640297412872 -0.013430343009531498 -0.13130000233650208
0.03543119132518768 -0.013287140056490898 -0.1298999935388565
0.035554543137550354 -0.013082564808428288 -0.12789998948574066
0.03588355332612991 -0.012959820218384266 -0.1266999989748001
0.03640192002058029 -0.012908675707876682 -0.12619999051094055
0.036944430321455 -0.01286776177585125 -0.1257999986410141
0.037602316588163376 -0.01286776177585125 -0.1257999986410141
0.03822978958487511 -0.012857533060014248 -0.1256999969482422
0.03894902765750885 -0.012877990491688251 -0.125900000333786
0.04192893207073212 -0.013409885577857494 -0.13109999895095825
0.04384974017739296 -0.013798578642308712 -0.13490000367164612
0.04343225061893463 -0.013450799509882927 -0.1314999908208847
0.04462321847677231 -0.013604232110083103 -0.13300000131130219
0.04552320018410683 -0.01366560347378254 -0.13359999656677246
0.046325672417879105 -0.01369629055261612 -0.1339000016450882
0.04730688035488129 -0.013778120279312134 -0.1347000002861023
0.048296455293893814 -0.013859950006008148 -0.1354999989271164
0.049185894429683685 -0.013911093585193157 -0.13599999248981476
0.04997050389647484 -0.01393155101686716 -0.13619999587535858
0.0508316271007061 -0.013972466811537743 -0.13660000264644623
0.0516214594244957 -0.013992923311889172 -0.13679999113082886
0.05245164781808853 -0.014023609459400177 -0.1370999962091446
0.053207412362098694 -0.014033839106559753 -0.1371999979019165
0.0540035255253315 -0.014054296538233757 -0.13740000128746033
0.054722074419260025 -0.014054296538233757 -0.13740000128746033
0.05523887276649475 -0.014003152027726173 -0.13689999282360077
0.05587306246161461 -0.01398269459605217 -0.13669998943805695
0.0036780480295419693 -0.014665329828858376 -0.1363999992609024
0.0043945880606770515 -0.014676081016659737 -0.13650000095367432
0.005115916021168232 -0.014697583392262459 -0.13669998943805695
0.016005756333470345 -0.013622413389384747 -0.1266999989748001
0.016655193641781807 -0.013611662201583385 -0.1265999972820282
0.035019390285015106 -0.014073984697461128 -0.13089999556541443
0.0351584330201149 -0.013858950696885586 -0.12889999151229858
0.035693537443876266 -0.013805192895233631 -0.12839999794960022
0.03596851974725723 -0.013654669746756554 -0.12700000405311584
0.03645960986614227 -0.013590157963335514 -0.12639999389648438
0.037032537162303925 -0.01355790439993143 -0.12610000371932983
0.037602316588163376 -0.013525648042559624 -0.1257999986410141
0.038199376314878464 -0.013504144735634327 -0.12559999525547028
0.038887154310941696 -0.013514896854758263 -0.1256999969482422
0.03960743546485901 -0.01353640016168356 -0.125900000333786
0.04029782861471176 -0.013547152280807495 -0.12600000202655792
0.04331471398472786 -0.013880454003810883 -0.1290999948978424
0.04467134550213814 -0.014095488935709 -0.13109999895095825
0.04563372582197189 -0.014181502163410187 -0.13189999759197235
0.0462181493639946 -0.014149246737360954 -0.13159999251365662
0.04747665673494339 -0.014321274124085903 -0.13319998979568481
0.04835407808423042 -0.014375032857060432 -0.13369999825954437
0.04960361123085022 -0.014536308124661446 -0.13519999384880066
0.05057113990187645 -0.014611570164561272 -0.13589999079704285
0.051395051181316376 -0.014643825590610504 -0.13619999587535858
0.052222102880477905 -0.014676081016659737 -0.13650000095367432
0.052974727004766464 -0.014686833135783672 -0.13660000264644623
0.05368909239768982 -0.014686833135783672 -0.13660000264644623
0.05444328114390373 -0.014697583392262459 -0.13669998943805695
0.05503712594509125 -0.014665329828858376 -0.1363999992609024
0.0029516862705349922 -0.015311002731323242 -0.13580000400543213
0.0036672616843134165 -0.015333550050854683 -0.13599999248981476
0.004381710197776556 -0.015344825573265553 -0.13609999418258667
0.015427932143211365 -0.014363929629325867 -0.1273999959230423
0.016043655574321747 -0.014318831264972687 -0.12700000405311584
0.016668349504470825 -0.014285006560385227 -0.1266999989748001
0.03567667305469513 -0.014747267588973045 -0.13079999387264252
0.03583253175020218 -0.014533048495650291 -0.12889999151229858
0.036365021020174026 -0.014476676471531391 -0.12839999794960022
0.03654614835977554 -0.014285006560385227 -0.1266999989748001
0.03712063655257225 -0.014251181855797768 -0.12639999389648438
0.03766210004687309 -0.014206084422767162 -0.12600000202655792
0.0457967109978199 -0.01470217015594244 -0.13040000200271606
0.04665686935186386 -0.01475854218006134 -0.13089999556541443
0.04806474968791008 -0.014984036795794964 -0.13289999961853027
0.04905327782034874 -0.015074233524501324 -0.13369999825954437
0.0503106564283371 -0.015243353322148323 -0.13519999384880066
0.051281847059726715 -0.015322275459766388 -0.13589999079704285
0.002208491787314415 -0.015785232186317444 -0.13379999995231628
0.0028995207976549864 -0.01573804020881653 -0.13339999318122864
0.0035863665398210287 -0.01569085195660591 -0.13300000131130219
0.004304443020373583 -0.015773434191942215 -0.13369999825954437
0.015167218632996082 -0.015443099662661552 -0.13089999556541443
0.015536920167505741 -0.015136362053453922 -0.1282999962568283
0.016068920493125916 -0.015006587840616703 -0.12719999253749847
0.03664823994040489 -0.015266136266291142 -0.12939999997615814
0.03706534951925278 -0.015159957110881805 -0.12849999964237213
0.03747304901480675 -0.015053778886795044 -0.12759999930858612
0.03778165951371193 -0.014912206679582596 -0.12639999389648438
0.038321033120155334 -0.01486501656472683 -0.12600000202655792
0.038887154310941696 -0.014829623512923717 -0.1256999969482422
0.001499747158959508 -0.01638639159500599 -0.13300000131130219
0.0021688775159418583 -0.01618926227092743 -0.131400004029274
0.002856049919500947 -0.01618926227092743 -0.131400004029274
0.004223955795168877 -0.016164619475603104 -0.13120000064373016
0.014847769401967525 -0.016534237191081047 -0.13419999182224274
0.015167218632996082 -0.016127657145261765 -0.13089999556541443
0.015633799135684967 -0.01590588688850403 -0.1290999948978424
0.016043655574321747 -0.015647156164050102 -0.12700000405311584
0.023911112919449806 -0.016990099102258682 -0.1378999948501587
0.03773735836148262 -0.0158319640904665 -0.12849999964237213
0.03817024081945419 -0.015733398497104645 -0.12770000100135803
0.03844268247485161 -0.01557323057204485 -0.12639999389648438
0.039010901004076004 -0.01553627010434866 -0.12610000371932983
0.00010866748925764114 -0.017081931233406067 -0.13300000131130219
0.0007957419147714972 -0.016902118921279907 -0.13159999251365662
0.001477194600738585 -0.016825059428811073 -0.13099999725818634
0.0027908431366086006 -0.016491126269102097 -0.12839999794960022
0.003440754720941186 -0.01638837903738022 -0.12759999930858612
0.004111274145543575 -0.016401221975684166 -0.12770000100135803
0.0048165214248001575 -0.016529656946659088 -0.12870000302791595
0.005788152106106281 -0.01742870733141899 -0.13570000231266022
0.01475925836712122 -0.017133302986621857 -0.13339999318122864
0.01513245701789856 -0.016773683950304985 -0.1305999904870987
0.03846914693713188 -0.016529656946659088 -0.12870000302791595
0.038929298520088196 -0.01643975079059601 -0.12799999117851257
0.039196521043777466 -0.016272787004709244 -0.1266999989748001
0.03970181196928024 -0.01620856672525406 -0.12619999051094055
-0.0005833422765135765 -0.017670538276433945 -0.13220000267028809
0.00010719679994508624 -0.017536872997879982 -0.13120000064373016
0.0007909045671112835 -0.017483405768871307 -0.13079999387264252
0.0034056997392326593 -0.01688191294670105 -0.12629999220371246
0.004072640091180801 -0.016908645629882812 -0.1264999955892563
0.00475289998576045 -0.01697547920048237 -0.12700000405311584
0.005847867578268051 -0.018325496464967728 -0.1370999962091446
0.014135412871837616 -0.01792450062930584 -0.13409999012947083
0.014715003781020641 -0.017777470871806145 -0.13300000131130219
0.015213566832244396 -0.017550239339470863 -0.13130000233650208
0.03917260840535164 -0.017216075211763382 -0.12879998981952667
0.03972243890166283 -0.017162609845399857 -0.12839999794960022
0.039796192198991776 -0.016908645629882812 -0.1264999955892563
0.04036179184913635 -0.01686854474246502 -0.12619999051094055
-0.0019734902307391167 -0.018431341275572777 -0.13269999623298645
-0.0012660204665735364 -0.018236888572573662 -0.13130000233650208
-0.0005758408806286752 -0.01812577247619629 -0.13050000369548798
0.004066201392561197 -0.017542414367198944 -0.12629999220371246
0.004745414946228266 -0.01761186309158802 -0.12680000066757202
0.005881990306079388 -0.019153593108057976 -0.1378999948501587
0.006607943680137396 -0.01916748285293579 -0.1379999965429306
0.013514266349375248 -0.018736910074949265 -0.13490000367164612
0.014103791676461697 -0.018584126606583595 -0.13379999995231628
0.014681811444461346 -0.018431341275572777 -0.13269999623298645
0.025040892884135246 -0.018917473033070564 -0.13619999587535858
0.025715351104736328 -0.018889693543314934 -0.13599999248981476
0.04045684263110161 -0.017861872911453247 -0.12860000133514404
0.04106540605425835 -0.017834093421697617 -0.12839999794960022
0.0411192886531353 -0.017570193856954575 -0.1264999955892563
0.041615694761276245 -0.017500746995210648 -0.12600000202655792
-0.002637309255078435 -0.01890912652015686 -0.13120000064373016
-0.0019452337874099612 -0.018851475790143013 -0.13079999387264252
0.004079079255461693 -0.018260564655065536 -0.1266999989748001
0.004805293865501881 -0.018505576997995377 -0.12839999794960022
0.005856398493051529 -0.019788283854722977 -0.13729999959468842
0.006588790100067854 -0.019831521436572075 -0.13759998977184296
0.007324320264160633 -0.019874759018421173 -0.1378999948501587
0.008051319979131222 -0.019889172166585922 -0.1379999965429306
0.012846769765019417 -0.019500035792589188 -0.13529999554157257
0.013444139622151852 -0.019341498613357544 -0.13419999182224274
0.014093250036239624 -0.019269436597824097 -0.13369999825954437
0.02498573623597622 -0.019586509093642235 -0.13589999079704285
0.02562081068754196 -0.019528860226273537 -0.1354999989271164
0.040928732603788376 -0.018750587478280067 -0.13009999692440033
0.0413852296769619 -0.01864970102906227 -0.12939999997615814
0.041769396513700485 -0.018519990146160126 -0.12849999964237213
0.04201203212141991 -0.018332626670598984 -0.12719999253749847
0.042341724038124084 -0.01818850263953209 -0.12619999051094055
-0.002617207821458578 -0.01944589801132679 -0.13019999861717224
0.004079079255461693 -0.018923157826066017 -0.1266999989748001
0.0048165214248001575 -0.019221866503357887 -0.12870000302791595
0.0057796211913228035 -0.020237473770976067 -0.1354999989271164
0.006536118686199188 -0.020386828109622 -0.13650000095367432
