ply
format ascii 1.0
element vertex 734
property float x
property float y
property float z
end_header
-0.017856871709227562 -0.033099640160799026 0.001142854685895145
-0.017817076295614243 -0.03319176658987999 0.001142854685895145
-0.017777852714061737 -0.03327976167201996 0.001142854685895145
-0.017739247530698776 -0.03336338698863983 0.001142854685895145
-0.01770138368010521 -0.03344225510954857 0.001142854685895145
-0.017664382234215736 -0.033516135066747665 0.001142854685895145
-0.017664382234215736 -0.033516135066747665 0.0009285682463087142
-0.01770138368010521 -0.03344225510954857 0.0009285682463087142
-0.017739247530698776 -0.03336338698863983 0.0009285682463087142
-0.017777852714061737 -0.03327976167201996 0.0009285682463087142
-0.017817076295614243 -0.03319176658987999 0.0009285682463087142
-0.017856871709227562 -0.033099640160799026 0.0009285682463087142
-0.017897149547934532 -0.03300370275974274 0.0009285682463087142
-0.017978664487600327 -0.032801758497953415 0.0009285682463087142
-0.01806086301803589 -0.03258834779262543 0.0009285682463087142
-0.01814303547143936 -0.03236593306064606 0.0009285682463087142
-0.018224399536848068 -0.032137006521224976 0.0009285682463087142
-0.018376171588897705 -0.031686414033174515 0.0009285682463087142
-0.01844821311533451 -0.03146101161837578 0.0009285682463087142
-0.01851675845682621 -0.031238457188010216 0.0009285682463087142
-0.01858116313815117 -0.031021030619740486 0.0009285682463087142
-0.018640730530023575 -0.030810898169875145 0.0009285682463087142
-0.018694797530770302 -0.03061026521027088 0.0009285682463087142
-0.018719542771577835 -0.030514178797602654 0.0009285682463087142
-0.018742669373750687 -0.03042135387659073 0.0009285682463087142
-0.018764084205031395 -0.03033199906349182 0.0009285682463087142
-0.0187836866825819 -0.030246399343013763 0.0009285682463087142
-0.018801428377628326 -0.030164817348122597 0.0009285682463087142
-0.01881716586649418 -0.030087566003203392 0.0009285682463087142
-0.018830887973308563 -0.030014894902706146 0.0009285682463087142
-0.018842458724975586 -0.02994711697101593 0.0009285682463087142
-0.018851809203624725 -0.02988447993993759 0.0009285682463087142
-0.018858840689063072 -0.029827246442437172 0.0009285682463087142
-0.018863502889871597 -0.0297757126390934 0.0009285682463087142
-0.018865682184696198 -0.029730157926678658 0.0009285682463087142
-0.018865283578634262 -0.029690852388739586 0.0009285682463087142
-0.018862267956137657 -0.029658062383532524 0.0009285682463087142
-0.018856510519981384 -0.029632069170475006 0.0009285682463087142
-0.01885257475078106 -0.02962171845138073 0.0009285682463087142
-0.018847929313778877 -0.02961319126188755 0.0009285682463087142
-0.018842583522200584 -0.029606487601995468 0.0009285682463087142
-0.01883646845817566 -0.029601648449897766 0.0009285682463087142
-0.018833136186003685 -0.029599949717521667 0.0009285682463087142
-0.018829626962542534 -0.029598727822303772 0.0009285682463087142
-0.017628300935029984 -0.03358466550707817 0.0007142818067222834
-0.017664382234215736 -0.033516135066747665 0.0007142818067222834
-0.01770138368010521 -0.03344225510954857 0.0007142818067222834
-0.017739247530698776 -0.03336338698863983 0.0007142818067222834
-0.017777852714061737 -0.03327976167201996 0.0007142818067222834
-0.017817076295614243 -0.03319176658987999 0.0007142818067222834
-0.017856871709227562 -0.033099640160799026 0.0007142818067222834
-0.017897149547934532 -0.03300370275974274 0.0007142818067222834
-0.017978664487600327 -0.032801758497953415 0.0007142818067222834
-0.01806086301803589 -0.03258834779262543 0.0007142818067222834
-0.01814303547143936 -0.03236593306064606 0.0007142818067222834
-0.018224399536848068 -0.032137006521224976 0.0007142818067222834
-0.018376171588897705 -0.031686414033174515 0.0007142818067222834
-0.01844821311533451 -0.03146101161837578 0.0007142818067222834
-0.01851675845682621 -0.031238457188010216 0.0007142818067222834
-0.01858116313815117 -0.031021030619740486 0.0007142818067222834
-0.018640730530023575 -0.030810898169875145 0.0007142818067222834
-0.018694797530770302 -0.03061026521027088 0.0007142818067222834
-0.018719542771577835 -0.030514178797602654 0.0007142818067222834
-0.018742669373750687 -0.03042135387659073 0.0007142818067222834
-0.018764084205031395 -0.03033199906349182 0.0007142818067222834
-0.0187836866825819 -0.030246399343013763 0.0007142818067222834
-0.018801428377628326 -0.030164817348122597 0.0007142818067222834
-0.01881716586649418 -0.030087566003203392 0.0007142818067222834
-0.018830887973308563 -0.030014894902706146 0.0007142818067222834
-0.018842458724975586 -0.02994711697101593 0.0007142818067222834
-0.018851809203624725 -0.02988447993993759 0.0007142818067222834
-0.018858840689063072 -0.029827246442437172 0.0007142818067222834
-0.018863502889871597 -0.0297757126390934 0.0007142818067222834
-0.018865682184696198 -0.029730157926678658 0.0007142818067222834
-0.018865283578634262 -0.029690852388739586 0.0007142818067222834
-0.018862267956137657 -0.029658062383532524 0.0007142818067222834
-0.018856510519981384 -0.029632069170475006 0.0007142818067222834
-0.01885257475078106 -0.02962171845138073 0.0007142818067222834
-0.018847929313778877 -0.02961319126188755 0.0007142818067222834
-0.018842583522200584 -0.029606487601995468 0.0007142818067222834
-0.01883646845817566 -0.029601648449897766 0.0007142818067222834
-0.018833136186003685 -0.029599949717521667 0.0007142818067222834
-0.018829626962542534 -0.029598727822303772 0.0007142818067222834
-0.018829626962542534 -0.029598727822303772 0.0004999919328838587
-0.018833136186003685 -0.029599949717521667 0.0004999919328838587
-0.01883646845817566 -0.029601648449897766 0.0004999919328838587
-0.018842583522200584 -0.029606487601995468 0.0004999919328838587
-0.018847929313778877 -0.02961319126188755 0.0004999919328838587
-0.01885257475078106 -0.02962171845138073 0.0004999919328838587
-0.018856510519981384 -0.029632069170475006 0.0004999919328838587
-0.018862267956137657 -0.029658062383532524 0.0004999919328838587
-0.018865283578634262 -0.029690852388739586 0.0004999919328838587
-0.018865682184696198 -0.029730157926678658 0.0004999919328838587
-0.018863502889871597 -0.0297757126390934 0.0004999919328838587
-0.018858840689063072 -0.029827246442437172 0.0004999919328838587
-0.018851809203624725 -0.02988447993993759 0.0004999919328838587
-0.018842458724975586 -0.02994711697101593 0.0004999919328838587
-0.018830887973308563 -0.030014894902706146 0.0004999919328838587
-0.01881716586649418 -0.030087566003203392 0.0004999919328838587
-0.018801428377628326 -0.030164817348122597 0.0004999919328838587
-0.0187836866825819 -0.030246399343013763 0.0004999919328838587
-0.018764084205031395 -0.03033199906349182 0.0004999919328838587
-0.018742669373750687 -0.03042135387659073 0.0004999919328838587
-0.018719542771577835 -0.030514178797602654 0.0004999919328838587
-0.018694797530770302 -0.03061026521027088 0.0004999919328838587
-0.018640730530023575 -0.030810898169875145 0.0004999919328838587
-0.01858116313815117 -0.031021030619740486 0.0004999919328838587
-0.01851675845682621 -0.031238457188010216 0.0004999919328838587
-0.01844821311533451 -0.03146101161837578 0.0004999919328838587
-0.018376171588897705 -0.031686414033174515 0.0004999919328838587
-0.018224399536848068 -0.032137006521224976 0.0004999919328838587
-0.01814303547143936 -0.03236593306064606 0.0004999919328838587
-0.01806086301803589 -0.03258834779262543 0.0004999919328838587
-0.017978664487600327 -0.032801758497953415 0.0004999919328838587
-0.017897149547934532 -0.03300370275974274 0.0004999919328838587
-0.017856871709227562 -0.033099640160799026 0.0004999919328838587
-0.017817076295614243 -0.03319176658987999 0.0004999919328838587
-0.017777852714061737 -0.03327976167201996 0.0004999919328838587
-0.017739247530698776 -0.03336338698863983 0.0004999919328838587
-0.01770138368010521 -0.03344225510954857 0.0004999919328838587
-0.017664382234215736 -0.033516135066747665 0.0004999919328838587
-0.018829626962542534 -0.029598727822303772 0.0014999998966231942
-0.018833136186003685 -0.029599949717521667 0.0014999998966231942
-0.01883646845817566 -0.029601648449897766 0.0014999998966231942
-0.018842583522200584 -0.029606487601995468 0.0014999998966231942
-0.018847929313778877 -0.02961319126188755 0.0014999998966231942
-0.01885257475078106 -0.02962171845138073 0.0014999998966231942
-0.018856510519981384 -0.029632069170475006 0.0014999998966231942
-0.018862267956137657 -0.029658062383532524 0.0014999998966231942
-0.018865283578634262 -0.029690852388739586 0.0014999998966231942
-0.018865682184696198 -0.029730157926678658 0.0014999998966231942
-0.018863502889871597 -0.0297757126390934 0.0014999998966231942
-0.018858840689063072 -0.029827246442437172 0.0014999998966231942
-0.018851809203624725 -0.02988447993993759 0.0014999998966231942
-0.018842458724975586 -0.02994711697101593 0.0014999998966231942
-0.018830887973308563 -0.030014894902706146 0.0014999998966231942
-0.01881716586649418 -0.030087566003203392 0.0014999998966231942
-0.018801428377628326 -0.030164817348122597 0.0014999998966231942
-0.0187836866825819 -0.030246399343013763 0.0014999998966231942
-0.018764084205031395 -0.03033199906349182 0.0014999998966231942
-0.018742669373750687 -0.03042135387659073 0.0014999998966231942
-0.018719542771577835 -0.030514178797602654 0.0014999998966231942
-0.018694797530770302 -0.03061026521027088 0.0014999998966231942
-0.018640730530023575 -0.030810898169875145 0.0014999998966231942
-0.01858116313815117 -0.031021030619740486 0.0014999998966231942
-0.01851675845682621 -0.031238457188010216 0.0014999998966231942
-0.01844821311533451 -0.03146101161837578 0.0014999998966231942
-0.018376171588897705 -0.031686414033174515 0.0014999998966231942
-0.018224399536848068 -0.032137006521224976 0.0014999998966231942
-0.01814303547143936 -0.03236593306064606 0.0014999998966231942
-0.01806086301803589 -0.03258834779262543 0.0014999998966231942
-0.017978664487600327 -0.032801758497953415 0.0014999998966231942
-0.017897149547934532 -0.03300370275974274 0.0014999998966231942
-0.017856871709227562 -0.033099640160799026 0.0014999998966231942
-0.017817076295614243 -0.03319176658987999 0.0014999998966231942
-0.017777852714061737 -0.03327976167201996 0.0014999998966231942
-0.017739247530698776 -0.03336338698863983 0.0014999998966231942
-0.01770138368010521 -0.03344225510954857 0.0014999998966231942
-0.017664382234215736 -0.033516135066747665 0.0014999998966231942
-0.014612388797104359 -0.03633720055222511 -5.215406329028838e-09
-0.014608769677579403 -0.036338984966278076 0.00033332736347801983
-0.014359593391418457 -0.03645629063248634 -5.215406329028838e-09
-0.014608769677579403 -0.036338984966278076 0.0006666633416898549
-0.014359593391418457 -0.03645629063248634 0.0009999959729611874
-0.014608769677579403 -0.036338984966278076 0.0009999959729611874
-0.014608769677579403 -0.036338984966278076 0.0013333284296095371
-0.01485398318618536 -0.03621261194348335 0.0009999959729611874
-0.01485398318618536 -0.03621261194348335 0.0013333284296095371
-0.015094632282853127 -0.03607756271958351 0.0009999959729611874
-0.015094632282853127 -0.03607756271958351 0.0013333284296095371
-0.015330249443650246 -0.03593418002128601 0.0009999959729611874
-0.015330249443650246 -0.03593418002128601 0.0013333284296095371
-0.015560247004032135 -0.03578287363052368 0.0009999959729611874
-0.015560247004032135 -0.03578287363052368 0.0013333284296095371
-0.01578407548367977 -0.03562396019697189 0.0009999959729611874
-0.01578407548367977 -0.03562396019697189 0.0013333284296095371
-0.016001226380467415 -0.03545781970024109 0.0009999959729611874
-0.016001226380467415 -0.03545781970024109 0.0013333284296095371
-0.016211112961173058 -0.035284824669361115 0.0009999959729611874
-0.016211112961173058 -0.035284824669361115 0.0013333284296095371
-0.016418984159827232 -0.035100024193525314 0.0009999959729611874
-0.016418984159827232 -0.035100024193525314 0.0013333284296095371
-0.01661801151931286 -0.03490874543786049 0.0009999959729611874
-0.01661801151931286 -0.03490874543786049 0.0013333284296095371
-0.01680760830640793 -0.034711387008428574 0.0009999959729611874
-0.01680760830640793 -0.034711387008428574 0.0013333284296095371
-0.016987169161438942 -0.03450838476419449 0.0009999959729611874
-0.016987169161438942 -0.03450838476419449 0.0013333284296095371
-0.017156092450022697 -0.03430008515715599 0.0009999959729611874
-0.017156092450022697 -0.03430008515715599 0.0013333284296095371
-0.017313815653324127 -0.034086924046278 0.0009999959729611874
-0.017313815653324127 -0.034086924046278 0.0013333284296095371
-0.017388295382261276 -0.033978626132011414 0.0009999959729611874
-0.017388295382261276 -0.033978626132011414 0.0013333284296095371
-0.01745973341166973 -0.033869266510009766 0.0009999959729611874
-0.01745973341166973 -0.033869266510009766 0.0013333284296095371
-0.01752806082367897 -0.03375891223549843 0.0009999959729611874
-0.01752806082367897 -0.03375891223549843 0.0006666633416898549
-0.01752806082367897 -0.03375891223549843 0.00033332736347801983
-0.017529020085930824 -0.03375733271241188 -5.215406329028838e-09
-0.01746172271668911 -0.033866170793771744 -5.215406329028838e-09
-0.01745973341166973 -0.033869266510009766 0.00033332736347801983
-0.017388295382261276 -0.033978626132011414 0.00033332736347801983
-0.017388295382261276 -0.033978626132011414 0.0006666633416898549
-0.017313815653324127 -0.034086924046278 0.0006666633416898549
-0.01485398318618536 -0.03621261194348335 0.00033332736347801983
-0.014861057512462139 -0.03620878979563713 -5.215406329028838e-09
-0.015094632282853127 -0.03607756271958351 0.00033332736347801983
-0.015105064958333969 -0.03607147932052612 -5.215406329028838e-09
-0.015330249443650246 -0.03593418002128601 0.00033332736347801983
-0.015343835577368736 -0.03592555969953537 -5.215406329028838e-09
-0.015560247004032135 -0.03578287363052368 0.00033332736347801983
-0.015576780773699284 -0.03577153757214546 -5.215406329028838e-09
-0.01578407548367977 -0.03562396019697189 0.00033332736347801983
-0.015803363174200058 -0.03560967743396759 -5.215406329028838e-09
-0.016001226380467415 -0.03545781970024109 0.00033332736347801983
-0.016022996976971626 -0.035440463572740555 -5.215406329028838e-09
-0.016211112961173058 -0.035284824669361115 0.00033332736347801983
-0.016235116869211197 -0.03526419401168823 -5.215406329028838e-09
-0.016418984159827232 -0.035100024193525314 0.00033332736347801983
-0.016439136117696762 -0.03508133068680763 -5.215406329028838e-09
-0.01661801151931286 -0.03490874543786049 0.00033332736347801983
-0.016634518280625343 -0.03489219769835472 -5.215406329028838e-09
-0.01680760830640793 -0.034711387008428574 0.00033332736347801983
-0.01682065986096859 -0.03469720110297203 -5.215406329028838e-09
-0.016987169161438942 -0.03450838476419449 0.00033332736347801983
-0.016997026279568672 -0.03449670225381851 -5.215406329028838e-09
-0.017156092450022697 -0.03430008515715599 0.00033332736347801983
-0.017163041979074478 -0.034291110932826996 -5.215406329028838e-09
-0.017313815653324127 -0.034086924046278 0.00033332736347801983
-0.01731811836361885 -0.034080810844898224 -5.215406329028838e-09
-0.01752806082367897 -0.03375891223549843 0.0013333284296095371
-0.01752806082367897 -0.03375891223549843 0.0016666644951328635
-0.017529020085930824 -0.03375733271241188 0.001999997068196535
-0.01746172271668911 -0.033866170793771744 0.001999997068196535
-0.01731811836361885 -0.034080810844898224 0.001999997068196535
-0.017388295382261276 -0.033978626132011414 0.0016666644951328635
-0.01745973341166973 -0.033869266510009766 0.0016666644951328635
-0.017313815653324127 -0.034086924046278 0.0016666644951328635
-0.017163041979074478 -0.034291110932826996 0.001999997068196535
-0.017156092450022697 -0.03430008515715599 0.0016666644951328635
-0.016997026279568672 -0.03449670225381851 0.001999997068196535
-0.016987169161438942 -0.03450838476419449 0.0016666644951328635
-0.01682065986096859 -0.03469720110297203 0.001999997068196535
-0.01680760830640793 -0.034711387008428574 0.0016666644951328635
-0.016634518280625343 -0.03489219769835472 0.001999997068196535
-0.01661801151931286 -0.03490874543786049 0.0016666644951328635
-0.016439136117696762 -0.03508133068680763 0.001999997068196535
-0.016418984159827232 -0.035100024193525314 0.0016666644951328635
-0.016235116869211197 -0.03526419401168823 0.001999997068196535
-0.016211112961173058 -0.035284824669361115 0.0016666644951328635
-0.016022996976971626 -0.035440463572740555 0.001999997068196535
-0.016001226380467415 -0.03545781970024109 0.0016666644951328635
-0.015803363174200058 -0.03560967743396759 0.001999997068196535
-0.01578407548367977 -0.03562396019697189 0.0016666644951328635
-0.015576780773699284 -0.03577153757214546 0.001999997068196535
-0.015560247004032135 -0.03578287363052368 0.0016666644951328635
-0.015343835577368736 -0.03592555969953537 0.001999997068196535
-0.015330249443650246 -0.03593418002128601 0.0016666644951328635
-0.015105064958333969 -0.03607147932052612 0.001999997068196535
-0.015094632282853127 -0.03607756271958351 0.0016666644951328635
-0.014861057512462139 -0.03620878979563713 0.001999997068196535
-0.01485398318618536 -0.03621261194348335 0.0016666644951328635
-0.014612388797104359 -0.03633720055222511 0.001999997068196535
-0.014608769677579403 -0.036338984966278076 0.0016666644951328635
-0.014359593391418457 -0.03645629063248634 0.001999997068196535
-0.01745973341166973 -0.033869266510009766 0.0006666633416898549
-0.017156092450022697 -0.03430008515715599 0.0006666633416898549
-0.016987169161438942 -0.03450838476419449 0.0006666633416898549
-0.01680760830640793 -0.034711387008428574 0.0006666633416898549
-0.01661801151931286 -0.03490874543786049 0.0006666633416898549
-0.016418984159827232 -0.035100024193525314 0.0006666633416898549
-0.016211112961173058 -0.035284824669361115 0.0006666633416898549
-0.016001226380467415 -0.03545781970024109 0.0006666633416898549
-0.01578407548367977 -0.03562396019697189 0.0006666633416898549
-0.015560247004032135 -0.03578287363052368 0.0006666633416898549
-0.015330249443650246 -0.03593418002128601 0.0006666633416898549
-0.015094632282853127 -0.03607756271958351 0.0006666633416898549
-0.01485398318618536 -0.03621261194348335 0.0006666633416898549
-0.01058700866997242 -0.03710950165987015 -5.215406329028838e-09
-0.010781320743262768 -0.03709723427891731 -5.215406329028838e-09
-0.01058700866997242 -0.03710950165987015 0.0009999959729611874
-0.01082331221550703 -0.037094518542289734 0.0004999919328838587
-0.01082331221550703 -0.037094518542289734 0.0009999959729611874
-0.011048729531466961 -0.03707946464419365 0.0004999919328838587
-0.011048729531466961 -0.03707946464419365 0.0009999959729611874
-0.011263742111623287 -0.03706422075629234 0.0004999919328838587
-0.011263742111623287 -0.03706422075629234 0.0009999959729611874
-0.01146874763071537 -0.03704874590039253 0.0004999919328838587
-0.01146874763071537 -0.03704874590039253 0.0009999959729611874
-0.011664212681353092 -0.03703289479017258 0.0004999919328838587
-0.011664212681353092 -0.03703289479017258 0.0009999959729611874
-0.011850573122501373 -0.037016622722148895 0.0004999919328838587
-0.011850573122501373 -0.037016622722148895 0.0009999959729611874
-0.012028256431221962 -0.036999817937612534 0.0004999919328838587
-0.012028256431221962 -0.036999817937612534 0.0009999959729611874
-0.012197714298963547 -0.03698240593075752 0.0004999919328838587
-0.012197714298963547 -0.03698240593075752 0.0009999959729611874
-0.012366609647870064 -0.03696344420313835 0.0004999919328838587
-0.012366609647870064 -0.03696344420313835 0.0009999959729611874
-0.012527486309409142 -0.03694363310933113 0.0004999919328838587
-0.012527486309409142 -0.03694363310933113 0.0009999959729611874
-0.012680849060416222 -0.03692284971475601 0.0004999919328838587
-0.012680849060416222 -0.03692284971475601 0.0009999959729611874
-0.012827180325984955 -0.03690100088715553 0.0004999919328838587
-0.012827180325984955 -0.03690100088715553 0.0009999959729611874
-0.012966984882950783 -0.036878008395433426 0.0004999919328838587
-0.012966984882950783 -0.036878008395433426 0.0009999959729611874
-0.013100785203278065 -0.03685373440384865 0.0004999919328838587
-0.013100785203278065 -0.03685373440384865 0.0009999959729611874
-0.013229074887931347 -0.03682810813188553 0.0004999919328838587
-0.013229074887931347 -0.03682810813188553 0.0009999959729611874
-0.013352332636713982 -0.03680102154612541 0.0004999919328838587
-0.013352332636713982 -0.03680102154612541 0.0009999959729611874
-0.013471094891428947 -0.03677238151431084 0.0004999919328838587
-0.013471094891428947 -0.03677238151431084 0.0009999959729611874
-0.013585812412202358 -0.03674207255244255 0.0004999919328838587
-0.013585812412202358 -0.03674207255244255 0.0009999959729611874
-0.013697061687707901 -0.0367099903523922 0.0004999919328838587
-0.013697061687707901 -0.0367099903523922 0.0009999959729611874
-0.013805280439555645 -0.03667609021067619 0.0004999919328838587
-0.013805280439555645 -0.03667609021067619 0.0009999959729611874
-0.014014714397490025 -0.03660226985812187 0.0004999919328838587
-0.014014714397490025 -0.03660226985812187 0.0009999959729611874
-0.014218143187463284 -0.036519795656204224 0.0004999919328838587
-0.014218143187463284 -0.036519795656204224 0.0009999959729611874
-0.014218143187463284 -0.036519795656204224 0.0014999998966231942
-0.014201870188117027 -0.03652678430080414 0.001999997068196535
-0.010968298651278019 -0.037084922194480896 -5.215406329028838e-09
-0.011148162186145782 -0.03707252815365791 -5.215406329028838e-09
-0.01132118422538042 -0.03705998510122299 -5.215406329028838e-09
-0.011487598530948162 -0.037047263234853745 -5.215406329028838e-09
-0.011647610925137997 -0.037034280598163605 -5.215406329028838e-09
-0.011801522225141525 -0.03702103719115257 -5.215406329028838e-09
-0.011949511244893074 -0.03700743988156319 -5.215406329028838e-09
-0.012091880664229393 -0.036993443965911865 -5.215406329028838e-09
-0.012228806503117085 -0.03697904571890831 -5.215406329028838e-09
-0.012360564433038235 -0.03696417063474655 -5.215406329028838e-09
-0.012487401254475117 -0.036948733031749725 -5.215406329028838e-09
-0.01260954886674881 -0.036932751536369324 -5.215406329028838e-09
-0.012727255001664162 -0.036916133016347885 -5.215406329028838e-09
-0.012840751558542252 -0.03689887747168541 -5.215406329028838e-09
-0.012950260192155838 -0.03688087314367294 -5.215406329028838e-09
-0.013056066818535328 -0.03686210513114929 -5.215406329028838e-09
-0.013158377259969711 -0.03684253245592117 -5.215406329028838e-09
-0.0133534986525774 -0.036800771951675415 -5.215406329028838e-09
-0.013537569902837276 -0.03675514832139015 -5.215406329028838e-09
-0.013712525367736816 -0.036705318838357925 -5.215406329028838e-09
-0.013880283571779728 -0.03665090724825859 -5.215406329028838e-09
-0.014042763039469719 -0.03659150376915932 -5.215406329028838e-09
-0.014201870188117027 -0.03652678430080414 -5.215406329028838e-09
-0.014042763039469719 -0.03659150376915932 0.001999997068196535
-0.014014714397490025 -0.03660226985812187 0.0014999998966231942
-0.013880283571779728 -0.03665090724825859 0.001999997068196535
-0.013805280439555645 -0.03667609021067619 0.0014999998966231942
-0.013712525367736816 -0.036705318838357925 0.001999997068196535
-0.013697061687707901 -0.0367099903523922 0.0014999998966231942
-0.013585812412202358 -0.03674207255244255 0.0014999998966231942
-0.013537569902837276 -0.03675514832139015 0.001999997068196535
-0.013471094891428947 -0.03677238151431084 0.0014999998966231942
-0.0133534986525774 -0.036800771951675415 0.001999997068196535
-0.013352332636713982 -0.03680102154612541 0.0014999998966231942
-0.013229074887931347 -0.03682810813188553 0.0014999998966231942
-0.013158377259969711 -0.03684253245592117 0.001999997068196535
-0.013100785203278065 -0.03685373440384865 0.0014999998966231942
-0.013056066818535328 -0.03686210513114929 0.001999997068196535
-0.012966984882950783 -0.036878008395433426 0.0014999998966231942
-0.012950260192155838 -0.03688087314367294 0.001999997068196535
-0.012827180325984955 -0.03690100088715553 0.0014999998966231942
-0.012840751558542252 -0.03689887747168541 0.001999997068196535
-0.012727255001664162 -0.036916133016347885 0.001999997068196535
-0.012680849060416222 -0.03692284971475601 0.0014999998966231942
-0.01260954886674881 -0.036932751536369324 0.001999997068196535
-0.012527486309409142 -0.03694363310933113 0.0014999998966231942
-0.012487401254475117 -0.036948733031749725 0.001999997068196535
-0.012366609647870064 -0.03696344420313835 0.0014999998966231942
-0.012360564433038235 -0.03696417063474655 0.001999997068196535
-0.012228806503117085 -0.03697904571890831 0.001999997068196535
-0.012197714298963547 -0.03698240593075752 0.0014999998966231942
-0.012091880664229393 -0.036993443965911865 0.001999997068196535
-0.012028256431221962 -0.036999817937612534 0.0014999998966231942
-0.011949511244893074 -0.03700743988156319 0.001999997068196535
-0.011850573122501373 -0.037016622722148895 0.0014999998966231942
-0.011801522225141525 -0.03702103719115257 0.001999997068196535
-0.011664212681353092 -0.03703289479017258 0.0014999998966231942
-0.011647610925137997 -0.037034280598163605 0.001999997068196535
-0.011487598530948162 -0.037047263234853745 0.001999997068196535
-0.01146874763071537 -0.03704874590039253 0.0014999998966231942
-0.01132118422538042 -0.03705998510122299 0.001999997068196535
-0.011263742111623287 -0.03706422075629234 0.0014999998966231942
-0.011148162186145782 -0.03707252815365791 0.001999997068196535
-0.011048729531466961 -0.03707946464419365 0.0014999998966231942
-0.010968298651278019 -0.037084922194480896 0.001999997068196535
-0.01082331221550703 -0.037094518542289734 0.0014999998966231942
-0.010781320743262768 -0.03709723427891731 0.001999997068196535
-0.01058700866997242 -0.03710950165987015 0.001999997068196535
-0.007583173457533121 -0.037559185177087784 -5.215406329028838e-09
-0.007567874155938625 -0.037571605294942856 0.00033332736347801983
-0.007525814697146416 -0.037610266357660294 -5.215406329028838e-09
-0.007567874155938625 -0.037571605294942856 0.0006666633416898549
-0.007525814697146416 -0.037610266357660294 0.0009999959729611874
-0.007567874155938625 -0.037571605294942856 0.0009999959729611874
-0.007567874155938625 -0.037571605294942856 0.0013333284296095371
-0.007615691050887108 -0.037535157054662704 0.0009999959729611874
-0.007615691050887108 -0.037535157054662704 0.0013333284296095371
-0.007669924292713404 -0.03750075772404671 0.0009999959729611874
-0.007669924292713404 -0.03750075772404671 0.0013333284296095371
-0.00773120392113924 -0.03746836632490158 0.0009999959729611874
-0.00773120392113924 -0.03746836632490158 0.0013333284296095371
-0.0078002153895795345 -0.037437792867422104 0.0009999959729611874
-0.0078002153895795345 -0.037437792867422104 0.0013333284296095371
-0.00787760317325592 -0.037408988922834396 0.0009999959729611874
-0.00787760317325592 -0.037408988922834396 0.0013333284296095371
-0.0079639982432127 -0.03738183155655861 0.0009999959729611874
-0.0079639982432127 -0.03738183155655861 0.0013333284296095371
-0.00806005671620369 -0.037356264889240265 0.0009999959729611874
-0.00806005671620369 -0.037356264889240265 0.0013333284296095371
-0.008148056454956532 -0.03733600303530693 0.0009999959729611874
-0.008148056454956532 -0.03733600303530693 0.0013333284296095371
-0.00824362225830555 -0.03731667250394821 0.0009999959729611874
-0.00824362225830555 -0.03731667250394821 0.0013333284296095371
-0.008347110822796822 -0.03729822114109993 0.0009999959729611874
-0.008347110822796822 -0.03729822114109993 0.0013333284296095371
-0.008458922617137432 -0.037280578166246414 0.0009999959729611874
-0.008458922617137432 -0.037280578166246414 0.0013333284296095371
-0.008579439483582973 -0.03726370260119438 0.0009999959729611874
-0.008579439483582973 -0.03726370260119438 0.0013333284296095371
-0.008709017187356949 -0.037247512489557266 0.0009999959729611874
-0.008709017187356949 -0.037247512489557266 0.0013333284296095371
-0.008848040364682674 -0.0372319221496582 0.0009999959729611874
-0.008848040364682674 -0.0372319221496582 0.0013333284296095371
-0.008996907621622086 -0.0372169129550457 0.0009999959729611874
-0.008996907621622086 -0.0372169129550457 0.0013333284296095371
-0.00915597379207611 -0.037202395498752594 0.0009999959729611874
-0.00915597379207611 -0.037202395498752594 0.0013333284296095371
-0.009325623512268066 -0.037188317626714706 0.0009999959729611874
-0.009325623512268066 -0.037188317626714706 0.0013333284296095371
-0.009506240487098694 -0.037174589931964874 0.0009999959729611874
-0.009506240487098694 -0.037174589931964874 0.0013333284296095371
-0.009698194451630116 -0.0371612124145031 0.0009999959729611874
-0.009698194451630116 -0.0371612124145031 0.0013333284296095371
-0.009901870973408222 -0.03714803606271744 0.0009999959729611874
-0.009901870973408222 -0.03714803606271744 0.0013333284296095371
-0.010117650963366032 -0.037135109305381775 0.0009999959729611874
-0.010117650963366032 -0.037135109305381775 0.0013333284296095371
-0.01034590695053339 -0.037122249603271484 0.0009999959729611874
-0.01034590695053339 -0.037122249603271484 0.0013333284296095371
-0.010464833118021488 -0.03711586445569992 0.0009999959729611874
-0.010464833118021488 -0.03711586445569992 0.0006666633416898549
-0.010464833118021488 -0.03711586445569992 0.00033332736347801983
-0.01039314828813076 -0.03711968660354614 -5.215406329028838e-09
-0.01034590695053339 -0.037122249603271484 0.00033332736347801983
-0.010207555256783962 -0.037129953503608704 -5.215406329028838e-09
-0.010117650963366032 -0.037135109305381775 0.00033332736347801983
-0.01003003679215908 -0.03714025020599365 -5.215406329028838e-09
-0.009901870973408222 -0.03714803606271744 0.00033332736347801983
-0.00986040011048317 -0.037150632590055466 -5.215406329028838e-09
-0.009698194451630116 -0.0371612124145031 0.00033332736347801983
-0.009698455221951008 -0.03716118633747101 -5.215406329028838e-09
-0.00954400934278965 -0.037171877920627594 -5.215406329028838e-09
-0.009506240487098694 -0.037174589931964874 0.00033332736347801983
-0.00939686968922615 -0.037182752043008804 -5.215406329028838e-09
-0.009325623512268066 -0.037188317626714706 0.00033332736347801983
-0.009256845340132713 -0.03719385713338852 -5.215406329028838e-09
-0.00915597379207611 -0.037202395498752594 0.00033332736347801983
-0.009123716503381729 -0.037205230444669724 -5.215406329028838e-09
-0.008996907621622086 -0.0372169129550457 0.00033332736347801983
-0.008997318334877491 -0.03721687197685242 -5.215406329028838e-09
-0.008877445943653584 -0.037228841334581375 -5.215406329028838e-09
-0.008848040364682674 -0.0372319221496582 0.00033332736347801983
-0.008763921447098255 -0.0372411347925663 -5.215406329028838e-09
-0.008709017187356949 -0.037247512489557266 0.00033332736347801983
-0.008656525053083897 -0.03725385665893555 -5.215406329028838e-09
-0.008579439483582973 -0.03726370260119438 0.00033332736347801983
-0.008555091917514801 -0.03726695105433464 -5.215406329028838e-09
-0.008458922617137432 -0.037280578166246414 0.00033332736347801983
-0.008459402248263359 -0.03728052228689194 -5.215406329028838e-09
-0.0083692641928792 -0.037294548004865646 -5.215406329028838e-09
-0.008347110822796822 -0.03729822114109993 0.00033332736347801983
-0.00828451570123434 -0.037309106439352036 -5.215406329028838e-09
-0.00824362225830555 -0.03731667250394821 0.00033332736347801983
-0.008204934187233448 -0.0373242013156414 -5.215406329028838e-09
-0.008148056454956532 -0.03733600303530693 0.00033332736347801983
-0.0081303296610713 -0.03733985498547554 -5.215406329028838e-09
-0.00806005671620369 -0.037356264889240265 0.00033332736347801983
-0.008060523308813572 -0.037356141954660416 -5.215406329028838e-09
-0.007995281368494034 -0.03737305849790573 -5.215406329028838e-09
-0.0079639982432127 -0.03738183155655861 0.00033332736347801983
-0.007934481836855412 -0.037390634417533875 -5.215406329028838e-09
-0.00787760317325592 -0.037408988922834396 0.00033332736347801983
-0.007877876982092857 -0.03740891069173813 -5.215406329028838e-09
-0.007825275883078575 -0.03742792084813118 -5.215406329028838e-09
-0.0078002153895795345 -0.037437792867422104 0.00033332736347801983
-0.007776512298732996 -0.03744770586490631 -5.215406329028838e-09
-0.00773120392113924 -0.03746836632490158 0.00033332736347801983
-0.007731354795396328 -0.03746826946735382 -5.215406329028838e-09
-0.007689638063311577 -0.03748968243598938 -5.215406329028838e-09
-0.007669924292713404 -0.03750075772404671 0.00033332736347801983
-0.007651170250028372 -0.03751194477081299 -5.215406329028838e-09
-0.007615691050887108 -0.037535157054662704 0.00033332736347801983
-0.010464833118021488 -0.03711586445569992 0.0013333284296095371
-0.010464833118021488 -0.03711586445569992 0.0016666644951328635
-0.01039314828813076 -0.03711968660354614 0.001999997068196535
-0.01034590695053339 -0.037122249603271484 0.0016666644951328635
-0.010207555256783962 -0.037129953503608704 0.001999997068196535
-0.010117650963366032 -0.037135109305381775 0.0016666644951328635
-0.01003003679215908 -0.03714025020599365 0.001999997068196535
-0.009901870973408222 -0.03714803606271744 0.0016666644951328635
-0.00986040011048317 -0.037150632590055466 0.001999997068196535
-0.009698194451630116 -0.0371612124145031 0.0016666644951328635
-0.009698455221951008 -0.03716118633747101 0.001999997068196535
-0.00954400934278965 -0.037171877920627594 0.001999997068196535
-0.009506240487098694 -0.037174589931964874 0.0016666644951328635
-0.00939686968922615 -0.037182752043008804 0.001999997068196535
-0.009325623512268066 -0.037188317626714706 0.0016666644951328635
-0.009256845340132713 -0.03719385713338852 0.001999997068196535
-0.00915597379207611 -0.037202395498752594 0.0016666644951328635
-0.009123716503381729 -0.037205230444669724 0.001999997068196535
-0.008996907621622086 -0.0372169129550457 0.0016666644951328635
-0.008997318334877491 -0.03721687197685242 0.001999997068196535
-0.008877445943653584 -0.037228841334581375 0.001999997068196535
-0.008848040364682674 -0.0372319221496582 0.0016666644951328635
-0.008763921447098255 -0.0372411347925663 0.001999997068196535
-0.008709017187356949 -0.037247512489557266 0.0016666644951328635
-0.008656525053083897 -0.03725385665893555 0.001999997068196535
-0.008579439483582973 -0.03726370260119438 0.0016666644951328635
-0.008555091917514801 -0.03726695105433464 0.001999997068196535
-0.008458922617137432 -0.037280578166246414 0.0016666644951328635
-0.008459402248263359 -0.03728052228689194 0.001999997068196535
-0.0083692641928792 -0.037294548004865646 0.001999997068196535
-0.008347110822796822 -0.03729822114109993 0.0016666644951328635
-0.00828451570123434 -0.037309106439352036 0.001999997068196535
-0.00824362225830555 -0.03731667250394821 0.0016666644951328635
-0.008204934187233448 -0.0373242013156414 0.001999997068196535
-0.008148056454956532 -0.03733600303530693 0.0016666644951328635
-0.0081303296610713 -0.03733985498547554 0.001999997068196535
-0.00806005671620369 -0.037356264889240265 0.0016666644951328635
-0.008060523308813572 -0.037356141954660416 0.001999997068196535
-0.007995281368494034 -0.03737305849790573 0.001999997068196535
-0.0079639982432127 -0.03738183155655861 0.0016666644951328635
-0.007934481836855412 -0.037390634417533875 0.001999997068196535
-0.00787760317325592 -0.037408988922834396 0.0016666644951328635
-0.007877876982092857 -0.03740891069173813 0.001999997068196535
-0.007825275883078575 -0.03742792084813118 0.001999997068196535
-0.0078002153895795345 -0.037437792867422104 0.0016666644951328635
-0.007776512298732996 -0.03744770586490631 0.001999997068196535
-0.00773120392113924 -0.03746836632490158 0.0016666644951328635
-0.007731354795396328 -0.03746826946735382 0.001999997068196535
-0.007689638063311577 -0.03748968243598938 0.001999997068196535
-0.007669924292713404 -0.03750075772404671 0.0016666644951328635
-0.007651170250028372 -0.03751194477081299 0.001999997068196535
-0.007615691050887108 -0.037535157054662704 0.0016666644951328635
-0.007583173457533121 -0.037559185177087784 0.001999997068196535
-0.007567874155938625 -0.037571605294942856 0.0016666644951328635
-0.007525814697146416 -0.037610266357660294 0.001999997068196535
-0.01034590695053339 -0.037122249603271484 0.0006666633416898549
-0.010117650963366032 -0.037135109305381775 0.0006666633416898549
-0.009901870973408222 -0.03714803606271744 0.0006666633416898549
-0.009698194451630116 -0.0371612124145031 0.0006666633416898549
-0.009506240487098694 -0.037174589931964874 0.0006666633416898549
-0.009325623512268066 -0.037188317626714706 0.0006666633416898549
-0.00915597379207611 -0.037202395498752594 0.0006666633416898549
-0.008996907621622086 -0.0372169129550457 0.0006666633416898549
-0.008848040364682674 -0.0372319221496582 0.0006666633416898549
-0.008709017187356949 -0.037247512489557266 0.0006666633416898549
-0.008579439483582973 -0.03726370260119438 0.0006666633416898549
-0.008458922617137432 -0.037280578166246414 0.0006666633416898549
-0.008347110822796822 -0.03729822114109993 0.0006666633416898549
-0.00824362225830555 -0.03731667250394821 0.0006666633416898549
-0.008148056454956532 -0.03733600303530693 0.0006666633416898549
-0.00806005671620369 -0.037356264889240265 0.0006666633416898549
-0.0079639982432127 -0.03738183155655861 0.0006666633416898549
-0.00787760317325592 -0.037408988922834396 0.0006666633416898549
-0.0078002153895795345 -0.037437792867422104 0.0006666633416898549
-0.00773120392113924 -0.03746836632490158 0.0006666633416898549
-0.007669924292713404 -0.03750075772404671 0.0006666633416898549
-0.007615691050887108 -0.037535157054662704 0.0006666633416898549
-0.006477166898548603 -0.039677057415246964 -5.215406329028838e-09
-0.006396255921572447 -0.03987111151218414 0.00024999334709718823
-0.006297043524682522 -0.04011418670415878 -5.215406329028838e-09
-0.006396255921572447 -0.03987111151218414 0.0004999919328838587
-0.006297043524682522 -0.04011418670415878 0.0009999959729611874
-0.006396255921572447 -0.03987111151218414 0.0007499973871745169
-0.006396255921572447 -0.03987111151218414 0.0009999959729611874
-0.006496565416455269 -0.03963107988238335 0.0007499973871745169
-0.006496565416455269 -0.03963107988238335 0.0009999959729611874
-0.006597189698368311 -0.039395831525325775 0.0007499973871745169
-0.006597189698368311 -0.039395831525325775 0.0009999959729611874
-0.006697348318994045 -0.039167121052742004 0.0007499973871745169
-0.006697348318994045 -0.039167121052742004 0.0009999959729611874
-0.006796300411224365 -0.03894680365920067 0.0007499973871745169
-0.006796300411224365 -0.03894680365920067 0.0009999959729611874
-0.006893237121403217 -0.03873656317591667 0.0007499973871745169
-0.006893237121403217 -0.03873656317591667 0.0009999959729611874
-0.0069407252594828606 -0.038635797798633575 0.0007499973871745169
-0.0069407252594828606 -0.038635797798633575 0.0009999959729611874
-0.006987418048083782 -0.03853824734687805 0.0007499973871745169
-0.006987418048083782 -0.03853824734687805 0.0009999959729611874
-0.007033220492303371 -0.03844407945871353 0.0007499973871745169
-0.007033220492303371 -0.03844407945871353 0.0009999959729611874
-0.0070780492387712 -0.038353558629751205 0.0007499973871745169
-0.0070780492387712 -0.038353558629751205 0.0009999959729611874
-0.007148102391511202 -0.038215700536966324 0.0007499973871745169
-0.007148102391511202 -0.038215700536966324 0.0009999959729611874
-0.007214934565126896 -0.03808879479765892 0.0007499973871745169
-0.007214934565126896 -0.03808879479765892 0.0009999959729611874
-0.007247027009725571 -0.038029734045267105 0.0007499973871745169
-0.007247027009725571 -0.038029734045267105 0.0009999959729611874
-0.0072781601920723915 -0.037973832339048386 0.0007499973871745169
-0.0072781601920723915 -0.037973832339048386 0.0009999959729611874
-0.007308279164135456 -0.037921078503131866 0.0007499973871745169
-0.007308279164135456 -0.037921078503131866 0.0009999959729611874
-0.007337355986237526 -0.037871669977903366 0.0007499973871745169
-0.007337355986237526 -0.037871669977903366 0.0009999959729611874
-0.007365308701992035 -0.03782571852207184 0.0007499973871745169
-0.007365308701992035 -0.03782571852207184 0.0009999959729611874
-0.007392123807221651 -0.03778332844376564 0.0007499973871745169
-0.007392123807221651 -0.03778332844376564 0.0009999959729611874
-0.007417732384055853 -0.037744585424661636 0.0007499973871745169
-0.007417732384055853 -0.037744585424661636 0.0009999959729611874
-0.007442065980285406 -0.03770969808101654 0.0007499973871745169
-0.007442065980285406 -0.03770969808101654 0.0009999959729611874
-0.007465097587555647 -0.03767870366573334 0.0007499973871745169
-0.007465097587555647 -0.03767870366573334 0.0009999959729611874
-0.007486757356673479 -0.037651680409908295 0.0007499973871745169
-0.007486757356673479 -0.037651680409908295 0.0009999959729611874
-0.007507019676268101 -0.03762885555624962 0.0007499973871745169
-0.007507019676268101 -0.03762885555624962 0.0004999919328838587
-0.007507019676268101 -0.03762885555624962 0.00024999334709718823
-0.0075046890415251255 -0.03763135150074959 -5.215406329028838e-09
-0.007486757356673479 -0.037651680409908295 0.00024999334709718823
-0.007481712382286787 -0.03765776753425598 -5.215406329028838e-09
-0.007465097587555647 -0.03767870366573334 0.00024999334709718823
-0.00745698157697916 -0.03768932819366455 -5.215406329028838e-09
-0.007442065980285406 -0.03770969808101654 0.00024999334709718823
-0.007430591620504856 -0.037725888192653656 -5.215406329028838e-09
-0.007417732384055853 -0.037744585424661636 0.00024999334709718823
-0.007402570452541113 -0.03776731714606285 -5.215406329028838e-09
-0.007392123807221651 -0.03778332844376564 0.00024999334709718823
-0.007373013533651829 -0.03781335428357124 -5.215406329028838e-09
-0.007365308701992035 -0.03782571852207184 0.00024999334709718823
-0.007342003285884857 -0.03786394000053406 -5.215406329028838e-09
-0.007337355986237526 -0.037871669977903366 0.00024999334709718823
-0.007309568114578724 -0.037918832153081894 -5.215406329028838e-09
-0.007308279164135456 -0.037921078503131866 0.00024999334709718823
-0.0072781601920723915 -0.037973832339048386 0.00024999334709718823
-0.0072781601920723915 -0.037973832339048386 0.0004999919328838587
-0.007247027009725571 -0.038029734045267105 0.0004999919328838587
-0.006496565416455269 -0.03963107988238335 0.00024999334709718823
-0.006568085867911577 -0.039463307708501816 -5.215406329028838e-09
-0.006597189698368311 -0.039395831525325775 0.00024999334709718823
-0.006658798083662987 -0.039254479110240936 -5.215406329028838e-09
-0.006697348318994045 -0.039167121052742004 0.00024999334709718823
-0.0067487843334674835 -0.03905189782381058 -5.215406329028838e-09
-0.006796300411224365 -0.03894680365920067 0.00024999334709718823
-0.0068374136462807655 -0.038856931030750275 -5.215406329028838e-09
-0.006893237121403217 -0.03873656317591667 0.00024999334709718823
-0.0069241649471223354 -0.03867078945040703 -5.215406329028838e-09
-0.0069407252594828606 -0.038635797798633575 0.00024999334709718823
-0.006987418048083782 -0.03853824734687805 0.00024999334709718823
-0.0069407252594828606 -0.038635797798633575 0.0004999919328838587
-0.006987418048083782 -0.03853824734687805 0.0004999919328838587
-0.007008448243141174 -0.038494814187288284 -5.215406329028838e-09
-0.007033220492303371 -0.03844407945871353 0.00024999334709718823
-0.007033220492303371 -0.03844407945871353 0.0004999919328838587
-0.007089688442647457 -0.038330305367708206 -5.215406329028838e-09
-0.0070780492387712 -0.038353558629751205 0.00024999334709718823
-0.0070780492387712 -0.038353558629751205 0.0004999919328838587
-0.0071290056221187115 -0.03825279697775841 -5.215406329028838e-09
-0.007148102391511202 -0.038215700536966324 0.00024999334709718823
-0.007148102391511202 -0.038215700536966324 0.0004999919328838587
-0.00716735003516078 -0.03817864507436752 -5.215406329028838e-09
-0.007214934565126896 -0.03808879479765892 0.00024999334709718823
-0.007214934565126896 -0.03808879479765892 0.0004999919328838587
-0.0072046383284032345 -0.03810800239443779 -5.215406329028838e-09
-0.007240830454975367 -0.03804100304841995 -5.215406329028838e-09
-0.007247027009725571 -0.038029734045267105 0.00024999334709718823
-0.007275830022990704 -0.037977930158376694 -5.215406329028838e-09
-0.007507019676268101 -0.03762885555624962 0.0014999998966231942
-0.007507019676268101 -0.03762885555624962 0.001249994500540197
-0.007507019676268101 -0.03762885555624962 0.0009999959729611874
-0.007486757356673479 -0.037651680409908295 0.001249994500540197
-0.007465097587555647 -0.03767870366573334 0.001249994500540197
-0.007442065980285406 -0.03770969808101654 0.001249994500540197
-0.007417732384055853 -0.037744585424661636 0.001249994500540197
-0.007392123807221651 -0.03778332844376564 0.001249994500540197
-0.007365308701992035 -0.03782571852207184 0.001249994500540197
-0.007337355986237526 -0.037871669977903366 0.001249994500540197
-0.007308279164135456 -0.037921078503131866 0.001249994500540197
-0.0072781601920723915 -0.037973832339048386 0.001249994500540197
-0.007247027009725571 -0.038029734045267105 0.001249994500540197
-0.007214934565126896 -0.03808879479765892 0.001249994500540197
-0.007148102391511202 -0.038215700536966324 0.001249994500540197
-0.0070780492387712 -0.038353558629751205 0.001249994500540197
-0.007033220492303371 -0.03844407945871353 0.001249994500540197
-0.006987418048083782 -0.03853824734687805 0.001249994500540197
-0.0069407252594828606 -0.038635797798633575 0.001249994500540197
-0.006893237121403217 -0.03873656317591667 0.001249994500540197
-0.006796300411224365 -0.03894680365920067 0.001249994500540197
-0.006697348318994045 -0.039167121052742004 0.001249994500540197
-0.006597189698368311 -0.039395831525325775 0.001249994500540197
-0.006496565416455269 -0.03963107988238335 0.001249994500540197
-0.006396255921572447 -0.03987111151218414 0.001249994500540197
-0.006396255921572447 -0.03987111151218414 0.0014999998966231942
-0.006297043524682522 -0.04011418670415878 0.001999997068196535
-0.006396255921572447 -0.03987111151218414 0.0017499984242022038
-0.006477166898548603 -0.039677057415246964 0.001999997068196535
-0.006496565416455269 -0.03963107988238335 0.0017499984242022038
-0.006568085867911577 -0.039463307708501816 0.001999997068196535
-0.006597189698368311 -0.039395831525325775 0.0017499984242022038
-0.006658798083662987 -0.039254479110240936 0.001999997068196535
-0.006697348318994045 -0.039167121052742004 0.0017499984242022038
-0.0067487843334674835 -0.03905189782381058 0.001999997068196535
-0.006796300411224365 -0.03894680365920067 0.0017499984242022038
-0.0068374136462807655 -0.038856931030750275 0.001999997068196535
-0.006893237121403217 -0.03873656317591667 0.0017499984242022038
-0.0069241649471223354 -0.03867078945040703 0.001999997068196535
-0.0069407252594828606 -0.038635797798633575 0.0017499984242022038
-0.006987418048083782 -0.03853824734687805 0.0017499984242022038
-0.006987418048083782 -0.03853824734687805 0.0014999998966231942
-0.007033220492303371 -0.03844407945871353 0.0014999998966231942
-0.007507019676268101 -0.03762885555624962 0.0017499984242022038
-0.0075046890415251255 -0.03763135150074959 0.001999997068196535
-0.007486757356673479 -0.037651680409908295 0.0017499984242022038
-0.007481712382286787 -0.03765776753425598 0.001999997068196535
-0.007465097587555647 -0.03767870366573334 0.0017499984242022038
-0.00745698157697916 -0.03768932819366455 0.001999997068196535
-0.007442065980285406 -0.03770969808101654 0.0017499984242022038
-0.007430591620504856 -0.037725888192653656 0.001999997068196535
-0.007417732384055853 -0.037744585424661636 0.0017499984242022038
-0.007402570452541113 -0.03776731714606285 0.001999997068196535
-0.007392123807221651 -0.03778332844376564 0.0017499984242022038
-0.007373013533651829 -0.03781335428357124 0.001999997068196535
-0.007365308701992035 -0.03782571852207184 0.0017499984242022038
