ply
format ascii 1.0
element vertex 779
property float x
property float y
property float z
end_header
0.08156144618988037 -0.022343812510371208 0.2087000012397766
0.08302105218172073 -0.022151101380586624 0.2069000005722046
0.08388492465019226 -0.022236749529838562 0.2076999992132187
0.08491556346416473 -0.022365223616361618 0.20889998972415924
0.0868309810757637 -0.02257934771478176 0.21089999377727509
0.08754793554544449 -0.02262217365205288 0.21130000054836273
0.08818358927965164 -0.02264358475804329 0.21149998903274536
0.09365634620189667 -0.022236749529838562 0.2076999992132187
0.09465274214744568 -0.022343812510371208 0.2087000012397766
0.09560874849557877 -0.022440169006586075 0.20960000157356262
0.09656945616006851 -0.022536523640155792 0.21050000190734863
0.09748872369527817 -0.02262217365205288 0.21130000054836273
0.09822658449411392 -0.02266499772667885 0.21169999241828918
0.09896653890609741 -0.022707821801304817 0.21209999918937683
0.09961473941802979 -0.022729232907295227 0.21229998767375946
0.028266403824090958 -0.02150588668882847 0.20589999854564667
0.02891647070646286 -0.02158944495022297 0.20669999718666077
0.029684729874134064 -0.02175656333565712 0.20829999446868896
0.031216789036989212 -0.022069906815886497 0.21130000054836273
0.03188933804631233 -0.022153466939926147 0.21209999918937683
0.06258632987737656 -0.021464107558131218 0.20549999177455902
0.06464025378227234 -0.021432774141430855 0.20520000159740448
0.0651765838265419 -0.021432774141430855 0.20520000159740448
0.06672045588493347 -0.02141188457608223 0.20499999821186066
0.06903161108493805 -0.021464107558131218 0.20549999177455902
0.06983954459428787 -0.02154766581952572 0.20629999041557312
0.07311973720788956 -0.022049017250537872 0.2110999971628189
0.07478579133749008 -0.022216133773326874 0.2126999944448471
0.07562509179115295 -0.022299693897366524 0.2134999930858612
0.08090096712112427 -0.022216133773326874 0.2126999944448471
0.08122711628675461 -0.022153466939926147 0.21209999918937683
0.08147300779819489 -0.022069906815886497 0.21130000054836273
0.08171776682138443 -0.02184012159705162 0.20909999310970306
0.08294080197811127 -0.02158944495022297 0.20669999718666077
0.08364259451627731 -0.02163122408092022 0.20709998905658722
0.0845903754234314 -0.021735671907663345 0.20809999108314514
0.08873637765645981 -0.022090796381235123 0.21149998903274536
0.09257552027702332 -0.021568555384874344 0.20649999380111694
0.09410849958658218 -0.02167300321161747 0.20749999582767487
0.09519821405410767 -0.02179834246635437 0.2087000012397766
0.09615656733512878 -0.021892346441745758 0.20960000157356262
0.09804099053144455 -0.022069906815886497 0.21130000054836273
0.09887322038412094 -0.022132575511932373 0.211899995803833
0.09961473941802979 -0.022174354642629623 0.21229998767375946
0.02662605419754982 -0.020947368815541267 0.20569999516010284
0.02719009667634964 -0.02096773497760296 0.20589999854564667
0.0277282502502203 -0.02096773497760296 0.20589999854564667
0.02829386107623577 -0.0209881030023098 0.2061000019311905
0.029028385877609253 -0.021130669862031937 0.20749999582767487
0.029798736795783043 -0.021293604746460915 0.20909999310970306
0.030606474727392197 -0.021476907655596733 0.21089999377727509
0.03127588331699371 -0.021558376029133797 0.21169999241828918
0.03191940486431122 -0.02161947451531887 0.21229998767375946
0.0631234422326088 -0.020927000790834427 0.20549999177455902
0.06359858065843582 -0.020906632766127586 0.2052999883890152
0.06413517147302628 -0.020906632766127586 0.2052999883890152
0.06464025378227234 -0.02089645154774189 0.20520000159740448
0.0651765838265419 -0.02089645154774189 0.20520000159740448
0.06564885377883911 -0.02087608352303505 0.20499999821186066
0.06618465483188629 -0.02087608352303505 0.20499999821186066
0.06672045588493347 -0.02087608352303505 0.20499999821186066
0.06839451938867569 -0.02089645154774189 0.20520000159740448
0.06903161108493805 -0.020927000790834427 0.20549999177455902
0.06977184861898422 -0.0209881030023098 0.2061000019311905
0.07318901270627975 -0.021517641842365265 0.21130000054836273
0.08105310797691345 -0.021700944751501083 0.21310000121593475
0.08122711628675461 -0.02159911021590233 0.21209999918937683
0.08155012130737305 -0.021538008004426956 0.21149998903274536
0.08179235458374023 -0.021456539630889893 0.21069999039173126
0.08191317319869995 -0.02134452387690544 0.20960000157356262
0.08348104357719421 -0.021049203351140022 0.20669999718666077
0.08418387919664383 -0.021089935675263405 0.20709998905658722
0.08709216862916946 -0.021405624225735664 0.2101999968290329
0.0885685607790947 -0.021497275680303574 0.2110999971628189
0.0891203060746193 -0.021497275680303574 0.2110999971628189
0.09123023599386215 -0.02096773497760296 0.20589999854564667
0.09365496039390564 -0.021028835326433182 0.20649999380111694
0.09574368596076965 -0.021252872422337532 0.2087000012397766
0.0968889370560646 -0.021385256201028824 0.20999999344348907
0.09785539656877518 -0.021476907655596733 0.21089999377727509
0.0986865758895874 -0.021538008004426956 0.21149998903274536
0.09952089935541153 -0.02159911021590233 0.21209999918937683
0.026063060387969017 -0.020389892160892487 0.20549999177455902
0.02662605419754982 -0.020409736782312393 0.20569999516010284
0.02719009667634964 -0.0204295814037323 0.20589999854564667
0.02775518409907818 -0.020449426025152206 0.2061000019311905
0.02995549701154232 -0.020856231451034546 0.2101999968290329
0.03066452592611313 -0.020965375006198883 0.21130000054836273
0.06157198175787926 -0.020409736782312393 0.20569999516010284
0.06318487226963043 -0.020409736782312393 0.20569999516010284
0.06366053968667984 -0.020389892160892487 0.20549999177455902
0.06413517147302628 -0.02037004753947258 0.2052999883890152
0.06467175483703613 -0.02037004753947258 0.2052999883890152
0.0651765838265419 -0.020360127091407776 0.20520000159740448
0.06571290642023087 -0.020360127091407776 0.20520000159740448
0.06909880042076111 -0.020409736782312393 0.20569999516010284
0.06983954459428787 -0.020469268783926964 0.20629999041557312
0.07218986004590988 -0.02083638682961464 0.20999999344348907
0.07318901270627975 -0.020965375006198883 0.21130000054836273
0.07395067811012268 -0.021024907007813454 0.211899995803833
0.08138030022382736 -0.021084439009428024 0.21249999105930328
0.08170435577630997 -0.021024907007813454 0.211899995803833
0.08202527463436127 -0.020965375006198883 0.21130000054836273
0.08214765787124634 -0.020856231451034546 0.2101999968290329
0.08331949263811111 -0.020469268783926964 0.20629999041557312
0.08393999189138412 -0.02048911340534687 0.20649999380111694
0.08472517132759094 -0.02054864540696144 0.20709998905658722
0.08576051890850067 -0.02066771127283573 0.20829999446868896
0.08663640916347504 -0.02074708789587021 0.20909999310970306
0.08755817264318466 -0.02083638682961464 0.20999999344348907
0.08886700123548508 -0.020885998383164406 0.21050000190734863
0.09005101770162582 -0.020528802648186684 0.2069000005722046
0.09266431629657745 -0.020389892160892487 0.20549999177455902
0.09338284283876419 -0.0204295814037323 0.20589999854564667
0.09528492391109467 -0.02060817927122116 0.2076999992132187
0.0976698026061058 -0.020885998383164406 0.21050000190734863
0.09859325736761093 -0.020965375006198883 0.21130000054836273
0.10016962140798569 -0.021064594388008118 0.21229998767375946
0.10100916773080826 -0.021124128252267838 0.21289999783039093
0.02719009667634964 -0.01989142969250679 0.20589999854564667
0.02778211608529091 -0.019930072128772736 0.20629999041557312
0.029252219945192337 -0.020200572907924652 0.20909999310970306
0.030055252835154533 -0.020374465733766556 0.21089999377727509
0.030722573399543762 -0.020451752468943596 0.21169999241828918
0.06103435158729553 -0.019872108474373817 0.20569999516010284
0.06210961192846298 -0.019872108474373817 0.20569999516010284
0.06270815432071686 -0.01989142969250679 0.20589999854564667
0.06318487226963043 -0.019872108474373817 0.20569999516010284
0.06372249871492386 -0.019872108474373817 0.20569999516010284
0.06426013261079788 -0.019872108474373817 0.20569999516010284
0.06473475694656372 -0.019852787256240845 0.20549999177455902
0.06520833820104599 -0.019833464175462723 0.2052999883890152
0.06571290642023087 -0.01982380449771881 0.20520000159740448
0.06909880042076111 -0.019872108474373817 0.20569999516010284
0.06990725547075272 -0.01994939334690571 0.20649999380111694
0.07318901270627975 -0.02041311003267765 0.21130000054836273
0.07402047514915466 -0.02049039490520954 0.21209999918937683
0.08161008358001709 -0.020587002858519554 0.21310000121593475
0.08185858279466629 -0.020509716123342514 0.21229998767375946
0.08377739787101746 -0.019910752773284912 0.2061000019311905
0.08447971194982529 -0.01994939334690571 0.20649999380111694
0.08526645600795746 -0.020007358863949776 0.20709998905658722
0.08701615035533905 -0.020161930471658707 0.2087000012397766
0.08772943913936615 -0.020200572907924652 0.20909999310970306
0.08894991129636765 -0.020229555666446686 0.2093999981880188
0.08928350359201431 -0.02018125168979168 0.20889998972415924
0.0895714983344078 -0.02012328803539276 0.20829999446868896
0.08959677070379257 -0.020007358863949776 0.20709998905658722
0.08987691253423691 -0.01994939334690571 0.20649999380111694
0.09015392512083054 -0.01989142969250679 0.20589999854564667
0.09257413446903229 -0.019833464175462723 0.2052999883890152
0.0932014212012291 -0.019852787256240845 0.20549999177455902
0.0949179083108902 -0.019988037645816803 0.2069000005722046
0.10007525980472565 -0.02049039490520954 0.21209999918937683
0.10091428458690643 -0.02054835855960846 0.2126999944448471
0.025501109659671783 -0.019296878948807716 0.2052999883890152
0.026063060387969017 -0.019315678626298904 0.20549999177455902
0.02662605419754982 -0.019334478303790092 0.20569999516010284
0.027216507121920586 -0.01937207579612732 0.2061000019311905
0.027835983783006668 -0.019428471103310585 0.20669999718666077
0.028513511642813683 -0.019522465765476227 0.2076999992132187
0.029322167858481407 -0.019701052457094193 0.20960000157356262
0.030112259089946747 -0.01986084319651127 0.21130000054836273
0.030780624598264694 -0.019936036318540573 0.21209999918937683
0.06163185089826584 -0.01935327611863613 0.20589999854564667
0.06217000260949135 -0.01935327611863613 0.20589999854564667
0.06276907026767731 -0.01937207579612732 0.2061000019311905
0.0633077472448349 -0.01937207579612732 0.2061000019311905
0.06378445774316788 -0.01935327611863613 0.20589999854564667
0.06432261317968369 -0.01935327611863613 0.20589999854564667
0.06479775905609131 -0.019334478303790092 0.20569999516010284
0.06909880042076111 -0.019334478303790092 0.20569999516010284
0.06997496634721756 -0.019428471103310585 0.20669999718666077
0.0711975023150444 -0.01961645856499672 0.2087000012397766
0.07236173748970032 -0.019785648211836815 0.21050000190734863
0.07325828820466995 -0.019879639148712158 0.21149998903274536
0.07402047514915466 -0.019936036318540573 0.21209999918937683
0.0819164589047432 -0.02010522596538067 0.21389999985694885
0.08208993822336197 -0.020011231303215027 0.21289999783039093
0.08233582973480225 -0.019936036318540573 0.21209999918937683
0.08279920369386673 -0.019522465765476227 0.2076999992132187
0.08377739787101746 -0.01937207579612732 0.2061000019311905
0.08431607484817505 -0.01937207579612732 0.2061000019311905
0.08501942455768585 -0.019409673288464546 0.20649999380111694
0.08572488278150558 -0.019447270780801773 0.2069000005722046
0.08651581406593323 -0.01950366608798504 0.20749999582767487
0.08730988204479218 -0.019560061395168304 0.20809999108314514
0.09006635844707489 -0.019334478303790092 0.20569999516010284
0.09190306067466736 -0.019268682226538658 0.20499999821186066
0.09243886172771454 -0.019268682226538658 0.20499999821186066
0.09311071783304214 -0.019296878948807716 0.2052999883890152
0.09382976591587067 -0.019334478303790092 0.20569999516010284
0.09464264661073685 -0.019390873610973358 0.20629999041557312
0.09573549777269363 -0.01950366608798504 0.20749999582767487
0.10007525980472565 -0.019936036318540573 0.21209999918937683
0.10081939399242401 -0.0199736338108778 0.21249999105930328
0.024952368810772896 -0.01875115931034088 0.20520000159740448
0.025525953620672226 -0.018778571859002113 0.20549999177455902
0.026088427752256393 -0.018796848133206367 0.20569999516010284
0.02665194310247898 -0.01881512440741062 0.20589999854564667
0.028650794178247452 -0.01907098852097988 0.2087000012397766
0.029448075219988823 -0.01923547312617302 0.21050000190734863
0.0594792403280735 -0.01881512440741062 0.20589999854564667
0.06001739576458931 -0.01881512440741062 0.20589999854564667
0.06121237948536873 -0.01885167695581913 0.20629999041557312
0.06181144714355469 -0.018869953230023384 0.20649999380111694
0.06235116720199585 -0.018869953230023384 0.20649999380111694
0.06295180320739746 -0.018888229504227638 0.20669999718666077
0.06397032737731934 -0.018869953230023384 0.20649999380111694
0.06438509374856949 -0.018833400681614876 0.2061000019311905
0.06916598230600357 -0.01881512440741062 0.20589999854564667
0.07011037319898605 -0.018924780189990997 0.20709998905658722
0.07133395969867706 -0.01910754106938839 0.20909999310970306
0.07332756370306015 -0.019345128908753395 0.21169999241828918
0.07409026473760605 -0.01939995586872101 0.21229998767375946
0.08218453079462051 -0.019610129296779633 0.21459999680519104
0.08224416524171829 -0.01949133537709713 0.21329998970031738
0.08249110728502274 -0.019418232142925262 0.21249999105930328
0.08289019018411636 -0.019381681457161903 0.21209999918937683
0.08326181024312973 -0.018961332738399506 0.20749999582767487
0.08439788967370987 -0.01885167695581913 0.20629999041557312
0.08493708074092865 -0.01885167695581913 0.20629999041557312
0.08555915206670761 -0.018869953230023384 0.20649999380111694
0.08618225902318954 -0.018888229504227638 0.20669999718666077
0.08680641651153564 -0.018906505778431892 0.2069000005722046
0.08743161708116531 -0.018924780189990997 0.20709998905658722
0.09190306067466736 -0.018732883036136627 0.20499999821186066
0.09243886172771454 -0.018732883036136627 0.20499999821186066
0.09306536614894867 -0.01875115931034088 0.20520000159740448
0.09382976591587067 -0.018796848133206367 0.20569999516010284
0.09455090016126633 -0.018833400681614876 0.2061000019311905
0.09914552420377731 -0.019308576360344887 0.21130000054836273
0.09988652169704437 -0.019345128908753395 0.21169999241828918
0.10072450339794159 -0.01939995586872101 0.21229998767375946
0.10156562179327011 -0.01945478469133377 0.21289999783039093
0.10240986198186874 -0.019509611651301384 0.2134999930858612
0.02611379325389862 -0.018276972696185112 0.20589999854564667
0.026703719049692154 -0.018312478438019753 0.20629999041557312
0.028051454573869705 -0.018490012735128403 0.20829999446868896
0.02877434715628624 -0.018605409190058708 0.20960000157356262
0.029559992253780365 -0.018756311386823654 0.21130000054836273
0.06013398990035057 -0.018312478438019753 0.20629999041557312
0.060732003301382065 -0.018330233171582222 0.20649999380111694
0.061390411108732224 -0.018365738913416862 0.2069000005722046
0.06199103966355324 -0.018383491784334183 0.20709998905658722
0.06253232806921005 -0.018383491784334183 0.20709998905658722
0.06307362020015717 -0.018383491784334183 0.20709998905658722
0.06361491233110428 -0.018383491784334183 0.20709998905658722
0.06409423798322678 -0.018365738913416862 0.2069000005722046
0.06789125502109528 -0.018223712220788002 0.2052999883890152
0.06856116652488708 -0.018259219825267792 0.20569999516010284
0.07024578750133514 -0.018418999388813972 0.20749999582767487
0.071436308324337 -0.01858765445649624 0.2093999981880188
0.07332756370306015 -0.018791817128658295 0.21169999241828918
0.07416006922721863 -0.018862830474972725 0.21249999105930328
0.08255262672901154 -0.019004855304956436 0.21409998834133148
0.08280166238546371 -0.018933841958642006 0.21329998970031738
0.0829683467745781 -0.018845075741410255 0.21229998767375946
0.08360286802053452 -0.018738558515906334 0.2110999971628189
0.08371609449386597 -0.01864091493189335 0.20999999344348907
0.08374332636594772 -0.018525518476963043 0.2087000012397766
0.08364259451627731 -0.018383491784334183 0.20709998905658722
0.08547627925872803 -0.018312478438019753 0.20629999041557312
0.0860154777765274 -0.018312478438019753 0.20629999041557312
0.08663859218358994 -0.018330233171582222 0.20649999380111694
0.0871783122420311 -0.018330233171582222 0.20649999380111694
0.08771803230047226 -0.018330233171582222 0.20649999380111694
0.08825775235891342 -0.018330233171582222 0.20649999380111694
0.09092008322477341 -0.018214836716651917 0.20520000159740448
0.09136725962162018 -0.018197083845734596 0.20499999821186066
0.09190306067466736 -0.018197083845734596 0.20499999821186066
0.09306536614894867 -0.018214836716651917 0.20520000159740448
0.093647301197052 -0.018223712220788002 0.2052999883890152
0.09770671278238297 -0.01858765445649624 0.2093999981880188
0.0989578366279602 -0.018720803782343864 0.21089999377727509
0.09979215264320374 -0.018774064257740974 0.21149998903274536
0.1014702096581459 -0.018880583345890045 0.2126999944448471
0.10231392830610275 -0.018933841958642006 0.21329998970031738
0.024416044354438782 -0.01767851412296295 0.20520000159740448
0.024988846853375435 -0.01770435832440853 0.20549999177455902
0.02555079571902752 -0.017721589654684067 0.20569999516010284
0.027507027611136436 -0.017945585772395134 0.20829999446868896
0.028199588879942894 -0.018040353432297707 0.2093999981880188
0.02892535738646984 -0.018152352422475815 0.21069999039173126
0.029615947976708412 -0.018238503485918045 0.21169999241828918
0.05851639062166214 -0.017773279920220375 0.20629999041557312
0.05965256690979004 -0.01779051125049591 0.20649999380111694
0.06025058403611183 -0.017807742580771446 0.20669999718666077
0.06090846285223961 -0.01784220151603222 0.20709998905658722
0.06156843900680542 -0.01787666417658329 0.20749999582767487
0.062170643359422684 -0.017893895506858826 0.2076999992132187
0.06283427774906158 -0.0179283544421196 0.20809999108314514
0.06337817758321762 -0.0179283544421196 0.20809999108314514
0.06392208486795425 -0.0179283544421196 0.20809999108314514
0.06504976749420166 -0.01779051125049591 0.20649999380111694
0.0653989166021347 -0.017738819122314453 0.20589999854564667
0.06789125502109528 -0.017687126994132996 0.2052999883890152
0.06862783432006836 -0.017738819122314453 0.20589999854564667
0.0716409906744957 -0.018092045560479164 0.20999999344348907
0.07263674587011337 -0.018204044550657272 0.21130000054836273
0.08320283889770508 -0.01834188774228096 0.21289999783039093
0.08376127481460571 -0.01822127401828766 0.21149998903274536
0.08410446345806122 -0.018057584762573242 0.20960000157356262
0.08428879827260971 -0.017980046570301056 0.2087000012397766
0.0843464806675911 -0.01787666417658329 0.20749999582767487
0.08555915206670761 -0.01779051125049591 0.20649999380111694
0.08609887212514877 -0.01779051125049591 0.20649999380111694
0.08663859218358994 -0.01779051125049591 0.20649999380111694
0.0871783122420311 -0.01779051125049591 0.20649999380111694
0.08771803230047226 -0.01779051125049591 0.20649999380111694
0.08817227184772491 -0.017773279920220375 0.20629999041557312
0.088625468313694 -0.01775605045258999 0.2061000019311905
0.08907762169837952 -0.017738819122314453 0.20589999854564667
0.08952872455120087 -0.017721589654684067 0.20569999516010284
0.09006635844707489 -0.017721589654684067 0.20569999516010284
0.09051588922739029 -0.01770435832440853 0.20549999177455902
0.09096438437700272 -0.017687126994132996 0.2052999883890152
0.09150096029043198 -0.017687126994132996 0.2052999883890152
0.09203754365444183 -0.017687126994132996 0.2052999883890152
0.0925290435552597 -0.01767851412296295 0.20520000159740448
0.09311071783304214 -0.017687126994132996 0.2052999883890152
0.09382976591587067 -0.017721589654684067 0.20569999516010284
0.09886398911476135 -0.018152352422475815 0.21069999039173126
0.09979215264320374 -0.01822127401828766 0.21149998903274536
0.10053472965955734 -0.01825573481619358 0.211899995803833
0.1013747975230217 -0.018307426944375038 0.21249999105930328
0.10221800208091736 -0.018359119072556496 0.21310000121593475
0.023879721760749817 -0.017142191529273987 0.20520000159740448
0.02442794106900692 -0.01715054363012314 0.2052999883890152
0.025013167411088943 -0.017183959484100342 0.20569999516010284
0.02557563968002796 -0.017200667411088943 0.20589999854564667
0.027586260810494423 -0.01745128445327282 0.20889998972415924
0.028307324275374413 -0.01755988597869873 0.2101999968290329
0.057437993586063385 -0.017234083265066147 0.20629999041557312
0.058033399283885956 -0.01725079119205475 0.20649999380111694
0.05917009711265564 -0.01726749911904335 0.20669999718666077
0.05976811796426773 -0.017284207046031952 0.2069000005722046
0.06048377603292465 -0.017334330826997757 0.20749999582767487
0.061805810779333115 -0.017401160672307014 0.20829999446868896
0.0624699704349041 -0.017434576526284218 0.2087000012397766
0.06307582557201385 -0.01745128445327282 0.20889998972415924
0.06362181901931763 -0.01745128445327282 0.20889998972415924
0.06511276960372925 -0.01726749911904335 0.20669999718666077
0.06546244025230408 -0.017217375338077545 0.2061000019311905
0.06802354007959366 -0.017183959484100342 0.20569999516010284
0.06869449466466904 -0.017217375338077545 0.2061000019311905
0.0718797966837883 -0.017601653933525085 0.21069999039173126
0.07270549982786179 -0.017668485641479492 0.21149998903274536
0.0833839550614357 -0.01794416457414627 0.21480000019073486
0.08343731611967087 -0.01783556304872036 0.2134999930858612
0.08360190689563751 -0.0177520252764225 0.21249999105930328
0.083998903632164 -0.017718609422445297 0.21209999918937683
0.08431406319141388 -0.017668485641479492 0.21149998903274536
0.08454584330320358 -0.017601653933525085 0.21069999039173126
0.0848342701792717 -0.017434576526284218 0.2087000012397766
0.08626565337181091 -0.017284207046031952 0.2069000005722046
0.08680641651153564 -0.017284207046031952 0.2069000005722046
0.08734718710184097 -0.017284207046031952 0.2069000005722046
0.08842871338129044 -0.017284207046031952 0.2069000005722046
0.08888347446918488 -0.01726749911904335 0.20669999718666077
0.08933719247579575 -0.01725079119205475 0.20649999380111694
0.08978986740112305 -0.017234083265066147 0.20629999041557312
0.09024149924516678 -0.017217375338077545 0.2061000019311905
0.09078017622232437 -0.017217375338077545 0.2061000019311905
0.09123023599386215 -0.017200667411088943 0.20589999854564667
0.09176838397979736 -0.017200667411088943 0.20589999854564667
0.0922168716788292 -0.017183959484100342 0.20569999516010284
0.09275450557470322 -0.017183959484100342 0.20569999516010284
0.09329213201999664 -0.017183959484100342 0.20569999516010284
0.09862938523292542 -0.01755988597869873 0.2101999968290329
0.09969779849052429 -0.01765177771449089 0.21130000054836273
0.10043983906507492 -0.017685193568468094 0.21169999241828918
0.1012793779373169 -0.01773531548678875 0.21229998767375946
0.10212206095457077 -0.017785441130399704 0.21289999783039093
0.025013167411088943 -0.016646331176161766 0.20569999516010284
0.02557563968002796 -0.016662515699863434 0.20589999854564667
0.027652287855744362 -0.01694575510919094 0.2093999981880188
0.028374657034873962 -0.017050957307219505 0.21069999039173126
0.05808961018919945 -0.016727255657315254 0.20669999718666077
0.05868658423423767 -0.01674344204366207 0.2069000005722046
0.059284597635269165 -0.01675962656736374 0.20709998905658722
0.06204318255186081 -0.016921477392315865 0.20909999310970306
0.06267949938774109 -0.01694575510919094 0.2093999981880188
0.06465185433626175 -0.01688910648226738 0.2087000012397766
0.06488492339849472 -0.01680818200111389 0.2076999992132187
0.06517577171325684 -0.01674344204366207 0.2069000005722046
0.06552596390247345 -0.01669488660991192 0.20629999041557312
0.06808967888355255 -0.016662515699863434 0.20589999854564667
0.06889447569847107 -0.016727255657315254 0.20669999718666077
0.07208448648452759 -0.017099512740969658 0.21130000054836273
0.07284300774335861 -0.01714806817471981 0.211899995803833
0.08367180079221725 -0.017326103523373604 0.21409998834133148
0.08383796364068985 -0.017245179042220116 0.21310000121593475
0.0840781033039093 -0.017180437222123146 0.21229998767375946
0.08447352796792984 -0.01714806817471981 0.211899995803833
0.08478660881519318 -0.017099512740969658 0.21130000054836273
0.08705814927816391 -0.016791995614767075 0.20749999582767487
0.08760048449039459 -0.016791995614767075 0.20749999582767487
0.08814281970262527 -0.016791995614767075 0.20749999582767487
0.08868514746427536 -0.016791995614767075 0.20749999582767487
0.08976981788873672 -0.016791995614767075 0.20749999582767487
0.09122063964605331 -0.01675962656736374 0.20709998905658722
0.09176192432641983 -0.01675962656736374 0.20709998905658722
0.09221407771110535 -0.01674344204366207 0.2069000005722046
0.0926651805639267 -0.016727255657315254 0.20669999718666077
0.09311524033546448 -0.016711071133613586 0.20649999380111694
0.09834785759449005 -0.01696193963289261 0.20960000157356262
0.09950906038284302 -0.017067141830921173 0.21089999377727509
0.1003449484705925 -0.017115697264671326 0.21149998903274536
0.10118397325277328 -0.01716425269842148 0.21209999918937683
0.10193019360303879 -0.017196621745824814 0.21249999105930328
0.1027749702334404 -0.017245179042220116 0.21310000121593475
0.10352589935064316 -0.01727754808962345 0.2134999930858612
0.025037487968802452 -0.016124362125992775 0.20589999854564667
0.025600483641028404 -0.016140025109052658 0.2061000019311905
0.026265984401106834 -0.016218336299061775 0.20709998905658722
0.026962602511048317 -0.016312310472130775 0.20829999446868896
0.027678700163960457 -0.016414115205407143 0.20960000157356262
0.02840159274637699 -0.01651591993868351 0.21089999377727509
0.056898802518844604 -0.016155686229467392 0.20629999041557312
0.05814581736922264 -0.01620267517864704 0.2069000005722046
0.05874330922961235 -0.016218336299061775 0.20709998905658722
0.05945635959506035 -0.016265323385596275 0.2076999992132187
0.061584897339344025 -0.01639845408499241 0.2093999981880188
0.06231022626161575 -0.01644543930888176 0.20999999344348907
0.06285909563302994 -0.01644543930888176 0.20999999344348907
0.06401775032281876 -0.016461102291941643 0.2101999968290329
0.06438283622264862 -0.016414115205407143 0.20960000157356262
0.06523877382278442 -0.016218336299061775 0.20709998905658722
0.06558948755264282 -0.016171349212527275 0.20649999380111694
0.06748590618371964 -0.01610870100557804 0.20569999516010284
0.06822194904088974 -0.016155686229467392 0.20629999041557312
0.06916111707687378 -0.016249660402536392 0.20749999582767487
0.07024092972278595 -0.01637496054172516 0.20909999310970306
0.07215271145105362 -0.01656290702521801 0.21149998903274536
0.07298050820827484 -0.016625557094812393 0.21229998767375946
0.0841526985168457 -0.01675085537135601 0.21389999985694885
0.084315724670887 -0.016672544181346893 0.21289999783039093
0.08502735942602158 -0.016594232991337776 0.211899995803833
0.08785378932952881 -0.016296647489070892 0.20809999108314514
0.08848264813423157 -0.016312310472130775 0.20829999446868896
0.0891980305314064 -0.01634363643825054 0.2087000012397766
0.08974350243806839 -0.01634363643825054 0.2087000012397766
0.09028897434473038 -0.01634363643825054 0.2087000012397766
0.09083444625139236 -0.01634363643825054 0.2087000012397766
0.09137991815805435 -0.01634363643825054 0.2087000012397766
0.09201347827911377 -0.016359297558665276 0.20889998972415924
0.09255947172641754 -0.016359297558665276 0.20889998972415924
0.09301632642745972 -0.01634363643825054 0.2087000012397766
0.09908441454172134 -0.01644543930888176 0.20999999344348907
0.10015517473220825 -0.016531582921743393 0.2110999971628189
0.10099314898252487 -0.016578570008277893 0.21169999241828918
0.1018342524766922 -0.016625557094812393 0.21229998767375946
0.10267851501703262 -0.016672544181346893 0.21289999783039093
0.103428915143013 -0.01670386828482151 0.21329998970031738
0.023343399167060852 -0.015533222816884518 0.20520000159740448
0.023891357704997063 -0.015540791675448418 0.2052999883890152
0.024451738223433495 -0.015555931255221367 0.20549999177455902
0.026265984401106834 -0.01567704789340496 0.20709998905658722
0.02701437845826149 -0.015798166394233704 0.2087000012397766
0.0552276149392128 -0.01560135092586279 0.2061000019311905
0.05695396289229393 -0.015631629154086113 0.20649999380111694
0.0575493648648262 -0.015646768733859062 0.20669999718666077
0.058202020823955536 -0.01567704789340496 0.20709998905658722
0.058856770396232605 -0.01570732705295086 0.20749999582767487
0.059570860117673874 -0.015752745792269707 0.20809999108314514
0.060288090258836746 -0.015798166394233704 0.2087000012397766
0.06103760376572609 -0.015851153060793877 0.2093999981880188
0.06176135689020157 -0.015896571800112724 0.20999999344348907
0.06410911679267883 -0.015934422612190247 0.21050000190734863
0.06456714123487473 -0.015911711379885674 0.2101999968290329
0.0653647780418396 -0.01570732705295086 0.20749999582767487
0.06565301865339279 -0.015646768733859062 0.20669999718666077
0.06647522002458572 -0.01558621134608984 0.20589999854564667
0.06755152344703674 -0.01558621134608984 0.20589999854564667
0.06835423409938812 -0.015646768733859062 0.20669999718666077
0.06936110556125641 -0.015752745792269707 0.20809999108314514
0.0704088881611824 -0.015866294503211975 0.20960000157356262
0.0715322196483612 -0.015994980931282043 0.21130000054836273
0.07222094386816025 -0.016025258228182793 0.21169999241828918
0.07304926216602325 -0.01608581654727459 0.21249999105930328
0.08447413891553879 -0.016146374866366386 0.21329998970031738
0.08479244261980057 -0.01610095612704754 0.2126999944448471
0.0851878672838211 -0.01607067696750164 0.21229998767375946
0.0865427777171135 -0.015911711379885674 0.2101999968290329
0.0868435725569725 -0.015866294503211975 0.20960000157356262
0.08730801194906235 -0.015851153060793877 0.2093999981880188
0.08958268910646439 -0.015866294503211975 0.20960000157356262
0.090130515396595 -0.015866294503211975 0.20960000157356262
0.09085138142108917 -0.015896571800112724 0.20999999344348907
0.09148730337619781 -0.015911711379885674 0.2101999968290329
0.09203669428825378 -0.015911711379885674 0.2101999968290329
0.09258608520030975 -0.015911711379885674 0.2101999968290329
0.096370629966259 -0.01572246663272381 0.2076999992132187
0.09996539354324341 -0.015949560329318047 0.21069999039173126
0.10080233216285706 -0.015994980931282043 0.21130000054836273
0.1017383262515068 -0.01605553925037384 0.21209999918937683
0.1023891344666481 -0.01607067696750164 0.21229998767375946
0.10323496162891388 -0.016116097569465637 0.21289999783039093
0.022807076573371887 -0.014996899291872978 0.20520000159740448
0.023343399167060852 -0.014996899291872978 0.20520000159740448
0.023891357704997063 -0.015004206448793411 0.2052999883890152
0.024451738223433495 -0.015018823556602001 0.20549999177455902
0.026316717267036438 -0.015164992772042751 0.20749999582767487
0.0270402655005455 -0.015267309732735157 0.20889998972415924
0.05409771576523781 -0.015048057772219181 0.20589999854564667
0.054688937962055206 -0.015062674880027771 0.2061000019311905
0.05582040548324585 -0.015077291056513786 0.20629999041557312
0.05635960400104523 -0.015077291056513786 0.20629999041557312
0.057009126991033554 -0.015106525272130966 0.20669999718666077
0.05974261835217476 -0.015252693556249142 0.2087000012397766
0.06040363758802414 -0.015281926840543747 0.20909999310970306
0.06318835914134979 -0.015428096055984497 0.2110999971628189
0.06367971748113632 -0.015413478948175907 0.21089999377727509
0.06542778015136719 -0.015179609879851341 0.2076999992132187
0.06571654230356216 -0.015121142379939556 0.2069000005722046
0.0686187818646431 -0.015164992772042751 0.20749999582767487
0.06962774693965912 -0.015267309732735157 0.20889998972415924
0.07159992307424545 -0.015457329340279102 0.21149998903274536
0.0723574087023735 -0.015501180663704872 0.21209999918937683
0.07318676263093948 -0.015559648163616657 0.21289999783039093
0.08495190739631653 -0.015574265271425247 0.21310000121593475
0.08526811748743057 -0.015530413947999477 0.21249999105930328
0.08566197752952576 -0.015501180663704872 0.21209999918937683
0.08605373650789261 -0.015471946448087692 0.21169999241828918
0.0869133248925209 -0.015428096055984497 0.2110999971628189
0.08738220483064651 -0.015413478948175907 0.21089999377727509
0.08776664733886719 -0.015384245663881302 0.21050000190734863
0.08831682801246643 -0.015384245663881302 0.21050000190734863
0.08886700123548508 -0.015384245663881302 0.21050000190734863
0.09546910226345062 -0.015384245663881302 0.21050000190734863
0.09574368596076965 -0.015252693556249142 0.2087000012397766
0.09610459208488464 -0.015223459340631962 0.20829999446868896
0.09655622392892838 -0.015208842232823372 0.20809999108314514
0.09710012376308441 -0.015208842232823372 0.20809999108314514
0.10061150044202805 -0.015413478948175907 0.21089999377727509
0.10154645144939423 -0.015471946448087692 0.21169999241828918
0.10229268670082092 -0.015501180663704872 0.21209999918937683
0.10304100066423416 -0.015530413947999477 0.21249999105930328
0.023891357704997063 -0.014467623084783554 0.2052999883890152
0.024451738223433495 -0.01448171678930521 0.20549999177455902
0.02562532387673855 -0.014538093470036983 0.20629999041557312
0.026316717267036438 -0.014622658491134644 0.20749999582767487
0.0270402655005455 -0.01472131721675396 0.20889998972415924
0.053559560328722 -0.014509906060993671 0.20589999854564667
0.054688937962055206 -0.014524000696837902 0.2061000019311905
0.0552276149392128 -0.014524000696837902 0.2061000019311905
0.05582040548324585 -0.014538093470036983 0.20629999041557312
0.05635960400104523 -0.014538093470036983 0.20629999041557312
0.057009126991033554 -0.014566282741725445 0.20669999718666077
0.05919714644551277 -0.014707223512232304 0.2087000012397766
0.05985712260007858 -0.01473541185259819 0.20909999310970306
0.06202604994177818 -0.014862258918583393 0.21089999377727509
0.0626959577202797 -0.01489044725894928 0.21130000054836273
0.06881719827651978 -0.014664940536022186 0.20809999108314514
0.06986106932163239 -0.014770647510886192 0.20960000157356262
0.07091277092695236 -0.014876353554427624 0.2110999971628189
0.0716676339507103 -0.014918635599315166 0.21169999241828918
0.07242563366889954 -0.01496091764420271 0.21229998767375946
0.07332427054643631 -0.015031388029456139 0.21329998970031738
0.0854286253452301 -0.015003200620412827 0.21289999783039093
0.08574274182319641 -0.01496091764420271 0.21229998767375946
0.08621633052825928 -0.014946823939681053 0.21209999918937683
0.08660704642534256 -0.014918635599315166 0.21169999241828918
0.08707800507545471 -0.014904540963470936 0.21149998903274536
0.08763080090284348 -0.014904540963470936 0.21149998903274536
0.08810020238161087 -0.01489044725894928 0.21130000054836273
0.08865246921777725 -0.01489044725894928 0.21130000054836273
0.08920473605394363 -0.01489044725894928 0.21130000054836273
0.08975700289011002 -0.01489044725894928 0.21130000054836273
0.09039474278688431 -0.014904540963470936 0.21149998903274536
0.09094753116369247 -0.014904540963470936 0.21149998903274536
0.09158685058355331 -0.014918635599315166 0.21169999241828918
0.09222720563411713 -0.014932729303836823 0.211899995803833
0.09278104454278946 -0.014932729303836823 0.211899995803833
0.09342297166585922 -0.014946823939681053 0.21209999918937683
0.09397733211517334 -0.014946823939681053 0.21209999918937683
0.09453168511390686 -0.014946823939681053 0.21209999918937683
0.09508604556322098 -0.014946823939681053 0.21209999918937683
0.09620173275470734 -0.014862258918583393 0.21089999377727509
0.09634006768465042 -0.014798834919929504 0.20999999344348907
0.09683462232351303 -0.014707223512232304 0.2087000012397766
0.09710012376308441 -0.014664940536022186 0.20809999108314514
0.09764403104782104 -0.014664940536022186 0.20809999108314514
0.09934861958026886 -0.014756552875041962 0.2093999981880188
0.10042068362236023 -0.014834071509540081 0.21050000190734863
0.10145051777362823 -0.014904540963470936 0.21149998903274536
0.10219622403383255 -0.014932729303836823 0.211899995803833
0.102944016456604 -0.01496091764420271 0.21229998767375946
0.10464192926883698 -0.01504548266530037 0.2134999930858612
0.023891357704997063 -0.013931038789451122 0.2052999883890152
0.024451738223433495 -0.013944610953330994 0.20549999177455902
0.02557563968002796 -0.013971754349768162 0.20589999854564667
0.026265984401106834 -0.014053181745111942 0.20709998905658722
0.02701437845826149 -0.014161753468215466 0.2087000012397766
0.053559560328722 -0.013971754349768162 0.20589999854564667
0.05409771576523781 -0.013971754349768162 0.20589999854564667
0.054688937962055206 -0.013985325582325459 0.2061000019311905
0.05528120696544647 -0.01399889588356018 0.20629999041557312
0.05582040548324585 -0.01399889588356018 0.20629999041557312
0.05777209997177124 -0.01408032514154911 0.20749999582767487
0.0585392601788044 -0.014134611003100872 0.20829999446868896
0.05925387516617775 -0.014175324700772762 0.20889998972415924
0.06141653656959534 -0.014297466725111008 0.21069999039173126
0.06908175349235535 -0.014175324700772762 0.20889998972415924
0.07016104459762573 -0.014283896423876286 0.21050000190734863
0.07097995281219482 -0.014338182285428047 0.21130000054836273
0.07173533737659454 -0.014378895983099937 0.211899995803833
0.0725620910525322 -0.014433180913329124 0.2126999944448471
0.07339302450418472 -0.014487466774880886 0.2134999930858612
0.08771366626024246 -0.014365323819220066 0.21169999241828918
0.08826697617769241 -0.014365323819220066 0.21169999241828918
0.08882029354572296 -0.014365323819220066 0.21169999241828918
0.08937360346317291 -0.014365323819220066 0.21169999241828918
0.09001187235116959 -0.014378895983099937 0.211899995803833
0.09065118432044983 -0.014392467215657234 0.21209999918937683
0.09120554476976395 -0.014392467215657234 0.21209999918937683
0.09184642136096954 -0.014406038448214531 0.21229998767375946
0.0924883484840393 -0.014419609680771828 0.21249999105930328
0.09313132613897324 -0.014433180913329124 0.2126999944448471
0.0944204106926918 -0.014460324309766293 0.21310000121593475
0.0954446867108345 -0.014446753077208996 0.21289999783039093
0.09582076221704483 -0.014419609680771828 0.21249999105930328
0.09619475901126862 -0.014392467215657234 0.21209999918937683
0.09647542238235474 -0.01435175258666277 0.21149998903274536
0.09675295650959015 -0.014311038888990879 0.21089999377727509
0.09698121249675751 -0.014263538643717766 0.2101999968290329
0.09692741185426712 -0.014175324700772762 0.20889998972415924
0.09719344973564148 -0.014134611003100872 0.20829999446868896
0.0977378711104393 -0.014134611003100872 0.20829999446868896
0.10027756541967392 -0.014263538643717766 0.2101999968290329
0.10135459154844284 -0.014338182285428047 0.21130000054836273
0.10209976881742477 -0.014365323819220066 0.21169999241828918
0.10388891398906708 -0.014460324309766293 0.21310000121593475
0.10483798384666443 -0.014514610171318054 0.21389999985694885
0.022807076573371887 -0.013387930579483509 0.20520000159740448
0.023343399167060852 -0.013387930579483509 0.20520000159740448
0.025013167411088943 -0.013420552015304565 0.20569999516010284
0.02557563968002796 -0.013433600775897503 0.20589999854564667
0.05248326063156128 -0.013433600775897503 0.20589999854564667
0.05302141606807709 -0.013433600775897503 0.20589999854564667
0.053559560328722 -0.013433600775897503 0.20589999854564667
0.05415026471018791 -0.01344664953649044 0.2061000019311905
0.054742008447647095 -0.013459697365760803 0.20629999041557312
0.05587451905012131 -0.01347274612635374 0.20649999380111694
0.05646888166666031 -0.013485794886946678 0.20669999718666077
0.057229772210121155 -0.013537989929318428 0.20749999582767487
0.05793914943933487 -0.013577135279774666 0.20809999108314514
0.06580579280853271 -0.013629330322146416 0.20889998972415924
0.066097691655159 -0.013577135279774666 0.20809999108314514
0.06931324303150177 -0.013675001449882984 0.20960000157356262
0.07029436528682709 -0.013759816996753216 0.21089999377727509
0.07104713469743729 -0.013798962347209454 0.21149998903274536
0.07180304825305939 -0.01383810956031084 0.21209999918937683
0.07263032346963882 -0.013890303671360016 0.21289999783039093
0.07353052496910095 -0.013955547474324703 0.21389999985694885
0.08843375742435455 -0.01383810956031084 0.21209999918937683
0.09090761840343475 -0.013877254910767078 0.2126999944448471
0.09627168625593185 -0.013929449953138828 0.2134999930858612
0.09646687656641006 -0.013877254910767078 0.2126999944448471
0.09674911946058273 -0.01383810956031084 0.21209999918937683
0.0970282107591629 -0.013798962347209454 0.21149998903274536
0.09738009423017502 -0.013616282492876053 0.2087000012397766
0.0977378711104393 -0.013590184040367603 0.20829999446868896
0.10018215328454971 -0.013701098039746284 0.20999999344348907
0.10125865042209625 -0.013772865757346153 0.2110999971628189
0.10209976881742477 -0.013812012039124966 0.21169999241828918
0.10398641228675842 -0.01391640119254589 0.21329998970031738
0.10493600368499756 -0.013968595303595066 0.21409998834133148
0.022249046713113785 -0.01283908262848854 0.20499999821186066
0.022807076573371887 -0.012851607985794544 0.20520000159740448
0.023343399167060852 -0.012851607985794544 0.20520000159740448
0.024988846853375435 -0.012870396487414837 0.20549999177455902
0.02555079571902752 -0.012882922776043415 0.20569999516010284
0.05086880177259445 -0.012895449064671993 0.20589999854564667
0.05140695348381996 -0.012895449064671993 0.20589999854564667
0.05194510892033577 -0.012895449064671993 0.20589999854564667
0.05248326063156128 -0.012895449064671993 0.20589999854564667
0.05307291820645332 -0.012907975353300571 0.2061000019311905
0.05361158773303032 -0.012907975353300571 0.2061000019311905
0.05598275363445282 -0.012958078645169735 0.2069000005722046
0.05657815560698509 -0.012970604002475739 0.20709998905658722
0.05945242941379547 -0.013127178885042667 0.20960000157356262
0.06017201021313667 -0.013164756819605827 0.2101999968290329
0.0658687949180603 -0.013095863163471222 0.20909999310970306
0.06616121530532837 -0.013045759871602058 0.20829999446868896
0.06944551318883896 -0.01315223053097725 0.20999999344348907
0.07036102563142776 -0.01322112325578928 0.2110999971628189
0.07111431658267975 -0.013258700259029865 0.21169999241828918
0.07187075167894363 -0.013296278193593025 0.21229998767375946
0.07269855588674545 -0.013346382416784763 0.21310000121593475
0.07359927892684937 -0.013409011997282505 0.21409998834133148
0.0969315692782402 -0.013308804482221603 0.21249999105930328
0.09711996465921402 -0.013258700259029865 0.21169999241828918
0.09743780642747879 -0.01315223053097725 0.20999999344348907
0.09747340530157089 -0.013083337806165218 0.20889998972415924
0.0977378711104393 -0.013045759871602058 0.20829999446868896
0.10116271674633026 -0.013208596967160702 0.21089999377727509
0.10209976881742477 -0.013258700259029865 0.21169999241828918
0.102944016456604 -0.013296278193593025 0.21229998767375946
0.10398641228675842 -0.013358907774090767 0.21329998970031738
0.10493600368499756 -0.013409011997282505 0.21409998834133148
0.021713245660066605 -0.01230328157544136 0.20499999821186066
0.022249046713113785 -0.01230328157544136 0.20499999821186066
0.022784845903515816 -0.01230328157544136 0.20499999821186066
0.023343399167060852 -0.01231528539210558 0.20520000159740448
0.02442794106900692 -0.012321285903453827 0.2052999883890152
0.024988846853375435 -0.012333289720118046 0.20549999177455902
0.02555079571902752 -0.01234529260545969 0.20569999516010284
0.049397870898246765 -0.012393306009471416 0.20649999380111694
0.05086880177259445 -0.012357296422123909 0.20589999854564667
0.05140695348381996 -0.012357296422123909 0.20589999854564667
0.05194510892033577 -0.012357296422123909 0.20589999854564667
0.05253424122929573 -0.012369299307465553 0.2061000019311905
0.05490121990442276 -0.01241731271147728 0.2069000005722046
0.05549557879567146 -0.01242931466549635 0.20709998905658722
0.05603686720132828 -0.01242931466549635 0.20709998905658722
0.058217570185661316 -0.01254934724420309 0.20909999310970306
0.058904606848955154 -0.012579355388879776 0.20960000157356262
0.06628827005624771 -0.012525341473519802 0.2087000012397766
0.06961086392402649 -0.012633370235562325 0.21050000190734863
0.07042768597602844 -0.012681382708251476 0.21130000054836273
0.07118150591850281 -0.012717392295598984 0.211899995803833
0.07187075167894363 -0.012741398066282272 0.21229998767375946
0.07283501327037811 -0.012813418172299862 0.2134999930858612
0.0737711563706398 -0.012879435904324055 0.21459999680519104
0.09701111912727356 -0.012837424874305725 0.21389999985694885
0.0972052663564682 -0.012789411470293999 0.21310000121593475
0.09730347245931625 -0.012729396112263203 0.21209999918937683
0.09758099913597107 -0.01269338559359312 0.21149998903274536
0.0976698026061058 -0.012633370235562325 0.21050000190734863
0.097925566136837 -0.012525341473519802 0.2087000012397766
0.10116271674633026 -0.012657376006245613 0.21089999377727509
0.10209976881742477 -0.012705388478934765 0.21169999241828918
0.102944016456604 -0.012741398066282272 0.21229998767375946
0.10398641228675842 -0.012801414355635643 0.21329998970031738
0.10518107563257217 -0.012879435904324055 0.21459999680519104
0.021713245660066605 -0.011767481453716755 0.20499999821186066
0.022270753979682922 -0.01177896186709404 0.20520000159740448
0.022807076573371887 -0.01177896186709404 0.20520000159740448
0.023343399167060852 -0.01177896186709404 0.20520000159740448
0.02442794106900692 -0.011784701608121395 0.2052999883890152
0.024988846853375435 -0.01179618202149868 0.20549999177455902
0.02555079571902752 -0.01180766336619854 0.20569999516010284
0.04801008477807045 -0.011910987086594105 0.20749999582767487
0.04855241999030113 -0.011910987086594105 0.20749999582767487
0.04944571480154991 -0.011865065433084965 0.20669999718666077
0.049937594681978226 -0.01185358501970768 0.20649999380111694
0.050428424030542374 -0.011842104606330395 0.20629999041557312
0.05091821402311325 -0.01183062419295311 0.2061000019311905
0.051456887274980545 -0.01183062419295311 0.2061000019311905
0.0531759187579155 -0.01185358501970768 0.20649999380111694
0.054412998259067535 -0.011888026259839535 0.20709998905658722
0.055060431361198425 -0.011910987086594105 0.20749999582767487
0.05706990137696266 -0.0119913499802351 0.20889998972415924
0.057753801345825195 -0.012020052410662174 0.2093999981880188
0.06575963646173477 -0.012083195149898529 0.21050000190734863
0.06615230441093445 -0.012054492719471455 0.20999999344348907
0.06635178625583649 -0.0119913499802351 0.20889998972415924
0.06961086392402649 -0.012083195149898529 0.21050000190734863
0.07042768597602844 -0.012129116803407669 0.21130000054836273
0.07118150591850281 -0.012163558043539524 0.211899995803833
0.07187075167894363 -0.01218651793897152 0.21229998767375946
0.07283501327037811 -0.012255401350557804 0.2134999930858612
0.07383991032838821 -0.012330024503171444 0.21480000019073486
0.09676770120859146 -0.012318544089794159 0.21459999680519104
0.09710182249546051 -0.012289842590689659 0.21409998834133148
0.0972052663564682 -0.012232440523803234 0.21310000121593475
0.09739521890878677 -0.01218651793897152 0.21229998767375946
0.09811324626207352 -0.01200283132493496 0.20909999310970306
0.1020033061504364 -0.01214059628546238 0.21149998903274536
0.102944016456604 -0.01218651793897152 0.21229998767375946
0.10408391803503036 -0.012255401350557804 0.2134999930858612
0.1052791029214859 -0.012330024503171444 0.21480000019073486
0.02173442952334881 -0.011242639273405075 0.20520000159740448
0.022270753979682922 -0.011242639273405075 0.20520000159740448
0.022807076573371887 -0.011242639273405075 0.20520000159740448
0.023354774340987206 -0.011248117312788963 0.2052999883890152
0.025013167411088943 -0.011270033195614815 0.20569999516010284
