ply
format ascii 1.0
element vertex 745
property float x
property float y
property float z
end_header
0.02802673541009426 -0.011636140756309034 -4.561233613031845e-09
0.027935726568102837 -0.011135606095194818 -4.884780135938627e-09
0.027914248406887054 -0.011038888245821001 0.0009218768100254238
0.027848271653056145 -0.010759383440017702 -4.569042921787059e-09
0.02749074064195156 -0.009666487574577333 0.0018437480321153998
0.027528434991836548 -0.00975858047604561 -4.79031836420063e-09
0.02738877572119236 -0.009425629861652853 -4.545535947642065e-09
0.026794327422976494 -0.008345510810613634 -4.723418101093557e-09
0.026631388813257217 -0.008115547709167005 -4.801772757190292e-09
0.02663324400782585 -0.008118809200823309 0.0018437342951074243
0.026487961411476135 -0.007930097170174124 -4.666465436287126e-09
0.026429742574691772 -0.007859754376113416 0.001843747915700078
0.026256827637553215 -0.007660893257707359 -4.800869479737457e-09
0.025675054639577866 -0.007115598767995836 -4.765745131862786e-09
0.025461554527282715 -0.006955700926482679 -4.798091257640635e-09
0.025465672835707664 -0.006959288381040098 0.0018437579274177551
0.025336964055895805 -0.006871822755783798 0.0009218768100254238
0.025212451815605164 -0.006792271044105293 -4.796958386066308e-09
0.02520635724067688 -0.006789247505366804 0.0018437578110024333
0.024998126551508904 -0.006670158822089435 -4.503038830705464e-09
0.02477952279150486 -0.006562962196767332 -4.735653202914136e-09
0.024778472259640694 -0.0065624592825770395 0.0018437582766637206
0.0249799657613039 -0.0066604958847165125 0.0018437581602483988
0.027354050427675247 -0.009349097497761251 0.0018437509424984455
0.027863457798957825 -0.010817660950124265 0.001843758625909686
0.02797022834420204 -0.011307227425277235 0.0018437575781717896
0.02803071402013302 -0.011663043871521952 0.001843755249865353
0.028074027970433235 -0.011991043575108053 0.0018437557155266404
0.028110239654779434 -0.012372545897960665 0.0018437581602483988
0.02813008613884449 -0.012728674337267877 0.001843758625909686
0.02813572622835636 -0.013256420381367208 0.0018437576945871115
0.02793734520673752 -0.015039959922432901 -3.6893585964037356e-09
0.027965804561972618 -0.014898230321705343 0.0018437581602483988
0.027875779196619987 -0.015314438380301 0.0018437581602483988
0.027785416692495346 -0.015660036355257034 0.0018437583930790424
0.027869343757629395 -0.015341391786932947 -4.633165406886519e-09
0.027984825894236565 -0.014794410206377508 -4.631508065955359e-09
0.02802841179072857 -0.014535144902765753 0.0018437583930790424
0.028065275400877 -0.014264189638197424 -3.840974205360226e-09
0.028068015351891518 -0.014241305179893972 0.0018437578110024333
0.028098005801439285 -0.013958871364593508 -3.688833238868483e-09
0.02809850685298443 -0.013951918110251428 0.0018437565304338932
0.02812221832573414 -0.013624645769596102 -3.741122522882279e-09
0.02812221273779869 -0.013627071864902975 0.0018437571125105023
0.027766264975070953 -0.010457921773195268 -4.780653650726663e-09
0.02776826173067093 -0.01046554557979107 0.0018437582766637206
0.027684053406119347 -0.010194878093898298 0.0018437583930790424
0.027655014768242836 -0.010107069276273252 -4.783301754684999e-09
0.02758954092860222 -0.009921154938638212 0.0018437529215589166
0.027233745902776718 -0.009097981266677381 -4.737309655666877e-09
0.027264626696705818 -0.009161029011011125 0.0018437582766637206
0.02714456617832184 -0.008926962502300741 0.001843760721385479
0.027103660628199577 -0.008852683939039709 -4.798214714440974e-09
0.02697342447936535 -0.008625890128314497 0.0018437583930790424
0.026969676837325096 -0.008620288223028185 -4.7615360543318275e-09
0.026781894266605377 -0.008327226154506208 0.0018436983227729797
0.026313288137316704 -0.007724252529442312 0.0018437533872202039
0.026148151606321335 -0.007545546162873508 0.0018437578110024333
0.026087243109941483 -0.007484551984816791 -4.7930437396814796e-09
0.025970550253987312 -0.007371844258159401 0.0018437583930790424
0.025788836181163788 -0.007209286559373142 0.0018437583930790424
0.02560509368777275 -0.007061816286295654 0.0018437581602483988
0.025906473398208618 -0.00731223449110985 -4.77479700222716e-09
0.028026824817061424 -0.014544977806508543 -4.8549817499576875e-09
0.027616841718554497 -0.016192784532904625 -4.833564215545039e-09
0.027334166690707207 -0.01712789572775364 -5.079283660336387e-09
0.027468109503388405 -0.01666446216404438 -4.82766582265981e-09
0.027347847819328308 -0.01707730069756508 0.0018437583930790424
0.027286913245916367 -0.017366129904985428 0.0018437583930790424
0.027284566313028336 -0.017343968152999878 -4.8245194506080225e-09
0.027290547266602516 -0.017310457304120064 0.0018437583930790424
0.027492959052324295 -0.016583401709794998 0.0018437583930790424
0.030498286709189415 -0.016469141468405727 0.0018437582766637206
0.030761385336518288 -0.016351819038391117 0.001843758625909686
0.030716905370354652 -0.016372319310903553 -4.772024997379276e-09
0.030934300273656845 -0.01626621745526791 -4.723713864507317e-09
0.030478334054350853 -0.016477476805448536 -4.777081841211839e-09
0.031005265191197395 -0.016227813437581066 0.001843758625909686
0.028912626206874847 -0.01703557558357716 -4.657541019525979e-09
0.029164789244532585 -0.01695608161389828 0.0018437578110024333
0.029209140688180923 -0.016941316425800327 -4.571748757342675e-09
0.029611162841320038 -0.01680603995919228 0.0018437583930790424
0.027694858610630035 -0.01735590398311615 -4.833804023718358e-09
0.02776326797902584 -0.017342673614621162 0.0018437583930790424
0.028059683740139008 -0.017275681719183922 -4.901756778252775e-09
0.028040634468197823 -0.017279576510190964 0.0018437583930790424
0.0272903461009264 -0.01736810803413391 -4.80734918539838e-09
0.027353089302778244 -0.017392324283719063 0.0018437585094943643
0.02732185833156109 -0.017385950312018394 -4.814820986354107e-09
0.027439771220088005 -0.017392225563526154 -4.8249106932019e-09
0.028516963124275208 -0.017153134569525722 -4.8103530048138055e-09
0.02868870086967945 -0.017103517428040508 0.0018437583930790424
0.030239233747124672 -0.016574213281273845 0.0018437582766637206
0.030153432860970497 -0.016607956960797313 -4.703665901217846e-09
0.029931413009762764 -0.016691811382770542 0.001843758625909686
0.029704326763749123 -0.016774052754044536 -4.622299876189118e-09
0.028328238055109978 -0.017205459997057915 0.0018437583930790424
0.027516759932041168 -0.01738414168357849 0.0018437583930790424
0.03365100920200348 -0.013145601376891138 -4.773699213700411e-09
0.033499035984277725 -0.013469911180436613 -4.8076782555028785e-09
0.03349991887807846 -0.01346812676638365 0.0018437583930790424
0.033654630184173584 -0.01313687860965729 0.0018437583930790424
0.032525159418582916 -0.01494855433702469 0.0018437582766637206
0.03235534951090813 -0.01513931341469288 -4.64918548104265e-09
0.032353803515434265 -0.015141017735004427 0.0018437582766637206
0.03218014910817146 -0.015321390703320505 0.0018437581602483988
0.031423117965459824 -0.015961969271302227 0.0018437583930790424
0.031403571367263794 -0.015976037830114368 -4.3452712539249205e-09
0.031251050531864166 -0.01607827097177506 0.0018437576945871115
0.03117513097822666 -0.016126720234751705 -5.091942423263163e-09
0.03161947801709175 -0.015816750004887584 -4.759746374816132e-09
0.03181128576397896 -0.01566128991544247 0.0018437582766637206
0.03180822730064392 -0.01566395536065102 -4.74162575869741e-09
0.03199804201722145 -0.015496229752898218 -4.706949940924687e-09
0.03252330422401428 -0.014950754120945932 -4.698528233149091e-09
0.03268464654684067 -0.01475532725453377 -4.758405669491594e-09
0.032839179039001465 -0.014553586952388288 0.0018437583930790424
0.03283514454960823 -0.014559161849319937 -4.767434891306266e-09
0.03298468887805939 -0.014348929747939112 -4.769598493936655e-09
0.033125873655080795 -0.014134507626295091 0.0018437583930790424
0.03312335163354874 -0.014138574711978437 -4.789804108895623e-09
0.03325830399990082 -0.013917018659412863 0.0018437583930790424
0.033256322145462036 -0.013920487836003305 -4.800112751723873e-09
0.033383142203092575 -0.013694652356207372 0.0018437583930790424
0.033381953835487366 -0.013696901500225069 -4.804018072235294e-09
0.03161752223968506 -0.015818305313587192 0.0018437583930790424
0.03199497237801552 -0.015499114058911802 0.0018437582766637206
0.032985590398311615 -0.014347582124173643 0.0018437583930790424
0.032681696116924286 -0.014759011566638948 0.0018437583930790424
0.03217868506908417 -0.015322895720601084 -4.652351837108881e-09
0.034084502607584 -0.011327927932143213 0.0018437583930790424
0.03408443182706833 -0.011327458545565607 -4.800591479892091e-09
0.03404738008975983 -0.011628269217908384 -4.787959806407116e-09
0.034049030393362045 -0.011615615338087084 0.0018437583930790424
0.0340082123875618 -0.01188983488827944 -4.7813681902653116e-09
0.03400695323944092 -0.011897745542228224 0.0018437583930790424
0.033968254923820496 -0.01211237069219351 -4.706960599065724e-09
0.033949438482522964 -0.012206436134874822 0.0018437582766637206
0.033905576914548874 -0.012398323044180872 -4.681981913279287e-09
0.03388463333249092 -0.012478451244533064 0.0018437582766637206
0.033819038420915604 -0.012705004774034025 -4.645665629965379e-09
0.033818408846855164 -0.012705241329967977 0.0018437578110024333
0.0337420254945755 -0.012922667898237707 -4.527967778500397e-09
0.03374313935637474 -0.012919662520289423 0.001843758043833077
0.03411751613020897 -0.011007032357156278 0.0018437583930790424
0.03412402793765068 -0.010940029285848142 -4.790767782480998e-09
0.0341743603348732 -0.010313102044165136 -4.793324404062105e-09
0.03416107967495918 -0.010494306683540346 0.0018437583930790424
0.034208521246910095 -0.009796157479286196 0.0018437583930790424
0.034210205078125 -0.009759649634361269 -4.812535259191009e-09
0.03447167947888374 -0.00730628799647093 -3.943163573438824e-09
0.034418072551488876 -0.007513243705034258 -4.734357794689004e-09
0.03446594253182411 -0.007322723511606457 0.0018437578110024333
0.03441132977604866 -0.007548043970018627 0.0018437582766637206
0.03424122929573059 -0.009199359454214575 0.0018437583930790424
0.03462017700076103 -0.0069958367384970205 0.0018432628130540252
0.03471238538622856 -0.006898101884871723 0.00184376141987741
0.03468940779566765 -0.006919651292264463 -1.1571292368728336e-08
0.03462502360343933 -0.0069904285483062285 5.329637247086794e-07
0.034243565052747726 -0.009167600423097612 -4.796882890900633e-09
0.0342724546790123 -0.008732650429010393 -4.795806862745167e-09
0.034289855509996414 -0.008506815880537035 0.0018437583930790424
0.03431927412748337 -0.008187339641153814 -4.79929074259644e-09
0.03436866030097008 -0.007791786454617979 -4.781124829378314e-09
0.034336309880018234 -0.008036105893552305 0.0018437583930790424
0.03437644615769386 -0.0077425488270819205 0.0018437583930790424
0.03452639654278755 -0.007157646585255863 -1.936290683346442e-09
0.03457288816571236 -0.007067228201776745 -6.173842326262502e-09
0.034573014825582504 -0.007067259866744282 0.0018437693361192942
0.03452571481466293 -0.007159972563385965 0.0018437568796798587
0.03720668703317642 -0.005712692625820639 -4.897533045777891e-09
0.036629341542720795 -0.005949257872998717 -4.527609398508048e-09
0.03656401485204697 -0.00597612885758281 0.0018437581602483988
0.035605914890766144 -0.006403637584298852 -4.782341189724093e-09
0.03529058396816254 -0.006558552850037815 -4.780766005296755e-09
0.03534954786300659 -0.006528085563331844 0.0018437585094943643
0.03729688376188278 -0.005675439257174733 0.0018437583930790424
0.03479069471359253 -0.006841063499450685 -1.2640319901890962e-09
0.03500838205218315 -0.006707854568958284 -4.673202713689761e-09
0.034848250448703766 -0.006803932599723341 0.0018437583930790424
0.03591055050492287 -0.006262507289648059 -4.7762327426426054e-09
0.035772986710071564 -0.006325311493128541 0.0018437583930790424
0.03623441979289055 -0.006117940880358222 -4.806619990915806e-09
0.03610515967011452 -0.0061751110479235675 0.0018437583930790424
0.035009462386369705 -0.006707576103508474 0.0018437583930790424
0.0429864302277565 -0.0018422673456370857 0.0018437583930790424
0.042985908687114716 -0.001842544879764321 -4.8066208790942255e-09
0.04271410405635834 -0.0021249719429761197 -4.80838480143575e-09
0.03756975382566452 -0.005558724515140059 -4.8079535908129856e-09
0.037750523537397385 -0.005478993523865941 0.0018437583930790424
0.037879541516304016 -0.0054205046035349395 -4.80791184642726e-09
0.03820367529988289 -0.005270212888717654 0.0018437583930790424
0.038203541189432144 -0.0052700079977512386 -4.80755435461333e-09
0.03852050006389618 -0.0051153968088328864 -4.807799047767958e-09
0.03864302858710289 -0.005054147448390725 0.0018437583930790424
0.03885042294859886 -0.004947283305227759 -4.809997733445925e-09
0.039052851498126984 -0.004839769098907712 0.0018437583930790424
0.039252929389476776 -0.004730189219117167 -4.809232567737354e-09
0.03944971784949303 -0.004619086161255839 0.0018437583930790424
0.03964494913816452 -0.004505453631281855 -4.809167286623506e-09
0.03981766849756241 -0.004401814192533496 0.0018437583930790424
0.04002594202756882 -0.004273299593478444 -4.807654274685547e-09
0.04017770290374756 -0.004176785703748467 0.0018437583930790424
0.040395595133304596 -0.0040339506231248405 -4.8066000069013626e-09
0.04054466262459755 -0.003933235071599486 0.0018437583930790424
0.040650028735399246 -0.003860067110508683 -4.806942843771367e-09
0.04090074449777603 -0.003682112786918881 0.0018437583930790424
0.040931716561317444 -0.0036595501005649593 -4.807824804942129e-09
0.041174814105033875 -0.0034776914399117257 0.0018437583930790424
0.041276220232248306 -0.0034001511521637466 -4.807836351261585e-09
0.041414570063352585 -0.0032914830371737506 0.0018437583930790424
0.04159737750887871 -0.003143578767776492 -4.807232834025399e-09
0.04167850688099861 -0.003076138906180861 0.0018437583930790424
0.04184181988239288 -0.0029379357583820846 -4.8077821723779834e-09
0.04208175092935562 -0.0027275669854134347 -4.807505504800247e-09
0.04216128587722778 -0.002655315678566697 0.0018437583930790424
0.042395442724227905 -0.0024379345122724798 -4.807797271411118e-09
0.042687710374593735 -0.0021516012493521 0.0018437583930790424
0.0419229120016098 -0.0028680947143584516 0.0018437583930790424
0.0423952117562294 -0.002437785733491185 0.0018437583930790424
0.043698616325855255 0.0009674318134784671 -4.76309747199366e-09
0.04385790228843689 0.0007555764750577482 -4.754523885708295e-09
0.04373786225914955 0.0009187844698317322 0.0018437583930790424
0.04388744384050369 0.0007111041923053536 0.0018437583930790424
0.04397573322057724 0.0005685460637323531 -4.768052619397167e-09
0.04408729448914528 0.00033411753247491744 0.0018437583930790424
0.044083356857299805 0.0003445106267463389 -4.770690509303677e-09
0.04411973059177399 0.00023271991813089428 -4.740018599846962e-09
0.04414481297135353 0.000121890916489062 -4.860695845820828e-09
0.044144488871097565 0.00012534789857454327 0.0018437583930790424
0.04415591061115265 1.3037680218983066e-05 -4.7470702924101715e-09
0.04402288421988487 -0.000544680864550176 0.0018437583930790424
0.044047459959983826 -0.000494648527819666 -4.418474475187395e-09
0.043963342905044556 -0.0006556279840879169 -4.64577976089231e-09
0.04395521059632301 -0.0006695532356388894 0.0018437585094943643
0.04383954778313637 -0.0008496129303239313 -4.7592703111831725e-09
0.04367271810770035 -0.0010699100093916085 -4.7822896753757504e-09
0.04374483600258827 -0.000977552379481497 0.0018437583930790424
0.04338030889630318 -0.0014146843459457185 0.0018437583930790424
0.04332792013883591 -0.001472883275710049 -4.797914066045905e-09
0.043514374643564224 0.0011867495486512754 0.0018437583930790424
0.04353540018200874 0.0011620988370850656 -4.80432715832535e-09
0.04415697604417801 -4.1438717744315884e-05 0.0018437582766637206
0.04415282607078552 -0.00011841215746244685 -4.794738828195477e-09
0.04414290562272072 -0.00019500215421431038 -6.75559719276464e-10
0.044110655784606934 -0.00032824891968630525 -4.794906249827591e-09
0.04413185641169548 -0.00024990132078528675 0.0018437549006193876
0.04409654065966606 -0.00037329329643398794 0.0018437578110024333
0.04360160976648331 -0.0011574611999094512 0.0018437583930790424
0.04415281489491463 -0.00011853720934596182 0.0018437583930790424
0.04411933571100235 0.00023443647660314766 0.0018437582766637206
0.04326312988996506 0.00146012532059103 0.0018437583930790424
0.04328516870737076 0.0014375031460076544 -4.812949150334589e-09
0.0425739511847496 0.0021545155905187104 0.0018437583930790424
0.04218060150742531 0.0025365373585373137 -4.713017531798869e-09
0.042853087186813354 0.0018794740317389343 -4.792523267127535e-09
0.043539319187402725 -0.001231505884788933 -4.7787618306927016e-09
0.043859876692295074 -0.000818841275759044 0.0018437583930790424
0.04403688386082649 0.00045100037823430923 -4.755707383452545e-09
0.04402384161949158 0.0004789223603438559 0.0018437583930790424
0.04395380616188049 0.0006056939600966844 0.0018437583930790424
0.04301083832979202 0.0017206374322995517 0.0018437583930790424
0.03617760166525841 0.00611901096999645 -4.807982012522416e-09
0.03653964400291443 0.005989202763885257 -4.79778172746137e-09
0.03617760166525841 0.00611901096999645 0.0018437583930790424
0.03648550063371658 0.006008684169501064 0.001843758043833077
0.036807261407375336 0.005889117717742917 0.0018437583930790424
0.036848586052656174 0.005872979294508693 -4.385785956628752e-09
0.03719257190823555 0.005738264415413139 -4.8011772335598835e-09
0.03735148906707764 0.005673878360539672 0.0018437583930790424
0.037718676030635834 0.005518568679690358 0.001843758043833077
0.03801066055893898 0.005388312973082063 -4.4561341283611e-09
0.03814009949564934 0.005328880157321689 0.0018437585094943643
0.03827226907014847 0.005266406573355195 -4.3794212700731805e-09
0.03855084627866745 0.005130794364958999 0.0018437582766637206
0.03855101019144058 0.005130416713654992 -4.407956222252096e-09
0.03882330656051636 0.004990413784980771 0.0018437579274177551
0.03932842239737511 0.0047121318057179425 0.0018437582766637206
0.039066001772880554 0.004859701264649627 0.001843758043833077
0.039347365498542786 0.004700689110904929 -4.128744457432276e-09
0.03963329643011093 0.004530184902250764 -4.653759155814896e-09
0.039759561419487 0.004451507236808536 0.0018437582766637206
0.04005693644285202 0.004259273409843442 0.0018437582766637206
0.04005155339837074 0.004262528382241723 -4.442251011482767e-09
0.04034670814871788 0.004060483071953056 0.0018437581602483988
0.0404672808945179 0.003974316176027057 -4.7079473652900106e-09
0.040756650269031525 0.0037603557575494025 0.0018437582766637206
0.04075166583061218 0.0037637916393578026 -4.470310344117934e-09
0.04099038243293762 0.0035781213082373116 0.001843758043833077
0.04116806015372276 0.0034351109061390135 -4.7523718293973616e-09
0.04127362743020058 0.0033481074497103665 0.0018437583930790424
0.041446153074502945 0.003202184801921246 -4.5297015027756515e-09
0.04169107973575592 0.0029888725839555237 0.0018437585094943643
0.04168215021491051 0.0029957136139273617 -4.617852322752469e-09
0.041901636868715286 0.0027973051182925675 -4.543858622696462e-09
0.04213394969701767 0.00258087529800832 0.0018437583930790424
0.0377156138420105 0.005520169623196122 -4.739457715174922e-09
0.03904999420046806 0.004869571886956689 -4.96352514645082e-09
0.03463155776262283 0.006917507387697695 0.0018437341786921024
0.03463760390877724 0.0069086486473679525 1.085461960315115e-07
0.03468715772032738 0.006859268527477978 0.0018437518738210201
0.034720826894044876 0.006831067148596047 -3.4045530838966442e-09
0.03594278544187546 0.006210674066096542 -4.548649901181534e-09
0.03484590724110603 0.0067434092052280886 -5.612240006058755e-09
0.0347696989774704 0.006794641260057686 0.0018437597900629044
0.03567662835121155 0.006322766654193399 -4.78249750912596e-09
0.0358976349234581 0.0062290951609611485 0.0018437581602483988
0.03507302701473236 0.006612137891352175 0.0018437583930790424
0.03490162268280983 0.006709223147481678 0.0018437582766637206
0.0350545197725296 0.006621944718062876 -4.5780237378778565e-09
0.035441573709249496 0.006428276654332874 -4.721487645298339e-09
0.03558723255991936 0.00636172294616699 0.001843758625909686
0.035282742232084274 0.006504253018647431 0.0018437582766637206
0.03522590547800064 0.0065329289063811285 -4.650187790389282e-09
0.03452622890472412 0.0071240481920540315 -4.58935689451323e-09
0.034581609070301056 0.0069975806400179846 -6.110617789545358e-09
0.03458044305443764 0.006999389268457888 0.0018437565304338932
0.03451654314994812 0.0071505890227854235 0.0018437581602483988
0.0341520756483078 0.009892460890114306 -4.872120928922641e-09
0.03420416638255119 0.009243580512702463 -4.8024269005964015e-09
0.034201618283987045 0.00926760397851467 0.0018437583930790424
0.034147635102272034 0.009956927970051764 0.0018437585094943643
0.03447481617331505 0.007290622685104607 -4.783212492753819e-09
0.03444157913327217 0.007420736365020273 0.0018437583930790424
0.034427348524332047 0.007487152703106402 -4.748898607687124e-09
0.03437037393450737 0.007792398799210785 0.0018437585094943643
0.034383129328489304 0.007720502093434332 -4.7866435259891205e-09
0.034342557191848755 0.007977700792253016 -4.798338171241312e-09
0.03431110084056854 0.008210636675357817 0.0018437583930790424
0.034300222992897034 0.008297963067889212 -4.805679409969343e-09
0.03426484391093254 0.0086092846468091 0.0018437583930790424
0.03425448015332222 0.0087090702727437 -4.794454611101173e-09
0.03234543651342392 0.015220938250422476 0.0018437582766637206
0.032342955470085144 0.015223278664052485 -4.677931375596245e-09
0.03257230669260025 0.014991655014455317 -4.812567677703328e-09
0.03341841325163841 0.013819340616464613 0.001843758043833077
0.033348750323057175 0.013954644091427324 -4.643541995363876e-09
0.03346695005893707 0.013717629015445707 -4.4796468756658214e-09
0.03355482220649719 0.013515076600015162 0.0018437581602483988
0.03352773189544678 0.013579526916146277 -4.5983181706787946e-09
0.03363152965903282 0.013308462686836718 -4.618440740955521e-09
0.033655181527137756 0.013240755535662172 0.0018437581602483988
0.03374481201171875 0.012944455258548258 -4.674979958707581e-09
0.03372388705611229 0.013017252087593077 0.0018437582766637206
0.03382449969649315 0.012623142451047896 0.0018437582766637206
0.03380591422319412 0.012702227570116518 -4.687708443640304e-09
0.0338883250951767 0.012310276739299296 -4.789763696777527e-09
0.03403093293309212 0.011321646161377428 0.0018437583930790424
0.03405419737100601 0.0111029464751482 -4.774341810787064e-09
0.03408965468406677 0.010728443972766398 0.0018437585094943643
0.03410471975803375 0.010546731762588022 -4.794742824998366e-09
0.032531071454286575 0.015033774077892302 0.0018437583930790424
0.03268513083457947 0.01487090904265642 0.0018437583930790424
0.03272881731390953 0.014822216704487799 -4.796345542956715e-09
0.03286853805184364 0.014660836197435854 0.0018437583930790424
0.033032115548849106 0.014452049508690832 -4.810047027348219e-09
0.0330427922308445 0.014437402598559855 0.0018437583930790424
0.033151958137750626 0.01428062282502651 -4.4895598350080945e-09
0.03315582871437073 0.014274766668677328 0.0018437581602483988
0.03325314074754715 0.014121634885668753 0.001843758043833077
0.03388994559645653 0.012302623130381106 0.0018437581602483988
0.033952221274375916 0.011930302716791628 -4.792009900000949e-09
0.03395143151283264 0.011934141628444193 0.0018437583930790424
0.03399481624364853 0.01162140443921089 0.0018437583930790424
0.03400818258523941 0.011516959406435488 -4.7805066571982024e-09
0.03334648534655571 0.01395897939801216 0.0018437582766637206
0.03325314819812775 0.014121769927442072 -4.457779034794385e-09
0.032869111746549606 0.014659704640507696 -4.7943884418089056e-09
0.03135840222239494 0.01599151641130447 -4.657338070757078e-09
0.03136031702160835 0.01598989591002464 0.0018437583930790424
0.031036995351314545 0.016192464157938954 0.0018437585094943643
0.03102293610572815 0.016200475394725796 -4.587127566679783e-09
0.03216242790222168 0.015388696454465388 -4.792907404294056e-09
0.032218363136053085 0.015338576398789881 0.001843758043833077
0.03204744681715965 0.015485551208257673 0.0018437582766637206
0.03190351650118828 0.015601034276187418 -4.968523814596892e-09
0.0318467877805233 0.01564429886639118 0.0018437583930790424
0.031638193875551224 0.015799053013324734 -4.6280490550998366e-09
0.03163791075348854 0.015799684450030323 0.001843758043833077
0.03078744374215603 0.016329301521182057 0.0018437585094943643
0.030740372836589813 0.01635336689651012 -4.830542188472009e-09
0.030417731031775475 0.016503084450960156 -4.9177044658677005e-09
0.030114535242319107 0.01662732288241386 0.0018437582766637206
0.03007666766643524 0.016641970723867413 -4.807982012522416e-09
0.029826605692505836 0.01673614606261253 0.0018437583930790424
0.029665177688002586 0.01679517142474651 -4.807982012522416e-09
0.029280826449394226 0.016927158460021016 -4.807982012522416e-09
0.02900371141731739 0.017017232254147526 0.0018437583930790424
0.028859451413154602 0.017062770202755925 -4.817378052024424e-09
0.028681572526693344 0.017116654664278027 0.0018437583930790424
0.028367027640342712 0.0172075480222702 -4.886584914487457e-09
0.02805032767355442 0.017290562391281128 -4.807982012522416e-09
0.02803567424416542 0.017294878140091896 0.0018437583930790424
0.02771991491317749 0.017366142943501472 -4.847252821349457e-09
0.02741030417382717 0.01740560494363308 -4.807982012522416e-09
0.027349283918738365 0.017400698736310005 0.0018437583930790424
0.027330180630087852 0.01739448867738247 -5.155309068527458e-09
0.029425496235489845 0.01687870733439922 0.0018437583930790424
0.030616862699389458 0.016412939876317974 0.0018437583930790424
0.027322417125105858 0.017383331432938576 0.0018437594408169389
0.02743556909263134 0.017405202612280846 0.0018437583930790424
0.027538206428289413 0.017395401373505592 0.0018437583930790424
0.027709616348147392 0.017367223277688026 0.0018437585094943643
0.02841089852154255 0.017194844782352444 0.0018437583930790424
0.03039790317416191 0.01651089824736118 0.0018437583930790424
0.027497321367263794 0.017400484532117844 -4.8068637958920135e-09
0.027318136766552925 0.017349151894450188 -4.763832439635962e-09
0.027320681139826775 0.01732063852250576 0.0018437583930790424
0.02734362706542015 0.017181027680635452 -4.76632600054927e-09
0.027351154014468193 0.01714320294559002 0.0018437585094943643
0.027414409443736076 0.01687302254140377 -4.833598854503407e-09
0.027503348886966705 0.0165448859333992 0.0018437583930790424
0.027530446648597717 0.016450583934783936 -4.760130511982652e-09
0.02761012129485607 0.01618249900639057 0.0018437583930790424
0.027657201513648033 0.016031047329306602 -5.025519556056679e-09
0.027723189443349838 0.015819121152162552 0.0018437567632645369
0.027416689321398735 0.016866911202669144 0.0018437583930790424
0.02604720927774906 0.007396565750241278 -1.3787441188739535e-09
0.02617817558348179 0.007525639142841099 1.5555967625147105e-09
0.026180917397141457 0.007528690155595539 0.0018437094986438751
0.026327742263674736 0.007686074357479809 5.3059499016683276e-09
0.026317499577999115 0.007674863096326588 0.0018436750397086143
0.026453573256731033 0.007832475006580351 2.3654356695601564e-08
0.026699123904109 0.008151350542902945 -4.747979343022735e-09
0.026835013180971146 0.008349513635039328 -4.806284259473159e-09
0.02682969719171524 0.008341373875737189 0.0018437480321153998
0.02693038433790207 0.008499272167682646 0.0009218768100254238
0.02714243344962597 0.008868942037224768 0.001843729056417942
0.027239587157964706 0.009058753028512 -4.809339149147718e-09
0.027241013944149017 0.009061602875590323 0.0018437583930790424
0.02734345942735672 0.00927810091525316 -3.0804101491810343e-09
0.027576951310038567 0.009853870607912539 -2.918401742491028e-09
0.027655405923724174 0.01008201204240322 -4.809334708255619e-09
0.027656977996230125 0.010086729191243647 0.0018437583930790424
0.027745915576815605 0.010373456403613089 -9.967946468236732e-10
0.027739599347114563 0.010352798737585543 0.0018437574617564678
0.027814438566565514 0.010625933296978472 -4.8089283666286065e-09
0.02781560830771923 0.010630360804498194 0.0018437583930790424
0.027877146378159523 0.01088303606957197 -3.910074042323686e-09
0.027949603274464607 0.011233543045818804 0.0018437572289258242
0.027942480519413948 0.011196549050509928 -3.977426388246386e-09
0.027991686016321182 0.01147729344666004 -4.812480192128987e-09
0.027992263436317444 0.011480819433927534 0.0018437583930790424
0.028030946850776672 0.011742790229618548 -4.1055878696738546e-09
0.028034895658493042 0.011773412115871905 0.0018437579274177551
0.028069201856851578 0.012076650746166704 -4.260305885850357e-09
0.02807116135954857 0.012095456942915915 0.0018437578110024333
0.028092563152313232 0.012358042411506174 -4.810020826084838e-09
0.02809278853237629 0.01236107852309942 0.0018437583930790424
0.028108498081564903 0.012636882252991198 -4.260085173513062e-09
0.02810855768620968 0.012645273469388483 0.0018437582766637206
0.028116626664996147 0.0129736615344882 -4.409239195979353e-09
0.028116021305322647 0.01292995549738407 0.0018437582766637206
0.02810293808579445 0.013586794957518576 -4.770043915414135e-09
0.028083622455596924 0.013876530341804026 -4.490181115812675e-09
0.02808299846947193 0.013886857777833937 0.0018437579274177551
0.028056012466549873 0.01416165195405483 -4.808678344403461e-09
0.028014861047267914 0.01448498200625181 0.0018437583930790424
0.028025731444358826 0.014409811235964297 -3.5689513566694586e-09
0.027970509603619576 0.014764005318284033 -4.551349075399003e-09
0.027963951230049133 0.014801654964685438 0.001843758043833077
0.02791418880224228 0.015058281831443308 -4.806397946310881e-09
0.027842914685606956 0.01537487283349037 0.0018437582766637206
0.02786046825349331 0.015303497202694414 -3.6903784472741563e-09
0.027777621522545815 0.015627682209014893 -4.747106707725379e-09
0.027049455791711807 0.008697819896042345 -8.1029174481273e-09
0.02704327180981636 0.008689327165484427 0.0009218768100254238
0.027431584894657135 0.009480204433202742 2.4315255586770945e-08
0.027509210631251335 0.009673083201050757 0.0009218768100254238
0.028114788234233856 0.013258578255772589 -4.809700637764536e-09
0.028107095509767532 0.013509214855730532 0.0018437572289258242
0.02791433408856392 0.015057596378028391 0.0018437583930790424
0.028056180104613304 0.014160208404064177 0.0018437583930790424
0.028115980327129364 0.013204597868025301 0.0018437579274177551
0.0275714173913002 0.0098387049511075 0.0018437576945871115
0.027461860328912735 0.009553863666951655 0.0018437583930790424
0.02734702080488205 0.009286038577556608 0.0018437579274177551
0.02698364481329918 0.008587148040533064 0.0018437583930790424
0.02665204554796219 0.008084486238658426 0.0018437583930790424
0.026577681303024292 0.007988014258444307 1.6677290659572463e-07
0.0264429971575737 0.007819524034857748 0.0018436205573379993
0.026041081175208092 0.007390924263745545 0.0018437583930790424
0.02777670882642269 0.0156305730342865 0.0018437583930790424
0.02788224071264267 0.010906191542744635 0.001843758043833077
0.02297448180615902 0.006141620222479103 0.0018437583930790424
0.02284446731209755 0.006139012053608893 -4.825637667238425e-09
0.02313939481973648 0.006148692220449446 -5.105213141121112e-09
0.023729192093014717 0.0062157507054507715 0.0018437583930790424
0.0239147637039423 0.006250875536352394 -4.305106493518451e-09
0.02394617721438408 0.006257644854485987 0.0018437579274177551
0.02455795370042324 0.006439235527068375 0.0018437578110024333
0.02473594807088375 0.006511764600872992 -4.607619619179104e-09
0.024741319939494133 0.006514319218695162 0.0018437583930790424
0.02482891082763672 0.006553655490279196 0.000920249498449266
0.025737382471561432 0.007124578580260275 -4.784977747362973e-09
0.02560558170080185 0.007021719589829443 0.0009218768682330847
0.02546815574169159 0.0069219660945236666 -4.485668725351388e-09
0.023348774760961533 0.006165288388729094 0.0008852340397424996
0.023536335676908493 0.006186289712786673 -4.349465676511954e-09
0.023723142221570015 0.006214737892150877 -4.812689358146827e-09
0.02453542873263359 0.006430647335946558 -4.2840562208823485e-09
0.02498290129005909 0.006629115436226128 -4.746626647289531e-09
0.025892961770296097 0.007255797274410723 -3.503576317953616e-09
0.02587750181555748 0.007242294959723948 0.0018437583930790424
0.025735415518283844 0.007122807670384644 0.0018437583930790424
0.025474729016423225 0.006926492787897585 0.001843758043833077
0.025147853419184685 0.006718966178596018 0.0018437583930790424
0.024972349405288696 0.006623623892664908 0.0018437583930790424
0.024365559220314026 0.006371704395860432 0.0018437583930790424
0.024180877953767776 0.006315722595900295 0.0018437579274177551
0.02436232939362526 0.00637064268812537 -4.806378850474857e-09
0.024169396609067917 0.006312653888016937 -4.452830992818235e-09
0.023513073101639748 0.006183415185660122 0.0018437578110024333
0.023207737132906914 0.006153651047497986 0.0018437585094943643
0.022650690749287605 0.00613961089402437 0.0018437583930790424
0.025313355028629303 0.00681887613609433 -4.672943365591209e-09
0.0251509640365839 0.0067207342945039255 -4.803506481465547e-09
0.025314830243587494 0.0068200072273612005 0.0018437582766637206
0.020664220675826073 0.007663229014724492 0.0018437583930790424
0.020664121955633163 0.007664537988603114 -4.802168884765479e-09
0.020676305517554283 0.007515213917940854 -3.91290511103648e-09
0.020678428933024406 0.007499997038394212 0.001843757345341146
0.02081100270152092 0.007041790522634982 0.001843737089075148
0.020847594365477562 0.006970999762415885 7.853807915125799e-08
0.02087162248790264 0.006930383853614329 0.001843664445914328
0.020919792354106903 0.006855830550193786 -2.447947844430587e-09
0.02112465724349022 0.00662329839542508 -1.7931793827585807e-09
0.021059880033135414 0.006684962660074233 0.0018437567632645369
0.02099711075425148 0.006754116155207156 -1.9157169184325085e-09
0.021271860226988792 0.006508030928671358 -4.951008047981986e-09
0.021202383562922478 0.006558748893439769 0.0018437561811879277
0.021338365972042084 0.006465100683271883 0.0018437572289258242
0.02144598960876465 0.006404905114322899 0.0018437583930790424
0.02140778861939907 0.006424900144338606 -4.7545580805774534e-09
0.021682269871234894 0.006302311085164545 0.0018437583930790424
0.02155831642448902 0.006351063027977942 0.0018437583930790424
0.021558428183197975 0.006350718438625334 -4.726599112103713e-09
0.022365538403391838 0.006156907416880129 -4.958788490938559e-09
0.022190121933817863 0.006178071722388266 0.0018437557155266404
0.022098159417510033 0.006193018984049557 -4.96275642802857e-09
0.021723784506320953 0.00628756172955036 -4.800415620564991e-09
0.022593986243009567 0.006141677964478729 -4.7931743019091755e-09
0.020945245400071144 0.006819619797170161 0.0018437597900629044
0.02071492001414299 0.007310064509510993 0.0018437542021274567
0.02073994092643261 0.007221995387226342 6.33020436069387e-09
0.020753303542733192 0.0071840211749076835 0.0018437501275911927
0.020789196714758873 0.0070919753052294246 1.46791334643126e-08
0.022368120029568672 0.006156507879495619 0.0018437583930790424
0.0220023263245821 0.0062117483466863615 0.0018437585094943643
0.021901212632656097 0.006235111504793165 -4.8331560975611865e-09
0.02181888557970524 0.0062576397322118265 0.0018437583930790424
0.02070470340549946 0.007355147972702979 -3.4614962007850636e-09
0.01870114542543888 0.011049075983464716 -4.791346430721433e-09
0.018831836059689522 0.011016967706382273 -4.7850114981429215e-09
0.01883285492658615 0.01101667247712612 0.0018437583930790424
0.01895931549370289 0.010977637954056261 -4.765690508889975e-09
0.018960529938340187 0.010977207683026789 0.0018437583930790424
0.019082587212324142 0.010931363329291342 -4.7749622034132244e-09
0.019083987921476364 0.01093077380210161 0.0018437583930790424
0.019201600924134254 0.010878224857151507 -4.754849403099115e-09
0.019203199073672295 0.010877438820898531 0.0018437582766637206
0.019316434860229492 0.010818204842507837 -4.746899318064379e-09
0.019318144768476486 0.010817229747772215 0.0018437582766637206
0.019426826387643814 0.0107515100389719 -4.741223413873286e-09
0.019429899752140045 0.010749461129307745 0.0018437582766637206
0.019535522907972336 0.010676031932234762 -4.641354411916154e-09
0.019636116921901703 0.010596629232168196 -4.721120827611003e-09
0.01973199099302292 0.010511097498238085 -4.698897271282476e-09
0.01973346807062626 0.010509653948247431 0.0018437582766637206
0.019825536757707596 0.01041687838733196 -4.688086807647096e-09
0.01991402916610241 0.010316649451851843 -4.655769547667887e-09
0.01999545469880104 0.010213184170424936 -4.7162198590910975e-09
0.01999707520008087 0.010210942476987837 0.0018437582766637206
0.02007363736629486 0.010101727209985254 -4.709364009869432e-09
0.02007313072681427 0.010102621279656885 0.0018437582766637206
0.020146770402789116 0.009984921663999556 -4.718001545001016e-09
0.02024170756340027 0.009811895899474619 -4.645713147510833e-09
0.020214298740029335 0.009863840416073797 0.0018437582766637206
0.020277399569749832 0.009736698120832442 0.0018437582766637206
0.02033563144505024 0.009604561142623423 -4.766524064336863e-09
0.02033681608736515 0.009601682424545286 0.0018437583930790424
0.020390871912240982 0.009462129324674605 -4.762977567907001e-09
0.02043999172747135 0.009317453950643538 -4.774672657248402e-09
0.020504513755440712 0.009092642925679682 -4.774355133463359e-09
0.020484479144215584 0.009166725911200045 0.0018437583930790424
0.0205453559756279 0.008918059989809988 0.0018437583930790424
0.02057179994881153 0.008783573284745215 -4.798246244774873e-09
0.020601624622941017 0.008598695509135721 0.0018437583930790424
0.02061319909989834 0.008510011248290537 -4.799877384442652e-09
0.020641200244426727 0.008243802934885023 -4.8204080727032306e-09
0.02063295617699623 0.008332581259310244 0.0018437583930790424
0.020654944702982903 0.008033836260437964 0.0018437583930790424
0.02065727300941944 0.007961722090840338 -4.8075685654680456e-09
0.018280891701579094 0.011103607714176176 0.0018437583930790424
0.018111160025000572 0.011107626371085642 0.0018437585094943643
0.018224112689495087 0.011106352321803568 -4.844741496867755e-09
0.018425019457936287 0.011092638596892355 -4.80314232831347e-09
0.020415566861629486 0.0093934740871191 0.0018437583930790424
0.020145505666732788 0.009987117722630499 0.0018437582766637206
0.019912518560886383 0.010318519547581671 0.0018437582766637206
0.01982486993074417 0.010417689569294451 0.0018437582766637206
0.019634617492556572 0.010597934015095232 0.0018437582766637206
0.019533667713403702 0.010677533224225043 0.0018437582766637206
0.01869977079331875 0.011049408465623854 0.0018437583930790424
0.018565157428383827 0.011074434965848921 -4.794149965903216e-09
0.018564119935035706 0.011074623093008993 0.0018437583930790424
0.018424304202198982 0.011092728935182093 0.0018437583930790424
0.017422214150428772 0.011043608188629149 -4.337192827108538e-09
0.017536981031298637 0.011068460531532763 -4.6687151922242265e-09
0.01753867045044899 0.011068947613239287 0.0018437581602483988
0.017696961760520935 0.011090834625065325 -4.914664675226277e-09
0.017921576276421547 0.011104728095233439 -4.821369969931766e-09
0.017047422006726265 0.010878575965762137 -4.694001631833089e-09
0.017202047631144524 0.010964537039399145 -4.220149563138875e-09
0.017095275223255157 0.010907398536801336 0.0018437582766637206
0.017367970198392868 0.011029140092432497 0.0018437575781717896
0.01648532599210739 0.010390578769147394 0.0018437583930790424
0.01660495437681675 0.010508770123124121 -4.86705875601956e-09
0.016700105741620064 0.01059939246624708 0.0018437583930790424
0.01682617887854576 0.010711428709328173 0.0018437583930790424
0.016751639544963837 0.010646310634911059 -4.701348199631639e-09
0.016900675371289253 0.01077297795563936 -4.871907322012703e-09
0.01733207516372204 0.011016300879418848 -4.5465808895528426e-09
0.01720818132162094 0.010967235080897806 0.001843758043833077
0.017884375527501106 0.011102997697889803 0.0018437582766637206
0.01770891807973385 0.011091885156929491 0.0018437585094943643
0.016962803900241852 0.010820384137332438 0.0018437583930790424
0.015727683901786804 0.00827142409980297 -4.721599999868431e-09
0.015766186639666557 0.008636426180601118 -4.787232388281382e-09
0.015720892697572708 0.008208039216697214 0.0018437578110024333
0.016396211460232735 0.010298548266291617 -4.633389671937493e-09
0.0161643847823143 0.010021593421697615 0.001843758742325008
0.016233734786510468 0.010113077238202093 -4.895777117042144e-09
0.016292396932840347 0.010183641687035559 0.0018437583930790424
0.016075966879725456 0.009883915074169634 0.0018437579274177551
0.01612870581448078 0.009969208389520643 -4.543682319280151e-09
0.01604597084224224 0.009830474853515623 -5.093749422258043e-09
0.015983227640390396 0.009696778841316698 -4.0455163663466465e-09
0.016017107293009758 0.009772663936018942 0.0018437578110024333
0.015784824267029762 0.008801202289760111 0.0018437583930790424
0.015946054831147194 0.009601050987839697 0.001843759324401617
0.015938661992549896 0.009576403535902498 -4.728795577335632e-09
0.01588946208357811 0.009410029277205465 -4.786520513277992e-09
0.015874536707997322 0.009349066764116285 0.0018437589751556516
0.015843840315937996 0.009194834157824515 -4.747069848320962e-09
0.015828335657715797 0.009105000644922255 0.0018437583930790424
0.015802424401044846 0.008935246616601942 -4.7442241246642425e-09
0.014552428387105465 0.006139191798865794 1.922136405596575e-08
0.014655246399343014 0.006141806486994027 1.579522623806895e-09
0.014559308998286724 0.006138779688626527 0.001843754667788744
0.014748058281838894 0.006156025920063256 3.383417634950092e-08
0.014666046015918255 0.006142797414213418 0.0018437557155266404
0.01568400301039219 0.007928483188152311 -4.1363290570473055e-09
0.01562919281423092 0.007606504950672387 0.0018437567632645369
0.015624986961483955 0.007584529928863048 -3.2546239037145597e-09
0.014911487698554993 0.006211928091943263 0.0018437590915709734
0.014782563783228397 0.006163825746625661 0.0018437296384945512
0.014842708595097065 0.006183227058500051 -1.1043797876197914e-08
0.015555319376289845 0.007271920796483754 -5.130407654263536e-09
0.015573520213365555 0.007346937432885169 0.0018437578110024333
0.015409606508910656 0.006828663405030965 4.669601150197877e-09
0.015480531379580498 0.007019442506134509 -9.127919531337625e-10
0.015445849858224392 0.006920227780938148 0.0018437457038089633
0.015330586582422256 0.0066615468822419635 -4.810418730016863e-09
0.015368325635790825 0.006736284121870994 0.0018437583930790424
0.015291816554963589 0.006592738442122935 0.0018437582766637206
0.015235324390232563 0.006503266282379626 -4.904843642350443e-09
0.015030584298074245 0.00628690281882882 -4.866354874621948e-09
0.015123638324439526 0.006369070149958133 2.1122610327495295e-09
0.015047798864543438 0.006299151573330163 0.001843762001954019
0.014939230866730213 0.006227100733667611 -4.929391561603325e-09
0.01567455381155014 0.007869653403759001 0.0018437576945871115
0.01551324874162674 0.0071230041794478885 0.0018437557155266404
0.015215891413390636 0.006478029768913983 0.0018437582766637206
0.015148239210247993 0.006395740900188684 0.001843755366280675
0.0098348930478096 0.008917627856135368 -4.86163864721334e-09
0.010057762265205383 0.008731557056307793 -4.730302372024653e-09
0.009811596013605595 0.0089372294023633 0.0018437585094943643
0.010062593035399914 0.008727620355784893 0.0018437582766637206
0.011664553545415401 0.0075733442790806285 0.0008916013175621629
0.0114424554631114 0.007719693239778279 -4.795802421853068e-09
0.011987803503870964 0.007366848178207873 -4.913339068934874e-09
0.01309937797486782 0.00671969074755907 -4.6242520923556185e-09
0.013392296619713306 0.006567578297108411 -4.67714666996244e-09
0.013359044678509235 0.006583672016859054 0.0018437583930790424
0.014434481039643288 0.0061539621092379084 0.0018437582766637206
0.013872964307665825 0.006343176122754811 -4.18684553693538e-09
0.013714414089918137 0.00641308631747961 0.0018437583930790424
0.013644932769238949 0.006445368286222219 -4.778965667640023e-09
0.012901486828923225 0.006827275734394788 0.0018437582766637206
0.012845120392739773 0.006858864799141883 -4.667084496645657e-09
0.01251246314495802 0.007048683241009711 0.0018437582766637206
0.012479403987526894 0.007068231236189603 -4.674009179694849e-09
0.012012959457933903 0.007350931409746408 0.001843758625909686
0.011428610421717167 0.007728930562734603 0.0018437583930790424
0.009561353363096714 0.00916155707091093 -4.821087973283511e-09
0.009533989243209362 0.009187595918774605 0.0018437585094943643
0.014420898631215096 0.006156667135655879 -4.902469985523794e-09
0.014096585102379322 0.006254487670958041 -4.7410368964051486e-09
0.014249298721551895 0.0062024546787142745 -4.753539784019267e-09
0.014037637040019035 0.006275702733546495 0.001843758742325008
0.014263400807976723 0.006198138929903506 0.0018437583930790424
0.011124692857265472 0.007935606874525547 -4.720178026218491e-09
0.010852457024157047 0.008127053268253803 -4.708579304235627e-09
0.010855809785425663 0.008124726824462414 0.0018437582766637206
0.010603479109704494 0.008308605290949345 -4.656419250181898e-09
0.010312751866877079 0.008528591133654118 -4.795554175984762e-09
0.010319625958800316 0.008523362688720226 0.0018437582766637206
0.011110014282166958 0.007945723831653595 0.0018437583930790424
0.01060191635042429 0.008309715427458286 0.0018437582766637206
0.006814476102590562 0.02067781798541546 0.0018437581602483988
0.0068831327371299275 0.02086721919476986 -4.7332329167204534e-09
0.006729445885866881 0.020426224917173386 -4.729431513084137e-09
0.006651489064097405 0.020168300718069077 0.0018437583930790424
0.006624723318964244 0.020074903964996338 -4.8534709584657776e-09
0.00657787872478366 0.019899841398000717 0.0018437582766637206
0.006517453119158746 0.019650405272841454 0.0018437581602483988
0.006465908139944077 0.019415460526943207 -4.2106118591789254e-09
0.006451882887631656 0.019342828541994095 0.0018437578110024333
0.006405307911336423 0.01909017562866211 0.0018437583930790424
0.0063919583335518846 0.019005276262760162 0.0009218768100254238
0.006343842949718238 0.01868239790201187 0.001843758043833077
0.0063423020765185365 0.01866234838962555 0.0009218768100254238
0.006304472219198943 0.018328513950109482 0.0018437574617564678
0.006283744703978301 0.01808437518775463 0.0018437585094943643
0.006277017761021853 0.017976172268390656 0.0009218768100254238
0.006261582486331464 0.01768334209918976 0.0018437582766637206
0.006260497961193324 0.01762891560792923 0.0009218768100254238
0.0062542068772017964 0.017293205484747887 0.0018437574617564678
0.006256069522351027 0.017062082886695862 0.0018437585094943643
0.006259750574827195 0.016931232064962387 0.0009218768100254238
0.0062705008313059815 0.01665382832288742 0.0018437583930790424
0.006275324616581202 0.016581274569034576 0.0009218768100254238
0.006299701053649188 0.016239287331700325 0.0018437581602483988
0.006301479414105416 0.016230246052145958 0.0009218768100254238
0.006335660349577666 0.01589716598391533 0.0018437581602483988
0.006712304893881083 0.014012845233082771 0.0018437583930790424
0.00661648577079177 0.014370525255799294 0.0018437583930790424
0.0067113563418388375 0.014017824083566666 -4.483332816107577e-09
0.0068199820816516885 0.013655104674398899 0.0018437581602483988
0.0072734649293124684 0.012459374964237213 0.0018437583930790424
0.007133824285119773 0.012788116000592709 0.0018437582766637206
0.0072734770365059384 0.012460466474294662 -4.523052599125776e-09
0.007431451696902514 0.012117845937609673 0.0018437581602483988
0.008045327849686146 0.011013688519597054 0.0018437583930790424
