ply
format ascii 1.0
element vertex 844
property float x
property float y
property float z
end_header
0.03967437520623207 0.029904736205935478 0.14829999208450317
0.04006214812397957 0.029904736205935478 0.14829999208450317
0.040449924767017365 0.029904736205935478 0.14829999208450317
0.04081016406416893 0.029884571209549904 0.14819999039173126
0.041197679936885834 0.029884571209549904 0.14819999039173126
0.04158519208431244 0.029884571209549904 0.14819999039173126
0.04197271168231964 0.029884571209549904 0.14819999039173126
0.042360223829746246 0.029884571209549904 0.14819999039173126
0.04274773970246315 0.029884571209549904 0.14819999039173126
0.043135251849889755 0.029884571209549904 0.14819999039173126
0.04352277144789696 0.029884571209549904 0.14819999039173126
0.04391028359532356 0.029884571209549904 0.14819999039173126
0.044297799468040466 0.029884571209549904 0.14819999039173126
0.04468531161546707 0.029884571209549904 0.14819999039173126
0.04510324448347092 0.029904736205935478 0.14829999208450317
0.045491017401218414 0.029904736205935478 0.14829999208450317
0.04587879776954651 0.029904736205935478 0.14829999208450317
0.046266570687294006 0.029904736205935478 0.14829999208450317
0.04662289097905159 0.029884571209549904 0.14819999039173126
0.047010403126478195 0.029884571209549904 0.14819999039173126
0.0473659411072731 0.02986440807580948 0.14810000360012054
0.047656457871198654 0.029803913086652756 0.1477999985218048
0.047880399972200394 0.029703086242079735 0.14729999005794525
0.0 0.0 0.0
0.047990161925554276 0.029299788177013397 0.1453000009059906
0.04823692888021469 0.02921912632882595 0.14489999413490295
0.048481617122888565 0.029138468205928802 0.1445000022649765
0.04848751053214073 0.028916651383042336 0.14339999854564667
0.048658035695552826 0.02879566140472889 0.1428000032901764
0.04889408126473427 0.028715001419186592 0.14239999651908875
0.0491972379386425 0.028674669563770294 0.14219999313354492
0.04953420162200928 0.02865450456738472 0.142099991440773
0.049905769526958466 0.02865450456738472 0.142099991440773
0.050241950899362564 0.028634339570999146 0.1419999897480011
0.0 0.0 0.0
0.0 0.0 0.0
0.0 0.0 0.0
0.0 0.0 0.0
0.0 0.0 0.0
0.05413254350423813 0.02954176627099514 0.14649999141693115
0.05459003895521164 0.02958209626376629 0.14669999480247498
0.05501110479235649 0.029602261260151863 0.1467999964952469
0.055432695895433426 0.029622428119182587 0.1468999981880188
0.055816810578107834 0.029622428119182587 0.1468999981880188
0.05631570518016815 0.02968292310833931 0.14720000326633453
0.05673912167549133 0.029703086242079735 0.14729999005794525
0.0571630634367466 0.02972325123846531 0.14739999175071716
0.057587530463933945 0.029743416234850883 0.14749999344348907
0.057973213493824005 0.029743416234850883 0.14749999344348907
0.05839846655726433 0.029763581231236458 0.147599995136261
0.05882423743605614 0.02978374809026718 0.1476999968290329
0.05921044573187828 0.02978374809026718 0.1476999968290329
0.059596654027700424 0.02978374809026718 0.1476999968290329
0.05998286232352257 0.02978374809026718 0.1476999968290329
0.06036906689405441 0.02978374809026718 0.1476999968290329
0.06079641357064247 0.029803913086652756 0.1477999985218048
0.0611414834856987 0.02978374809026718 0.1476999968290329
0.061527691781520844 0.02978374809026718 0.1476999968290329
0.06191389635205269 0.02978374809026718 0.1476999968290329
0.06230010837316513 0.02978374809026718 0.1476999968290329
0.0626438707113266 0.029763581231236458 0.147599995136261
0.06302981823682785 0.029763581231236458 0.147599995136261
-0.026760905981063843 0.0308848824352026 0.15119999647140503
-0.026365546509623528 0.0308848824352026 0.15119999647140503
-0.025953009724617004 0.030864456668496132 0.15109999477863312
-0.02555791288614273 0.030864456668496132 0.15109999477863312
-0.025162814185023308 0.030864456668496132 0.15109999477863312
-0.024767717346549034 0.030864456668496132 0.15109999477863312
-0.02437261864542961 0.030864456668496132 0.15109999477863312
-0.023977521806955338 0.030864456668496132 0.15109999477863312
-0.023582423105835915 0.030864456668496132 0.15109999477863312
-0.02321801707148552 0.030905310064554214 0.15129999816417694
-0.022822396829724312 0.030905310064554214 0.15129999816417694
-0.022426774725317955 0.030905310064554214 0.15129999816417694
-0.022045714780688286 0.03092573583126068 0.15139999985694885
-0.021649833768606186 0.03092573583126068 0.15139999985694885
-0.021253950893878937 0.03092573583126068 0.15139999985694885
-0.020858068019151688 0.03092573583126068 0.15139999985694885
-0.02046218514442444 0.03092573583126068 0.15139999985694885
-0.020079556852579117 0.030946163460612297 0.15150000154972076
-0.01967042125761509 0.03092573583126068 0.15139999985694885
-0.01927453838288784 0.03092573583126068 0.15139999985694885
-0.0 0.0 0.0
-0.0 0.0 0.0
-0.0 0.0 0.0
-0.0 0.0 0.0
-0.0 0.0 0.0
-0.0 0.0 0.0
-0.0 0.0 0.0
-0.0 0.0 0.0
-0.0 0.0 0.0
-0.0 0.0 0.0
-0.014111755415797234 0.02925076149404049 0.14319999516010284
-0.0 0.0 0.0
-0.0 0.0 0.0
-0.013233326375484467 0.02980227768421173 0.14589999616146088
-0.012957530096173286 0.030047396197915077 0.14710000157356262
-0.012632721103727818 0.03019038215279579 0.1477999985218048
-0.012279394082725048 0.030272087082266808 0.14819999039173126
-0.011891879141330719 0.030272087082266808 0.14819999039173126
-0.01150436419993639 0.030272087082266808 0.14819999039173126
-0.01111684925854206 0.030272087082266808 0.14819999039173126
-0.010729334317147732 0.030272087082266808 0.14819999039173126
-0.010341819375753403 0.030272087082266808 0.14819999039173126
-0.0099610211327672 0.030292512848973274 0.14829999208450317
-0.009573244489729404 0.030292512848973274 0.14829999208450317
-0.009191662073135376 0.03031294047832489 0.14839999377727509
-0.008803623728454113 0.03031294047832489 0.14839999377727509
-0.008426927961409092 0.030353793874382973 0.1485999971628189
-0.00803836714476347 0.030353793874382973 0.1485999971628189
-0.007654953747987747 0.03037421964108944 0.14869999885559082
-0.007266131695359945 0.03037421964108944 0.14869999885559082
-0.0068819341249763966 0.030394647270441055 0.14880000054836273
-0.00649284990504384 0.030394647270441055 0.14880000054836273
-0.006111969240009785 0.03043549880385399 0.14899998903274536
-0.005722362548112869 0.03043549880385399 0.14899998903274536
-0.005332755856215954 0.03043549880385399 0.14899998903274536
-0.004943148698657751 0.03043549880385399 0.14899998903274536
-0.004556598141789436 0.030455924570560455 0.14909999072551727
-0.004166729748249054 0.030455924570560455 0.14909999072551727
-0.0037768615875393152 0.030455924570560455 0.14909999072551727
-0.003386993193998933 0.030455924570560455 0.14909999072551727
-0.0029951147735118866 0.03043549880385399 0.14899998903274536
-0.002605507615953684 0.03043549880385399 0.14899998903274536
-0.0022159009240567684 0.03043549880385399 0.14899998903274536
-0.0018262939993292093 0.03043549880385399 0.14899998903274536
-0.001436687191016972 0.03043549880385399 0.14899998903274536
-0.0010470803827047348 0.03043549880385399 0.14899998903274536
-0.0006574734579771757 0.03043549880385399 0.14899998903274536
-0.0002675070718396455 0.030394647270441055 0.14880000054836273
0.00012174026051070541 0.03043549880385399 0.14899998903274536
0.0005113471415825188 0.03043549880385399 0.14899998903274536
0.0009009539498947561 0.03043549880385399 0.14899998903274536
0.0012905608164146543 0.03043549880385399 0.14899998903274536
0.0016779126599431038 0.030394647270441055 0.14880000054836273
0.0020669964142143726 0.030394647270441055 0.14880000054836273
0.0024593814741820097 0.03043549880385399 0.14899998903274536
0.0028509004041552544 0.030455924570560455 0.14909999072551727
0.0032407687976956367 0.030455924570560455 0.14909999072551727
0.003623332129791379 0.030394647270441055 0.14880000054836273
0.0040124161168932915 0.030394647270441055 0.14880000054836273
0.0043985419906675816 0.03037421964108944 0.14869999885559082
0.004784144926816225 0.030353793874382973 0.1485999971628189
0.005158782005310059 0.030272087082266808 0.14819999039173126
0.00553881237283349 0.030231235548853874 0.14800000190734863
0.0059057846665382385 0.030129101127386093 0.14749999344348907
0.0 0.0 0.0
0.006563981994986534 0.029618438333272934 0.14499999582767487
0.0 0.0 0.0
0.007196031045168638 0.029107777401804924 0.14249999821186066
0.007526150904595852 0.028944365680217743 0.14169999957084656
0.007857659831643105 0.02880137972533703 0.14100000262260437
0.008150503039360046 0.028535833582282066 0.1396999955177307
0.00849140901118517 0.02845412865281105 0.13930000364780426
0.008836580440402031 0.0283928494900465 0.13899999856948853
0.009200038388371468 0.0283928494900465 0.13899999856948853
0.009563497267663479 0.0283928494900465 0.13899999856948853
0.00992695614695549 0.0283928494900465 0.13899999856948853
0.010305222123861313 0.028433702886104584 0.13920000195503235
0.010730521753430367 0.028597114607691765 0.14000000059604645
0.01121548656374216 0.02890351042151451 0.14149999618530273
0.011626419611275196 0.029005642980337143 0.1419999897480011
0.0 0.0 0.0
0.012604212388396263 0.029557159170508385 0.14469999074935913
0.01304538082331419 0.02970014698803425 0.1454000025987625
0.01355484314262867 0.029986117035150528 0.1467999964952469
0.014024153351783752 0.030169954523444176 0.1476999968290329
0.014420117251574993 0.03019038215279579 0.1477999985218048
0.014806586317718029 0.03019038215279579 0.1477999985218048
0.015193055383861065 0.03019038215279579 0.1477999985218048
0.015590065158903599 0.03021080791950226 0.14790000021457672
0.0159767959266901 0.03021080791950226 0.14790000021457672
0.01636352576315403 0.03021080791950226 0.14790000021457672
0.01676158234477043 0.030231235548853874 0.14800000190734863
0.0171485748142004 0.030231235548853874 0.14800000190734863
0.01754741556942463 0.03025166317820549 0.14810000360012054
0.01793466880917549 0.03025166317820549 0.14810000360012054
0.018321922048926353 0.03025166317820549 0.14810000360012054
0.0187218077480793 0.030272087082266808 0.14819999039173126
0.019109321758151054 0.030272087082266808 0.14819999039173126
0.019496837630867958 0.030272087082266808 0.14819999039173126
0.019884351640939713 0.030272087082266808 0.14819999039173126
0.020258190110325813 0.03025166317820549 0.14810000360012054
0.020617563277482986 0.03021080791950226 0.14790000021457672
0.020975889638066292 0.030169954523444176 0.1476999968290329
0.021304244175553322 0.03008824773132801 0.14729999005794525
0.021615782752633095 0.029986117035150528 0.1467999964952469
0.021894734352827072 0.029843131080269814 0.1460999995470047
0.022185271605849266 0.029720570892095566 0.14549998939037323
0.022503690794110298 0.02963886596262455 0.14509999752044678
0.02286732941865921 0.029618438333272934 0.14499999582767487
0.02323044463992119 0.029598012566566467 0.14489999413490295
0.023593036457896233 0.02957758493721485 0.14479999244213104
0.023955106735229492 0.029557159170508385 0.14469999074935913
0.024333469569683075 0.029557159170508385 0.14469999074935913
0.02469475381076336 0.02953673154115677 0.14459998905658722
0.025055518373847008 0.02951630763709545 0.1445000022649765
0.025433359667658806 0.02951630763709545 0.1445000022649765
0.025811200961470604 0.02951630763709545 0.1445000022649765
0.026189042255282402 0.02951630763709545 0.1445000022649765
0.0 0.0 0.0
0.026982013136148453 0.029557159170508385 0.14469999074935913
0.027417102828621864 0.029618438333272934 0.14499999582767487
0.02800711989402771 0.029843131080269814 0.1460999995470047
0.028583455830812454 0.030047396197915077 0.14710000157356262
0.029086250811815262 0.030169954523444176 0.1476999968290329
0.029512368142604828 0.03021080791950226 0.14790000021457672
0.029939530417323112 0.03025166317820549 0.14810000360012054
0.03034725785255432 0.030272087082266808 0.14819999039173126
0.0307762511074543 0.03031294047832489 0.14839999377727509
0.031185289844870567 0.030333366245031357 0.148499995470047
0.0315735898911953 0.030333366245031357 0.148499995470047
0.03196188807487488 0.030333366245031357 0.148499995470047
0.03235018998384476 0.030333366245031357 0.148499995470047
0.03273848816752434 0.030333366245031357 0.148499995470047
0.03312678635120392 0.030333366245031357 0.148499995470047
0.0335150882601738 0.030333366245031357 0.148499995470047
0.03390338644385338 0.030333366245031357 0.148499995470047
0.034268591552972794 0.03031294047832489 0.14839999377727509
0.03465663269162178 0.03031294047832489 0.14839999377727509
0.03504467010498047 0.03031294047832489 0.14839999377727509
0.03543270751833916 0.03031294047832489 0.14839999377727509
0.035820744931697845 0.03031294047832489 0.14839999377727509
0.03618438169360161 0.030292512848973274 0.14829999208450317
0.036572158336639404 0.030292512848973274 0.14829999208450317
0.0369599349796772 0.030292512848973274 0.14829999208450317
0.037347715348005295 0.030292512848973274 0.14829999208450317
0.0377100445330143 0.030272087082266808 0.14819999039173126
0.0380975604057312 0.030272087082266808 0.14819999039173126
0.038485072553157806 0.030272087082266808 0.14819999039173126
0.03887258842587471 0.030272087082266808 0.14819999039173126
0.039260104298591614 0.030272087082266808 0.14819999039173126
0.03964762017130852 0.030272087082266808 0.14819999039173126
0.04003513231873512 0.030272087082266808 0.14819999039173126
0.040422651916742325 0.030272087082266808 0.14819999039173126
0.04081016406416893 0.030272087082266808 0.14819999039173126
0.04116988554596901 0.03025166317820549 0.14810000360012054
0.04158519208431244 0.030272087082266808 0.14819999039173126
0.041944392025470734 0.03025166317820549 0.14810000360012054
0.04233164340257645 0.03025166317820549 0.14810000360012054
0.04271889850497246 0.03025166317820549 0.14810000360012054
0.04310614988207817 0.03025166317820549 0.14810000360012054
0.04352277144789696 0.030272087082266808 0.14819999039173126
0.04391028359532356 0.030272087082266808 0.14819999039173126
0.044297799468040466 0.030272087082266808 0.14819999039173126
0.04468531161546707 0.030272087082266808 0.14819999039173126
0.045072831213474274 0.030272087082266808 0.14819999039173126
0.04546034336090088 0.030272087082266808 0.14819999039173126
0.04584785923361778 0.030272087082266808 0.14819999039173126
0.04623537138104439 0.030272087082266808 0.14819999039173126
0.04662289097905159 0.030272087082266808 0.14819999039173126
0.04697868600487709 0.03025166317820549 0.14810000360012054
0.04730197414755821 0.03021080791950226 0.14790000021457672
0.04759196937084198 0.03014952875673771 0.147599995136261
0.04781539365649223 0.030047396197915077 0.14710000157356262
0.047905128449201584 0.02986355870962143 0.1462000012397766
0.04808924347162247 0.029740996658802032 0.14559999108314514
0.048270221799612045 0.029618438333272934 0.14499999582767487
0.04858226701617241 0.02957758493721485 0.14479999244213104
0.04879182577133179 0.02947545424103737 0.14429999887943268
0.04899877309799194 0.029373319819569588 0.14379999041557312
0.0492374412715435 0.029291614890098572 0.14339999854564667
0.04954320937395096 0.02925076149404049 0.14319999516010284
0.049882788211107254 0.029230335727334023 0.14309999346733093
0.05018673092126846 0.02918948046863079 0.1428999900817871
0.0505250059068203 0.029169056564569473 0.1428000032901764
0.05079147219657898 0.029107777401804924 0.14249999821186066
0.0 0.0 0.0
0.0 0.0 0.0
0.0 0.0 0.0
0.0 0.0 0.0
0.05413254350423813 0.02992483600974083 0.14649999141693115
0.05451561510562897 0.02992483600974083 0.14649999141693115
0.05497363209724426 0.029965689405798912 0.14669999480247498
0.055394962430000305 0.029986117035150528 0.1467999964952469
0.05577881261706352 0.029986117035150528 0.1467999964952469
0.05627744644880295 0.030047396197915077 0.14710000157356262
0.056700605899095535 0.030067823827266693 0.14720000326633453
0.05712427943944931 0.03008824773132801 0.14729999005794525
0.057548485696315765 0.030108675360679626 0.14739999175071716
0.057933907955884933 0.030108675360679626 0.14739999175071716
0.058358900249004364 0.030129101127386093 0.14749999344348907
0.05878441035747528 0.03014952875673771 0.147599995136261
0.05917035788297653 0.03014952875673771 0.147599995136261
0.059596654027700424 0.030169954523444176 0.1476999968290329
0.05998286232352257 0.030169954523444176 0.1476999968290329
0.06036906689405441 0.030169954523444176 0.1476999968290329
0.060755278915166855 0.030169954523444176 0.1476999968290329
0.0611414834856987 0.030169954523444176 0.1476999968290329
0.061527691781520844 0.030169954523444176 0.1476999968290329
0.06191389635205269 0.030169954523444176 0.1476999968290329
0.06230010837316513 0.030169954523444176 0.1476999968290329
0.0626438707113266 0.03014952875673771 0.147599995136261
0.06298711150884628 0.030129101127386093 0.14749999344348907
-0.02674320712685585 0.031259555369615555 0.15109999477863312
-0.026348108425736427 0.031259555369615555 0.15109999477863312
-0.025953009724617004 0.031259555369615555 0.15109999477863312
-0.025540998205542564 0.031238865107297897 0.1509999930858612
-0.025162814185023308 0.031259555369615555 0.15109999477863312
-0.024767717346549034 0.031259555369615555 0.15109999477863312
-0.02437261864542961 0.031259555369615555 0.15109999477863312
-0.023977521806955338 0.031259555369615555 0.15109999477863312
-0.023582423105835915 0.031259555369615555 0.15109999477863312
-0.02321801707148552 0.03130093216896057 0.15129999816417694
-0.022822396829724312 0.03130093216896057 0.15129999816417694
-0.022426774725317955 0.03130093216896057 0.15129999816417694
-0.022031154483556747 0.03130093216896057 0.15129999816417694
-0.021649833768606186 0.03132161870598793 0.15139999985694885
-0.021253950893878937 0.03132161870598793 0.15139999985694885
-0.020858068019151688 0.03132161870598793 0.15139999985694885
-0.020475702360272408 0.03134230896830559 0.15150000154972076
-0.020092811435461044 0.03136299550533295 0.15160000324249268
-0.01969640702009201 0.03136299550533295 0.15160000324249268
-0.019287269562482834 0.03134230896830559 0.15150000154972076
-0.018891124054789543 0.03134230896830559 0.15150000154972076
-0.01850719004869461 0.03136299550533295 0.15160000324249268
-0.0 0.0 0.0
-0.0 0.0 0.0
-0.0 0.0 0.0
-0.0 0.0 0.0
-0.0 0.0 0.0
-0.0 0.0 0.0
-0.0 0.0 0.0
-0.0 0.0 0.0
-0.0 0.0 0.0
-0.013775687664747238 0.029707955196499825 0.1436000019311905
-0.0 0.0 0.0
-0.0 0.0 0.0
-0.012922294437885284 0.030349282547831535 0.14669999480247498
-0.012632721103727818 0.030576851218938828 0.1477999985218048
-0.012271109968423843 0.030638916417956352 0.14810000360012054
-0.011891879141330719 0.030659601092338562 0.14819999039173126
-0.01150436419993639 0.030659601092338562 0.14819999039173126
-0.01111684925854206 0.030659601092338562 0.14819999039173126
-0.010729334317147732 0.030659601092338562 0.14819999039173126
-0.010341819375753403 0.030659601092338562 0.14819999039173126
-0.009954304434359074 0.030659601092338562 0.14819999039173126
-0.009573244489729404 0.03068028949201107 0.14829999208450317
-0.009185467846691608 0.03068028949201107 0.14829999208450317
-0.008803623728454113 0.03070097789168358 0.14839999377727509
-0.008421257138252258 0.030721666291356087 0.148499995470047
-0.00803836714476347 0.030742354691028595 0.1485999971628189
-0.00764980586245656 0.030742354691028595 0.1485999971628189
-0.007266131695359945 0.030763043090701103 0.14869999885559082
-0.0068819341249763966 0.03078373149037361 0.14880000054836273
-0.00649284990504384 0.03078373149037361 0.14880000054836273
-0.006103765685111284 0.03078373149037361 0.14880000054836273
-0.005722362548112869 0.03082510456442833 0.14899998903274536
-0.005332755856215954 0.03082510456442833 0.14899998903274536
-0.004946466535329819 0.030845792964100838 0.14909999072551727
-0.004556598141789436 0.030845792964100838 0.14909999072551727
-0.004166729748249054 0.030845792964100838 0.14909999072551727
-0.0037768615875393152 0.030845792964100838 0.14909999072551727
-0.003386993193998933 0.030845792964100838 0.14909999072551727
-0.002997125033289194 0.030845792964100838 0.14909999072551727
-0.002607256406918168 0.030845792964100838 0.14909999072551727
-0.0022173880133777857 0.030845792964100838 0.14909999072551727
-0.0018262939993292093 0.03082510456442833 0.14899998903274536
-0.001436687191016972 0.03082510456442833 0.14899998903274536
-0.0010470803827047348 0.03082510456442833 0.14899998903274536
-0.0006574734579771757 0.03082510456442833 0.14899998903274536
-0.00026786659145727754 0.03082510456442833 0.14899998903274536
0.00012174026051070541 0.03082510456442833 0.14899998903274536
0.0005113471415825188 0.03082510456442833 0.14899998903274536
0.0009009539498947561 0.03082510456442833 0.14899998903274536
0.0012905608164146543 0.03082510456442833 0.14899998903274536
0.0016779126599431038 0.03078373149037361 0.14880000054836273
0.0020697745494544506 0.03082510456442833 0.14899998903274536
0.0024593814741820097 0.03082510456442833 0.14899998903274536
0.002848988398909569 0.03082510456442833 0.14899998903274536
0.0032385950908064842 0.03082510456442833 0.14899998903274536
0.0036282020155340433 0.03082510456442833 0.14899998903274536
0.0040124161168932915 0.03078373149037361 0.14880000054836273
0.004395584110170603 0.030742354691028595 0.1485999971628189
0.004777706228196621 0.03070097789168358 0.14839999377727509
0.005155301187187433 0.030638916417956352 0.14810000360012054
0.005535069853067398 0.030597539618611336 0.14790000021457672
0.0 0.0 0.0
0.0 0.0 0.0
0.0 0.0 0.0
0.0 0.0 0.0
0.007241479586809874 0.029666580259799957 0.14339999854564667
0.007552707102149725 0.029418323189020157 0.14219999313354492
0.007902242243289948 0.029335571452975273 0.14180000126361847
0.00822051428258419 0.029149379581212997 0.14090000092983246
0.008534079417586327 0.028963187709450722 0.14000000059604645
0.008874722756445408 0.02888043411076069 0.1395999938249588
0.009233132004737854 0.02885974571108818 0.1394999921321869
0.009597898460924625 0.02885974571108818 0.1394999921321869
0.0099769476801157 0.028901122510433197 0.1396999955177307
0.010394060052931309 0.029045937582850456 0.1403999924659729
0.010830161161720753 0.029232129454612732 0.1412999927997589
0.011255117133259773 0.02937694638967514 0.1419999897480011
0.01172467228025198 0.02962520346045494 0.14319999516010284
0.0 0.0 0.0
0.012630344368517399 0.029997587203979492 0.14499999582767487
0.013081268407404423 0.03016309067606926 0.14579999446868896
0.013564077205955982 0.030390659347176552 0.1468999981880188
0.014024153351783752 0.03055616281926632 0.1476999968290329
0.014410360716283321 0.03055616281926632 0.1476999968290329
0.014806586317718029 0.030576851218938828 0.1477999985218048
0.015193055383861065 0.030576851218938828 0.1477999985218048
0.0155795244500041 0.030576851218938828 0.1477999985218048
0.0159767959266901 0.030597539618611336 0.14790000021457672
0.01636352576315403 0.030597539618611336 0.14790000021457672
0.016750257462263107 0.030597539618611336 0.14790000021457672
0.017136987298727036 0.030597539618611336 0.14790000021457672
0.01753556728363037 0.030618228018283844 0.14800000190734863
0.01792255975306034 0.030618228018283844 0.14800000190734863
0.018321922048926353 0.030638916417956352 0.14810000360012054
0.018709175288677216 0.030638916417956352 0.14810000360012054
0.019096430391073227 0.030638916417956352 0.14810000360012054
0.01947052776813507 0.030618228018283844 0.14800000190734863
0.01984410174190998 0.030597539618611336 0.14790000021457672
0.020203474909067154 0.03055616281926632 0.1476999968290329
0.020547861233353615 0.030494097620248795 0.14739999175071716
0.020848074927926064 0.030369970947504044 0.1467999964952469
0.021145150065422058 0.030245844274759293 0.1462000012397766
0.02142436057329178 0.030101025477051735 0.14549998939037323
0.021744873374700546 0.030018275603652 0.14509999752044678
0.022109033539891243 0.029997587203979492 0.14499999582767487
0.022441653534770012 0.029935522004961967 0.14469999074935913
0.022820016369223595 0.029935522004961967 0.14469999074935913
0.023182347416877747 0.02991483360528946 0.14459998905658722
0.02352786436676979 0.02987346053123474 0.1444000005722046
0.023872332647442818 0.029832083731889725 0.14419999718666077
0.024232571944594383 0.029811395332217216 0.14409999549388885
0.024592287838459015 0.029790706932544708 0.14399999380111694
0.02493414096534252 0.029749330133199692 0.14379999041557312
0.02534535340964794 0.029790706932544708 0.14399999380111694
0.025739749893546104 0.029811395332217216 0.14409999549388885
0.0 0.0 0.0
0.026511725038290024 0.029832083731889725 0.14419999718666077
0.0269447211176157 0.02989414893090725 0.1445000022649765
0.027417102828621864 0.029997587203979492 0.14499999582767487
0.02800711989402771 0.030225155875086784 0.1460999995470047
0.0 0.0 0.0
0.029086250811815262 0.03055616281926632 0.1476999968290329
0.029512368142604828 0.030597539618611336 0.14790000021457672
0.029939530417323112 0.030638916417956352 0.14810000360012054
0.03034725785255432 0.030659601092338562 0.14819999039173126
0.030755512416362762 0.03068028949201107 0.14829999208450317
0.031164290383458138 0.03070097789168358 0.14839999377727509
0.0315735898911953 0.030721666291356087 0.148499995470047
0.03196188807487488 0.030721666291356087 0.148499995470047
0.03232840448617935 0.03070097789168358 0.14839999377727509
0.03271644189953804 0.03070097789168358 0.14839999377727509
0.03310447931289673 0.03070097789168358 0.14839999377727509
0.033469948917627335 0.03068028949201107 0.14829999208450317
0.03385772556066513 0.03068028949201107 0.14829999208450317
0.03422240912914276 0.030659601092338562 0.14819999039173126
0.034609925001859665 0.030659601092338562 0.14819999039173126
0.03499743714928627 0.030659601092338562 0.14819999039173126
0.035384953022003174 0.030659601092338562 0.14819999039173126
0.03574833273887634 0.030638916417956352 0.14810000360012054
0.036135587841272354 0.030638916417956352 0.14810000360012054
0.03652283921837807 0.030638916417956352 0.14810000360012054
0.03691009432077408 0.030638916417956352 0.14810000360012054
0.03729734942317009 0.030638916417956352 0.14810000360012054
0.0376846008002758 0.030638916417956352 0.14810000360012054
0.038071855902671814 0.030638916417956352 0.14810000360012054
0.03843313828110695 0.030618228018283844 0.14800000190734863
0.03882013261318207 0.030618228018283844 0.14800000190734863
0.03920712321996689 0.030618228018283844 0.14800000190734863
0.03959411755204201 0.030618228018283844 0.14800000190734863
0.03998110815882683 0.030618228018283844 0.14800000190734863
0.040395379066467285 0.030638916417956352 0.14810000360012054
0.040782630443573 0.030638916417956352 0.14810000360012054
0.04116988554596901 0.030638916417956352 0.14810000360012054
0.04155713692307472 0.030638916417956352 0.14810000360012054
0.041944392025470734 0.030638916417956352 0.14810000360012054
0.04233164340257645 0.030638916417956352 0.14810000360012054
0.04271889850497246 0.030638916417956352 0.14810000360012054
0.04310614988207817 0.030638916417956352 0.14810000360012054
0.04349340498447418 0.030638916417956352 0.14810000360012054
0.043880656361579895 0.030638916417956352 0.14810000360012054
0.044267911463975906 0.030638916417956352 0.14810000360012054
0.04465516284108162 0.030638916417956352 0.14810000360012054
0.045072831213474274 0.030659601092338562 0.14819999039173126
0.04542967304587364 0.030638916417956352 0.14810000360012054
0.04584785923361778 0.030659601092338562 0.14819999039173126
0.04623537138104439 0.030659601092338562 0.14819999039173126
0.04659143462777138 0.030638916417956352 0.14810000360012054
0.04697868600487709 0.030638916417956352 0.14810000360012054
0.04730197414755821 0.030597539618611336 0.14790000021457672
0.047624215483665466 0.03055616281926632 0.1476999968290329
0.04784790053963661 0.030452724546194077 0.14720000326633453
0.0480034276843071 0.03030790574848652 0.14649999141693115
0.0 0.0 0.0
0.04833680018782616 0.03003896400332451 0.1451999992132187
0.04861581698060036 0.029976898804306984 0.14489999413490295
0.04889326170086861 0.02991483360528946 0.14459998905658722
0.0491691455245018 0.029852772131562233 0.14429999887943268
0.049443453550338745 0.029790706932544708 0.14399999380111694
0.049716200679540634 0.029728643596172333 0.1437000036239624
0.05005708709359169 0.029707955196499825 0.1436000019311905
0.05043257400393486 0.029707955196499825 0.1436000019311905
0.05080806091427803 0.029707955196499825 0.1436000019311905
0.05107661709189415 0.02964589186012745 0.14329999685287476
0.0 0.0 0.0
0.0 0.0 0.0
0.0 0.0 0.0
0.0 0.0 0.0
0.054021693766117096 0.030245844274759293 0.1462000012397766
0.05447840318083763 0.03028721734881401 0.14639998972415924
0.05489868298172951 0.03030790574848652 0.14649999141693115
0.055357225239276886 0.030349282547831535 0.14669999480247498
0.05577881261706352 0.030369970947504044 0.1467999964952469
0.05620092898607254 0.030390659347176552 0.1468999981880188
0.05666208639740944 0.03043203614652157 0.14710000157356262
0.05708550661802292 0.030452724546194077 0.14720000326633453
0.057509444653987885 0.030473409220576286 0.14729999005794525
0.05789460241794586 0.030473409220576286 0.14729999005794525
0.0583193339407444 0.030494097620248795 0.14739999175071716
0.058744583278894424 0.030514786019921303 0.14749999344348907
0.05913027003407478 0.030514786019921303 0.14749999344348907
0.059556301683187485 0.03053547441959381 0.147599995136261
0.059942249208688736 0.03053547441959381 0.147599995136261
0.06036906689405441 0.03055616281926632 0.1476999968290329
0.060755278915166855 0.03055616281926632 0.1476999968290329
0.0611414834856987 0.03055616281926632 0.1476999968290329
0.061527691781520844 0.03055616281926632 0.1476999968290329
0.06191389635205269 0.03055616281926632 0.1476999968290329
0.062257926911115646 0.03053547441959381 0.147599995136261
0.06260142475366592 0.030514786019921303 0.14749999344348907
0.06294441223144531 0.030494097620248795 0.14739999175071716
-0.02674320712685585 0.03165465220808983 0.15109999477863312
-0.026348108425736427 0.03165465220808983 0.15109999477863312
-0.025953009724617004 0.03165465220808983 0.15109999477863312
-0.02555791288614273 0.03165465220808983 0.15109999477863312
-0.025146162137389183 0.03163370117545128 0.1509999930858612
-0.024767717346549034 0.03165465220808983 0.15109999477863312
-0.02437261864542961 0.03165465220808983 0.15109999477863312
-0.023977521806955338 0.03165465220808983 0.15109999477863312
-0.023582423105835915 0.03165465220808983 0.15109999477863312
-0.02321801707148552 0.03169655054807663 0.15129999816417694
-0.022822396829724312 0.03169655054807663 0.15129999816417694
-0.022426774725317955 0.03169655054807663 0.15129999816417694
-0.022045714780688286 0.03171750158071518 0.15139999985694885
-0.021649833768606186 0.03171750158071518 0.15139999985694885
-0.02126798965036869 0.03173845261335373 0.15150000154972076
-0.02087184600532055 0.03173845261335373 0.15150000154972076
-0.020489217713475227 0.03175939992070198 0.15160000324249268
-0.020106064155697823 0.03178034722805023 0.1516999900341034
-0.019709397107362747 0.03178034722805023 0.1516999900341034
-0.019300000742077827 0.03175939992070198 0.15160000324249268
-0.018903594464063644 0.03175939992070198 0.15160000324249268
-0.01850719004869461 0.03175939992070198 0.15160000324249268
-0.0 0.0 0.0
-0.0 0.0 0.0
-0.0 0.0 0.0
-0.0 0.0 0.0
-0.0 0.0 0.0
-0.0 0.0 0.0
-0.0 0.0 0.0
-0.0 0.0 0.0
-0.0 0.0 0.0
-0.0 0.0 0.0
-0.0 0.0 0.0
-0.0 0.0 0.0
-0.0 0.0 0.0
-0.012624173425137997 0.030942371115088463 0.1476999968290329
-0.012271109968423843 0.031026169657707214 0.14810000360012054
-0.011883855797350407 0.031026169657707214 0.14810000360012054
-0.011496602557599545 0.031026169657707214 0.14810000360012054
-0.011109349317848682 0.031026169657707214 0.14810000360012054
-0.010729334317147732 0.031047116965055466 0.14819999039173126
-0.010341819375753403 0.031047116965055466 0.14819999039173126
-0.009954304434359074 0.031047116965055466 0.14819999039173126
-0.009566789492964745 0.031047116965055466 0.14819999039173126
-0.009185467846691608 0.031068066135048866 0.14829999208450317
-0.008803623728454113 0.031089015305042267 0.14839999377727509
-0.00841558538377285 0.031089015305042267 0.14839999377727509
-0.008032957091927528 0.031109966337680817 0.148499995470047
-0.00764980586245656 0.031130915507674217 0.1485999971628189
-0.007266131695359945 0.031151864677667618 0.14869999885559082
-0.006877309177070856 0.031151864677667618 0.14869999885559082
-0.00649284990504384 0.031172815710306168 0.14880000054836273
-0.006111969240009785 0.03121471218764782 0.14899998903274536
-0.005722362548112869 0.03121471218764782 0.14899998903274536
-0.005332755856215954 0.03121471218764782 0.14899998903274536
-0.004946466535329819 0.03123566135764122 0.14909999072551727
-0.004562710411846638 0.03127755969762802 0.1492999941110611
-0.004172319080680609 0.03127755969762802 0.1492999941110611
-0.0037768615875393152 0.03123566135764122 0.14909999072551727
-0.0033915366511791945 0.03127755969762802 0.1492999941110611
-0.002997125033289194 0.03123566135764122 0.14909999072551727
-0.002607256406918168 0.03123566135764122 0.14909999072551727
-0.0022173880133777857 0.03123566135764122 0.14909999072551727
-0.0018275197362527251 0.03123566135764122 0.14909999072551727
-0.001436687191016972 0.03121471218764782 0.14899998903274536
-0.0010470803827047348 0.03121471218764782 0.14899998903274536
-0.0006574734579771757 0.03121471218764782 0.14899998903274536
-0.00026786659145727754 0.03121471218764782 0.14899998903274536
0.00012174026051070541 0.03121471218764782 0.14899998903274536
0.0005113471415825188 0.03121471218764782 0.14899998903274536
0.0009009539498947561 0.03121471218764782 0.14899998903274536
0.0012905608164146543 0.03121471218764782 0.14899998903274536
0.0016801677411422133 0.03121471218764782 0.14899998903274536
0.0020697745494544506 0.03121471218764782 0.14899998903274536
0.0024593814741820097 0.03121471218764782 0.14899998903274536
0.002848988398909569 0.03121471218764782 0.14899998903274536
0.00323424837552011 0.031172815710306168 0.14880000054836273
0.003623332129791379 0.031172815710306168 0.14880000054836273
0.004007022827863693 0.031130915507674217 0.1485999971628189
0.004389667883515358 0.031089015305042267 0.14839999377727509
0.0047712670639157295 0.031047116965055466 0.14819999039173126
0.0051483395509421825 0.030984269455075264 0.14790000021457672
0.0055275848135352135 0.030942371115088463 0.1476999968290329
0.005881761200726032 0.03077477402985096 0.1468999981880188
0.006231753621250391 0.030607178807258606 0.1460999995470047
0.0065730358473956585 0.03041863441467285 0.1451999992132187
0.0069335526786744595 0.03033483400940895 0.14479999244213104
0.0072818780317902565 0.030209138989448547 0.14419999718666077
0.007605820428580046 0.029999643564224243 0.14319999516010284
0.007924533449113369 0.02979014813899994 0.14219999313354492
0.008267189376056194 0.029685402289032936 0.14169999957084656
0.008613323792815208 0.029601603746414185 0.1412999927997589
0.00896372552961111 0.029538756236433983 0.14100000262260437
0.009325794875621796 0.029517807066440582 0.14090000092983246
0.009701102040708065 0.029538756236433983 0.14100000262260437
0.010084073059260845 0.029580652713775635 0.141199991106987
0.010490301996469498 0.029685402289032936 0.14169999957084656
0.010883813723921776 0.02974824793636799 0.1419999897480011
0.0 0.0 0.0
0.01181473582983017 0.030230088159441948 0.14429999887943268
0.012242747470736504 0.0303557850420475 0.14489999413490295
0.012647765688598156 0.03041863441467285 0.1451999992132187
0.01311715692281723 0.030628129839897156 0.1462000012397766
0.013582544401288033 0.03081667423248291 0.14710000157356262
0.014024153351783752 0.030942371115088463 0.1476999968290329
0.014410360716283321 0.030942371115088463 0.1476999968290329
0.014806586317718029 0.030963320285081863 0.1477999985218048
0.015193055383861065 0.030963320285081863 0.1477999985218048
0.0155795244500041 0.030963320285081863 0.1477999985218048
0.015965992584824562 0.030963320285081863 0.1477999985218048
0.01636352576315403 0.030984269455075264 0.14790000021457672
0.016750257462263107 0.030984269455075264 0.14790000021457672
0.017136987298727036 0.030984269455075264 0.14790000021457672
0.017523718997836113 0.030984269455075264 0.14790000021457672
0.01792255975306034 0.031005220487713814 0.14800000190734863
0.01829717867076397 0.030984269455075264 0.14790000021457672
0.018683910369873047 0.030984269455075264 0.14790000021457672
0.01905774511396885 0.030963320285081863 0.1477999985218048
0.019431058317422867 0.030942371115088463 0.1476999968290329
0.01979043148458004 0.030900470912456512 0.14749999344348907
0.020094044506549835 0.03077477402985096 0.1468999981880188
0.020380578935146332 0.030628129839897156 0.1462000012397766
0.020649250596761703 0.030460532754659653 0.1454000025987625
0.020971590653061867 0.0303767342120409 0.14499999582767487
0.021321289241313934 0.03033483400940895 0.14479999244213104
0.021669941022992134 0.03029293566942215 0.14459998905658722
0.022017549723386765 0.030251039192080498 0.1444000005722046
0.022348599508404732 0.030188189819455147 0.14409999549388885
0.022709622979164124 0.030167238786816597 0.14399999380111694
0.02303806133568287 0.030104393139481544 0.1437000036239624
0.023364927619695663 0.030041543766856194 0.14339999854564667
0.023723337799310684 0.030020592734217644 0.14329999685287476
0.024064406752586365 0.029978694394230843 0.14309999346733093
0.024387352168560028 0.02991584688425064 0.1428000032901764
0.024760747328400612 0.02991584688425064 0.1428000032901764
0.025134142488241196 0.02991584688425064 0.1428000032901764
0.0 0.0 0.0
0.025935305282473564 0.029978694394230843 0.14309999346733093
0.026346256956458092 0.030020592734217644 0.14329999685287476
0.026851486414670944 0.030167238786816597 0.14399999380111694
0.027379285544157028 0.03033483400940895 0.14479999244213104
0.027949608862400055 0.030544329434633255 0.14579999446868896
0.0 0.0 0.0
0.029086250811815262 0.030942371115088463 0.1476999968290329
0.029512368142604828 0.030984269455075264 0.14790000021457672
0.029939530417323112 0.031026169657707214 0.14810000360012054
0.03034725785255432 0.031047116965055466 0.14819999039173126
0.030755512416362762 0.031068066135048866 0.14829999208450317
0.031164290383458138 0.031089015305042267 0.14839999377727509
0.03155232593417168 0.031089015305042267 0.14839999377727509
0.03194036707282066 0.031089015305042267 0.14839999377727509
0.03230661898851395 0.031068066135048866 0.14829999208450317
0.03269439563155174 0.031068066135048866 0.14829999208450317
0.03305986523628235 0.031047116965055466 0.14819999039173126
0.033447377383708954 0.031047116965055466 0.14819999039173126
0.03381206467747688 0.031026169657707214 0.14810000360012054
0.034199319779872894 0.031026169657707214 0.14810000360012054
0.03456321731209755 0.031005220487713814 0.14800000190734863
0.03495021164417267 0.031005220487713814 0.14800000190734863
0.03531332686543465 0.030984269455075264 0.14790000021457672
0.035700056701898575 0.030984269455075264 0.14790000021457672
0.03606238588690758 0.030963320285081863 0.1477999985218048
0.03644885495305061 0.030963320285081863 0.1477999985218048
0.03683532401919365 0.030963320285081863 0.1477999985218048
0.037221796810626984 0.030963320285081863 0.1477999985218048
0.03760826215147972 0.030963320285081863 0.1477999985218048
0.037994734942913055 0.030963320285081863 0.1477999985218048
0.03838120028376579 0.030963320285081863 0.1477999985218048
0.03876767307519913 0.030963320285081863 0.1477999985218048
0.039154138416051865 0.030963320285081863 0.1477999985218048
0.03956736624240875 0.030984269455075264 0.14790000021457672
0.03995409235358238 0.030984269455075264 0.14790000021457672
0.04034082591533661 0.030984269455075264 0.14790000021457672
0.04072755575180054 0.030984269455075264 0.14790000021457672
0.041114285588264465 0.030984269455075264 0.14790000021457672
0.041501015424728394 0.030984269455075264 0.14790000021457672
0.04191606864333153 0.031005220487713814 0.14800000190734863
0.04230305925011635 0.031005220487713814 0.14800000190734863
0.04269005358219147 0.031005220487713814 0.14800000190734863
0.04307704418897629 0.031005220487713814 0.14800000190734863
0.04349340498447418 0.031026169657707214 0.14810000360012054
0.043880656361579895 0.031026169657707214 0.14810000360012054
0.044267911463975906 0.031026169657707214 0.14810000360012054
0.04465516284108162 0.031026169657707214 0.14810000360012054
0.04504242166876793 0.031026169657707214 0.14810000360012054
0.04542967304587364 0.031026169657707214 0.14810000360012054
0.04581692814826965 0.031026169657707214 0.14810000360012054
0.046204179525375366 0.031026169657707214 0.14810000360012054
0.04659143462777138 0.031026169657707214 0.14810000360012054
0.046915244311094284 0.030984269455075264 0.14790000021457672
0.04726999253034592 0.030963320285081863 0.1477999985218048
0.04759196937084198 0.030921420082449913 0.147599995136261
0.04784790053963661 0.03083762340247631 0.14720000326633453
0.0480034276843071 0.030690975487232208 0.14649999141693115
0.04818832874298096 0.030565280467271805 0.14589999616146088
0.04837009310722351 0.030439583584666252 0.1453000009059906
0.048649370670318604 0.0303767342120409 0.14499999582767487
0.048960890620946884 0.03033483400940895 0.14479999244213104
0.049271367490291595 0.03029293566942215 0.14459998905658722
0.04951212555170059 0.030209138989448547 0.14419999718666077
0.0498545840382576 0.030188189819455147 0.14409999549388885
0.05019651725888252 0.030167238786816597 0.14399999380111694
0.05050281062722206 0.030125338584184647 0.14379999041557312
0.05084344372153282 0.030104393139481544 0.1437000036239624
0.0511835478246212 0.030083442106842995 0.1436000019311905
0.0 0.0 0.0
0.0 0.0 0.0
0.05281998962163925 0.0303767342120409 0.14499999582767487
0.0 0.0 0.0
0.054021693766117096 0.030628129839897156 0.1462000012397766
0.05440398305654526 0.030628129839897156 0.1462000012397766
0.05486121028661728 0.030670026317238808 0.14639998972415924
0.055281754583120346 0.030690975487232208 0.14649999141693115
0.05574081465601921 0.03073287568986416 0.14669999480247498
0.056162670254707336 0.03075382485985756 0.1467999964952469
0.05658504739403725 0.03077477402985096 0.1468999981880188
0.05704672262072563 0.03081667423248291 0.14710000157356262
0.0574704073369503 0.03083762340247631 0.14720000326633453
0.05785530433058739 0.03083762340247631 0.14720000326633453
0.058279767632484436 0.030858570709824562 0.14729999005794525
0.05870475620031357 0.030879519879817963 0.14739999175071716
0.059090178459882736 0.030879519879817963 0.14739999175071716
0.059515953063964844 0.030900470912456512 0.14749999344348907
0.0599016398191452 0.030900470912456512 0.14749999344348907
0.06032819300889969 0.030921420082449913 0.147599995136261
0.06071414425969124 0.030921420082449913 0.147599995136261
0.06110008805990219 0.030921420082449913 0.147599995136261
0.06148603558540344 0.030921420082449913 0.147599995136261
0.061871979385614395 0.030921420082449913 0.147599995136261
0.06221574544906616 0.030900470912456512 0.14749999344348907
0.06260142475366592 0.030900470912456512 0.14749999344348907
0.06294441223144531 0.030879519879817963 0.14739999175071716
-0.02674320712685585 0.0320497490465641 0.15109999477863312
-0.026348108425736427 0.0320497490465641 0.15109999477863312
-0.025953009724617004 0.0320497490465641 0.15109999477863312
-0.02555791288614273 0.0320497490465641 0.15109999477863312
-0.025146162137389183 0.03202853724360466 0.1509999930858612
-0.024767717346549034 0.0320497490465641 0.15109999477863312
-0.02437261864542961 0.0320497490465641 0.15109999477863312
-0.023977521806955338 0.0320497490465641 0.15109999477863312
-0.023582423105835915 0.0320497490465641 0.15109999477863312
-0.023202670738101006 0.032070960849523544 0.15119999647140503
-0.022822396829724312 0.032092172652482986 0.15129999816417694
-0.022441597655415535 0.03211338445544243 0.15139999985694885
-0.022045714780688286 0.03211338445544243 0.15139999985694885
-0.021649833768606186 0.03211338445544243 0.15139999985694885
-0.02126798965036869 0.03213459625840187 0.15150000154972076
-0.02088562212884426 0.03215580806136131 0.15160000324249268
-0.020529761910438538 0.03221943601965904 0.15189999341964722
-0.02013257145881653 0.03221943601965904 0.15189999341964722
-0.019709397107362747 0.03217701613903046 0.1516999900341034
-0.019312730059027672 0.03217701613903046 0.1516999900341034
-0.018916063010692596 0.03217701613903046 0.1516999900341034
-0.01851939596235752 0.03217701613903046 0.1516999900341034
-0.018122728914022446 0.03217701613903046 0.1516999900341034
-0.01772606186568737 0.03217701613903046 0.1516999900341034
-0.017329394817352295 0.03217701613903046 0.1516999900341034
-0.0 0.0 0.0
-0.0 0.0 0.0
-0.0 0.0 0.0
-0.0 0.0 0.0
-0.0 0.0 0.0
-0.0 0.0 0.0
-0.0 0.0 0.0
-0.0 0.0 0.0
-0.0 0.0 0.0
-0.0 0.0 0.0
-0.0 0.0 0.0
-0.012271109968423843 0.031413424760103226 0.14810000360012054
-0.011883855797350407 0.031413424760103226 0.14810000360012054
-0.011496602557599545 0.031413424760103226 0.14810000360012054
-0.011109349317848682 0.031413424760103226 0.14810000360012054
-0.010722095146775246 0.031413424760103226 0.14810000360012054
-0.010341819375753403 0.03143463283777237 0.14819999039173126
-0.009954304434359074 0.03143463283777237 0.14819999039173126
-0.009566789492964745 0.03143463283777237 0.14819999039173126
-0.009179273620247841 0.03143463283777237 0.14819999039173126
-0.008797691203653812 0.03145584091544151 0.14829999208450317
-0.00841558538377285 0.031477052718400955 0.14839999377727509
-0.008032957091927528 0.0314982645213604 0.148499995470047
-0.007644657976925373 0.0314982645213604 0.148499995470047
-0.007261245045810938 0.03151947632431984 0.1485999971628189
-0.006872684229165316 0.03151947632431984 0.1485999971628189
-0.00648848619312048 0.03154068812727928 0.14869999885559082
-0.00609966367483139 0.03154068812727928 0.14869999885559082
-0.005714681930840015 0.031561899930238724 0.14880000054836273
-0.005332755856215954 0.03160431981086731 0.14899998903274536
-0.004943148698657751 0.03160431981086731 0.14899998903274536
-0.004553542006760836 0.03160431981086731 0.14899998903274536
-0.004166729748249054 0.03162553161382675 0.14909999072551727
-0.0037768615875393152 0.03162553161382675 0.14909999072551727
-0.003386993193998933 0.03162553161382675 0.14909999072551727
-0.002997125033289194 0.03162553161382675 0.14909999072551727
-0.002607256406918168 0.03162553161382675 0.14909999072551727
-0.0022173880133777857 0.03162553161382675 0.14909999072551727
-0.0018275197362527251 0.03162553161382675 0.14909999072551727
-0.0014376514591276646 0.03162553161382675 0.14909999072551727
-0.0010477830655872822 0.03162553161382675 0.14909999072551727
-0.0006579147302545607 0.03162553161382675 0.14909999072551727
-0.00026804639492183924 0.03162553161382675 0.14909999072551727
0.00012174026051070541 0.03160431981086731 0.14899998903274536
0.0005113471415825188 0.03160431981086731 0.14899998903274536
0.0009015586692839861 0.03162553161382675 0.14909999072551727
0.0012905608164146543 0.03160431981086731 0.14899998903274536
0.0016801677411422133 0.03160431981086731 0.14899998903274536
0.0020669964142143726 0.031561899930238724 0.14880000054836273
0.002456080634146929 0.031561899930238724 0.14880000054836273
0.0028451643884181976 0.031561899930238724 0.14880000054836273
0.0032299011945724487 0.03151947632431984 0.1485999971628189
0.003616027068346739 0.0314982645213604 0.148499995470047
0.003998933359980583 0.03145584091544151 0.14829999208450317
0.004383751656860113 0.03143463283777237 0.14819999039173126
0.00476160878315568 0.03137100115418434 0.14790000021457672
0.0051413774490356445 0.03132857754826546 0.1476999968290329
0.005512614734470844 0.031243732199072838 0.14729999005794525
0.005861741025000811 0.031052833423018456 0.14639998972415924
0.006206160876899958 0.030861934646964073 0.14549998939037323
0.006563981994986534 0.03075588122010231 0.14499999582767487
