ply
format ascii 1.0
element vertex 782
property float x
property float y
property float z
end_header
-0.014828063627974935 0.008179570098120932 0.1963078951770959
-0.015908587328724202 0.005242738084093756 0.19464770452123212
-0.01599120604421281 0.004955609647620641 0.19469516198979042
-0.015998318306820712 0.0053021808239811655 0.19678224010647385
-0.01606729203433961 0.00466210383581768 0.19474370433829055
-0.01633184178240028 0.0033702307406074244 0.19495761899116945
-0.016419389539323027 0.0027968369620545988 0.19505267262813208
-0.01642851433557774 0.0031317335297160365 0.19714168549763747
-0.016473714575378332 0.0023865862758064194 0.195120711672305
-0.01648818422692015 0.002677681174863155 0.19721699077943208
-0.01661815153581771 0.0014856205948684843 0.19741479203411888
-0.016539875640181452 0.0022425356154446865 0.19728918003833612
-0.015282547196556796 0.00726269167604927 0.19645874934907354
-0.015320177311801655 0.006817032871603112 0.1943879894404731
-0.014735428261588784 0.007988913950550946 0.1941951942064689
-0.014508903323469727 0.00875870210688599 0.19621272725953381
-0.014572963540761742 0.008283754532874554 0.19414674316048025
-0.016527604381902827 0.0019363053676807601 0.1951954103194273
-0.016348384440433017 0.0036631070724293066 0.19705359424054483
-0.016255305205856094 0.0037984372391950292 0.19488667391353165
-0.016262553531887127 0.0041474357304173435 0.19697334828732224
-0.016164800529840314 0.004246151018106199 0.1948125349699646
-0.016203891328325545 0.004442947335342509 0.1969244092936622
-0.01614037504625333 0.004734183448041669 0.19687619880073856
-0.016076368458012132 0.005003386469727484 0.19683165503377892
-0.015914961267419793 0.005594089008092137 0.19673399025806526
-0.015828404483490262 0.005500687977042902 0.1946050909746171
-0.015834487374854208 0.005852589670905574 0.19669128631104868
-0.015740662241027048 0.005762576630503513 0.19456184975178134
-0.015748170539922904 0.006109794273506709 0.1966488193612877
-0.015647224340238637 0.006021780265940111 0.1945190759107697
-0.01565465127429672 0.006369373604098985 0.19660598331368814
-0.015514249878300437 0.0063638051766047145 0.19446266993518038
-0.015555211730255324 0.006627128721697082 0.19656347191815615
-0.015428322434147247 0.006935127779339394 0.19651270335539248
-0.012854344435503443 0.011318434188595766 0.19579297297959222
-0.013028150954669204 0.01074233447073416 0.19374341618257812
-0.013032006588793 0.011094137819277542 0.1958296353348735
-0.013216251515637052 0.01048892889829111 0.19378488216636267
-0.01168134228479719 0.012519774081661912 0.1955974118024838
-0.011795256857464957 0.012062955005149966 0.19352823174017542
-0.012049677255108415 0.012181425060271414 0.19565235251536825
-0.011286618684009406 0.012858294003863254 0.19554253813171746
-0.011211026291812438 0.012568617577149884 0.19344624468205188
-0.010888980865621643 0.013186628173428316 0.19548936920201038
-0.013724496765079083 0.010083871926758083 0.19599515971641904
-0.013633948259854471 0.009868854407313842 0.1938865026911047
-0.012850317631309637 0.01096709315917816 0.19370667768013153
-0.01266277606374526 0.011188961784947313 0.19367045499374386
-0.012455522409888307 0.011773331567390567 0.19571875738641983
-0.012467365467390822 0.011405628230748335 0.19363512575606623
-0.012253982310569504 0.011981526209265066 0.19568486002745555
-0.012249453127834584 0.011631229925856284 0.19359839235815518
-0.012041717833393407 0.011834492993948295 0.19356533736762538
-0.011556518071481683 0.012274291581385793 0.1934939462664392
-0.013434822165094857 0.010533155896432934 0.1959214819431753
-0.013412240324628118 0.010207060493062196 0.19383105372500942
-0.013211004777756913 0.010853490582521452 0.1958690129177913
-0.012659033142868557 0.011549397901055906 0.19575526614116381
-0.0016433499018615703 0.016105596591153473 0.19289264803191392
-0.002059316181940697 0.016081428036650528 0.19289515898411222
-0.0018259165616763967 0.016443823992917703 0.19498047657661605
-0.0025330216710963763 0.01639290340065822 0.1949863811469424
-0.002976817693261434 0.016349292729981 0.19499202458268527
-0.003362125647021281 0.01595572980613948 0.1929113406533864
-0.003412134560565539 0.016297315376420905 0.1949990922685429
-0.003747352019031168 0.01590243850644794 0.19291880705921582
-0.003912999990804543 0.016225921653933034 0.19500915052776602
-0.004124867925247081 0.015842555616119552 0.19292739863476727
-0.004561782103489058 0.016112196295487453 0.1950257130219108
-0.00454122213883635 0.01594098594170855 0.19398189041244973
-0.004955399781268289 0.01568087763876328 0.19295127848311347
-0.005042985114231277 0.016009972467126182 0.19504097072522697
-0.005321194366299034 0.01594455266970762 0.19505084215498442
-0.005965688964673241 0.015771817283964366 0.19507723614058292
-0.00567476463058373 0.01585347952899225 0.1950647078406784
-0.006011429898130485 0.015409154950616519 0.19299264328323945
-0.006410208579219024 0.015635525281055336 0.19509829289017264
-0.006396265287602482 0.01546428421064186 0.19405445139304114
-0.00678182446536434 0.015507768467057828 0.19511819369398598
-0.007103603773141679 0.015038250981163426 0.1930503734078056
-0.007283084267120998 0.015318183712004343 0.19514791013705082
-0.00743112533518674 0.01490700443123184 0.1930710153665268
-0.007747167243369334 0.015121542331111648 0.19517893346896306
-0.008225472422218938 0.014546721193892123 0.19312805918751244
-0.00798644609038129 0.01501227826039598 0.19519623978174347
-0.007841349282097607 0.014729799822021569 0.19309900140656136
-0.0025335095196520226 0.016045485394212928 0.19289941630274526
-0.0030632698483494224 0.015991614835977087 0.19290645516952737
-0.0045542132334551455 0.015765073068128736 0.19293872823145136
-0.005503738938233981 0.015550034928514356 0.19297105105503065
-0.00640263970922789 0.015288402055658377 0.19301130811150777
-0.0068432297326565805 0.01513564596935034 0.1930351176550576
-0.008401576467557185 0.014809677693142292 0.19522843206345644
-0.008644903534010605 0.0143312021683174 0.19316238485096093
-0.008823855617838966 0.014584350601072504 0.1952643787036749
-0.009046491857048176 0.014106262427445842 0.19319834200347785
-0.00905911335676815 0.014450453223665321 0.1952857965632238
-0.00928600946402116 0.013963859906230268 0.19322115888709657
-0.009456652121364064 0.014210596667044184 0.19532424934475293
-0.009690664359362923 0.01370851159059867 0.19326216280164565
-0.009861950948115861 0.013946277157687592 0.19536674308375981
-0.01030507923956921 0.013282078537341655 0.1933308620959622
-0.010087989841150464 0.013790285024226651 0.1953918693456463
-0.010078046290924032 0.013444839934631244 0.19330461369741853
-0.010469632457508208 0.01351315214240532 0.19543657986045998
-0.010632498620610015 0.013035848422492679 0.1933706296315045
-0.010854920608490595 0.012860535093407451 0.1933989823149122
0.015126512515108667 0.009017936617249856 0.1962770881938429
0.015473876617427622 0.00829388531896409 0.1942540289417909
0.01512049751036917 0.008685683864286628 0.19418758042452788
0.014641593182144348 0.00953893970407292 0.1961886723293797
0.014596103347645415 0.009247653791904908 0.19409220746861805
0.014277365740854354 0.00957839788987806 0.19403603976032985
0.014079712259131318 0.01011941870080865 0.1960900848612859
0.01384739640765238 0.010012921155289376 0.19396220702735772
0.013662401448584128 0.010534869499080914 0.19601947021835214
0.013350172105102549 0.010495725614907225 0.19388010011024104
0.013097987525028918 0.011072986134090834 0.19592791983094465
0.012919126334288072 0.01089768735644041 0.1938116796123846
0.012608249486156978 0.011178530998828443 0.1937638398941326
0.012669340824963606 0.011463913811452831 0.19586134294863056
0.012363557796716766 0.011733584033669376 0.19581538059293754
0.012193529308947394 0.011539029881031393 0.193702375026278
0.01186386748123711 0.011816109297373943 0.1936550933326449
0.01188350271761765 0.012140297129253907 0.19574599148061697
0.011528711355557119 0.012427914579371788 0.1956968648503366
0.01147956250136645 0.012125602895057368 0.19360222226690024
0.011131162231695049 0.01273750175311827 0.19564393086668838
0.011105312603923858 0.012416095909855906 0.1935525480811494
0.010769866588207486 0.013006310787549545 0.19559790947852998
0.010730454676312468 0.012693334305224208 0.1935050760586164
0.01037897425825337 0.012943565105423127 0.19346218107070304
0.010415490351803804 0.013259263392889721 0.19555455196339785
0.010115833859024162 0.013464772671408304 0.19551928427240847
0.009941784989326422 0.01323802582422956 0.19341161862167922
0.009726027935958247 0.013377546700599464 0.193387629879105
0.009623029551873451 0.013785411244328458 0.19546416596559255
0.009329043280322372 0.01362453133476547 0.19334510981968084
0.008839183274531637 0.013909624021993545 0.19329591439819915
0.00907104480007161 0.014120152707981157 0.19540648732864643
0.00856706245089767 0.014402599566189115 0.19535768081968458
0.008345626583238522 0.014177084293043141 0.19324963845429546
0.008030536351647449 0.014680147454629032 0.19530957111828384
0.006694367509333544 0.015271538524336315 0.19520636032411032
0.006444211902820327 0.015022741959448558 0.1931020864877492
0.00628595047633828 0.015425082544745467 0.1951793405050842
0.005435856518789379 0.015706216930416957 0.195129497053214
0.005366948573748604 0.015382473481311503 0.19303834610171672
0.004970475577135463 0.015838697415275327 0.19510577409099786
0.007800147965761114 0.014449037970510236 0.19320242668722742
0.0077118981338064885 0.014833778338677654 0.19528286221633157
0.007459220591891847 0.014950000776716214 0.195262614828113
0.007281412647961415 0.014685503915272475 0.19316121457190835
0.007207091006331049 0.015061016078180202 0.1952432355178372
0.006952237796395502 0.015168130836668807 0.1952244950978462
0.006758488784454859 0.014902662853801487 0.1931231985487882
0.005970392534647522 0.015191283831100763 0.19307233471336974
0.0060271534426669555 0.015516039835152871 0.1951632732153443
0.00576424510014914 0.015603518734321399 0.19514776956767596
0.00488699102009001 0.015516381490315733 0.19301433282216388
0.00456657838889931 0.01594286323704613 0.19508698362269275
0.004324708678926346 0.015654369346755456 0.1929893423962393
0.003998852889796848 0.016071017405970476 0.19506360930925049
0.003766697195582692 0.01577230318469789 0.19296770280177877
-0.0011472834912109008 0.016472738711068004 0.19497812822343852
-0.0011358574212836717 0.016125365523520216 0.1928912014235693
-0.0005691081707166826 0.016136601888357843 0.1928913884881842
-0.0004977404807475806 0.01648454450831817 0.1949785205275804
-0.00010325687259395838 0.016137035332822167 0.19289301469754655
-1.7857480076099996e-05 0.016483152318215035 0.1949804924794624
0.00040370712912566817 0.01612829680845642 0.19289630609144984
0.00045458769861871084 0.016473920236390095 0.1949837414471717
0.0008625332070113824 0.01611105203719703 0.19290088808354686
0.0009238954967186568 0.016454734812813576 0.1949886345522516
0.0013523812693725518 0.016082969391093035 0.19290749086901013
0.0013871754274644502 0.016427371185723186 0.19499486582120942
0.0017903856471242693 0.016048217172353687 0.19291516913061735
0.00199034221090923 0.01637602118535743 0.1950055947226045
0.0022146505273854845 0.016006047824948615 0.19292325258470427
0.0025724833181503953 0.016310088618424232 0.19501867214575394
0.002645476441083521 0.01595450100108753 0.19293333533847037
0.0031511431495154854 0.016226785817319428 0.19503462632921384
0.0032081919408608155 0.015871732689730526 0.19294914004672237
0.0035993694166810003 0.016149071031019608 0.19504917802788205
0.015490306333768675 0.00861412384499954 0.19634557278536374
0.01829492680694435 0.005121297597150054 0.194791949033683
0.018287357935677567 0.005468420881050698 0.1968789341640855
0.017491472750847663 0.01009242608030728 0.1939621991434618
0.017486090872430044 0.010426254734202991 0.19605140346909727
0.016819863256079995 0.02495516496249759 0.191487679330046
0.01673710625318324 0.023960502971582434 0.1916528189659999
0.01678939210989247 0.025041613159374233 0.1936179388692818
0.016718116902598144 0.024160660770632197 0.19376420709554987
0.01668168881702701 0.023220869608789066 0.19177563945347997
0.01664983274026223 0.023222788112271277 0.19391995358280628
0.016629967331954952 0.022447364252397406 0.19190410718351672
0.016590955973319745 0.02224529147493459 0.19408232475026121
0.016579246966906956 0.021511299705225057 0.19205961665827434
0.0165600877816627 0.021588294748340543 0.19419148927087365
0.016523003572914814 0.020048134759870728 0.1944475256972722
0.016530918601367905 0.019242364131355702 0.1924368281753124
0.016525574757593017 0.019342034812232577 0.1945649794228243
0.016538609223558483 0.018690087956933787 0.1925287146881008
0.01654098063865142 0.018677496312736214 0.194675565934825
0.01656157606410415 0.018141580633562106 0.1947647786834191
0.016566127918051215 0.017871854066449134 0.19266490989503637
0.016589430053929467 0.017633466501805337 0.1948493924110994
0.016672469650620088 0.016514673276862037 0.19503578026493906
0.01673288567671977 0.015606064200503355 0.19304237763176277
0.01673685355071087 0.015845367637071898 0.1951473380207993
0.01654651465994505 0.020650448614887903 0.19220268124453035
0.01654255894382296 0.02110326022146357 0.19427210010475746
0.016529080247655405 0.020567930941922084 0.1943610915062072
0.016530636276530494 0.019787220136291576 0.19234620241878694
0.01659170029422917 0.01736664504498526 0.19274903239773392
0.01662102308990842 0.017160761246900556 0.19492813140488213
0.016650718591796492 0.01651876046883936 0.19289027295299596
0.016830086803344593 0.01471399429849457 0.19319110601625808
0.016912309907745317 0.014041347599562137 0.19330328395546068
0.016904897761214496 0.014386109101402225 0.1953906624760436
0.01720042506577333 0.012264425052618936 0.19574462893789127
0.017177283398068087 0.012124103135108458 0.19362313565427505
0.017336284530041608 0.011074349773302518 0.193798315278523
0.017349132320503308 0.01129189499550796 0.19590692687104358
0.01709724684985552 0.012969702873833257 0.19562694755510698
0.017024702109780736 0.013188727383316992 0.19344550585958517
0.01700273518004153 0.013643936530195603 0.1955144611055607
0.01680551063917496 0.015207444953378887 0.1952536911855962
0.017742888805548564 0.03171446298384447 0.19251151764151875
0.017742571923267517 0.031339955938107275 0.1904290584297709
0.017599249919674945 0.031173417744267976 0.19260098747690207
0.01763333067176194 0.030928662706829774 0.1904970719070985
0.017555495886237074 0.03060907706634848 0.19054994560839278
0.01747835818017743 0.03064352166470642 0.19268868516002927
0.017461673238742315 0.030183394451167453 0.1906204081868184
0.0173773701347956 0.030137562331113612 0.19277247415781718
0.01734206146782062 0.02954873098660934 0.19072553625959515
0.017281025242621907 0.029565222940903142 0.192867320596187
0.017237778343526727 0.028879919767424548 0.19083639983371803
0.017192158003327455 0.02895523687017476 0.1929684558367961
0.017156239388929073 0.028270332293404147 0.19093749532377025
0.017112018750396876 0.02831424663970737 0.19307477957951316
0.017062271181410116 0.027465946809444797 0.1910709460928914
0.01703696247987443 0.027648698712602626 0.19318520638008937
0.016959183466474046 0.026462925106787695 0.19123740243998497
0.016928031699754147 0.026567037123748034 0.1933647215257811
0.022692767195502044 0.042135003222175206 0.18865149688542218
0.022338237626944785 0.04154716817390387 0.18874798444199922
0.022593220192652683 0.04233121818833668 0.1907632486462439
0.02204589646237283 0.04141427221065743 0.1909137771150381
0.02204930862950314 0.04105969830921153 0.18882801626590684
0.021761729407191892 0.04092548999908959 0.19099404427530658
0.020532027813512627 0.03868577191046837 0.19136211174559056
0.02077591897349616 0.03914939263771081 0.19128588309460162
0.020526189156293277 0.03831205298493892 0.1892795018776352
0.020322315742674513 0.03791333917997601 0.18934507950373985
0.020151342443532866 0.03793415663935955 0.19148574549784872
0.01972642475408129 0.03705128156906188 0.19163105096359817
0.019925833990674144 0.0374716054936299 0.1915618624444055
0.01973112084094665 0.036697410924068696 0.18954517784968852
0.01949839290742721 0.03618851144908316 0.1896289777174393
0.019394134170771654 0.03631859990637469 0.19175171104712685
0.01917272906024653 0.035805806618397044 0.1918361995315651
0.019005548415966397 0.03503735472031072 0.18981865970370157
0.018978246114248414 0.03533582404533103 0.1919136655220959
0.01881378561872793 0.03492356106997374 0.19198163955931266
0.018393496362516203 0.033787490986228234 0.1921690753727405
0.018504255858372846 0.034099300632742566 0.1921176142697779
0.018372827115587444 0.033359397482147106 0.19009545615792886
0.018183660522208704 0.03316737953387002 0.19227145602708817
0.018198276806571552 0.03284176682487803 0.1901809187238131
0.01806802081573592 0.03262155188224201 0.1912894484322077
0.01799407617305792 0.03219721341764464 0.19028738511657795
0.021649803588234026 0.04037065992120505 0.188941173351797
0.02151395430615718 0.04049223466779029 0.19106520800012747
0.02125760567205732 0.03967539947168958 0.18905539204910574
0.021250838298559935 0.04002352480123129 0.19114221315677457
0.02099784811027291 0.03956244859802051 0.19121798534763326
0.020791683877526425 0.03881929767338125 0.18919609558681447
0.020046680306770454 0.037358874643049114 0.18943630239715936
0.01917979719948072 0.03545816125429514 0.18974929970193835
0.018802455869093113 0.0345284069720673 0.18990257498433416
0.018652713472579525 0.03450289440733804 0.19205102341439043
0.01856506441726665 0.03389950082221919 0.1900063184407826
0.017959621047548845 0.03245681979829459 0.19238882850930253
0.03098939485193299 0.05262686560588061 0.18908124822478076
0.031237967096477356 0.05240983419880185 0.18697349940703434
0.030968866867488988 0.05226348374813286 0.18699686568151466
0.030797841767067416 0.052513855293687475 0.18909934978396636
0.030725865461629087 0.05211707326875472 0.18702033678305996
0.03053458194883674 0.05199186862716129 0.18704046775839614
0.03052686231546197 0.05233889765269076 0.18912746801980074
0.030341350336393527 0.0518575962161431 0.1870621003411508
0.030252350837946362 0.05214576242066833 0.18915859593748585
0.029755036996578974 0.051755639872920874 0.18922168048635749
0.029488978318752426 0.05117217876624759 0.18717301278481197
0.029363630049093162 0.051413891641218304 0.18927710337872272
0.029125131395301606 0.05119179977750825 0.18931317842801468
0.028921988097453083 0.05064070252581459 0.1872593556517466
0.028718984994741285 0.050792541433974325 0.18937811314917619
0.02860826459966767 0.05032289977962793 0.1873110773056954
0.028292853048786 0.049988803858794104 0.18736550272552324
0.028197574722711248 0.05023992205084989 0.18946813802048654
0.027876032823368688 0.04952228747194523 0.18744158558477234
0.027778650655037686 0.04976603284905263 0.18954543957440945
0.02752966081783153 0.04911714737270049 0.18750771540106217
0.02739316767603759 0.04930925759217379 0.18962001588732202
0.026967817416824972 0.0487830997423472 0.18970598785555162
0.026858034043881932 0.04828645027725286 0.1876434474836584
0.026517977699931763 0.04820200910774788 0.18980100784756276
0.025516542327124192 0.04683187285931984 0.19002526745138495
0.025310863809581072 0.04617923768248697 0.18798832205816074
0.02499264612230417 0.04607489947960769 0.1901492808112554
0.024898961770828478 0.04557865215880736 0.18808672843876145
0.02460465846804141 0.04549887857837665 0.19024367409647408
0.024537534543175497 0.045039578581281825 0.18817507409878922
0.024183357986536744 0.04486024893152588 0.19034836673896358
0.024135883467748517 0.044428096157994285 0.18827532591252905
0.023712580500572407 0.04412965150083434 0.19046817908668265
0.023672780068616058 0.04370877456325344 0.18839327823473848
0.023178842571779275 0.04328278690332525 0.19060710035747166
0.023108385491043118 0.042809696964192186 0.18854078398340263
0.030046984564317192 0.051637829490390426 0.18709758586539652
0.030036810832813718 0.051982612551535086 0.18918495080488826
0.0297319619587903 0.05138286812087494 0.1871388505110021
0.029158770431096326 0.05087001700800174 0.18722207300429375
0.02718566173275002 0.048698197192285624 0.1875761507696915
0.026509262044057853 0.0478331356690081 0.1877175813067822
0.026170449863979275 0.04738098455213508 0.18779155776417228
0.02608252421826981 0.04761899061659081 0.18989640066995506
0.025738876330789202 0.04678665135969716 0.18788884618034019
0.031198282297435667 0.05274029620535561 0.18906313939072297
0.038515618740641 0.047147813563063135 0.18787511277105395
0.03847348807123922 0.04755837927875762 0.18995142033216159
0.03822442439491042 0.04800521279424792 0.1898761962944479
0.03816396350542921 0.04777830951694958 0.18776896858151776
0.037832153660413106 0.048684454132093526 0.18976179704599755
0.037842247227594994 0.04833222362364653 0.1876756705716294
0.03754914956089124 0.048816372644229854 0.18759408031300567
0.037380283708670206 0.04942175295609333 0.1896375248490798
0.03659483102691282 0.050577200935531835 0.18944249356269868
0.036806558572246836 0.05028269377182766 0.18949224611283377
0.0366597400802636 0.05015219367956636 0.18736867067888485
0.03638088020883326 0.05052396414810882 0.18730582362582818
0.0363450509126409 0.05090692247738735 0.18938674588332297
0.0361371727746771 0.051166932446990394 0.18934274513026383
0.0361066138751113 0.05086590691332208 0.1872479544690927
0.03589000386442178 0.051456824431515204 0.18929363144066097
0.03582838232568719 0.05118824444715599 0.18719333175037792
0.03564719202323876 0.05172207980923683 0.1892486317732488
0.03555736008312517 0.051475576661703985 0.18714455753339088
0.035445137403366786 0.05192633609144181 0.18921392551885924
0.03529416572393612 0.05172984688165396 0.1871013110786349
0.035143531069238135 0.0522052136221738 0.1891664464089512
0.03422467620276255 0.05283996177791306 0.18905753737057726
0.0341863301242589 0.052515385764246 0.18696663629875238
0.034002899079298717 0.05294380434549748 0.18903946187150536
0.03394878818231413 0.05262264809938596 0.1869479346682662
0.03375862403710411 0.05303731566595607 0.18902302220689993
0.03378677915463455 0.052682674842036696 0.18693736591039586
0.03364707147545343 0.052726964492346755 0.18692949212577276
0.03352045751929128 0.05310565881401331 0.18901078897022658
0.033216242142126394 0.05316233187692618 0.18900023341253833
0.03318635389021984 0.05282069441806128 0.18691230363899092
0.032974335145784246 0.0531830660100411 0.1889958982238129
0.03283713728738882 0.05283802209147772 0.1869080937223426
0.03272801609144617 0.05318251024162298 0.18899513463073592
0.032548150231722285 0.053168765211976686 0.18899676848918606
0.032453182770268416 0.052808661771459875 0.18691157346952939
0.03224082733582636 0.05312100957658345 0.1890035958222488
0.032239074415636844 0.05277194653676273 0.18691690210518946
0.031958352338984364 0.05304909654994331 0.18901453367307805
0.03173055203582917 0.052973188229585966 0.18902633316024733
0.03155046557816543 0.05255358248372972 0.18695072382868128
0.03147124818924149 0.052869251071884144 0.18904268036347843
0.03733338045872227 0.049159659820487 0.1875361995527716
0.03708930113369164 0.04986945964759638 0.18956200378678717
0.03702712091698878 0.04962642443902417 0.18745745295503438
0.03509654390101652 0.05190412297731481 0.18707160717970767
0.03487924794025508 0.05242050458051639 0.1891296790988648
0.034863335526325034 0.05209070371656922 0.18703972781300623
0.03466505212543705 0.052233747108023004 0.18701521664782397
0.034620728371952916 0.052605651576056164 0.1890979462292547
0.03442948531211086 0.05238358383569305 0.1869894404284958
0.03442157670628656 0.05273057333261799 0.1890764457903548
0.033417869628322 0.05278312881545808 0.18691931410387605
0.03336932796989191 0.05313790154098888 0.18900487423577153
0.03298281461071223 0.05283623447637571 0.18690891134844603
0.032644392716272126 0.05282984128437393 0.1869087403528648
0.03189738114942289 0.05268093086936085 0.18693079988339148
0.021922128247944893 0.03645585660005696 0.18965701267284188
0.022117795676313536 0.03684884410000089 0.18959235748912553
0.022097780838963473 0.03788380707783721 0.195790677095888
0.022329190011130134 0.037259298627209926 0.18952485432166072
0.022540182685081143 0.03765907961373952 0.18945912481040775
0.022521776887266927 0.03869690933819626 0.19565697343351363
0.02277095930596921 0.03808410385032263 0.189389268554638
0.02299934098992843 0.0384959300095581 0.18932159867051215
0.022980071197668362 0.039531955162923064 0.19551974433969938
0.023236687154819375 0.03891345541440635 0.18925301343701745
0.023722414303449284 0.04081252478110225 0.19530944249071702
0.02353460707398241 0.03942657639826301 0.18916874771538708
0.023944283097164835 0.040113068390033826 0.18905605091144026
0.024265452270181426 0.04063751201932185 0.1889699861727771
0.024576138040876785 0.04113472628687199 0.18888841253445565
0.02421814401840647 0.042695849941904215 0.20136852490917723
0.024540126446289872 0.04321077542788708 0.20128404630914157
0.024792106399878038 0.042540594109340475 0.19502589627391242
0.02500433365717729 0.04393573762286673 0.20116514860853504
0.025693648617221634 0.04497667172342669 0.20099451244926017
0.025332988003858553 0.0444371509837686 0.2010829416452523
0.025812513288617125 0.04462012301681609 0.19786897971225878
0.02607498431922673 0.04553572106484474 0.20090291008964933
0.026289642643156703 0.045313648315147975 0.19775535770081815
0.026482181363185895 0.046119910906002204 0.20080721996173762
0.026820827339931755 0.0465959361376195 0.20072927198240334
0.02685435362742213 0.04451788339867293 0.1883339624110606
0.02700910795207119 0.04632566609958613 0.19758964047008293
0.027031589716148184 0.04529460829727747 0.1913906834948442
0.027281718271490587 0.045106230875400374 0.18823765385846913
0.02503618377827526 0.041853448036689805 0.18877053770723853
0.02538182169003353 0.042380908634256184 0.18868406006647437
0.02573861216286775 0.04291455531658603 0.18859659367563128
0.02583499505269412 0.04358906521450743 0.19167002273702008
0.026119947864872848 0.04347360465800408 0.18850499131602044
0.026312124407233697 0.044282590512839316 0.19155640072557942
0.026518361813270046 0.04404532656639397 0.18841134311086663
0.027518844412212334 0.04542652710491138 0.18818523985039315
0.027752973493085392 0.04573873644040916 0.18813415984023937
0.02771249229661854 0.04780637283540687 0.20053117672135093
0.028001681687644844 0.0460647953156466 0.18808082927586342
0.02845549263799863 0.046647045092672666 0.18798563089629605
0.028691467503953568 0.04694299543862346 0.18793726192890237
0.02864970132307498 0.04900864880945365 0.2003346039888392
0.028932219999688872 0.04723903006278758 0.18788889638138806
0.029367581930979887 0.047760559970919526 0.18780373050656346
0.029591502912718386 0.04802148326555945 0.18776114377490094
0.02954761874966631 0.05008437179061374 0.20015893801640988
0.029817237209907622 0.0482779605064981 0.1877193032612956
0.03022470714026698 0.04872552832775818 0.187646338154151
0.03043174332442271 0.048944595074145135 0.18761065208671135
0.03040942780840504 0.04997521523268135 0.19380968573205948
0.030635078310115017 0.04915236642617077 0.18757683152404406
0.0313591655639808 0.05193061206639168 0.1998584271916656
0.03140537952162994 0.04986934927978622 0.18746037105341498
0.03153513271162701 0.04997593416897763 0.18744311353664456
0.03169105209450139 0.052192997062420816 0.199815988971214
0.03179826646812271 0.05017562711908624 0.18741085347078443
0.03186106621304866 0.052311912771900795 0.19979682659385795
0.03197483917443034 0.05238441007593505 0.19978518090985287
0.0319694716212735 0.050291336803092924 0.18739222838327674
0.03209007234673015 0.05036399650517483 0.1873805810108224
0.031124203217623717 0.049622674610790764 0.18750038009378522
0.03126891519904852 0.04975200289934448 0.18747939400194275
0.031147274971620568 0.051746706267577006 0.1998882473428924
0.032122898195813945 0.052469258505121914 0.19977160523780435
0.031646878268545627 0.05006386857623664 0.18742889328878343
0.03148991954498756 0.052037850308497884 0.19984106471496083
0.030586387607694943 0.051210688040890975 0.19997536781163772
0.030386779778880716 0.05100671147621066 0.20000857083163098
0.030176588638743472 0.05078428859662419 0.20004480360089896
0.0272359493378524 0.04716727913256759 0.20063574738137271
0.02392024780253439 0.04220978858072128 0.20144828996132697
0.02347933488965334 0.04147111592263998 0.20156955257217965
0.023188687496223513 0.040970317229241784 0.20165179513913437
0.022954377444464526 0.04055804640804227 0.20171951739389987
0.02272174328501337 0.04013847522239266 0.20178845997891956
0.022495219139721356 0.03972119600744855 0.20185704350508624
0.022280300976600793 0.0393138932481589 0.2019240097624883
0.02207283213095375 0.038910960493709915 0.201990276183804
0.02187699638593467 0.038517736346560846 0.20205496998528685
0.021512998794195562 0.03774950026219455 0.20218142875955328
0.021600203525393713 0.03578020152388746 0.1897682250690503
0.021676936447253353 0.038103091992055714 0.20212321123913699
0.030975018128025184 0.04948426625646547 0.1875228601550327
0.030917940581223664 0.05153507693697505 0.19992261541992631
0.03081954766323515 0.04933507900447651 0.18754711027169885
0.03077111060338073 0.05139384399954326 0.19994557385079287
0.030021960165454935 0.04850551366130733 0.18768219730979818
0.029974562406860965 0.05056495825559624 0.20008055160724947
0.029768718206925695 0.050336053735995444 0.2001178782173716
0.029320183464248556 0.049819857081478215 0.2002021092804337
0.029152167155835997 0.04750486919680533 0.18784547763483028
0.0291044943728911 0.04956374314083467 0.20024392586450582
0.028883950105147323 0.04929709123864812 0.20028747759443916
0.028415641034549046 0.04871555051839332 0.2003825054653038
0.02823159200432661 0.0463618800545994 0.18803224966277016
0.028185239832495802 0.048422269285126565 0.20043045064052442
0.027953967204837643 0.04812329286493021 0.200479339922271
0.027468531465381044 0.047481503602774026 0.2005843266768193
0.021757887008855305 0.03611618087207377 0.18971291443241978
0.01889668869270212 0.024822263680413723 0.19158102799542548
0.018929578244078208 0.025192029214945295 0.19151964505216762
0.018854549807712014 0.026917824311232044 0.20397339431484998
0.018924524218377172 0.027681820932494557 0.2038465743462265
0.01897731111507158 0.025700012502240195 0.19143532650301906
0.018979266960847202 0.02822659889213621 0.20375616125663226
0.019053040590879013 0.026436814777769782 0.19131305061416448
0.019018618369131608 0.028592572277841382 0.20369543248771269
0.01906111826377345 0.028966343135414307 0.2036334182024213
0.019110794463585684 0.026944047656799967 0.19122889319969172
0.0191551044264788 0.027308026414589952 0.19116851420519898
0.019105744884227352 0.02933547552896903 0.2035721831348409
0.019200219706043128 0.027655149659713812 0.19111094164664136
0.01915154850511514 0.029689688840971867 0.20351343379131775
0.01924813634480701 0.028002230489204923 0.19105338637642744
0.019306280654379122 0.02839385149106372 0.19098845978285617
0.019260908239999493 0.03045320840039729 0.20338683601005608
0.019358342526326663 0.02872075612394215 0.1909342753165528
0.019412961535151905 0.029042652238775796 0.19088093326765226
0.01936595442276034 0.03109297389777323 0.2032808063042774
0.019475886304501137 0.02938903081944483 0.19082354917919025
0.019430136738926636 0.03144677447824121 0.20322219226344534
0.019543649450899765 0.029736163498773355 0.19076605711474773
0.019617320260385457 0.03008820919456156 0.19070776930526523
0.01957212931246923 0.03214917554657258 0.20310587852531262
0.01969477411966343 0.030433033327739747 0.19065069653079142
0.019773652796167527 0.030762028600950085 0.190596261722545
0.01972990010554206 0.03282888761373918 0.20299339581778414
0.01986038235503481 0.031100770859426953 0.19054023401715142
0.020031008979078967 0.03281759805166944 0.19662583205629205
0.020163062499065416 0.03214320243661618 0.19036794656985437
0.020116603786546127 0.03420040279888227 0.20276667741058818
0.020268425580212607 0.03246743196334232 0.19031440035516275
0.020222123022192104 0.034525404792050414 0.2027130032870881
0.020378866085244043 0.03279135163633846 0.19026092401086986
0.020332473691226954 0.03484928041244974 0.20265953403266235
0.0204960020219101 0.033119999916968894 0.19020668547294828
0.020450609133293232 0.03518088001055488 0.20260480830040029
0.02062021938177925 0.03345425531790631 0.19015154008672974
0.02074673389053435 0.033782257143993404 0.19009744321072725
0.020703576006864545 0.035848905611343455 0.20249461462281992
0.02088420040584929 0.03412630627531858 0.19004071692943034
0.021137582418198433 0.03581739700164988 0.1961308958271816
0.02127205182111366 0.03504506501602405 0.18988930844950055
0.021229894381036465 0.03711375369754075 0.2022861442418101
0.021414558943654932 0.03536821888284104 0.18983607585710463
0.021365792570016338 0.03742184052960989 0.20223539375229596
0.019920375181459806 0.031322699840557786 0.19050353848067697
0.01993422304705513 0.03248414218506297 0.1966809439655802
0.020049580991099436 0.0317755108349419 0.19042869212294916
0.02104172646646983 0.03450850313742203 0.18997771819218132
0.021014756133720773 0.03552780127158464 0.19617861814347295
0.020996762920849746 0.0365706195430689 0.2023756369586329
0.02083730496623349 0.03618377212538057 0.20243940206521027
0.020004617445557437 0.033837627237007416 0.2028266108678688
0.01987541163581369 0.03338481624739845 0.20290145725430586
0.019813668543395127 0.03315641778061347 0.20293922230550915
0.020574437109150263 0.03551426088022306 0.202549806938585
0.019649176078577614 0.032492525422322636 0.20304904938090937
0.019499384914227008 0.03180187985738648 0.20316337957090272
0.019314855199468378 0.03079193402742509 0.20333069222987443
0.019204016957011343 0.03007042610870756 0.20345029695253425
0.018547089318876615 0.020975197146791483 0.2049607023207584
0.01855143557931644 0.020712098608038375 0.20500447863891047
0.01859619041468144 0.01866043051673582 0.19260482125744838
0.01859291928568291 0.023095712766425434 0.2046081682017495
0.018571881640473 0.022538473386694485 0.20470077620808705
0.01862713311394717 0.020765143775391997 0.19225486153809707
0.018700674364066333 0.025035775257024835 0.20428587300731135
0.018784462077630952 0.023954426503854268 0.19384847919843365
0.018754486389140776 0.02532917038033656 0.20211375600755618
0.018848479999447224 0.024300666154588986 0.1916676094567972
0.018805291946648164 0.026384580591750983 0.20406190883367686
0.01881424049705871 0.023892179426170557 0.19173542768719332
0.01874565540981299 0.022973323589306694 0.19188801013405582
0.018663738150010982 0.021591770495120777 0.1921175034847138
0.01870127254711685 0.02228248888442252 0.1920027540233956
0.018637208009099272 0.02400574086351849 0.2044569660100033
0.018613856426618527 0.02355307384531852 0.20453217235165996
0.0185920362322059 0.018934607506037506 0.19255920298351728
0.018591440765751865 0.01921103880959315 0.19251322267599755
0.01859592161324828 0.019661262803148553 0.19243835423831693
0.018546626233429217 0.021310913478377685 0.20490486174057615
0.01854966729950242 0.021624825751146725 0.20485266048626166
0.01855766533335244 0.022043769148033243 0.20478300763177337
0.01876927695141259 0.025954295833011218 0.20413334646082218
0.01864539322206856 0.0212027486634754 0.1921821419721656
0.018560266378549593 0.020455215135485233 0.20504723748393294
0.01860461280175165 0.018405187755754053 0.19264730576987582
0.018663961032362612 0.024466908803404647 0.204380358066226
0.018608587031401627 0.020210676485809372 0.192347017498036
0.02079709274376939 0.003749037005814776 0.19509297997462968
0.02058387566777304 0.0047909965649701874 0.19491890003933293
0.020540026520504268 0.006847552197086032 0.20731774776501474
0.020432344454449008 0.007388357331027205 0.20722740639985932
0.02033059117542774 0.007908698362071524 0.20714049028231166
0.02037318448543482 0.005858825624921749 0.19474052645202364
0.020229501344736278 0.008435232978147267 0.20705254640659318
0.0202714843609946 0.006388780540704252 0.19465201147261893
0.020127446810679572 0.008976998895448483 0.20696206564599806
0.02000123820768076 0.009661929984400765 0.20684768496257383
0.01998196641240704 0.007956069145127446 0.1943902780834767
0.01984512743579641 0.010535920078981256 0.2067017500971901
0.019733196532648822 0.011181232638459642 0.20659401085070023
0.019715315467699165 0.00949018469246129 0.1941341452293578
0.01955817328792351 0.012228045659502206 0.20641926216821585
0.0196320775324628 0.009990509281438575 0.19405062554873378
0.019530745426409285 0.010615177895767974 0.19394635839194135
0.01942902545063814 0.013036608468584397 0.20628430745446139
0.019328518266307982 0.013687320352957512 0.20617571158148904
0.019399094973933845 0.011458252580983515 0.1938056543456239
0.019327303849071713 0.011934130512138146 0.19372624234111435
0.019190682306873874 0.014622447033244527 0.20601967429017665
0.019258989173407796 0.012399635150161521 0.19364856828774765
0.01919391855475021 0.012855917493948809 0.19357243993667186
0.019091533216002467 0.015332672612544075 0.20590118457096432
0.019131700941213116 0.013305632007068765 0.19349741433690504
0.01902726843415279 0.01581148849894791 0.20582131119175104
0.018955774227047067 0.01636581807428643 0.20572885158090204
0.018962778470889074 0.014610460302142707 0.1932797727118989
0.018867936576938006 0.01708861296209672 0.20560831226164927
0.01866566081246697 0.019034471063679836 0.20528392870779172
0.018698922313591076 0.01867245439429534 0.20534426271079412
0.018709894813262434 0.016980624616812736 0.1928846317655056
0.01863468147097362 0.019397587271991597 0.2052234200977998
0.018679128997126253 0.017341762459438508 0.19282445298677586
0.01860709684467087 0.019749907382506728 0.2051647194887504
0.01865175002416048 0.01769193889068786 0.1927661096766545
0.01858298263156614 0.020091109660044015 0.20510788066862667
0.01862778627974635 0.018031297209432078 0.1927095781035257
0.018744996329403907 0.016598729297743173 0.19294827881031854
0.018736222309590926 0.018291803057778687 0.20540771082017056
0.018782689642442358 0.0162149456584347 0.1930122493346281
0.018776751785993268 0.017901515710631706 0.20547277337668707
0.018823669735687894 0.015821293422653745 0.19307787319933814
0.01882063460162478 0.017500547325784193 0.2055396246464151
0.018889873075794796 0.015222366325765194 0.1931777314217144
0.01905102992962236 0.013909604967503908 0.19339666437072386
0.019856685249667595 0.00866355626365534 0.19427214907273183
0.02013729458402356 0.007103257726742846 0.19453268750427688
0.020479078338418236 0.005317258077914257 0.19483098814222072
0.02075890958465329 0.005777741193301117 0.20749648071384508
0.021605432763609766 -0.0017890233801094602 0.2023875787629134
0.0216543467144628 -0.0028062158612375985 0.19618640788600702
0.02168543773764225 -0.0027849007213734322 0.1961829832026265
0.02160938315619216 -0.0007440988754113531 0.2085843301406306
0.021669074179223924 -0.0006971041091770988 0.20857672915006661
0.021740086692335264 -0.002728551955477839 0.1961738024621877
0.02172452931199477 -0.0006188549332953545 0.2085639124371648
0.021789201404689894 -0.002636933263269634 0.19615874124734292
0.021763098475539134 -0.0005169258302825316 0.20854709963431015
0.02182332720030846 -0.0025123997884084494 0.19613815172045662
0.02178868074051722 -0.0003824749846046416 0.2085248295234562
0.021839697449047357 -0.0023802964191865133 0.19611623903411116
0.021845309825041515 -0.0022590073589842624 0.19609608528343142
0.021843622389474866 -0.002105519500031205 0.1960705500250525
0.021800546145178658 -0.0001976860384859257 0.20849413704886605
0.021796216514664825 1.7253349083087583e-05 0.20845837098835074
0.021835208443319785 -0.001945298571024367 0.19604387023266037
0.021779005922603307 0.0002620277127330581 0.20841759583167094
0.021819803608059126 -0.0017604843222993843 0.1960130746632906
0.02179709811400289 -0.00155191190729956 0.19597830096982405
0.021742114675691128 0.0005926601861359123 0.20836246872350206
0.021766826025068915 -0.0013176787683210588 0.1959392317251304
0.021684811460631614 0.0010014714158854165 0.20829426430021677
0.021607884700461474 0.0014757856708480814 0.20821509374546712
0.021675498411087245 -0.0007210592629622492 0.19583966619336923
0.021592004076968024 -0.0002377068027600151 0.19575896850938793
0.021543709902041377 0.001842249020781384 0.20815390802335262
0.021474747430610036 0.0022206526609252577 0.20809071893764516
0.021490876595798625 0.0003122735019485167 0.19566712483874948
0.021361088295681417 0.002817149559294014 0.20799109281643807
0.021349878789366235 0.0010433165740996605 0.19554502081519656
0.021238729108393584 0.0034392950458836937 0.20788716907393204
0.021054176971505544 0.004352238687337985 0.2077346520092117
0.02107469633416939 0.002409545268954754 0.19531678124158242
0.020870701093247377 0.00524158290115057 0.20758606408455318
0.02172856491040863 -0.0010548364074354482 0.19589537501001997
0.02122141467363948 0.001687389949288894 0.19543742772564437
0.01893597339137918 0.002146498380356014 0.20809384546855
0.01905149195008929 -2.5583327745653996e-05 0.19571447284445334
0.01921247159012824 0.0017183905670945378 0.2081660544014644
0.019293015398622614 -0.0003983128944340181 0.195777344002074
0.01953990748979046 -0.0007742083606229119 0.1958407612214594
0.0197888512331775 -0.0011456556411923325 0.19590344603279244
0.019657873721396452 0.0010440937502307819 0.20827982393116934
0.020019576809268646 -0.0014806650536507517 0.19596000413339776
0.019847883812364676 0.0007642831320711263 0.20832705327704626
0.02017968369711936 -0.0017058069571049958 0.19599803212647
0.020071026724736513 0.00044504910666791873 0.20838095998753006
0.02051608964753525 -0.00014484209403051477 0.2084806893012021
0.020638769697448878 -0.0023002418312046352 0.1960985679770588
0.02062944552924133 -0.00028005560957355393 0.2085035901522541
0.020749594200752904 -0.002427299981109955 0.19612010350948808
0.020774038975036057 -0.0004392099217712907 0.2085305863085053
0.02087675531891587 -0.0025595540412142103 0.19614256295590665
0.021050531907399167 -0.000683770458500097 0.20857226812765575
0.02105264485818594 -0.0027144073817102154 0.19616895842347237
0.021121201544604208 -0.0027631001194478723 0.1961773037706759
0.021182683111474653 -0.002800626050665807 0.19618377000461645
0.02113275573716636 -0.0007359167847190567 0.20858123687122615
0.021569608687005283 -0.0028469823091335934 0.19619288938461524
0.021519310109633677 -0.0007870790745625367 0.20859114282590574
0.02038077622274023 2.5623927209950537e-05 0.20845184535109318
0.020321109283229957 -0.0018985895951055612 0.19603060999544952
0.02050660744653926 -0.0021395541554892292 0.19607136176843334
0.020926123394377313 -0.0005851071382270961 0.2085554046110055
0.020968086673903073 -0.002644617172074677 0.1961570408175169
0.02023119588892814 0.00022433031000027937 0.20841825250685317
0.019465819874326426 0.0013319490873814645 0.2082312491141819
0.021507986965715358 -0.0028652384411667954 0.19619570625041888
0.021457092902411115 -0.0008040989557678083 0.20859372067956858
0.021440918296508342 -0.0028728788498171235 0.1961968309132348
0.02139495089178069 -0.0008108793164053282 0.20859421332089803
0.02137349985959982 -0.002869308185000647 0.19619598719581757
0.021326683030341485 -0.0008069916050782045 0.20859367597853828
0.02130432376319057 -0.0028535047506725543 0.19619302917618575
0.0212581371056922 -0.0007910483211678375 0.20859084827186775
0.02123575666362761 -0.002827302474818782 0.1961883998226376
0.021190586499863932 -0.000765010149903462 0.20858628658062667
0.008306385417926793 0.01365767482379916 0.20614066847068055
0.008351396754905364 0.011595527648907696 0.19374275498795343
0.008645453446026099 0.011414427112026112 0.19377394382761173
0.008869042858436083 0.012287330410247549 0.20000010116373626
0.009005444842489174 0.011181170344815193 0.19381404609190744
0.0091404041622259 0.012106436455008095 0.20003117297235196
0.009334309199009953 0.010957525227375068 0.19385243714625935
0.009412540706560741 0.01191809672961256 0.20006348602981314
0.00968921660408821 0.01070502593727316 0.19389572208880115
0.009995134904424923 0.01047798380037867 0.19393459475107486
0.009944395591368761 0.012544460641996168 0.2063317673169535
0.010241909045163072 0.012315918387363279 0.20637085920015938
0.010507413311328803 0.011092042541667967 0.20020485243817912
0.010614288638755555 0.012018383289314736 0.20642169801638807
0.01078237818079126 0.01086768445750531 0.200243166601265
0.01094727498636043 0.011742040765601282 0.2064688690544934
0.011057697806786126 0.01063637523977445 0.20028263821649672
0.011280689704586861 0.01145558227145551 0.20651772421152564
0.011343285639320123 0.00937811633707349 0.1941224225538055
0.011602852690118834 0.011169577244378944 0.20656646313778515
0.011885086193353763 0.009901321135916866 0.20040789871152997
0.011659431466563775 0.009096983543618703 0.19417032915255947
0.011993395724490576 0.00879060761159608 0.19422249912278192
0.010326839616816495 0.0102223387187272 0.1939783185846534
0.010659252184401669 0.009956266882474078 0.1940237792427592
0.010992238532006544 0.009679924358760625 0.19407095028086452
0.01216113621119867 0.00964284264526617 0.2004518919763612
0.012327469318378793 0.008474487457034897 0.19427629022294302
0.012437191639858385 0.009377758738300542 0.2004969839240355
0.012661504404379648 0.008148749878240132 0.19433168082679622
0.012713216600895503 0.009106129608291566 0.2005431644126285
0.012995368184428303 0.007813522710861212 0.1943886491901224
0.013104963178996204 0.008709309479571716 0.20061058731064926
0.013328968328435439 0.0074689262309341415 0.19444717497284028
0.013496246586448721 0.00829966332421604 0.20068014185146005
0.013662142076457502 0.0071151198449269475 0.19450723107096876
0.01388691062835453 0.007877404399018247 0.20075179199809237
0.013994814848040849 0.00675222371627546 0.19456879722752765
0.01430363703859429 0.0064066544164496815 0.19462739533838963
0.01465807552503162 0.00599967047307329 0.1946963730707343
0.014633711824666301 0.00803784831079642 0.20709834819923495
0.014988422647883226 0.005610264172527684 0.1947623401668375
0.015052945406362709 0.00653713020408842 0.2009789454838037
0.015317761727164769 0.005212298877627525 0.19482972720428673
0.01543900553082231 0.0060665855842476175 0.20105861017840176
0.015645955494990302 0.004805872602105715 0.19489851738286082
0.015823434130979433 0.005584490907811697 0.2011401900494517
0.01597290196320518 0.004391166371991668 0.1949686802230494
0.016205999932669586 0.005091066680511927 0.2012236475819962
0.016298467515619624 0.003968277201723439 0.19504019910408515
0.016611195407276597 0.003552576480371581 0.19511047619479185
0.01694492821273171 0.00309851260769957 0.19518720950460217
0.016964867616449355 0.0040710902192765165 0.2013960500324454
0.017265614033335708 0.002651884309624656 0.19526265916109953
0.017340738817754837 0.003544947841705365 0.20148492521796316
0.017584423040607443 0.00219760328185218 0.19533937487132502
0.017713992212158816 0.0030083147299835504 0.20157553580839244
0.017901223209724516 0.0017357955083139088 0.1954173352018557
0.018084399320390993 0.002461411283989314 0.20166784431651844
0.01821591098860235 0.0012666133602032845 0.19549651443360008
0.01845180587940927 0.0019044514765920242 0.20176181459327566
0.01852836331205066 0.0007901676587131828 0.19557689368761158
0.01848339976640454 0.00285228406555384 0.20797481246124044
0.018170947442956234 0.003328729767043942 0.20789443320722897
0.017856259664078396 0.003797911915154566 0.20781525397548456
0.017539459494961322 0.0042597196886928375 0.20773729364495389
0.01722065048768959 0.004714000716465314 0.2076605779347284
0.01689996466708559 0.005160629014540228 0.20758512827823103
0.016577537769531407 0.005599478286216942 0.2075109661743676
0.016253503969973507 0.006030393608564097 0.20743811787771402
