ply
format ascii 1.0
element vertex 742
property float x
property float y
property float z
end_header
0.010083634246189457 -0.04223288312086934 -5.684629546866191e-09
-0.026770055251508596 0.03635688848452189 0.009777343491360132
0.00992032569649584 -0.025216539489960187 0.0021799340725032583
-0.007680247932760411 0.003175610423057611 0.003302284331849552
0.02528679483895479 -0.010203431919575357 6.475117889854698e-05
-0.016962204084927747 -0.0383728481055473 0.0021799340725032583
-0.0012389019189066855 -0.018431391345158792 0.001362454848557451
-0.03978451027025659 -0.03374022180809303 0.0016349528607128598
0.0012120401003924695 0.01795298407853677 -5.684629546866191e-09
-0.04281335721440425 -0.03434727817825987 0.0016349528607128598
-0.026670059042327485 -0.009528151106030497 0.013014876059606384
-0.018354846898216964 0.005806519841216863 0.013014876059606384
-0.027897247865609653 -0.010783979227344021 0.006539813521801673
-0.04125271464439095 -0.012334730261684194 0.004381461941221229
-0.0361857960346971 0.014790734813670207 0.0016349528607128598
0.003908722486217508 -0.03257982425212397 0.001557095264898253
0.01183470401369195 0.025685116382192067 0.013014876059606384
-0.03794639016598724 -0.004036396104840143 0.008698165622119676
-0.039450288479188286 -0.026398452205601865 0.0010899642426622517
0.039466969191769265 0.02896972965683167 -5.684629546866191e-09
-0.04111622515382304 -0.013448746864550293 0.013014876059606384
-0.006383284885503601 0.0024686777458735824 0.0010899642426622517
0.001213172791715665 -0.008312908868379444 0.0021799340725032583
0.005620130854384912 -0.03211307306979111 0.0003633163684352861
0.03488100441937895 0.017383739676785418 0.0021799340725032583
0.030891707014495375 -0.027819901806726083 0.0021799340725032583
0.03269293111226646 -0.018303041870212686 0.0010899642426622517
0.009920941559180678 -0.027172708888254765 0.0021799340725032583
0.007374393977066944 -0.027744822220281875 0.008698165622119676
-0.028834676871051807 -0.010831922073934321 0.002223106722477875
-0.02185061490233244 -0.003335260813583727 0.0018166120519220225
-0.0036779439062666758 0.0062582055889927445 0.0021799340725032583
-0.037712465679996636 -0.0038566892282321484 0.001359765206691848
-0.019118475519702104 -0.004894200614236916 0.013014876059606384
-0.03445579556632275 0.008811785631499943 0.006539813521801673
0.01616422139432579 -0.00919276048640145 -5.684629546866191e-09
-0.028076211507454533 -0.008480527476563781 -5.684629546866191e-09
-0.03974843035247569 -0.006577057519603139 0.00761898775287922
-0.04177324313279097 -0.006663263622505478 0.009777343491360132
0.007995757367660535 -0.006076194731198858 0.006539813521801673
-0.022195159598264246 -0.0008298037230911489 0.002223106722477875
0.0061271101455304434 -0.02883282866923602 0.0010899642426622517
-0.011538170884155818 -0.03652679050908549 0.0005449755271608515
-0.03608781245465499 0.014580676410893256 0.0005449755271608515
-0.031595246294086374 -0.03631366725462332 0.006539813521801673
0.0030297048811595683 -0.02973907420866546 0.0021799340725032583
0.020267595533580457 -0.039734438674808074 0.013014876059606384
-0.021919057255000686 0.010027819401362357 0.0010899642426622517
0.04017895126131128 0.029855491084514844 0.003302284331849552
-0.02506058317486259 -0.000749915772960893 0.0008174736367670526
-0.018458006957481714 0.010481976165919199 0.0005449755271608515
0.007052015592858929 -0.025444012961357183 0.0021799340725032583
-0.040751886776191945 -0.03326464930512791 0.013014876059606384
-0.017698155300921732 -0.03836970188044376 0.0005449755271608515
-0.02867035407335411 0.03544701070831731 0.006539813521801673
-0.025331724146065705 -0.0009140936053696552 0.0005449755271608515
-0.017783243357975723 0.008437469431207009 0.013014876059606384
0.010947632067899869 -0.005763291901702558 0.0014532862632434874
-0.004266828027973706 -0.020517224355909018 0.0003633163684352861
-0.009898326853282782 -0.026768020667689154 0.002223106722477875
-0.0025654219712106536 -0.0155539188389964 0.0018166120519220225
-0.013704396077986486 -0.022689078173544912 0.004381461941221229
-0.039870806625032874 -0.03673780957054111 0.0010899642426622517
-0.040593773590778 -0.03365116751016957 0.013014876059606384
-0.01265750068248247 -0.02291185945091624 -5.684629546866191e-09
0.027571308621479194 -0.012261583142336684 6.475117889854698e-05
-0.01609425254203619 0.002253566333444128 6.475117889854698e-05
-0.03686248767198611 0.011711118872314796 0.006539813521801673
-0.039592177309032896 -0.0063321473669220455 0.006539813521801673
-0.03711195461300497 -0.019995896990811803 0.006539813521801673
0.03369893396500029 -0.021311768987503345 0.0005449755271608515
-0.024534969388731488 -0.033797165884370935 -5.684629546866191e-09
-0.016961609036968885 -0.029707534549598905 0.004381461941221229
-0.02125955714978008 -0.03767321708874997 0.006539813521801673
-0.025078312807453366 -0.011482143856877089 0.0005449755271608515
0.01928883444743612 0.032146813012884565 0.013014876059606384
0.0017973959822722876 -0.02971250481842887 0.0016349528607128598
-0.013944905440642795 -0.022066820125294415 0.0007266421571138213
0.0034614647764768104 -0.03391569200734925 0.008698165622119676
0.009699472945688827 -0.0052940300650646845 0.010856520321125471
-0.0262803482622506 -0.03257591363268328 0.001907443466608059
-0.0347688875110018 0.03130549709439908 0.0016349528607128598
0.0006755842642156533 -0.03378446889368452 0.0010899642426622517
-0.01284214246764157 -0.02647431293430366 0.0003633163684352861
0.023438284834201732 -0.040586452614843414 0.0021799340725032583
-0.04134287986051875 -0.025018454233057996 6.475117889854698e-05
0.03828628046543205 0.019619390301958244 0.006539813521801673
-0.022991282094123686 -0.0002535227352812566 0.0018166120519220225
-0.036947479322602006 0.022270329183705227 0.0021799340725032583
-0.0213480190594922 -0.0004902647485980861 0.0021799340725032583
-0.02238419877678604 -0.00028332324375201454 0.0010899642426622517
-0.03011811040023168 0.005376789955990875 0.013014876059606384
-0.013698457327469648 0.032813019743267995 0.0005449755271608515
-0.01769138867640225 -0.0052082907031255395 0.0010899642426622517
0.04213684795881072 0.030705189263539205 0.013014876059606384
-0.03987765015332921 -0.027892748281605654 0.0010899642426622517
0.0070281578871686425 -0.03064568033056189 0.013014876059606384
-0.025708933813701516 -0.011387379472021123 0.004921045158728313
-0.02599789340508509 -0.03297392318242477 0.006539813521801673
-0.02412479936589665 -0.0099213174920498 0.0007266421571138213
-0.005640696283677188 0.027905216346913196 0.0010899642426622517
-0.01787385602461689 -0.004540879372805557 0.002223106722477875
0.0025238298700077716 0.019621173956375117 0.0010899642426622517
-0.03688291169636934 -0.01935495135345326 0.0014532862632434874
-0.04069905932733343 -0.01267312251376541 0.0003633163684352861
-0.009350887079916444 -0.03506359539987972 6.475117889854698e-05
0.0005394439265770938 0.016244367861700117 0.006539813521801673
-0.025847511992024046 -0.006271802558689899 0.0007266421571138213
-0.019923154126788647 -0.004235469204397348 0.006539813521801673
-0.02970791860064855 0.0045809743760684895 0.001362454848557451
0.0014622359114883693 -0.007514410423177975 6.475117889854698e-05
-0.036853925295449265 -0.0014789427496974211 -5.684629546866191e-09
-0.026703225574487798 0.03693404586880083 -5.684629546866191e-09
0.007144767977404296 -0.03734334776247063 0.0021799340725032583
-0.020711932440002696 -0.004263114716597245 0.0010899642426622517
-0.035275519188706736 0.012290277779270734 0.006539813521801673
-0.029410821093543274 0.007318435155948836 0.013014876059606384
-0.04257830512448049 -0.015958994387558705 0.0010899642426622517
-0.02771891700684836 -0.007797994604698142 0.003302284331849552
0.03256918823339113 -0.029662086835586965 0.013014876059606384
-0.014171909685268734 -0.031208656878594143 0.009777343491360132
-0.0390154806117705 -0.02018403227802903 0.006539813521801673
-0.028251601763074716 0.009922772672277216 0.0018166120519220225
-0.012874190615401815 -0.0372588940651548 0.001307959715869373
-0.042427908884332545 -0.03352683601603175 0.013014876059606384
0.027186466091851068 -0.037770656913661826 0.0021799340725032583
-0.041250394215172244 -0.012373667744223821 0.013014876059606384
-0.0210010290706505 -0.0011855821499015535 0.013014876059606384
-0.033793329012012326 -0.006981381326571989 0.0021799340725032583
0.0018051121729284994 -0.03440476859296654 0.003302284331849552
0.034185355644105124 0.012199143658861534 0.006539813521801673
-0.009254451339509908 -0.027319962315889436 0.0014532862632434874
-0.029919950428203078 -0.012395518544815994 0.013014876059606384
-0.02060461094803801 0.012627251324520557 0.0010899642426622517
-0.018161815824582418 -0.03883243558193359 6.475117889854698e-05
-0.020174989412554297 -0.00400317922746231 0.013014876059606384
-0.018853134110830057 -0.0026142943644481462 0.004381461941221229
-0.006640108669353418 -0.026232629068812314 0.0021799340725032583
-0.024741748158972166 -0.010287827917941842 0.013014876059606384
-0.037921823134385926 -0.005009961829915498 0.0009342526242287532
-0.015245691077762602 -0.03253154130988173 0.008698165622119676
0.040591740009371005 0.033138332631245396 0.013014876059606384
-0.036681689271461516 -0.019893101125835158 -5.684629546866191e-09
-0.020779231537226685 0.008689094000689256 0.0005449755271608515
-0.037354576311738455 -0.00458089730443731 0.013014876059606384
-0.036541736080758946 0.02515066748176632 0.013014876059606384
-0.03997482062488274 -0.01580059598639324 0.003302284331849552
-0.02533507698489971 -0.007525633888990949 0.0007266421571138213
-0.029668975333530027 0.004632106019316424 0.0010899642426622517
0.018907743720567267 0.0011001523932440093 0.013014876059606384
-0.04014316532823762 -0.03413329592303352 6.475117889854698e-05
-0.01567107230804425 -0.026541756075526262 0.002223106722477875
-0.013307219851872686 -0.02294399101467966 6.475117889854698e-05
-0.040877390421355034 -0.03198831112432708 0.013014876059606384
0.025483007051815332 0.0029330454495131923 -5.684629546866191e-09
-0.02614726236650196 -0.0020095393341412826 0.013014876059606384
0.008440812307308325 -0.006356785460244332 0.009129837809290976
0.024120849514111635 -0.037414736169219615 0.013014876059606384
-0.024547169735291457 0.034798381642640284 0.0021799340725032583
0.003983947242564305 -0.03368454678871744 0.0003633163684352861
-0.024354584350698986 0.03709760301573376 6.475117889854698e-05
0.010568163335206486 -0.005703131732529034 0.0003633163684352861
-0.024597946769144022 0.037564675124178486 0.0010899642426622517
-0.04237732026879921 -0.03511222046313612 0.0016349528607128598
-0.03725277170951401 0.0112496448693721 0.0018166120519220225
-0.02436801260480716 -0.010811520639631868 0.00027248492126565234
-0.0359493393948752 -0.0023925623055169147 0.0003633163684352861
0.033871823066154154 -0.022186002790043447 0.0021799340725032583
-0.007989849808499153 0.005142276587846038 -5.684629546866191e-09
-0.03212404611276917 -0.0369885876497548 0.0010899642426622517
-0.01642015974066176 0.0051163297303435905 6.475117889854698e-05
-0.01497997485821927 -0.025918221392302685 0.0021799340725032583
-0.04140193649192279 -0.025168191392390224 6.475117889854698e-05
-0.008603671872964631 -0.018316194189089738 0.0021799340725032583
-0.03209944221183841 0.005544151722326529 0.0014532862632434874
-0.03760255953445005 0.021320077977595685 0.009777343491360132
-0.013840114226397512 -0.02208402679985324 0.0007266421571138213
-0.011384984356846001 -0.027167079908728006 0.0010899642426622517
-0.0387860413372853 -0.00602233387203305 0.0017128068183645566
0.0006084434138901742 -0.018898028819560667 0.0010899642426622517
0.005154246594137536 -0.03227921139397458 0.0018166120519220225
-0.03928617480679126 -0.0067839550128809874 -5.684629546866191e-09
-0.030643190446828616 0.009899593888260979 6.475117889854698e-05
-0.03113086741130091 0.004881022004292023 0.0014532862632434874
-0.03770941702207219 0.019732706715050848 0.013014876059606384
-0.037941542383189766 -0.005012290243811118 0.00015570590132035425
-0.028673945119725038 -0.006016238849604059 0.0010899642426622517
0.00689439160176076 -0.01976187016014586 -5.684629546866191e-09
0.009438327345326318 -0.02601734583383284 0.003302284331849552
0.018656885479739687 0.031879427256306936 6.475117889854698e-05
-0.02671800483073415 -0.001987574668076514 0.001362454848557451
-0.036745461321377286 0.016283521471000133 0.0010899642426622517
0.01399052181485059 -0.003881634465310155 -5.684629546866191e-09
-0.03640525908359689 -0.036652932744639585 0.009777343491360132
-0.036807802396801315 -0.020532976917728037 0.0021799340725032583
0.022352327949980252 -0.04056004506043322 6.475117889854698e-05
-0.0072601985446678445 -0.02055971658711761 0.0021799340725032583
-0.040087293729879236 -0.028891696186529765 -5.684629546866191e-09
0.031334982075185674 0.008765756058929252 0.013014876059606384
-0.01123419064317032 0.030607549896063804 0.0021799340725032583
-0.02572225219053746 -0.03277770417071765 0.0014532862632434874
0.040385296386657 0.0340007178542819 0.006539813521801673
-0.01707369662988492 0.03698899128220518 6.475117889854698e-05
-0.02422235076824745 -0.0032904399843604625 -5.684629546866191e-09
-0.004789209632007822 -0.019008037231476548 0.00043598152617099317
-0.043081780588654174 -0.01214154090220537 0.009777343491360132
0.032806981859954336 -0.018565747354285723 0.0021799340725032583
0.014308305206631101 -0.04071332409673441 0.006539813521801673
-0.0348929754788331 0.011780959461237016 0.006539813521801673
-0.03970996559075451 -0.03378821183710543 0.0010899642426622517
-0.025129972814681555 0.012199253750145139 0.003302284331849552
-0.008794420780856781 -0.02488428182876835 0.009777343491360132
0.006608833658853731 -0.028971427999150364 0.013014876059606384
-0.013156829361561847 -0.022401931393590153 0.0010899642426622517
0.004627415212849412 -0.01851311135536636 6.475117889854698e-05
-0.0071812916061000385 -0.016633953036266993 0.010856520321125471
-0.020887318031794465 0.00959277668819899 0.002223106722477875
-0.0247303244852488 -0.00985708866940986 0.011396107696533025
-0.0047115389932168815 -0.019205999963732935 0.0005449755271608515
-0.0362698554156596 -0.0072015869427184236 0.013014876059606384
-0.03186691255043651 0.005987112073292606 6.475117889854698e-05
-0.03757991592496494 0.021489779800111384 6.475117889854698e-05
0.003306441445930205 0.01623093675654348 0.0010899642426622517
0.005192066476680597 -0.031713089979641104 0.003302284331849552
-0.024738669479243112 -0.010275315880680496 0.0016835158388418025
-0.005930232949097072 0.02722952501419899 0.013014876059606384
-0.020042265819770613 0.03580309332960461 6.475117889854698e-05
-0.02882230419586526 -0.0125131972695147 0.009777343491360132
-0.02086823084638578 -0.039791744994109084 0.009777343491360132
0.027920742061943424 -0.01594008621756914 0.0005449755271608515
-0.023634001337376916 -0.00029874116379814144 0.0021799340725032583
0.005833199625850903 -0.029086453393893208 0.0021799340725032583
-0.023530888889281402 -0.03888818924657397 0.0007266421571138213
-0.039724637178661155 0.022737177291887584 -5.684629546866191e-09
-0.029500431441093978 0.012603722434605108 -5.684629546866191e-09
0.03393210966348109 -0.02257623133545978 0.0010899642426622517
-0.006630304101343119 0.0022834454417880543 0.0016349528607128598
0.00652220071802014 -0.028350975824673507 0.0010899642426622517
-0.023811595597908637 -0.034510679660747876 -5.684629546866191e-09
-0.027383033799591436 -0.03332989439758537 0.013014876059606384
0.01254821605027284 -0.005959538461385921 0.0014532862632434874
-0.039175375330205126 -0.03688147638902693 0.0021799340725032583
-0.03557101314047116 0.029673441988781395 0.006539813521801673
-0.03350964690331958 0.03171261871947362 0.003302284331849552
0.007953112662349784 -0.0063526811187698765 0.0052448031971384776
0.02546760617502919 -0.03582378631202107 0.0010899642426622517
-0.007893185678492249 -0.018556188564546907 0.002654775531355044
-0.03778704137156292 -0.005235354785072966 0.001907443466608059
0.016328942154054213 -0.006949456978589498 0.006539813521801673
0.028248095827219946 -0.03606281490337931 0.009777343491360132
0.003791521709070628 -0.01791146984108254 0.013014876059606384
-0.03805190164644068 -0.004156900217759687 0.013014876059606384
-0.04290042345289168 -0.007893964001648046 -5.684629546866191e-09
-0.01240665380800029 -0.03584023660867948 0.0021799340725032583
-0.008167413303239805 -0.01810221815332362 6.475117889854698e-05
0.041392877447790556 0.02765523706081917 6.475117889854698e-05
0.007180927915741368 -0.028168503141984873 0.008698165622119676
0.014119560750203685 -0.043035674292052024 0.0010899642426622517
-0.03853220748408309 -0.00566429612051289 0.00046712160199275206
-0.03201336461790435 -0.011610802968256546 6.475117889854698e-05
-0.007625544523801734 -0.018924457355131857 0.00783482384646487
0.023230141253564665 -0.040039426272839795 0.003302284331849552
0.02212143244551229 -0.03881103355418952 0.013014876059606384
-0.004849263989486633 -0.020505013350748703 0.004921045158728313
-0.03889277639333695 0.023831395670368388 0.006539813521801673
-0.027372363515672488 -0.009870509382898355 0.0008174736367670526
-0.02914850784449227 0.006055305313432122 0.0008174736367670526
-0.0253276115299499 -0.0330786720921423 0.0003633163684352861
-0.03759750461760095 0.012681528415184594 0.004381461941221229
-0.03092799652344222 0.03387474465282945 0.009777343491360132
0.024340127512634344 -0.037245818380979116 0.003302284331849552
-0.004617369565063397 -0.019420371509436773 0.0007629747359816748
-0.016388151705587668 0.0343194446966746 0.0010899642426622517
-0.03793116672650603 -0.005010195037975 0.001479241307246556
-0.01766971114190271 -0.02519528780142843 0.0018166120519220225
0.007844805179250278 -0.008079081092319135 0.006539813521801673
-0.016010954517825728 0.036635627408483286 0.006539813521801673
-0.00831688817207047 -0.017779512198743977 0.013014876059606384
-0.007866455370776357 0.0259789874040661 0.0021799340725032583
-0.02241121367559786 -0.03892233047755578 6.475117889854698e-05
-0.03891976120268799 -0.006219292533924953 0.0010899642426622517
-0.02850191829006854 -0.004301152234837067 0.0008174736367670526
0.011600449409725374 -0.005051292355573078 0.0005449755271608515
-0.024111662016517346 -0.01002477476860158 -5.684629546866191e-09
-0.01497634537066691 -0.03285209192864208 6.475117889854698e-05
-0.041321642920668006 -0.004841213926365214 0.0005449755271608515
0.04002497214633036 0.031501605387731106 0.0021799340725032583
-0.03239911594758395 0.03339602958980182 0.0010899642426622517
-0.019482204073276048 -0.002242141064179637 0.00783482384646487
0.004860622413427209 -0.008189547124141347 0.010856520321125471
-0.017832303529968414 -0.005357761563471937 0.0010899642426622517
-0.04071194968624428 -0.009977111314143835 -5.684629546866191e-09
-0.03581058767384144 -0.003909509672396507 0.009777343491360132
-0.004936513351561282 0.026392882181441493 0.0010899642426622517
0.016965780262425425 -0.04236960076575067 0.006539813521801673
-0.03976882779998596 -0.034332626094867216 0.009777343491360132
-0.025011762904751 -0.00804216874021109 0.0014532862632434874
-0.0321528529468931 -0.009472974192917961 6.475117889854698e-05
-0.03458873141214088 0.008968562924406944 6.475117889854698e-05
0.002535799859093638 -0.00604986021622614 0.0021799340725032583
-0.016789381308297668 0.0350364900262732 0.009777343491360132
-0.008170863791154897 0.0038329017306311976 0.0016349528607128598
-0.007233570461947966 -0.020614071201628746 0.0014532862632434874
0.04053249772333536 0.03368659806278949 0.013014876059606384
-0.007924539154972553 0.005488478539580692 0.0005449755271608515
-0.026291794602402406 0.0365302908737236 6.475117889854698e-05
-0.02943957874815563 0.007125848858461737 0.013014876059606384
-0.03317107032450105 -0.007850840249926714 -5.684629546866191e-09
-0.02510557233496032 -0.008946514721874214 0.013014876059606384
-0.038414863609798594 -0.005507470998511087 0.0012456757961285556
-0.030550396449204396 -0.036073453582163774 0.006539813521801673
-0.03375457370267905 -0.0079458912436649 6.475117889854698e-05
0.035343605295456916 0.018297047809432445 0.0010899642426622517
0.006238351421845759 0.020655686242822758 0.008698165622119676
0.000931296098499828 -0.007716506751978491 0.0003633163684352861
0.00687978254992575 -0.037094939727312946 0.0003633163684352861
-0.029755655896367365 0.011494160749611971 0.009777343491360132
-0.0049030085200895595 -0.018516142485698946 0.0017439468941863156
-0.02619360966011098 -0.01229262421015841 0.0008174736367670526
-0.016526812819701468 0.005523830784546974 0.006539813521801673
0.0018127981705420748 -0.03517668627734119 -5.684629546866191e-09
-0.017140869258801393 -0.0028914471649538814 0.013014876059606384
-0.03306941548042064 -0.037128630163510465 0.0005449755271608515
-6.40819337157535e-05 -0.030538702973014146 6.475117889854698e-05
-0.0408730333673362 -0.03238187509061994 0.006539813521801673
-0.03798430749993628 -0.018524724804102215 0.006539813521801673
-0.02637416652586308 -0.006172387965184459 0.004381461941221229
-0.019399873522328134 -0.0053733465271213815 0.0021799340725032583
-0.026403513547807053 -0.0054097119559437115 0.008698165622119676
-0.0374078028921509 -0.019395515257435665 0.011396107696533025
-0.029273709355102054 0.008228059839432209 0.013014876059606384
0.042501378775872886 0.02946020440584909 -5.684629546866191e-09
-0.039056180796575246 -0.006425401642408743 0.0008563987315442511
0.016412550371441074 -0.009229928449744644 0.0010899642426622517
-0.02806357095934717 -0.006718711739201747 0.006539813521801673
-0.004894228277073781 -0.018654601085517763 0.0017439468941863156
-0.004113985847057034 -0.01835416806948893 0.0008174736367670526
-0.016265324149245145 -0.023831326222419562 0.003302284331849552
0.04017179197811153 0.03412014456399204 0.00783482384646487
-0.013336306272478908 -0.03745530240398393 0.001307959715869373
-0.037634848038304095 0.026815913944928313 0.009777343491360132
-0.020487193619324984 0.035837074916754245 0.009777343491360132
0.009349959660258398 -0.0063338791125652095 0.006539813521801673
-0.02780881924659212 0.010468460792163257 0.0010899642426622517
0.007612203017731648 -0.006332475923144807 0.001359765206691848
-0.022080742807690342 -0.0003233309134642677 0.0007266421571138213
-0.02216388390793266 0.013100759465001556 0.006539813521801673
0.04017895126131128 0.029855491084514844 0.006539813521801673
0.006672320148593038 0.023364116720725307 6.475117889854698e-05
-0.03216677832465508 0.03358836782628449 0.0016349528607128598
-0.025654405572365927 0.012205616151410963 0.003302284331849552
0.009349959660258398 -0.0063338791125652095 0.009777343491360132
-0.02527033078880986 -0.01103579121507185 0.011396107696533025
-0.03473395671674247 0.028204138951334102 0.006539813521801673
0.020913048920295392 -0.03945720314194008 6.475117889854698e-05
-0.0041862053707693745 -0.02114234795604223 0.0003633163684352861
-0.009861098105010003 -0.027360212458002707 0.0018166120519220225
-0.025403576189979536 -0.007402759507692093 0.0007266421571138213
-0.038305699228533614 -0.005368237241036016 0.00046712160199275206
-0.025289531517496057 -0.0033757888829973382 0.004381461941221229
0.026466067628607443 0.00372658458306158 -5.684629546866191e-09
-0.03782332655770631 -0.0039136071330162754 0.010856520321125471
-0.004331633803323602 -0.02021864147055057 0.0003633163684352861
-0.019851563665313435 -0.038395613191763954 0.009777343491360132
-0.0430353013317782 -0.012574876860817402 0.013014876059606384
-0.01840757821363782 -0.0013695455135370315 0.013014876059606384
-0.008702470015151877 -0.01681610694694961 0.0003633163684352861
-0.008854884696345383 -0.01746847509346685 0.0003633163684352861
-0.012232257170094964 0.03224723424229216 6.475117889854698e-05
0.007434939023303111 -0.024769545265420745 0.013014876059606384
-0.037624104632802496 -0.0039855652010267854 0.003949785596149461
-0.0047115389932168815 -0.019205999963732935 0.00043598152617099317
-0.007879914406053679 -0.0168600282568471 0.013014876059606384
-0.020501359083172025 -0.0014470865974057505 0.013014876059606384
0.016412550371441074 -0.009229928449744644 0.0005449755271608515
-0.02919638042033815 0.005854951589043883 0.0008174736367670526
-0.024954371351470876 0.013949506063262417 6.475117889854698e-05
-0.00941172375421483 -0.024500303574884082 0.0021799340725032583
-0.03930424412025244 0.01748199566432388 6.475117889854698e-05
-0.029757541640651388 -0.01010431737863343 0.0005449755271608515
0.0041112011083076294 -0.03728023966069509 0.013014876059606384
-0.016097081134307942 -0.031373952247671096 0.010856520321125471
-0.02616580661984179 -0.002024749720173281 0.010856520321125471
0.018415239524891425 0.03003948484157287 0.009777343491360132
0.030857105354646048 -0.02178125031968097 0.0016349528607128598
-0.01928368460107033 -0.03857954020769423 6.475117889854698e-05
-0.0071564371125758365 -0.022750462832032768 0.0016349528607128598
-0.014603486551715153 -0.037933744319052665 0.0017439468941863156
-0.038303742573718 -0.023622913782832287 -5.684629546866191e-09
0.003961108289958923 -0.01802491333984979 0.013014876059606384
-0.004892274347435592 -0.01848897553884378 0.0005449755271608515
-0.02455646993741971 -0.008798541473481025 0.0018166120519220225
-0.0053747788702393036 -0.019121362766658677 0.011396107696533025
-0.014650432586289362 -0.03414654873444691 -5.684629546866191e-09
0.03180053240140692 0.033859174297443874 0.009777343491360132
-0.03727524361361073 -0.020473721378282527 0.004921045158728313
-0.022618765622923816 -0.003100583496067857 0.0018166120519220225
-0.019482204073276048 -0.002242141064179637 0.012583203872435084
-0.036603624938890036 -0.0343303785368891 0.0010899642426622517
-0.03730589134395436 -0.0014037947617240633 -5.684629546866191e-09
-0.04216958002276616 -0.027853974375922255 0.013014876059606384
-0.03904977587203822 -0.020343148778863722 0.006539813521801673
0.0048299660893545175 -0.02955702693661871 0.0021799340725032583
0.025859622754061853 -0.009860892272630789 0.0021799340725032583
-0.0077157579000714975 -0.019805283907050615 0.0021799340725032583
0.03770653161065346 0.03401657887388511 0.0005449755271608515
-0.01718427011070301 0.00860737350639355 0.0005449755271608515
0.01014373315312274 0.024270944145433102 0.006539813521801673
-0.03790974500028444 -0.005013268903786456 0.0012456757961285556
-0.025430992042660798 -0.007351699728089695 -5.684629546866191e-09
0.018322865933097718 -0.009632063385891742 0.0010899642426622517
-0.03553086138409119 -0.0032176877503446487 0.0007266421571138213
0.004668421480658916 -0.017860871319730763 -5.684629546866191e-09
-0.005663646894552556 0.0033322281226724 0.0021799340725032583
0.042046647308536175 0.03551434802127021 -5.684629546866191e-09
-0.016656057104900125 -0.0014533017952469728 6.475117889854698e-05
0.029287388097705057 -0.014226293902634067 6.475117889854698e-05
-0.024512417945419477 0.011566122293172675 0.0010899642426622517
-0.02676892979334621 -0.032649911053316674 0.001362454848557451
0.005754845508050413 -0.019506175758763476 0.009777343491360132
0.006736103569067131 -0.02800141950445381 0.0005449755271608515
0.013040896717603749 -0.004343916800634059 0.0005449755271608515
0.03169185956510151 -0.032809700785838385 0.0021799340725032583
-0.040755791457509315 -0.01026484297338262 -5.684629546866191e-09
-0.039277440956789325 -0.019580729704266584 0.013014876059606384
-0.021045443834396788 -0.0032174740138734607 0.010856520321125471
0.0025933190840194665 -0.019183685162939463 0.003302284331849552
-0.021594833933247255 0.03809918972615563 0.0010899642426622517
-0.02591002365671417 0.03719592670518899 0.0021799340725032583
-0.030364467956875838 0.004561837354900152 0.0008174736367670526
-0.005918300128023986 -0.01814949512790414 0.013014876059606384
-0.004809950586160777 -0.018445839649356487 0.00027248492126565234
-0.02173578988396302 -0.0009271196643569461 0.004381461941221229
-0.02278173719959032 0.010803117655592312 0.0010899642426622517
-0.04199806480691137 -0.015757838684234537 0.003302284331849552
-0.030743834757216423 0.004706796719472894 0.0016349528607128598
0.008007955765393562 -0.03865328783340596 0.009777343491360132
-0.018430093915063433 -0.001467476020992277 0.002223106722477875
0.012928464996292416 -0.04055944943940663 6.475117889854698e-05
0.029494656781833977 0.03290839242139993 0.0005449755271608515
-0.004687947490940487 -0.02144800218025015 0.003302284331849552
-0.02290476520315019 -0.03941109963707829 0.0007266421571138213
0.00823191702356554 -0.038158807929832006 -5.684629546866191e-09
-0.01548935747145725 -0.028268212821579698 0.013014876059606384
-0.019322976074082725 -0.0023634175030226297 0.006971482590547621
-0.04035103903449889 -0.03254289877379535 0.0016349528607128598
-0.03550078277508299 -0.004721191879682453 0.003302284331849552
-0.015841688273517972 -0.032823337367068564 -5.684629546866191e-09
0.02975783078322206 0.009439080771815279 0.006539813521801673
-0.03719968813435836 -0.0018721995383205244 0.013014876059606384
0.03303741283909266 0.03404973938697475 0.003302284331849552
0.0011588295955135052 -0.016639443925281765 0.006539813521801673
-0.035986281866618924 0.013310145397796961 6.475117889854698e-05
-0.02506058317486259 -0.000749915772960893 0.001362454848557451
0.023741733250760778 -0.008623109856310904 0.0021799340725032583
-0.00746512900122007 0.005172299299978008 0.006539813521801673
-0.0117321900529486 -0.03632357950102507 0.0012716234338714146
-0.02417277753443511 -0.009700507793069786 0.0003633163684352861
-0.0269175657546873 -0.01270023679519141 0.0016349528607128598
-0.03246361644877544 -0.00924251589211197 0.006539813521801673
-0.019621213264503834 -0.004503115376605783 0.008698165622119676
-0.035547351490203716 0.030520003046314612 0.0021799340725032583
0.031080378538799153 -0.033732106614700684 0.0005449755271608515
0.040073247618945644 0.03334823139811016 -5.684629546866191e-09
-0.017438226605891775 -0.038380030959355674 -5.684629546866191e-09
-0.038249147854737514 -0.03701177590812701 0.0005449755271608515
-0.02547326713054213 -0.011206679540626836 0.008158578246712124
-0.026950914934578674 -0.009167753495924275 0.009129837809290976
0.028759489053688504 -0.033134968114321345 0.009777343491360132
-0.03728643045145724 -0.01869756865029292 0.0010899642426622517
-0.030448213725962733 -0.01039251861258507 0.004381461941221229
0.03980909506783157 0.03373118873820805 0.0016349528607128598
-0.007561026013165931 0.02658622347023904 0.013014876059606384
0.007063312586081773 -0.004059831092025272 0.0016349528607128598
-0.04326288068222332 -0.008908901340794787 0.0010899642426622517
-0.03284297465134025 0.006183151063041113 0.0007266421571138213
0.0009151267633696456 -0.007512777034424787 0.00018165720970972075
-0.028452017828290616 -0.0074498948028840755 0.00027248492126565234
-0.009381755618205395 -0.026733657800087907 0.010856520321125471
0.02176157022798739 0.03368255814368986 -5.684629546866191e-09
-0.004693905229962038 -0.022205893157575568 0.004381461941221229
0.04196481402919607 0.035596853164825394 0.0021799340725032583
-0.038539842569685866 -0.004788622200482431 6.475117889854698e-05
-0.040173400928562863 -0.007269503281527683 0.013014876059606384
0.032504334353429865 0.012687311646313253 6.475117889854698e-05
-0.019610325774741227 -0.037978859433392465 0.0016349528607128598
0.009203503852618002 -0.003129692197580864 0.0021799340725032583
-0.03941529046559034 -0.02102797503571433 0.013014876059606384
0.03407811828683093 -0.02485254381465312 0.0016349528607128598
-0.019400987784849638 -0.002305131103823022 0.002654775531355044
-0.02619294893960165 0.01440704666776683 -5.684629546866191e-09
-0.004894228277073781 -0.018654601085517763 0.0005449755271608515
-0.030948021473601567 0.005323426991529669 0.006539813521801673
0.00723645346558554 -0.003985589118154357 -5.684629546866191e-09
-0.03773519077544157 0.02663313210293172 6.475117889854698e-05
-0.04024812467116656 -0.03310004596071216 0.0021799340725032583
-0.03053899980048736 0.00462675532920872 0.0010899642426622517
0.029894824630267634 0.032992701899723025 0.0021799340725032583
-0.020537265516362965 -0.0014255651691860427 0.004381461941221229
-0.017273823896222545 -0.028608073206256416 0.003302284331849552
-0.029326502027737972 0.005388788671064606 0.001907443466608059
0.004524441741912147 -0.02962711180100827 0.0021799340725032583
-0.017297955026895514 -0.004616994810862067 0.0021799340725032583
0.029900528941360874 0.006636137630404276 -5.684629546866191e-09
-0.005687558621854868 -0.018657178344235605 6.475117889854698e-05
-0.03816040057179286 -0.005197025047617686 0.0017906607760162536
-0.027114828992999697 -0.0023247236187787755 0.001362454848557451
-0.02668849703447723 -0.012019595341270183 0.010856520321125471
-0.03425259082229293 -0.010738046258236746 0.0016349528607128598
0.0069293372362701795 0.02135479013772786 0.004381461941221229
-0.022815853020639328 0.011504016444280743 6.475117889854698e-05
-0.03725277170951401 0.0112496448693721 0.0003633163684352861
-0.026150535627222055 0.012146193831002672 0.006539813521801673
-0.0071257895938096364 0.02564374865793846 0.003302284331849552
0.02619077387200855 -0.010913507015744643 0.006539813521801673
-0.041174562291570044 -0.036233879491137516 0.0021799340725032583
-0.02518068653835526 0.01451093643497345 0.0021799340725032583
-0.004784746442078506 -0.015721512173667643 0.0007266421571138213
-0.03952380742655668 -0.015577145909251746 -5.684629546866191e-09
-0.017042568196236795 -0.04056165395539994 0.013014876059606384
-0.03407033071161081 0.010748080597458855 0.004381461941221229
-0.03663461200211614 -0.006464453391194836 6.475117889854698e-05
0.0016091091265507502 -0.03414507744563039 6.475117889854698e-05
0.025226010067754146 -0.03864257275925597 0.006539813521801673
-0.029123899941625123 -0.013060494493079344 0.0016349528607128598
-0.025632658180006544 0.011702916733342401 0.0018166120519220225
-0.0049030085200895595 -0.018516142485698946 0.0016349528607128598
0.031146573344447523 -0.023245815129638345 -5.684629546866191e-09
0.015895038370200554 -0.042459145493317044 6.475117889854698e-05
-0.007895054406016214 -0.03614806383716002 -5.684629546866191e-09
-0.009259300158721232 -0.03764578232978021 0.006539813521801673
-0.011266607847859907 -0.03385632168554755 0.006539813521801673
-0.02796544489068349 -0.003150459159722586 0.0021799340725032583
-0.010278330973857533 -0.026757015689039397 0.006539813521801673
0.009942794577416451 -0.025370451256717597 0.0021799340725032583
0.006292712936786474 -0.020061262752612403 0.003302284331849552
-0.005370016187594859 -0.01795863192695444 0.010856520321125471
-0.027345610678345737 -0.009715166611373841 0.0008174736367670526
0.02421906953772668 0.0321786379448297 0.003302284331849552
-0.03825195718942237 -0.001621373666138916 0.0021799340725032583
0.031008961068666994 0.03605448678589439 -5.684629546866191e-09
-0.024282072059108848 -0.03812907512552049 0.0007266421571138213
-0.006669530133813658 -0.01651977063838498 0.004381461941221229
-0.03807414667887847 -0.022051615970590563 0.009777343491360132
-0.027932426599042656 -0.012444802243364804 0.006539813521801673
-0.007924539154972553 0.005488478539580692 0.0016349528607128598
-0.010278330973857533 -0.026757015689039397 0.008698165622119676
-0.017880219907345844 0.0034427310711898393 0.002223106722477875
-0.0392769698559647 -0.003150828271330846 0.003302284331849552
-0.02220513241679859 0.010323837779305385 -5.684629546866191e-09
-0.04215423598400818 -0.0257206027487003 0.0010899642426622517
-0.01591086236981041 -0.0006193731049553741 0.0010899642426622517
-0.008384855798254464 -0.03622800103063337 0.013014876059606384
-0.03960160486686784 -0.00729904981299636 0.0007785447738925544
0.025820879903522144 -0.03603653744782978 0.003302284331849552
0.003751303528293376 -0.03197889903455852 0.003302284331849552
-0.037270381571113925 0.012234842480176289 0.006539813521801673
0.004465818105869907 -0.017723655385595703 0.0021799340725032583
-0.040545226591813734 -0.007929860710940612 0.010856520321125471
0.004601283074883531 -0.0051224870985551434 0.0016349528607128598
-0.007348240452373714 -0.01667754379151738 6.475117889854698e-05
-0.023550062631999234 0.011834585076559476 6.475117889854698e-05
-0.027913445695874887 -0.008768440425267143 0.001362454848557451
-0.034289671572709735 -0.006091682785736673 0.0010899642426622517
0.003091060243487728 -0.005792596492533799 0.0021799340725032583
-0.03864565241173831 -0.03463515932207679 0.008698165622119676
-0.02487262354626454 -0.003690043137797817 0.0014532862632434874
-0.03881280417520329 0.025723951557621437 -5.684629546866191e-09
-0.016944538208383677 -0.0038740284755116802 0.0021799340725032583
0.010400792626372888 -0.005656860423306567 0.0021799340725032583
0.03834593339055021 0.036794241326907895 0.0010899642426622517
-0.031055754514680362 -0.012059224755204549 6.475117889854698e-05
-0.004156255672694411 0.014380132475861833 0.006539813521801673
-0.017903653529134315 0.008637155274219996 0.013014876059606384
-0.008566797502880941 -0.03581885504420114 6.475117889854698e-05
0.013040896717603749 -0.004343916800634059 0.0021799340725032583
-0.01567107230804425 -0.026541756075526262 0.008698165622119676
-0.012163841703807035 -0.02409228403170536 0.003302284331849552
-0.008197193598674386 -0.016449575000723714 0.0021799340725032583
-0.01742585899698039 0.03766941291904892 0.0021799340725032583
-0.03778704137156292 -0.005235354785072966 0.00027248492126565234
0.0337530578939963 0.011608415414812846 6.475117889854698e-05
-0.01567107230804425 -0.026541756075526262 0.004381461941221229
0.003940419911247765 -0.030218204650486406 0.008698165622119676
0.0034959868898627356 -0.03271129291333537 0.0006228332204262506
-0.039437036622550416 0.023954233790259252 0.0010899642426622517
-0.02676892979334621 -0.032649911053316674 0.0016349528607128598
-0.039056180796575246 -0.006425401642408743 0.0007785447738925544
0.025226010067754146 -0.03864257275925597 0.009777343491360132
-0.007893185678492249 -0.018556188564546907 0.001359765206691848
-0.028290926152512753 0.009858682705220556 -5.684629546866191e-09
-0.019322976074082725 -0.0023634175030226297 6.475117889854698e-05
-0.008130613878705182 -0.03723663860418562 0.0021799340725032583
-0.007053486393504934 -0.021143837775489473 0.0018166120519220225
-0.02462861786270758 -0.033707760024920916 0.0018166120519220225
-0.03507312398252971 -0.009935147054297162 0.0010899642426622517
0.03867046027334674 0.019019551608139833 0.0010899642426622517
-0.024151433041081433 -0.010477525393348211 0.0021799340725032583
-0.017008548069346083 -0.025011626726721862 6.475117889854698e-05
-0.005058783719414195 -0.02464106362484939 0.0007266421571138213
0.006748977151875251 -0.028813320893123117 6.475117889854698e-05
-0.006022575525104081 0.0028636505006514107 0.0021799340725032583
-0.04039271428725623 -0.008811029207410769 0.0017906607760162536
-0.028355573291813745 -0.003841583802153215 0.00027248492126565234
0.013685753414422332 -0.006593403658570303 0.003302284331849552
-0.029108275103788345 -0.012503068892805896 6.475117889854698e-05
0.0005821861552739218 -0.033665771049344956 0.0021799340725032583
-0.012648263938161269 -0.03567971102981553 0.0010899642426622517
-0.026655418822631324 -0.01008091600483523 0.006539813521801673
-0.03913065819025737 -0.02051478760906908 0.013014876059606384
-0.02668849703447723 -0.012019595341270183 0.008698165622119676
-0.03746038174755005 -0.0018307572296363053 0.006539813521801673
-0.019274531869668664 -0.04032782799520934 0.006539813521801673
-0.03794639016598724 -0.004036396104840143 0.003302284331849552
-0.009408510688712056 -0.027335650930631256 0.0010899642426622517
-0.03835219357413724 -0.004535819364264024 0.010856520321125471
-0.028465494663740737 -0.0041751652046679855 0.001907443466608059
-0.02482541243150607 -0.033522972500284694 0.0014532862632434874
0.011182963855395035 0.027397307776128824 0.013014876059606384
-0.03769731994821238 0.02020834694003785 0.009777343491360132
0.023444400035616125 -0.03990241793380777 0.006539813521801673
-0.027354098372185644 -0.00981579932775879 -5.684629546866191e-09
-0.03816040057179286 -0.005197025047617686 0.0005449755271608515
0.04032728622569722 0.03404479252934646 0.002654775531355044
-0.03839658415878158 0.014112267310317374 0.002223106722477875
0.030607194994358225 -0.02092783220037537 -5.684629546866191e-09
-0.030151909057979022 0.004494399627698396 0.001907443466608059
-0.015069399319991598 -0.024937632628560743 0.002223106722477875
0.014390739222851362 -0.0036876597409868576 0.0021799340725032583
-0.039735746395640766 -0.0075273764764227265 0.0005449755271608515
0.04196938097168451 0.034686849185867716 0.013014876059606384
-0.018027039128089745 0.004662231086815729 6.475117889854698e-05
-0.04306752485306243 -0.010635711871293453 0.009777343491360132
-0.008095712239624311 0.00450058869372189 0.0005449755271608515
-0.0045099657739210595 -0.019661207659380047 0.0014532862632434874
-0.03734795119781838 -0.019496152705797954 0.003302284331849552
0.00505438642314176 -0.03175539143823846 0.009777343491360132
-0.04157296074278441 -0.01651631077278815 6.475117889854698e-05
-0.040593773590778 -0.03365116751016957 6.475117889854698e-05
-0.018017321759773844 -0.005506533624903433 0.0021799340725032583
-0.013938157338658897 -0.02479277655491456 0.006539813521801673
-0.017056340327486156 0.007013152516442662 0.013014876059606384
-0.017149427138750152 -0.038379047209803674 0.00027248492126565234
-0.029358633837480656 0.012742912278077143 0.0010899642426622517
-0.0396492002076459 -0.0026943198997813915 0.0010899642426622517
0.0071075346846589576 -0.03797188463351317 0.010856520321125471
-0.0074063353824332075 -0.02326947734074836 0.0010899642426622517
0.016859533001447432 -0.002470711876343168 0.0010899642426622517
-0.0044197065426453954 -0.02336879453282246 0.0007266421571138213
-0.010856514701364723 -0.027287442334154022 0.0021799340725032583
-0.008859734611126725 -0.017330190283559706 0.0007266421571138213
-0.039445905490143075 -0.021084170780521303 0.009777343491360132
0.008212634852954882 0.02189173725556087 0.0021799340725032583
0.0010318425500859625 -0.034228592162506545 -5.684629546866191e-09
-0.02661083976308927 -0.0326186889122612 0.001362454848557451
0.0378876840173214 0.022895370115792568 0.013014876059606384
0.0032018472483796145 -0.03026225958541976 0.004381461941221229
-0.03910847982257449 0.014421101092584493 0.0010899642426622517
-0.03586812596408222 -0.0037668280901883666 0.013014876059606384
-0.00611346887486049 0.02759718625025674 0.006539813521801673
-0.041710861452672054 -0.035847080972954984 -5.684629546866191e-09
-0.026022310748685853 -0.012181247623604374 0.001362454848557451
-0.013336306272478908 -0.03745530240398393 0.0014169537493428285
0.0009151267633696456 -0.007512777034424787 0.0010899642426622517
-0.036243690650428206 0.029746102825739983 0.0021799340725032583
-0.012958978328446929 -0.023272579639584637 6.475117889854698e-05
-0.027331053997003172 0.011669662132867187 0.013014876059606384
-0.002392569973053363 -0.015551350537876936 0.0018166120519220225
-0.041321642920668006 -0.004841213926365214 0.0016349528607128598
-0.020496701740404265 -0.037520715780589256 0.0010899642426622517
0.01647948833010319 -0.00924033494485479 -5.684629546866191e-09
-0.026535530905334517 -0.03260568567944131 0.0010899642426622517
0.0016431942438306115 -0.0072428015781628345 6.475117889854698e-05
0.0025545646180450436 -0.03606461874700211 -5.684629546866191e-09
-0.017807254722044204 -0.004417171749522214 0.010856520321125471
-0.04217139979819534 -0.027862756898411743 0.009777343491360132
-0.03587971143531149 -0.03720396218075754 -5.684629546866191e-09
-0.015293109395382209 -0.038143370913045295 0.00021798605296387204
-0.028234429309297867 -0.005650582607562449 0.008158578246712124
-0.0068782701437834996 0.002865935642179118 6.475117889854698e-05
-0.018814285164389464 -0.005061474005904972 0.010856520321125471
-7.576245398142912e-05 -0.031479019169875756 0.006539813521801673
-0.03432933504451419 0.011817230883020256 -5.684629546866191e-09
0.03387443226262801 -0.027111708883786036 -5.684629546866191e-09
-0.03707466934476436 -0.0053324456962971535 0.006539813521801673
-0.032750801691788956 0.006874326153395756 0.013014876059606384
0.022622646339897707 -0.03793460984810135 -5.684629546866191e-09
-0.005590640402535109 -0.01799467351675819 0.006539813521801673
-0.018395104283665958 0.0021545165742757996 0.0010899642426622517
0.0015598449338248487 -0.030153083892813178 0.006539813521801673
0.006918093755294354 -0.00865261298420652 -5.684629546866191e-09
0.039401889330277974 0.028735783102255642 0.0010899642426622517
-0.025836083846519343 0.011677971084606007 0.0007266421571138213
-0.037341773278061 0.01232963955774455 0.004381461941221229
-0.004870853734502946 -0.018755125413206977 0.0016349528607128598
0.00773829023560259 -0.037814752810427336 0.0010899642426622517
-0.01724779350135686 -0.004523232757671055 0.0021799340725032583
-0.01791356801276856 0.001697364033493968 0.013014876059606384
-0.00465428286442181 -0.01933895295193325 -5.684629546866191e-09
-0.028932951141719523 -0.010323430522493213 0.0021799340725032583
-0.025625666867267933 0.013919026818217994 0.006539813521801673
-0.03720690778659924 0.019165989813298832 0.0016349528607128598
-0.010008843743545758 -0.027360947266834204 0.0007266421571138213
0.02171238468456733 0.002827598405815933 0.013014876059606384
-0.02193272986005117 0.01076839997628894 0.013014876059606384
0.034441325689530636 0.036036148692232234 0.006539813521801673
-0.019652354222449323 -0.0021035012517343224 0.006539813521801673
-0.011282228742909196 -0.024063925013719272 0.0005449755271608515
-0.007406624242095145 0.005463986781915971 0.009777343491360132
0.0037346931052897143 -0.032628225951708126 0.0009342526242287532
-0.018457746967347963 -0.03878170378343929 0.009777343491360132
-0.0007881012864748193 -0.015658101294815405 0.0005449755271608515
0.012555976965765664 -0.005960418880434232 0.0021799340725032583
-0.011504207147537233 -0.03710223497718333 0.009777343491360132
-0.020365962381598716 0.008970425571839776 0.010856520321125471
0.006955523672614471 -0.025109851132864857 0.0018166120519220225
0.0034614647764768104 -0.03391569200734925 0.006539813521801673
-0.0054007832549681275 0.026016928996581482 0.006539813521801673
-0.02513188206059474 -0.0013273725742827046 6.475117889854698e-05
0.014298929609437126 -0.0013222351815168995 0.006539813521801673
-0.00800924485490194 -0.03562643875058269 0.0016349528607128598
0.008383854816335929 -0.030310435215995343 -5.684629546866191e-09
-0.011796666503933151 -0.03673019526514818 0.0001089920519740137
-0.006334867715703865 0.0230319841665242 0.013014876059606384
0.022622646339897707 -0.03793460984810135 0.0021799340725032583
-0.04057826978067066 -0.02329015251404677 0.009777343491360132
-0.02387859374772592 -0.00033887987059162575 0.0003633163684352861
-0.024316545860477167 0.011506062587887727 0.0003633163684352861
-0.03896504234632411 -0.0369159044931309 0.0010899642426622517
-0.03323823665529176 -0.034838963727201494 6.475117889854698e-05
-0.005652773937106592 -0.01800731062296093 0.010856520321125471
-0.024568103106100234 0.012124238615568795 0.013014876059606384
-0.029456766941896893 0.03560193547228986 0.0005449755271608515
-0.029253247662087065 -0.03343934223542511 0.0010899642426622517
-0.008371604819420892 -0.036458170210702724 6.475117889854698e-05
-0.01844805447796144 -0.0015436591571911528 0.013014876059606384
0.0178043655133552 -0.009498126491935828 -5.684629546866191e-09
0.005142830330580253 -0.03596344508320625 0.010856520321125471
0.019614045665362907 -0.039977640399890095 0.013014876059606384
0.005978982038147551 -0.031370074185517995 0.006539813521801673
-0.0349704523424945 0.03110870428639166 -5.684629546866191e-09
0.033945990470518286 -0.026640517512007474 0.0005449755271608515
