ply
format ascii 1.0
element vertex 750
property float x
property float y
property float z
end_header
-0.06338263303041458 -0.0011000081431120634 -0.13490000367164612
-0.06249130517244339 -0.0010967464186251163 -0.13449999690055847
-0.06132853031158447 -0.0010885922238230705 -0.13349999487400055
-0.05926789715886116 -0.0010641295230016112 -0.13050000369548798
-0.05732842534780502 -0.0010412975680083036 -0.12770000100135803
-0.05342673510313034 -0.0011130549246445298 -0.13650000095367432
-0.05282874032855034 -0.0011155011598020792 -0.13679999113082886
-0.05215142294764519 -0.0011163166491314769 -0.13689999282360077
-0.051510632038116455 -0.0011179475113749504 -0.1370999962091446
-0.05079365149140358 -0.0011179475113749504 -0.1370999962091446
-0.050003618001937866 -0.0011163166491314769 -0.13689999282360077
-0.03703544661402702 -0.0011138704139739275 -0.13660000264644623
-0.03650720417499542 -0.001119578373618424 -0.13729999959468842
-0.036049842834472656 -0.0011277325684204698 -0.13830000162124634
-0.03545429930090904 -0.0011318096658214927 -0.1387999951839447
-0.034778472036123276 -0.0011334405280649662 -0.13899999856948853
-0.03412504866719246 -0.0011358868796378374 -0.13930000364780426
-0.07638802379369736 -0.0017479334492236376 -0.1305999904870987
-0.07582097500562668 -0.0017506101867184043 -0.13079999387264252
-0.07519438117742538 -0.0017519486136734486 -0.13089999556541443
-0.07450982928276062 -0.0017519486136734486 -0.13089999556541443
-0.07376886904239655 -0.0017506101867184043 -0.13079999387264252
-0.07291721552610397 -0.001746595255099237 -0.13050000369548798
-0.07162586599588394 -0.0017318729078397155 -0.12939999997615814
-0.07029120624065399 -0.0017158121336251497 -0.1281999945640564
-0.06858894228935242 -0.0016903828363865614 -0.12629999220371246
-0.06755196303129196 -0.0016810140805318952 -0.12559999525547028
-0.06678859144449234 -0.0016783373430371284 -0.12539999186992645
-0.06639649718999863 -0.001685029361397028 -0.125900000333786
-0.06594693660736084 -0.0016903828363865614 -0.12629999220371246
-0.06776763498783112 -0.001754625467583537 -0.13109999895095825
-0.06352358311414719 -0.0018094992265105247 -0.13519999384880066
-0.06174197793006897 -0.001798792160116136 -0.13439999520778656
-0.060584958642721176 -0.0017854082398116589 -0.13339999318122864
-0.05898946896195412 -0.00175864074844867 -0.131400004029274
-0.056882452219724655 -0.0017158121336251497 -0.1281999945640564
-0.036533795297145844 -0.0018389439210295677 -0.13740000128746033
-0.036075908690690994 -0.001852327724918723 -0.13840000331401825
-0.03545429930090904 -0.0018576811999082565 -0.1387999951839447
-0.034778472036123276 -0.001860358053818345 -0.13899999856948853
-0.07634267956018448 -0.002451397245749831 -0.13169999420642853
-0.07588371634483337 -0.0024588427040725946 -0.13210000097751617
-0.0752498060464859 -0.0024607041850686073 -0.13220000267028809
-0.07461483776569366 -0.0024625652004033327 -0.1322999894618988
-0.07381121814250946 -0.0024588427040725946 -0.13210000097751617
-0.07267756760120392 -0.0024439520202577114 -0.13130000233650208
-0.07094915956258774 -0.002408586209639907 -0.12939999997615814
-0.06869755685329437 -0.0023546069860458374 -0.1264999955892563
-0.06765952706336975 -0.002341577550396323 -0.1257999986410141
-0.06673533469438553 -0.0023322708439081907 -0.12529999017715454
-0.06602733582258224 -0.0023304095957428217 -0.12520000338554382
-0.06579029560089111 -0.0023453005123883486 -0.12600000202655792
-0.06544151902198792 -0.00235646846704185 -0.1265999972820282
-0.06210949271917343 -0.002516544423997402 -0.13519999384880066
-0.06108453497290611 -0.002503514988347888 -0.13449999690055847
-0.059932220727205276 -0.002484901575371623 -0.13349999487400055
-0.05932280793786049 -0.0024886243045330048 -0.13369999825954437
-0.05862360820174217 -0.0024886243045330048 -0.13369999825954437
-0.037994638085365295 -0.002421615645289421 -0.13009999692440033
-0.03837547078728676 -0.002490485552698374 -0.13379999995231628
-0.03801364451646805 -0.0025128216948360205 -0.13499999046325684
-0.03706255555152893 -0.0025444645434617996 -0.13669998943805695
-0.03661356121301651 -0.0025630781892687082 -0.13769999146461487
-0.036101970821619034 -0.0025779688730835915 -0.13849999010562897
-0.03545429930090904 -0.002583553083240986 -0.1387999951839447
-0.025793030858039856 -0.0025612167082726955 -0.13759998977184296
-0.07703828811645508 -0.0031687503214925528 -0.13289999961853027
-0.07651559263467789 -0.0031759028788655996 -0.13319998979568481
-0.07587593048810959 -0.003178287297487259 -0.13329999148845673
-0.07523521780967712 -0.003180671716108918 -0.13339999318122864
-0.0744258388876915 -0.0031759028788655996 -0.13319998979568481
-0.07361855357885361 -0.0031711345072835684 -0.13300000131130219
-0.07193608582019806 -0.0031282170675694942 -0.13120000064373016
-0.0696207657456398 -0.0030566875357180834 -0.1281999945640564
-0.06787466257810593 -0.0030090012587606907 -0.12619999051094055
-0.06678859144449234 -0.0029899266082793474 -0.12539999186992645
-0.06597459316253662 -0.0029827740509063005 -0.1251000016927719
-0.06542479246854782 -0.002987542422488332 -0.12529999017715454
-0.06523474305868149 -0.0030090012587606907 -0.12619999051094055
-0.06309530884027481 -0.0032378954347223043 -0.13580000400543213
-0.06243106350302696 -0.0032402793876826763 -0.13589999079704285
-0.0617203563451767 -0.0032402793876826763 -0.13589999079704285
-0.06100965291261673 -0.0032402793876826763 -0.13589999079704285
-0.0602102093398571 -0.003235511016100645 -0.13570000231266022
-0.059500548988580704 -0.003235511016100645 -0.13570000231266022
-0.05874756723642349 -0.003233126597478986 -0.1356000006198883
-0.037545379251241684 -0.0030113854445517063 -0.12629999220371246
-0.038228269666433334 -0.0031210638117045164 -0.13089999556541443
-0.03758399933576584 -0.0032426638063043356 -0.13599999248981476
-0.03706255555152893 -0.003259353805333376 -0.13669998943805695
-0.025436880066990852 -0.003235511016100645 -0.13570000231266022
-0.024836551398038864 -0.0032498168293386698 -0.1362999975681305
-0.024212246760725975 -0.003261738223955035 -0.13679999113082886
-0.02363424375653267 -0.003280812641605735 -0.13759998977184296
-0.02298125997185707 -0.0032903500832617283 -0.1379999965429306
-0.0738399550318718 -0.0038783031050115824 -0.13339999318122864
-0.07248438149690628 -0.003843416227027774 -0.13220000267028809
-0.07114133983850479 -0.0038085286505520344 -0.13099999725818634
-0.06798222661018372 -0.003674793988466263 -0.12639999389648438
-0.06689511984586716 -0.003651535836979747 -0.12559999525547028
-0.06608006358146667 -0.003642814001068473 -0.12529999017715454
-0.06521593779325485 -0.0036311850417405367 -0.12489999830722809
-0.06482121348381042 -0.0036457213573157787 -0.12539999186992645
-0.06252294033765793 -0.003956799861043692 -0.13609999418258667
-0.06185660883784294 -0.003959706984460354 -0.13619999587535858
-0.06114433333277702 -0.003959706984460354 -0.13619999587535858
-0.060432057827711105 -0.003959706984460354 -0.13619999587535858
-0.05971978232264519 -0.003959706984460354 -0.13619999587535858
-0.05900751054286957 -0.003959706984460354 -0.13619999587535858
-0.05825243145227432 -0.003956799861043692 -0.13609999418258667
-0.03793363273143768 -0.0036457213573157787 -0.12539999186992645
-0.03742647171020508 -0.0036602579057216644 -0.125900000333786
-0.036374256014823914 -0.003977150656282902 -0.13679999113082886
-0.03581524267792702 -0.00399459432810545 -0.13740000128746033
-0.024453887715935707 -0.0039015612564980984 -0.13419999182224274
-0.023787472397089005 -0.00390737596899271 -0.13439999520778656
-0.023359427228569984 -0.003953892271965742 -0.13599999248981476
-0.022731464356184006 -0.003968428820371628 -0.13650000095367432
-0.022146662697196007 -0.0039916872046887875 -0.13729999959468842
-0.021537885069847107 -0.004012037999927998 -0.1379999965429306
-0.07476110011339188 -0.0045896559022367 -0.13379999995231628
-0.07314232736825943 -0.00457593472674489 -0.13339999318122864
-0.07141286879777908 -0.004510760307312012 -0.1314999908208847
-0.06700164079666138 -0.004315237049013376 -0.1257999986410141
-0.0661328062415123 -0.004301515873521566 -0.12539999186992645
-0.06521593779325485 -0.004284364636987448 -0.12489999830722809
-0.06466614454984665 -0.00429122569039464 -0.1251000016927719
-0.06256888061761856 -0.004671981558203697 -0.13619999587535858
-0.06185660883784294 -0.004671981558203697 -0.13619999587535858
-0.06114433333277702 -0.004671981558203697 -0.13619999587535858
-0.060476429760456085 -0.004675411619246006 -0.1362999975681305
-0.05971978232264519 -0.004671981558203697 -0.13619999587535858
-0.05900751054286957 -0.004671981558203697 -0.13619999587535858
-0.05829523503780365 -0.004671981558203697 -0.13619999587535858
-0.03843556344509125 -0.004284364636987448 -0.12489999830722809
-0.03778238594532013 -0.004284364636987448 -0.12489999830722809
-0.03706974536180496 -0.004277504049241543 -0.12469999492168427
-0.036374256014823914 -0.004692562855780125 -0.13679999113082886
-0.032941047102212906 -0.004713144619017839 -0.13740000128746033
-0.03205833211541176 -0.0046891323290765285 -0.13669998943805695
-0.03113708645105362 -0.004658260848373175 -0.13580000400543213
-0.022912848740816116 -0.00457593472674489 -0.13339999318122864
-0.022465016692876816 -0.004627388436347246 -0.13490000367164612
-0.021969230845570564 -0.004671981558203697 -0.13619999587535858
-0.02139742113649845 -0.004702853504568338 -0.1370999962091446
-0.020816197618842125 -0.004733725916594267 -0.1379999965429306
-0.020181875675916672 -0.004754307214170694 -0.13859999179840088
-0.07319715619087219 -0.005277519579976797 -0.13349999487400055
-0.06884276121854782 -0.005060093477368355 -0.12799999117851257
-0.06705489754676819 -0.004977076780050993 -0.125900000333786
-0.0661328062415123 -0.004957310389727354 -0.12539999186992645
-0.06532036513090134 -0.004945451393723488 -0.1251000016927719
-0.06185660883784294 -0.0053842561319470406 -0.13619999587535858
-0.06114433333277702 -0.0053842561319470406 -0.13619999587535858
-0.060432057827711105 -0.0053842561319470406 -0.13619999587535858
-0.05971978232264519 -0.0053842561319470406 -0.13619999587535858
-0.05900751054286957 -0.0053842561319470406 -0.13619999587535858
-0.05829523503780365 -0.0053842561319470406 -0.13619999587535858
-0.03915133699774742 -0.004945451393723488 -0.1251000016927719
-0.03843556344509125 -0.0049375444650650024 -0.12489999830722809
-0.03772188350558281 -0.004929638002067804 -0.12469999492168427
-0.036954108625650406 -0.005388209130614996 -0.1362999975681305
-0.036267898976802826 -0.005392162594944239 -0.1363999992609024
-0.02124134823679924 -0.005380302667617798 -0.13609999418258667
-0.02071060799062252 -0.0054277414456009865 -0.13729999959468842
-0.020138192921876907 -0.00546727329492569 -0.13830000162124634
-0.01947108842432499 -0.005483085755258799 -0.1386999934911728
-0.07314232736825943 -0.005971198435872793 -0.13339999318122864
-0.06252294033765793 -0.006092054769396782 -0.13609999418258667
-0.061811190098524094 -0.006092054769396782 -0.13609999418258667
-0.06109943985939026 -0.006092054769396782 -0.13609999418258667
-0.060432057827711105 -0.006096531171351671 -0.13619999587535858
-0.05971978232264519 -0.006096531171351671 -0.13619999587535858
-0.05900751054286957 -0.006096531171351671 -0.13619999587535858
-0.05829523503780365 -0.006096531171351671 -0.13619999587535858
-0.05758295953273773 -0.006096531171351671 -0.13619999587535858
-0.03874329477548599 -0.005635486450046301 -0.125900000333786
-0.039776094257831573 -0.006096531171351671 -0.13619999587535858
-0.039063818752765656 -0.006096531171351671 -0.13619999587535858
-0.03835154324769974 -0.006096531171351671 -0.13619999587535858
-0.019992580637335777 -0.00614576879888773 -0.13729999959468842
-0.019428975880146027 -0.006195006892085075 -0.13840000331401825
-0.01874574087560177 -0.006208434700965881 -0.1386999934911728
-0.01804637722671032 -0.00621738750487566 -0.1388999968767166
-0.061765775084495544 -0.006798807065933943 -0.13599999248981476
-0.061054546386003494 -0.006798807065933943 -0.13599999248981476
-0.060387685894966125 -0.006803806405514479 -0.13609999418258667
-0.05967593565583229 -0.006803806405514479 -0.13609999418258667
-0.05900751054286957 -0.006808805279433727 -0.13619999587535858
-0.05829523503780365 -0.006808805279433727 -0.13619999587535858
-0.05758295953273773 -0.006808805279433727 -0.13619999587535858
-0.04120064526796341 -0.006808805279433727 -0.13619999587535858
-0.04048836603760719 -0.006808805279433727 -0.13619999587535858
-0.0193307064473629 -0.0068837921135127544 -0.13769999146461487
-0.01870519481599331 -0.006918786559253931 -0.13840000331401825
-0.018007399514317513 -0.006928784307092428 -0.13859999179840088
-0.01731998100876808 -0.0069437818601727486 -0.1388999968767166
-0.061054546386003494 -0.007510035764425993 -0.13599999248981476
-0.060387685894966125 -0.0075155580416321754 -0.13609999418258667
-0.05967593565583229 -0.0075155580416321754 -0.13609999418258667
-0.058964185416698456 -0.0075155580416321754 -0.13609999418258667
-0.05825243145227432 -0.0075155580416321754 -0.13609999418258667
-0.05754068121314049 -0.0075155580416321754 -0.13609999418258667
-0.01926051452755928 -0.007576300762593746 -0.1371999979019165
-0.01865113340318203 -0.007620477583259344 -0.1379999965429306
-0.017968423664569855 -0.007637043949216604 -0.13830000162124634
-0.01729504205286503 -0.0076591321267187595 -0.1386999934911728
-0.016581639647483826 -0.007664654403924942 -0.1387999951839447
-0.061765775084495544 -0.008221263997256756 -0.13599999248981476
-0.061054546386003494 -0.008221263997256756 -0.13599999248981476
-0.060387685894966125 -0.008227309212088585 -0.13609999418258667
-0.05967593565583229 -0.008227309212088585 -0.13609999418258667
-0.058964185416698456 -0.008227309212088585 -0.13609999418258667
-0.05825243145227432 -0.008227309212088585 -0.13609999418258667
-0.05754068121314049 -0.008227309212088585 -0.13609999418258667
-0.017929445952177048 -0.008342165499925613 -0.1379999965429306
-0.017257634550333023 -0.00836634635925293 -0.13840000331401825
-0.01655774749815464 -0.008378435857594013 -0.13859999179840088
-0.015844345092773438 -0.008384480141103268 -0.1386999934911728
-0.061054546386003494 -0.00893249362707138 -0.13599999248981476
-0.060343317687511444 -0.00893249362707138 -0.13599999248981476
-0.05967593565583229 -0.008939061313867569 -0.13609999418258667
-0.058964185416698456 -0.008939061313867569 -0.13609999418258667
-0.05825243145227432 -0.008939061313867569 -0.13609999418258667
-0.05749840289354324 -0.00893249362707138 -0.13599999248981476
-0.017207756638526917 -0.00906385388225317 -0.1379999965429306
-0.016521908342838287 -0.00908355787396431 -0.13830000162124634
-0.015832921490073204 -0.00910326186567545 -0.13859999179840088
-0.015118996612727642 -0.009109829552471638 -0.1386999934911728
-0.062477003782987595 -0.00964372232556343 -0.13599999248981476
-0.06109943985939026 -0.009650813415646553 -0.13609999418258667
-0.060387685894966125 -0.009650813415646553 -0.13609999418258667
-0.05967593565583229 -0.009650813415646553 -0.13609999418258667
-0.058964185416698456 -0.009650813415646553 -0.13609999418258667
-0.058209631592035294 -0.00964372232556343 -0.13599999248981476
-0.05749840289354324 -0.00964372232556343 -0.13599999248981476
-0.016486069187521935 -0.009785541333258152 -0.1379999965429306
-0.015798652544617653 -0.009806814603507519 -0.13830000162124634
-0.015097195282578468 -0.009820995852351189 -0.13849999010562897
-0.014393648132681847 -0.009835178032517433 -0.1386999934911728
-0.06109943985939026 -0.010362564586102962 -0.13609999418258667
-0.060387685894966125 -0.010362564586102962 -0.13609999418258667
-0.05967593565583229 -0.010362564586102962 -0.13609999418258667
-0.058920860290527344 -0.010354950092732906 -0.13599999248981476
-0.058209631592035294 -0.010354950092732906 -0.13599999248981476
-0.05749840289354324 -0.010354950092732906 -0.13599999248981476
-0.015764381736516953 -0.010507229715585709 -0.1379999965429306
-0.015086296014487743 -0.010537685826420784 -0.13840000331401825
-0.014383270405232906 -0.010552912950515747 -0.13859999179840088
-0.06334672123193741 -0.010073477402329445 -0.12379999458789825
-0.06601721793413162 -0.010830209590494633 -0.1331000030040741
-0.0663517564535141 -0.011001083999872208 -0.13519999384880066
-0.06579037755727768 -0.011025494895875454 -0.1354999989271164
-0.061054546386003494 -0.011066178791224957 -0.13599999248981476
-0.060343317687511444 -0.011066178791224957 -0.13599999248981476
-0.059632088989019394 -0.011066178791224957 -0.13599999248981476
-0.058920860290527344 -0.011066178791224957 -0.13599999248981476
-0.058209631592035294 -0.011066178791224957 -0.13599999248981476
-0.01507539488375187 -0.011253328062593937 -0.13830000162124634
-0.014383270405232906 -0.011277738027274609 -0.13859999179840088
-0.06636441498994827 -0.011586891487240791 -0.13379999995231628
-0.06669529527425766 -0.011768747121095657 -0.13589999079704285
-0.06598459184169769 -0.011768747121095657 -0.13589999079704285
-0.0653219148516655 -0.011777407489717007 -0.13599999248981476
-0.06461068987846375 -0.011777407489717007 -0.13599999248981476
-0.0617203563451767 -0.011768747121095657 -0.13589999079704285
-0.015086296014487743 -0.011985245160758495 -0.13840000331401825
-0.014383270405232906 -0.012002564035356045 -0.13859999179840088
-0.013668299652636051 -0.01201122347265482 -0.1386999934911728
-0.062749944627285 -0.011377515271306038 -0.12389999628067017
-0.06745560467243195 -0.012488636188209057 -0.13599999248981476
-0.0667443722486496 -0.012488636188209057 -0.13599999248981476
-0.06603314727544785 -0.012488636188209057 -0.13599999248981476
-0.06536994874477386 -0.012497819028794765 -0.13609999418258667
-0.06465819478034973 -0.012497819028794765 -0.13609999418258667
-0.0638994574546814 -0.012488636188209057 -0.13599999248981476
-0.014393648132681847 -0.01273657288402319 -0.1386999934911728
-0.013678153976798058 -0.012745755724608898 -0.1387999951839447
-0.06334672123193741 -0.012015759013593197 -0.12379999458789825
-0.0681668296456337 -0.013199864886701107 -0.13599999248981476
-0.06750520318746567 -0.01320957113057375 -0.13609999418258667
-0.06684252619743347 -0.013219276443123817 -0.13619999587535858
-0.06613025069236755 -0.013219276443123817 -0.13619999587535858
-0.06541798263788223 -0.013219276443123817 -0.13619999587535858
-0.06470570713281631 -0.013219276443123817 -0.13619999587535858
-0.013678153976798058 -0.013471626676619053 -0.1387999951839447
-0.07153140753507614 -0.012622271664440632 -0.1233999952673912
-0.06877677887678146 -0.013890637084841728 -0.13580000400543213
-0.0681668296456337 -0.013911093585193157 -0.13599999248981476
-0.06750520318746567 -0.013921322301030159 -0.13609999418258667
-0.06684252619743347 -0.01393155101686716 -0.13619999587535858
-0.0661788061261177 -0.013941779732704163 -0.1362999975681305
-0.06546600908041 -0.013941779732704163 -0.1362999975681305
-0.06470570713281631 -0.01393155101686716 -0.13619999587535858
-0.013668299652636051 -0.01418726984411478 -0.1386999934911728
-0.012942951172590256 -0.01418726984411478 -0.1386999934911728
-0.07059884816408157 -0.013213848695158958 -0.12289999425411224
-0.06995613127946854 -0.013213848695158958 -0.12289999425411224
-0.06942620873451233 -0.013235352002084255 -0.12309999763965607
-0.06889419257640839 -0.013256855309009552 -0.1232999935746193
-0.06830473244190216 -0.013267607428133488 -0.1233999952673912
-0.06776905804872513 -0.013289110735058784 -0.12359999865293503
-0.06867548823356628 -0.014579315669834614 -0.1356000006198883
-0.06806658953428268 -0.014600819908082485 -0.13580000400543213
-0.06740599870681763 -0.014611570164561272 -0.13589999079704285
-0.06684252619743347 -0.014643825590610504 -0.13619999587535858
-0.0661788061261177 -0.01465457770973444 -0.1362999975681305
-0.06546600908041 -0.01465457770973444 -0.1362999975681305
-0.0647532120347023 -0.01465457770973444 -0.1362999975681305
-0.01365844439715147 -0.01490186620503664 -0.13859999179840088
-0.012933619320392609 -0.01490186620503664 -0.13859999179840088
-0.07048396021127701 -0.013834020122885704 -0.12269999831914902
-0.06984229385852814 -0.013834020122885704 -0.12269999831914902
-0.0693134069442749 -0.013856569305062294 -0.12289999425411224
-0.06878244131803513 -0.013879118487238884 -0.12309999763965607
-0.06824937462806702 -0.013901667669415474 -0.1232999935746193
-0.06787871569395065 -0.013958040624856949 -0.12379999458789825
-0.06723128259181976 -0.013958040624856949 -0.12379999458789825
-0.06658385694026947 -0.013958040624856949 -0.12379999458789825
-0.07126247882843018 -0.015085508115589619 -0.13379999995231628
-0.07072096318006516 -0.015119331888854504 -0.13409999012947083
-0.06801646947860718 -0.015299727208912373 -0.13570000231266022
-0.06730680912733078 -0.015299727208912373 -0.13570000231266022
-0.0667443722486496 -0.015333550050854683 -0.13599999248981476
-0.06613025069236755 -0.015356100164353848 -0.13619999587535858
-0.06546600908041 -0.015367374755442142 -0.1362999975681305
-0.0647532120347023 -0.015367374755442142 -0.1362999975681305
-0.0639934316277504 -0.015356100164353848 -0.13619999587535858
-0.013619027100503445 -0.015581593848764896 -0.13819999992847443
-0.012914956547319889 -0.015604143962264061 -0.13840000331401825
-0.06984229385852814 -0.014475694857537746 -0.12269999831914902
-0.0693134069442749 -0.014499288983643055 -0.12289999425411224
-0.06878244131803513 -0.014522884972393513 -0.12309999763965607
-0.06830473244190216 -0.014558278024196625 -0.1233999952673912
-0.06793354451656342 -0.01461726613342762 -0.12389999628067017
-0.06750281900167465 -0.014664456248283386 -0.12429999560117722
-0.07094290852546692 -0.01571444422006607 -0.13319998979568481
-0.07056275755167007 -0.015785232186317444 -0.13379999995231628
-0.06725721061229706 -0.015997588634490967 -0.1356000006198883
-0.06669529527425766 -0.016032980754971504 -0.13589999079704285
-0.066081702709198 -0.016056576743721962 -0.13609999418258667
-0.06541798263788223 -0.01606837473809719 -0.13619999587535858
-0.0647532120347023 -0.01608017273247242 -0.1362999975681305
-0.0640404149889946 -0.01608017273247242 -0.1362999975681305
-0.06328115612268448 -0.01606837473809719 -0.13619999587535858
-0.03849233314394951 -0.016127362847328186 -0.13669998943805695
-0.03777744248509407 -0.016127362847328186 -0.13669998943805695
-0.037089668214321136 -0.016139158979058266 -0.13679999113082886
-0.013559898361563683 -0.016233541071414948 -0.13759998977184296
-0.012877630069851875 -0.016280733048915863 -0.1379999965429306
-0.0737650915980339 -0.015265216119587421 -0.12389999628067017
-0.0693134069442749 -0.01514200959354639 -0.12289999425411224
-0.06878244131803513 -0.015166651457548141 -0.12309999763965607
-0.06836008280515671 -0.015215934254229069 -0.12349999696016312
-0.06804320216178894 -0.015289857983589172 -0.12409999966621399
-0.06848033517599106 -0.01553627010434866 -0.12610000371932983
-0.06948816776275635 -0.01591820828616619 -0.12919999659061432
-0.0671084076166153 -0.01666976325213909 -0.13529999554157257
-0.06659714877605438 -0.016719046980142593 -0.13570000231266022
-0.06603314727544785 -0.016756007447838783 -0.13599999248981476
-0.06541798263788223 -0.01678064838051796 -0.13619999587535858
-0.06470570713281631 -0.01678064838051796 -0.13619999587535858
-0.0640404149889946 -0.016792969778180122 -0.1362999975681305
-0.06328115612268448 -0.01678064838051796 -0.13619999587535858
-0.06256888061761856 -0.01678064838051796 -0.13619999587535858
-0.03632108122110367 -0.01682993210852146 -0.13660000264644623
-0.03565884381532669 -0.016854573041200638 -0.13679999113082886
-0.01343179028481245 -0.016792969778180122 -0.1362999975681305
-0.012868298217654228 -0.016990099102258682 -0.1378999948501587
-0.07382462918758392 -0.01592601090669632 -0.12399999797344208
-0.0730581283569336 -0.015900323167443275 -0.12379999458789825
-0.06878244131803513 -0.015810418874025345 -0.12309999763965607
-0.06836008280515671 -0.015861792489886284 -0.12349999696016312
-0.06804320216178894 -0.015938853845000267 -0.12409999966621399
-0.06853463500738144 -0.01620856672525406 -0.12619999051094055
-0.06986302882432938 -0.017184678465127945 -0.13379999995231628
-0.06640084087848663 -0.017377331852912903 -0.13529999554157257
-0.06588748842477798 -0.01742870733141899 -0.13570000231266022
-0.0653219148516655 -0.017467236146330833 -0.13599999248981476
-0.06470570713281631 -0.017492923885583878 -0.13619999587535858
-0.0639934316277504 -0.017492923885583878 -0.13619999587535858
-0.06328115612268448 -0.017492923885583878 -0.13619999587535858
-0.06256888061761856 -0.017492923885583878 -0.13619999587535858
-0.043337468057870865 -0.017492923885583878 -0.13619999587535858
-0.04253130406141281 -0.017454393208026886 -0.13589999079704285
-0.035606712102890015 -0.017544299364089966 -0.13660000264644623
-0.03494343161582947 -0.01756998524069786 -0.13679999113082886
-0.034303080290555954 -0.017608515918254852 -0.1370999962091446
-0.013372662477195263 -0.01742870733141899 -0.13570000231266022
-0.012849634513258934 -0.017685577273368835 -0.13769999146461487
-0.07382462918758392 -0.01657448336482048 -0.12399999797344208
-0.0730581283569336 -0.01654774881899357 -0.12379999458789825
-0.07235221564769745 -0.016534384340047836 -0.12370000034570694
-0.06798837333917618 -0.01657448336482048 -0.12399999797344208
-0.06853463500738144 -0.01686854474246502 -0.12619999051094055
-0.06916330754756927 -0.017884401604533195 -0.13379999995231628
-0.06640084087848663 -0.018084898591041565 -0.13529999554157257
-0.06583893299102783 -0.018124999478459358 -0.1356000006198883
-0.06527388095855713 -0.018165098503232002 -0.13589999079704285
-0.06465819478034973 -0.018191831186413765 -0.13609999418258667
-0.0639464482665062 -0.018191831186413765 -0.13609999418258667
-0.06323469430208206 -0.018191831186413765 -0.13609999418258667
-0.034917887300252914 -0.018272029235959053 -0.13669998943805695
-0.034228019416332245 -0.018285397440195084 -0.13679999113082886
-0.03363509848713875 -0.01835223101079464 -0.13729999959468842
-0.013382517732679844 -0.01815173402428627 -0.13580000400543213
-0.012821640819311142 -0.01836559735238552 -0.13740000128746033
-0.07447310537099838 -0.01722295582294464 -0.12399999797344208
-0.07382462918758392 -0.01722295582294464 -0.12399999797344208
-0.07311714440584183 -0.017209066078066826 -0.12389999628067017
-0.0724107027053833 -0.01719517633318901 -0.12379999458789825
-0.0715893805027008 -0.017153508961200714 -0.12349999696016312
-0.07071373611688614 -0.017097951844334602 -0.12309999763965607
-0.06705880165100098 -0.01877857744693756 -0.13519999384880066
-0.06640084087848663 -0.018792467191815376 -0.13529999554157257
-0.06588748842477798 -0.018848026171326637 -0.13570000231266022
-0.06527388095855713 -0.01887580379843712 -0.13589999079704285
-0.06461068987846375 -0.018889693543314934 -0.13599999248981476
-0.0638994574546814 -0.018889693543314934 -0.13599999248981476
-0.034303080290555954 -0.019042478874325752 -0.1370999962091446
-0.033659595996141434 -0.019084148108959198 -0.13740000128746033
-0.03298899158835411 -0.01911192387342453 -0.13759998977184296
-0.012746987864375114 -0.018973032012581825 -0.13660000264644623
-0.07546452432870865 -0.017799366265535355 -0.12349999696016312
-0.07435298711061478 -0.017842603847384453 -0.12379999458789825
-0.07370555400848389 -0.017842603847384453 -0.12379999458789825
-0.0730581283569336 -0.017842603847384453 -0.12379999458789825
-0.0724107027053833 -0.017842603847384453 -0.12379999458789825
-0.0715893805027008 -0.017799366265535355 -0.12349999696016312
-0.07071373611688614 -0.017741717398166656 -0.12309999763965607
-0.06705880165100098 -0.01948562264442444 -0.13519999384880066
-0.06649899482727051 -0.019528860226273537 -0.1354999989271164
-0.06583893299102783 -0.019543273374438286 -0.1356000006198883
-0.06517782807350159 -0.019557686522603035 -0.13570000231266022
-0.04719163477420807 -0.01945679634809494 -0.13499999046325684
-0.04648563638329506 -0.01945679634809494 -0.13499999046325684
-0.04574573040008545 -0.01944238692522049 -0.13490000367164612
-0.03565884381532669 -0.01971622183918953 -0.13679999113082886
-0.033708587288856506 -0.019831521436572075 -0.13759998977184296
-0.03301296755671501 -0.019845932722091675 -0.13769999146461487
-0.03229284659028053 -0.019845932722091675 -0.13769999146461487
-0.07417280972003937 -0.018445225432515144 -0.12349999696016312
-0.07358648627996445 -0.018460161983966827 -0.12359999865293503
-0.07294011116027832 -0.018460161983966827 -0.12359999865293503
-0.07223523408174515 -0.018445225432515144 -0.12349999696016312
-0.07147344201803207 -0.018415354192256927 -0.1232999935746193
-0.07071373611688614 -0.01838548295199871 -0.12309999763965607
-0.06984229385852814 -0.018325742334127426 -0.12269999831914902
-0.06920061260461807 -0.018325742334127426 -0.12269999831914902
-0.06776584684848785 -0.020192667841911316 -0.13519999384880066
-0.046554502099752426 -0.020192667841911316 -0.13519999384880066
-0.04584745690226555 -0.020192667841911316 -0.13519999384880066
-0.045173801481723785 -0.02020760253071785 -0.13529999554157257
-0.033708587288856506 -0.02055111713707447 -0.13759998977184296
-0.03298899158835411 -0.02055111713707447 -0.13759998977184296
-0.03229284659028053 -0.020566051825881004 -0.13769999146461487
-0.013017897494137287 -0.019729670137166977 -0.13210000097751617
-0.07393257319927216 -0.019029250368475914 -0.12309999763965607
-0.07340787351131439 -0.01906016655266285 -0.1232999935746193
-0.07276306301355362 -0.01906016655266285 -0.1232999935746193
-0.07211825251579285 -0.01906016655266285 -0.1232999935746193
-0.07135751098394394 -0.019029250368475914 -0.12309999763965607
-0.07059884816408157 -0.01899833232164383 -0.12289999425411224
-0.06995613127946854 -0.01899833232164383 -0.12289999425411224
-0.06920061260461807 -0.018967416137456894 -0.12269999831914902
-0.0685589462518692 -0.018967416137456894 -0.12269999831914902
-0.06802796572446823 -0.01899833232164383 -0.12289999425411224
-0.046554502099752426 -0.020899713039398193 -0.13519999384880066
-0.045949194580316544 -0.020946087315678596 -0.1354999989271164
-0.045307356864213943 -0.02097700536251068 -0.13570000231266022
-0.03432810306549072 -0.021208880469202995 -0.1371999979019165
-0.03363509848713875 -0.021224338561296463 -0.13729999959468842
-0.032941047102212906 -0.02123979665338993 -0.13740000128746033
-0.03222249448299408 -0.02123979665338993 -0.13740000128746033
-0.031572725623846054 -0.021286170929670334 -0.13769999146461487
-0.07381245493888855 -0.019641052931547165 -0.12289999425411224
-0.07328880578279495 -0.019673015922307968 -0.12309999763965607
-0.07264504581689835 -0.019673015922307968 -0.12309999763965607
-0.07200127094984055 -0.019673015922307968 -0.12309999763965607
-0.07135751098394394 -0.019673015922307968 -0.12309999763965607
-0.07059884816408157 -0.019641052931547165 -0.12289999425411224
-0.06995613127946854 -0.019641052931547165 -0.12289999425411224
-0.0693134069442749 -0.019641052931547165 -0.12289999425411224
-0.06867069005966187 -0.019641052931547165 -0.12289999425411224
-0.04601701721549034 -0.02168666571378708 -0.13570000231266022
-0.04534074291586876 -0.02170264720916748 -0.13580000400543213
-0.04463056102395058 -0.02170264720916748 -0.13580000400543213
-0.034228019416332245 -0.021862458437681198 -0.13679999113082886
-0.0328211709856987 -0.0218784399330616 -0.13689999282360077
-0.03215213865041733 -0.021910402923822403 -0.1370999962091446
-0.03148101642727852 -0.021942365914583206 -0.13729999959468842
-0.013335139490664005 -0.020536009222269058 -0.12849999964237213
-0.07381245493888855 -0.02028377540409565 -0.12289999425411224
-0.07328880578279495 -0.02031678520143032 -0.12309999763965607
-0.07264504581689835 -0.02031678520143032 -0.12309999763965607
-0.07200127094984055 -0.02031678520143032 -0.12309999763965607
-0.07135751098394394 -0.02031678520143032 -0.12309999763965607
-0.07071373611688614 -0.02031678520143032 -0.12309999763965607
-0.07006997615098953 -0.02031678520143032 -0.12309999763965607
-0.06948260217905045 -0.020333290100097656 -0.12319999933242798
-0.06883832067251205 -0.020333290100097656 -0.12319999933242798
-0.04601701721549034 -0.022396326065063477 -0.13570000231266022
-0.04540751501917839 -0.022445838898420334 -0.13599999248981476
-0.04466342180967331 -0.022429333999753 -0.13589999079704285
-0.0433705598115921 -0.022132256999611855 -0.13409999012947083
-0.0327732227742672 -0.022561367601156235 -0.13669998943805695
-0.032081782817840576 -0.02257787249982357 -0.13679999113082886
-0.03143515810370445 -0.022627385333180428 -0.1370999962091446
-0.013335139490664005 -0.0212080180644989 -0.12849999964237213
-0.07447310537099838 -0.021113796159625053 -0.12399999797344208
-0.0737650915980339 -0.021096769720315933 -0.12389999628067017
-0.0730581283569336 -0.021079741418361664 -0.12379999458789825
-0.07235221564769745 -0.021062714979052544 -0.12370000034570694
-0.0715893805027008 -0.021028660237789154 -0.12349999696016312
-0.07094351202249527 -0.021028660237789154 -0.12349999696016312
-0.07029765844345093 -0.021028660237789154 -0.12349999696016312
-0.06982099264860153 -0.021079741418361664 -0.12379999458789825
-0.06917356699705124 -0.021079741418361664 -0.12379999458789825
-0.04605092853307724 -0.023123014718294144 -0.13580000400543213
-0.045440904796123505 -0.023174094036221504 -0.13609999418258667
-0.04472915455698967 -0.023174094036221504 -0.13609999418258667
-0.043920379132032394 -0.023123014718294144 -0.13580000400543213
-0.03272527456283569 -0.023242205381393433 -0.13650000095367432
-0.03205833211541176 -0.023276256397366524 -0.13669998943805695
-0.013324761763215065 -0.021862996742129326 -0.12839999794960022
-0.07597457617521286 -0.02220102585852146 -0.1264999955892563
-0.07513441890478134 -0.02214837446808815 -0.12619999051094055
-0.07435642182826996 -0.022113274782896042 -0.12600000202655792
-0.07358050346374512 -0.022078173235058784 -0.1257999986410141
-0.07286465167999268 -0.02206062339246273 -0.1256999969482422
-0.07255195081233978 -0.022165924310684204 -0.12629999220371246
-0.07337140291929245 -0.022622229531407356 -0.12889999151229858
-0.0755172148346901 -0.0234997421503067 -0.1339000016450882
-0.07526397705078125 -0.023640144616365433 -0.1347000002861023
-0.07467024773359299 -0.02367524430155754 -0.13490000367164612
-0.04672667384147644 -0.023815646767616272 -0.13570000231266022
-0.04611874371767044 -0.023868294432759285 -0.13599999248981476
-0.04547429457306862 -0.023903395980596542 -0.13619999587535858
-0.04482774809002876 -0.0239384975284338 -0.1363999992609024
-0.03272527456283569 -0.023956047371029854 -0.13650000095367432
-0.032081782817840576 -0.024008696898818016 -0.13679999113082886
-0.013810936361551285 -0.02223612554371357 -0.1266999989748001
-0.013324761763215065 -0.022534480318427086 -0.12839999794960022
-0.07686096429824829 -0.023332474753260612 -0.1290999948978424
-0.07707101851701736 -0.023603571578860283 -0.1305999904870987
-0.07627104967832565 -0.023567426949739456 -0.13040000200271606
-0.07483553141355515 -0.023332474753260612 -0.1290999948978424
-0.07571137696504593 -0.02382045052945614 -0.13179999589920044
-0.07564825564622879 -0.024019256234169006 -0.13289999961853027
-0.0755172148346901 -0.024199988692998886 -0.1339000016450882
-0.07515222579240799 -0.024308426305651665 -0.13449999690055847
-0.07467024773359299 -0.024380721151828766 -0.13490000367164612
-0.04954981803894043 -0.02228423021733761 -0.1232999935746193
-0.04672667384147644 -0.02452530525624752 -0.13570000231266022
-0.04615265503525734 -0.024597598239779472 -0.13609999418258667
-0.04554107040166855 -0.024651817977428436 -0.1363999992609024
-0.03339012339711189 -0.02463374473154545 -0.1362999975681305
-0.03272527456283569 -0.024669891223311424 -0.13650000095367432
-0.032081782817840576 -0.02472410909831524 -0.13679999113082886
-0.014450682327151299 -0.022862572222948074 -0.1264999955892563
-0.013789135031402111 -0.022862572222948074 -0.1264999955892563
-0.013304006308317184 -0.02316981554031372 -0.1281999945640564
-0.07864704728126526 -0.024565504863858223 -0.13210000097751617
-0.07783818989992142 -0.02452831156551838 -0.13189999759197235
-0.07732386887073517 -0.024584101513028145 -0.13220000267028809
-0.07732811570167542 -0.02480725198984146 -0.13339999318122864
-0.07674537599086761 -0.024844445288181305 -0.13359999656677246
-0.07621746510267258 -0.02490023523569107 -0.1339000016450882
-0.07568640261888504 -0.024956021457910538 -0.13419999182224274
-0.07526397705078125 -0.025049004703760147 -0.1347000002861023
-0.0745595395565033 -0.025049004703760147 -0.1347000002861023
-0.07401959598064423 -0.025104790925979614 -0.13499999046325684
-0.04740137606859207 -0.025216368958353996 -0.1356000006198883
-0.04682997241616249 -0.025290751829743385 -0.13599999248981476
-0.04618656635284424 -0.02532794512808323 -0.13619999587535858
-0.03339012339711189 -0.02534654177725315 -0.1362999975681305
-0.015112229622900486 -0.023524118587374687 -0.1264999955892563
-0.014450682327151299 -0.023524118587374687 -0.1264999955892563
-0.013789135031402111 -0.023524118587374687 -0.1264999955892563
-0.07878239452838898 -0.02552400343120098 -0.13349999487400055
-0.07814272493124008 -0.025543123483657837 -0.13359999656677246
-0.07755999267101288 -0.0255813617259264 -0.13379999995231628
-0.07703258842229843 -0.025638718158006668 -0.13409999012947083
-0.07638822495937347 -0.025657836347818375 -0.13419999182224274
-0.07585560530424118 -0.025715194642543793 -0.13449999690055847
-0.07526397705078125 -0.025753434747457504 -0.1347000002861023
-0.0745595395565033 -0.025753434747457504 -0.1347000002861023
-0.07396477460861206 -0.025791672989726067 -0.13490000367164612
-0.07331359386444092 -0.025810789316892624 -0.13499999046325684
-0.048110514879226685 -0.02592550590634346 -0.1356000006198883
-0.047471292316913605 -0.025963744148612022 -0.13580000400543213
-0.03407789766788483 -0.026040220633149147 -0.13619999587535858
-0.015112229622900486 -0.02418566681444645 -0.1264999955892563
-0.014450682327151299 -0.02418566681444645 -0.1264999955892563
-0.07820121943950653 -0.02626144327223301 -0.13369999825954437
-0.07755999267101288 -0.02628108486533165 -0.13379999995231628
-0.07709003239870071 -0.02635965310037136 -0.13419999182224274
-0.07650206983089447 -0.02639893628656864 -0.13439999520778656
-0.07596839964389801 -0.02645786479115486 -0.1347000002861023
-0.07526397705078125 -0.02645786479115486 -0.1347000002861023
-0.0745595395565033 -0.02645786479115486 -0.1347000002861023
-0.07396477460861206 -0.02649714983999729 -0.13490000367164612
-0.07331359386444092 -0.026516787707805634 -0.13499999046325684
-0.07271517068147659 -0.026556072756648064 -0.13519999384880066
-0.015798715874552727 -0.024886498227715492 -0.1266999989748001
-0.015124176628887653 -0.024866856634616852 -0.1265999972820282
-0.014462105929851532 -0.024866856634616852 -0.1265999972820282
-0.07755999267101288 -0.02698080986738205 -0.13379999995231628
-0.07703258842229843 -0.027041302993893623 -0.13409999012947083
-0.07638822495937347 -0.027061467990279198 -0.13419999182224274
-0.07585560530424118 -0.02712196297943592 -0.13449999690055847
-0.07509634643793106 -0.027101797983050346 -0.13439999520778656
-0.0745595395565033 -0.02716229483485222 -0.1347000002861023
-0.07385511696338654 -0.02716229483485222 -0.1347000002861023
-0.07331359386444092 -0.027222787961363792 -0.13499999046325684
-0.07271517068147659 -0.02726311795413494 -0.13519999384880066
-0.07206138223409653 -0.027283282950520515 -0.13529999554157257
-0.07145929336547852 -0.027323614805936813 -0.1354999989271164
-0.04975074902176857 -0.024964304640889168 -0.12379999458789825
-0.048855654895305634 -0.027363944798707962 -0.13570000231266022
-0.035502444952726364 -0.027464769780635834 -0.13619999587535858
-0.034790173172950745 -0.027464769780635834 -0.13619999587535858
-0.015798715874552727 -0.025549091398715973 -0.1266999989748001
-0.015136122703552246 -0.025549091398715973 -0.1266999989748001
-0.07627438753843307 -0.027721909806132317 -0.1340000033378601
-0.07568640261888504 -0.027763282880187035 -0.13419999182224274
-0.0749845951795578 -0.027763282880187035 -0.13419999182224274
-0.07439348101615906 -0.02780465967953205 -0.13439999520778656
-0.07374545186758041 -0.02782534807920456 -0.13449999690055847
-0.07315067946910858 -0.027866724878549576 -0.1347000002861023
-0.07271517068147659 -0.02797016315162182 -0.13519999384880066
-0.07200811803340912 -0.02797016315162182 -0.13519999384880066
-0.07145929336547852 -0.028032228350639343 -0.1354999989271164
-0.07075067609548569 -0.028032228350639343 -0.1354999989271164
-0.04975074902176857 -0.02561173215508461 -0.12379999458789825
-0.04910332337021828 -0.02561173215508461 -0.12379999458789825
-0.048455893993377686 -0.02561173215508461 -0.12379999458789825
-0.05236533656716347 -0.02805291675031185 -0.1356000006198883
-0.051656197756528854 -0.02805291675031185 -0.1356000006198883
-0.05098463222384453 -0.02807360514998436 -0.13570000231266022
-0.05027497559785843 -0.02807360514998436 -0.13570000231266022
-0.03621472045779228 -0.028177043423056602 -0.13619999587535858
-0.035502444952726364 -0.028177043423056602 -0.13619999587535858
-0.034790173172950745 -0.028177043423056602 -0.13619999587535858
-0.034127939492464066 -0.02821842022240162 -0.1363999992609024
-0.015811186283826828 -0.026232372969388962 -0.12680000066757202
-0.07546081393957138 -0.02838025614619255 -0.13379999995231628
-0.07481697201728821 -0.028401467949151993 -0.1339000016450882
-0.07417207956314087 -0.028422677889466286 -0.1340000033378601
-0.07358096539974213 -0.02846509777009487 -0.13419999182224274
-0.07304206490516663 -0.02852873131632805 -0.13449999690055847
-0.07255382090806961 -0.028613576665520668 -0.13490000367164612
-0.07200811803340912 -0.028677208349108696 -0.13519999384880066
-0.07130108028650284 -0.028677208349108696 -0.13519999384880066
-0.07059402763843536 -0.028677208349108696 -0.13519999384880066
-0.04967037960886955 -0.026216737926006317 -0.12359999865293503
-0.04906366020441055 -0.02623794972896576 -0.12370000034570694
-0.052403952926397324 -0.028783263638615608 -0.13570000231266022
-0.051732387393713 -0.02880447544157505 -0.13580000400543213
-0.051022205501794815 -0.02880447544157505 -0.13580000400543213
-0.03618812933564186 -0.02886810712516308 -0.13609999418258667
-0.035502444952726364 -0.02888931706547737 -0.13619999587535858
-0.034790173172950745 -0.02888931706547737 -0.13619999587535858
-0.03407789766788483 -0.02888931706547737 -0.13619999587535858
-0.03341462090611458 -0.028931740671396255 -0.1363999992609024
-0.07668793201446533 -0.02901477739214897 -0.13349999487400055
-0.07470522075891495 -0.029058245941996574 -0.13369999825954437
-0.07406137138605118 -0.0290799792855978 -0.13379999995231628
-0.07341647893190384 -0.029101714491844177 -0.1339000016450882
-0.07287914305925369 -0.02916691266000271 -0.13419999182224274
-0.07244625687599182 -0.02927558496594429 -0.1347000002861023
-0.07184834033250809 -0.029319053515791893 -0.13490000367164612
-0.07114287465810776 -0.029319053515791893 -0.13490000367164612
-0.07043739408254623 -0.029319053515791893 -0.13490000367164612
-0.049630191177129745 -0.026841385290026665 -0.12349999696016312
-0.048984333872795105 -0.026841385290026665 -0.12349999696016312
-0.052403952926397324 -0.029492923989892006 -0.13570000231266022
-0.051732387393713 -0.029514659196138382 -0.13580000400543213
-0.051059771329164505 -0.02953638881444931 -0.13589999079704285
-0.05027497559785843 -0.029492923989892006 -0.13570000231266022
-0.03616154193878174 -0.029558124020695686 -0.13599999248981476
-0.035476379096508026 -0.029579857364296913 -0.13609999418258667
-0.03476462885737419 -0.029579857364296913 -0.13609999418258667
-0.03405287489295006 -0.029579857364296913 -0.13609999418258667
-0.03336562588810921 -0.02960159257054329 -0.13619999587535858
-0.03270129859447479 -0.029645061120390892 -0.1363999992609024
-0.03205833211541176 -0.029710261151194572 -0.13669998943805695
-0.01782861165702343 -0.027602074667811394 -0.12700000405311584
-0.07464934140443802 -0.02973518893122673 -0.13359999656677246
-0.07395066320896149 -0.02973518893122673 -0.13359999656677246
-0.07336165010929108 -0.029779702425003052 -0.13379999995231628
-0.07277053594589233 -0.029824217781424522 -0.1340000033378601
-0.07217733561992645 -0.029868727549910545 -0.13419999182224274
-0.07163529843091965 -0.029935499653220177 -0.13449999690055847
-0.0710373967885971 -0.029980015009641647 -0.1347000002861023
-0.07022853195667267 -0.029935499653220177 -0.13449999690055847
-0.04979093745350838 -0.027576271444559097 -0.12389999628067017
-0.0528004914522171 -0.03002452850341797 -0.13490000367164612
-0.05236533656716347 -0.030180327594280243 -0.1356000006198883
-0.051732387393713 -0.030224841088056564 -0.13580000400543213
-0.051022205501794815 -0.030224841088056564 -0.13580000400543213
-0.05023792386054993 -0.030180327594280243 -0.1356000006198883
-0.049382682889699936 -0.0300912968814373 -0.13519999384880066
-0.03750109672546387 -0.030202584341168404 -0.13570000231266022
-0.034713540226221085 -0.030247095972299576 -0.13589999079704285
-0.03400283306837082 -0.030247095972299576 -0.13589999079704285
-0.03331662714481354 -0.030269352719187737 -0.13599999248981476
-0.03265335038304329 -0.030313866212964058 -0.13619999587535858
-0.031987980008125305 -0.03035838156938553 -0.1363999992609024
-0.03127465769648552 -0.03035838156938553 -0.1363999992609024
-0.01782861165702343 -0.028266236186027527 -0.12700000405311584
-0.07464934140443802 -0.030433865264058113 -0.13359999656677246
-0.07395066320896149 -0.030433865264058113 -0.13359999656677246
-0.07336165010929108 -0.030479425564408302 -0.13379999995231628
-0.07271622866392136 -0.030502205714583397 -0.1339000016450882
-0.07212354987859726 -0.030547764152288437 -0.13409999012947083
-0.07147551327943802 -0.03057054430246353 -0.13419999182224274
-0.07087917625904083 -0.03061610460281372 -0.13439999520778656
-0.054428402334451675 -0.030456645414233208 -0.13369999825954437
-0.05318865180015564 -0.030547764152288437 -0.13409999012947083
-0.052643924951553345 -0.030638884752988815 -0.13449999690055847
-0.052133627235889435 -0.03075278177857399 -0.13499999046325684
-0.05098463222384453 -0.030912242829799652 -0.13570000231266022
-0.05020087584853172 -0.030866682529449463 -0.1354999989271164
-0.0493096299469471 -0.03075278177857399 -0.13499999046325684
-0.03395279496908188 -0.030912242829799652 -0.13570000231266022
-0.03329212963581085 -0.030957801267504692 -0.13589999079704285
-0.03260539844632149 -0.030980581417679787 -0.13599999248981476
-0.03194107487797737 -0.031026141718029976 -0.13619999587535858
-0.031228799372911453 -0.031026141718029976 -0.13619999587535858
-0.030516523867845535 -0.031026141718029976 -0.13619999587535858
-0.029848016798496246 -0.031071702018380165 -0.1363999992609024
-0.02915605530142784 -0.03109448216855526 -0.13650000095367432
-0.01852189563214779 -0.02897595427930355 -0.12719999253749847
-0.07459346950054169 -0.031109239906072617 -0.13349999487400055
-0.07395066320896149 -0.031132543459534645 -0.13359999656677246
-0.07336165010929108 -0.031179150566458702 -0.13379999995231628
-0.07271622866392136 -0.03120245225727558 -0.1339000016450882
-0.07212354987859726 -0.03124905563890934 -0.13409999012947083
-0.07147551327943802 -0.03127235919237137 -0.13419999182224274
-0.07077370584011078 -0.03127235919237137 -0.13419999182224274
-0.052604783326387405 -0.031318966299295425 -0.13439999520778656
-0.05209501460194588 -0.03143548220396042 -0.13490000367164612
-0.05154191330075264 -0.031528688967227936 -0.13529999554157257
-0.05090948939323425 -0.03157529607415199 -0.1354999989271164
-0.05012677609920502 -0.031528688967227936 -0.13529999554157257
-0.049273110926151276 -0.03143548220396042 -0.13490000367164612
-0.048387616872787476 -0.031318966299295425 -0.13439999520778656
-0.04757831618189812 -0.03124905563890934 -0.13409999012947083
-0.03189416974782944 -0.03169180825352669 -0.13599999248981476
