ply
format ascii 1.0
element vertex 719
property float x
property float y
property float z
property uchar red
property uchar green
property uchar blue
end_header
-10.119556427001953 -22.635028839111328 0.05940645933151245 244 208 63
-6.380326271057129 0.47345638275146484 0.9999959468841553 244 208 63
21.426694869995117 -16.953264236450195 1.4999998807907104 255 0 0
-14.3412504196167 -18.893152236938477 0.7499973773956299 244 208 63
32.19361877441406 9.380950927734375 0.49999192357063293 255 0 0
-12.509142875671387 -8.39410400390625 1.9999970197677612 244 208 63
10.236614227294922 -14.056414604187012 0.9999959468841553 255 0 0
9.405679702758789 -14.94676399230957 4.019805431365967 255 0 0
-2.366434097290039 46.34619140625 8.970297813415527 0 0 255
8.38668441772461 -16.490583419799805 7.1881184577941895 255 0 0
19.5462646484375 -7.41145133972168 6.000001430511475 255 0 0
-41.41560363769531 2.3989498615264893 0.05940645933151245 244 208 63
21.979595184326172 -9.458215713500977 3.029705762863159 255 0 0
-7.144839763641357 -24.427640914916992 3.029705762863159 244 208 63
26.25705909729004 -12.832113265991211 1.666664481163025 255 0 0
7.405759811401367 -26.382225036621094 8.970297813415527 0 255 0
38.02477264404297 -12.090877532958984 -5.21540641784668e-06 255 0 0
-18.858840942382812 -29.827245712280273 1.9285659790039062 244 208 63
37.81170654296875 5.246186256408691 0.49999192357063293 255 0 0
12.740945816040039 -15.68368148803711 1.666664481163025 255 0 0
19.28790283203125 -6.797106742858887 1.9999970197677612 255 0 0
18.860700607299805 -29.641294479370117 0.9999959468841553 255 0 0
-40.120948791503906 -3.4481186866760254 0.9999959468841553 244 208 63
15.500142097473145 -38.211368560791016 6.000001430511475 255 0 0
11.355753898620605 -24.53594207763672 1.666664481163025 255 0 0
-19.371437072753906 -27.19369125366211 11.940596580505371 0 0 255
30.765766143798828 11.909808158874512 6.000001430511475 255 0 0
7.083637714385986 1.066373586654663 6.000001430511475 255 0 0
24.95018768310547 -15.826173782348633 6.000001430511475 255 0 0
9.047091484069824 -1.6534096002578735 1.7499984502792358 255 0 0
11.299957275390625 8.826583862304688 -5.21540641784668e-06 255 0 0
-8.952448844909668 -39.240055084228516 2.0396060943603516 244 208 63
-38.555702209472656 8.367412567138672 0.33332735300064087 244 208 63
-18.809612274169922 -28.95478630065918 9.564355850219727 0 0 255
25.789703369140625 -10.234971046447754 1.666664481163025 255 0 0
9.82935905456543 -24.899396896362305 0.19999295473098755 255 0 0
-7.337356090545654 -37.87166976928711 0.24999335408210754 244 208 63
18.07030487060547 -29.800046920776367 0.6666633486747742 255 0 0
-2.4239163398742676 -49.67820739746094 1.9999970197677612 244 208 63
3.2133896350860596 48.63557815551758 0.9999959468841553 255 0 0
-18.310409545898438 -36.114540100097656 11.940596580505371 0 0 255
18.864072799682617 -29.64529800415039 0.39999455213546753 255 0 0
-13.099894523620605 -10.436480522155762 0.05940645933151245 244 208 63
-25.67485237121582 -17.551883697509766 0.05940645933151245 244 208 63
21.24860191345215 -17.226486206054688 1.7499984502792358 255 0 0
36.827667236328125 -17.00330352783203 1.9999970197677612 255 0 0
-20.926429748535156 -27.610145568847656 0.05940645933151245 244 208 63
9.144330024719238 -12.07622241973877 0.05940645933151245 255 0 0
10.130683898925781 -22.672563552856445 3.029705762863159 255 0 0
11.941158294677734 -21.484590530395508 3.029705762863159 255 0 0
12.448873519897461 -16.043476104736328 6.000001430511475 255 0 0
-7.159316539764404 -43.106109619140625 11.940596580505371 0 0 255
-17.548145294189453 -37.627593994140625 -5.21540641784668e-06 244 208 63
34.68395233154297 -15.309272766113281 -5.21540641784668e-06 255 0 0
11.961420059204102 -15.721148490905762 11.940596580505371 0 255 0
-23.699020385742188 -13.7611083984375 1.3333284854888916 244 208 63
-41.30176544189453 -9.884745597839355 11.940596580505371 0 0 255
16.476652145385742 -35.120548248291016 1.7499984502792358 255 0 0
-21.539649963378906 -17.864957809448242 4.019805431365967 244 208 63
8.926342010498047 1.6037416458129883 1.2475268840789795 255 0 0
-12.935303688049316 -30.44413948059082 1.9999970197677612 244 208 63
11.307771682739258 -12.698408126831055 0.49999192357063293 255 0 0
-13.785539627075195 -22.56804656982422 0.24999335408210754 244 208 63
-7.392548561096191 -26.22769546508789 9.960396766662598 0 0 255
27.253461837768555 10.23886489868164 -5.21540641784668e-06 255 0 0
7.601346969604492 37.47351837158203 3.029705762863159 255 0 0
-13.953489303588867 -18.824729919433594 2.0396060943603516 244 208 63
-18.376171112060547 -31.68641471862793 0.285712331533432 244 208 63
11.645042419433594 -27.523765563964844 -5.21540641784668e-06 255 0 0
28.502960205078125 -17.11952781677246 0.6666633486747742 255 0 0
7.196367263793945 -38.00165939331055 0.9999959468841553 255 0 0
6.769754886627197 -16.22985076904297 0.9999959468841553 255 0 0
-7.5365214347839355 -38.39338302612305 0.05940645933151245 244 208 63
5.690467357635498 41.15264892578125 8.970297813415527 0 255 0
-8.001272201538086 -37.81409454345703 0.05940645933151245 244 208 63
11.533354759216309 33.22941207885742 1.9999970197677612 255 0 0
-8.204934120178223 -37.32419967651367 1.9999970197677612 244 208 63
21.467384338378906 -18.195648193359375 11.940596580505371 0 255 0
11.668087005615234 -24.412683486938477 1.9999970197677612 255 0 0
-18.448144912719727 -26.939388275146484 0.9999959468841553 244 208 63
11.904144287109375 4.946725368499756 11.940596580505371 0 255 0
-17.40008544921875 -37.02914047241211 11.940596580505371 0 0 255
-10.182467460632324 28.47954750061035 -5.21540641784668e-06 244 208 63
7.1786417961120605 -16.603134155273438 -5.21540641784668e-06 255 0 0
-5.795867443084717 -1.572827696800232 -5.21540641784668e-06 244 208 63
10.876073837280273 -29.440279006958008 7.980197906494141 0 255 0
-17.424720764160156 -29.450286865234375 11.940596580505371 0 0 255
10.108996391296387 3.9741766452789307 1.9999970197677612 255 0 0
9.405679702758789 -14.94676399230957 11.280529022216797 0 255 0
6.43281364440918 -4.044695854187012 1.8333290815353394 255 0 0
-1.1983256340026855 -47.34280014038086 0.49999192357063293 244 208 63
24.480514526367188 10.59041976928711 6.000001430511475 255 0 0
18.20581817626953 -29.763648986816406 0.49999192357063293 255 0 0
5.63841438293457 -3.585784912109375 1.9999970197677612 255 0 0
21.497146606445312 -17.673566818237305 6.000001430511475 255 0 0
42.56041717529297 -2.274265766143799 0.9999959468841553 255 0 0
-19.536109924316406 -29.08694076538086 0.05940645933151245 244 208 63
23.086000442504883 -7.650345802307129 -5.21540641784668e-06 255 0 0
-11.872384071350098 1.8359184265136719 0.9999959468841553 244 208 63
29.64403533935547 -17.07855224609375 0.6666633486747742 255 0 0
-21.56682014465332 -18.151355743408203 0.05940645933151245 244 208 63
10.01698112487793 2.8990566730499268 11.940596580505371 0 255 0
20.60567283630371 -31.22003173828125 0.05940645933151245 255 0 0
9.190200805664062 2.805204391479492 6.000001430511475 255 0 0
-0.9891937971115112 49.68912124633789 3.62376070022583 244 208 63
7.234835147857666 -38.99296188354492 7.980197906494141 0 255 0
-3.6312055587768555 -47.91275405883789 3.029705762863159 244 208 63
42.06294250488281 -2.763090133666992 8.970297813415527 0 255 0
-18.303815841674805 -29.728607177734375 0.24999335408210754 244 208 63
-19.2242431640625 -30.441726684570312 11.940596580505371 0 0 255
-17.97866439819336 -32.8017578125 0.49999192357063293 244 208 63
-23.713193893432617 -11.997038841247559 0.6666633486747742 244 208 63
-18.782276153564453 -29.602800369262695 -5.21540641784668e-06 244 208 63
-20.118759155273438 -32.843170166015625 3.029705762863159 244 208 63
11.665454864501953 -11.581517219543457 7.980197906494141 0 255 0
8.784782409667969 -37.23474884033203 0.33332735300064087 255 0 0
-10.477170944213867 14.380291938781738 11.940596580505371 0 0 255
7.110781669616699 -16.562267303466797 0.33332735300064087 255 0 0
13.989869117736816 -19.20796775817871 2.0396060943603516 255 0 0
-19.31232261657715 8.262428283691406 0.9999959468841553 244 208 63
8.806648254394531 -11.785096168518066 0.6666633486747742 255 0 0
12.904508590698242 -29.85149574279785 2.0396060943603516 255 0 0
-9.45028018951416 -24.872678756713867 1.2499945163726807 244 208 63
-19.783203125 -26.64057159423828 0.6666633486747742 244 208 63
-3.438839912414551 44.85741424560547 0.05940645933151245 244 208 63
-42.0338020324707 -1.422973871231079 3.029705762863159 244 208 63
-16.62339973449707 -29.67267608642578 3.029705762863159 244 208 63
41.969173431396484 -6.084249019622803 3.029705762863159 255 0 0
7.641624450683594 -26.883811950683594 3.029705762863159 255 0 0
38.85694122314453 -11.504156112670898 11.940596580505371 0 255 0
10.32394027709961 16.912357330322266 0.9999959468841553 255 0 0
7.952463626861572 -22.974821090698242 6.000001430511475 255 0 0
40.174957275390625 0.9939348697662354 11.940596580505371 0 255 0
-9.37852668762207 -24.34844398498535 10.752476692199707 0 0 255
9.578413963317871 -17.127178192138672 -5.21540641784668e-06 255 0 0
-9.250442504882812 -22.303709030151367 -5.21540641784668e-06 244 208 63
-11.402643203735352 -21.466508865356445 1.9999970197677612 244 208 63
-10.447477340698242 -26.872817993164062 0.49999192357063293 244 208 63
23.676546096801758 -14.867593765258789 6.000001430511475 255 0 0
21.4702091217041 -29.34345245361328 1.9999970197677612 255 0 0
6.162415981292725 -2.257993221282959 6.000001430511475 255 0 0
-39.632713317871094 -14.224103927612305 -5.21540641784668e-06 244 208 63
11.043830871582031 -17.671701431274414 1.666664481163025 255 0 0
-12.075936317443848 -39.06116485595703 3.029705762863159 244 208 63
15.156853675842285 -9.440118789672852 0.05940645933151245 255 0 0
-23.7802734375 -12.76706314086914 0.9999959468841553 244 208 63
-18.58237075805664 -32.521446228027344 0.05940645933151245 244 208 63
-9.653091430664062 -14.953316688537598 7.1881184577941895 0 0 255
17.562576293945312 -37.54088592529297 0.9999959468841553 255 0 0
-11.578187942504883 -17.433547973632812 9.960396766662598 0 0 255
9.433330535888672 2.1689116954803467 11.940596580505371 0 255 0
38.561370849609375 4.026517868041992 1.4999998807907104 255 0 0
18.857616424560547 -29.951765060424805 0.9999959468841553 255 0 0
-20.657360076904297 -30.97308921813965 0.05940645933151245 244 208 63
-5.536807060241699 -3.3981080055236816 -5.21540641784668e-06 244 208 63
9.09370231628418 1.7749404907226562 1.2475268840789795 255 0 0
7.783636569976807 -14.236799240112305 4.019805431365967 255 0 0
-18.640729904174805 -30.810897827148438 1.4999998807907104 244 208 63
-10.88852596282959 -15.204137802124023 2.0396060943603516 244 208 63
-6.933624267578125 -26.350557327270508 1.9999970197677612 244 208 63
-9.170409202575684 32.514617919921875 1.9999970197677612 244 208 63
-16.253076553344727 -9.612003326416016 0.49999192357063293 244 208 63
-12.714189529418945 28.668184280395508 -5.21540641784668e-06 244 208 63
36.90433120727539 -14.107261657714844 8.970297813415527 0 255 0
-31.37735939025879 -17.312538146972656 0.05940645933151245 244 208 63
-16.82891082763672 -27.981237411499023 0.05940645933151245 244 208 63
-19.548351287841797 -28.80853843688965 0.05940645933151245 244 208 63
-6.850478649139404 -16.23056411743164 1.9999970197677612 244 208 63
-38.15991973876953 -12.625174522399902 0.05940645933151245 244 208 63
-42.4268684387207 -6.863280296325684 0.49999192357063293 244 208 63
10.477646827697754 -17.321640014648438 0.6666633486747742 255 0 0
-18.81716537475586 -30.087566375732422 1.8571382761001587 244 208 63
-37.26869201660156 6.735539436340332 3.029705762863159 244 208 63
-23.49134063720703 -14.358316421508789 1.3333284854888916 244 208 63
-11.200544357299805 -17.138282775878906 11.940596580505371 0 0 255
-17.85687255859375 -33.099639892578125 0.42856425046920776 244 208 63
12.90857982635498 -39.52310562133789 0.9999959468841553 255 0 0
11.708707809448242 -15.580424308776855 10.455445289611816 0 255 0
9.244022369384766 -14.822450637817383 7.320133209228516 0 255 0
-8.094740867614746 -23.016868591308594 8.970297813415527 0 0 255
-21.015647888183594 -27.923534393310547 3.029705762863159 244 208 63
12.697610855102539 -38.961063385009766 6.000001430511475 255 0 0
10.443387985229492 -14.541112899780273 1.9999970197677612 255 0 0
-8.778261184692383 -1.2504452466964722 11.940596580505371 0 0 255
10.692166328430176 -12.68563175201416 0.05940645933151245 255 0 0
10.383356094360352 -13.83897590637207 0.49999192357063293 255 0 0
-10.443008422851562 -24.766143798828125 0.49999192357063293 244 208 63
-9.351794242858887 -14.845454216003418 9.960396766662598 0 0 255
18.485017776489258 -26.904773712158203 1.4999998807907104 255 0 0
9.98157024383545 5.586801528930664 0.05940645933151245 255 0 0
-8.932968139648438 -28.338151931762695 11.940596580505371 0 0 255
-2.9409401416778564 -46.3243408203125 0.05940645933151245 244 208 63
-9.821274757385254 -14.994677543640137 7.1881184577941895 0 0 255
-29.69213104248047 -19.007240295410156 2.0396060943603516 244 208 63
-42.070926666259766 -3.293631076812744 11.940596580505371 0 0 255
-22.122888565063477 -16.101848602294922 1.9999970197677612 244 208 63
14.476828575134277 -18.88074493408203 0.9999959468841553 255 0 0
-12.021744728088379 -19.15628433227539 0.9999959468841553 244 208 63
7.105531215667725 -24.32172393798828 6.000001430511475 255 0 0
-11.801522254943848 -37.02103805541992 1.9999970197677612 244 208 63
10.345436096191406 -24.785844802856445 0.9999959468841553 255 0 0
40.54549789428711 5.65255069732666 1.9999970197677612 255 0 0
-14.06690502166748 -9.835022926330566 4.019805431365967 244 208 63
21.424762725830078 -18.047700881958008 1.544554352760315 255 0 0
-8.022137641906738 -23.038555145263672 8.970297813415527 0 0 255
7.51118278503418 -23.25607681274414 4.019805431365967 255 0 0
7.029610633850098 -23.121042251586914 0.33332735300064087 255 0 0
39.69230270385742 -13.201435089111328 0.05940645933151245 255 0 0
10.468146324157715 -9.852652549743652 1.9999970197677612 255 0 0
4.673158645629883 -44.20515060424805 9.960396766662598 0 255 0
-5.433714866638184 -42.01218032836914 1.9999970197677612 244 208 63
-6.850478649139404 -16.23056411743164 -5.21540641784668e-06 244 208 63
-40.26639938354492 -13.32950496673584 0.9999959468841553 244 208 63
7.535447597503662 -37.544586181640625 1.9999970197677612 255 0 0
-10.215780258178711 -15.070159912109375 0.8514856100082397 244 208 63
-8.646215438842773 -24.61379623413086 10.752476692199707 0 0 255
-21.034128189086914 -28.058692932128906 11.940596580505371 0 0 255
11.396318435668945 -21.409643173217773 1.4999998807907104 255 0 0
-19.197660446166992 -30.538841247558594 7.980197906494141 0 0 255
-21.77937889099121 -9.948835372924805 1.666664481163025 244 208 63
18.8043155670166 -36.300296783447266 0.9999959468841553 255 0 0
9.275498390197754 -14.8735990524292 4.679869651794434 255 0 0
22.28307342529297 -7.867730140686035 6.000001430511475 255 0 0
11.130938529968262 -12.162589073181152 4.019805431365967 255 0 0
7.003138065338135 -3.3298916816711426 11.940596580505371 0 255 0
0.6614739894866943 47.491668701171875 0.9999959468841553 255 0 0
6.904912948608398 -23.35101318359375 1.3333284854888916 255 0 0
-11.698786735534668 -21.814252853393555 9.960396766662598 0 0 255
-18.829626083374023 -29.59872817993164 0.14285355806350708 244 208 63
15.185587882995605 -7.796525478363037 11.940596580505371 0 255 0
7.492305278778076 -43.57232666015625 0.49999192357063293 255 0 0
4.068533897399902 -47.44319152832031 3.029705762863159 255 0 0
12.82304859161377 -22.918861389160156 2.0396060943603516 255 0 0
-11.06664752960205 20.802989959716797 11.940596580505371 0 0 255
26.05755043029785 -10.872031211853027 1.666664481163025 255 0 0
18.6751766204834 -27.371868133544922 3.029705762863159 255 0 0
-12.42577838897705 -23.35242462158203 4.51485013961792 244 208 63
15.358842849731445 -30.433774948120117 -5.21540641784668e-06 255 0 0
9.440788269042969 3.6948680877685547 2.0396060943603516 255 0 0
-19.544775009155273 -28.797584533691406 7.980197906494141 0 0 255
12.966719627380371 19.639501571655273 1.9999970197677612 255 0 0
-12.592713356018066 -37.399105072021484 11.940596580505371 0 0 255
-17.07966423034668 -34.995277404785156 7.980197906494141 0 0 255
0.9486515522003174 -48.041648864746094 4.019805431365967 255 0 0
24.193281173706055 -13.609498977661133 11.940596580505371 0 255 0
-16.476533889770508 -35.58967208862305 0.05940645933151245 244 208 63
11.636446952819824 -18.272844314575195 0.9999959468841553 255 0 0
10.22442626953125 -14.440913200378418 0.49999192357063293 255 0 0
-3.761016607284546 48.06824493408203 1.9999970197677612 244 208 63
31.80031967163086 -19.344606399536133 -5.21540641784668e-06 255 0 0
32.0456428527832 -19.314186096191406 -5.21540641784668e-06 255 0 0
11.350420951843262 -9.729023933410645 8.970297813415527 0 255 0
21.473031997680664 -28.032495498657227 0.6666633486747742 255 0 0
-12.325660705566406 -8.5045166015625 1.9999970197677612 244 208 63
-19.42961883544922 -29.62934112548828 7.980197906494141 0 0 255
-9.33452033996582 -11.076488494873047 1.9999970197677612 244 208 63
18.459259033203125 -31.461462020874023 1.899996280670166 255 0 0
-16.896717071533203 -38.109962463378906 0.9999959468841553 244 208 63
23.67742347717285 -10.896145820617676 7.980197906494141 0 255 0
-17.85687255859375 -33.099639892578125 0.7857095003128052 244 208 63
13.032879829406738 -30.440793991088867 0.49999192357063293 255 0 0
-18.856510162353516 -29.632068634033203 0.5714230537414551 244 208 63
40.038909912109375 6.47890567779541 -5.21540641784668e-06 255 0 0
39.78315353393555 -13.062864303588867 6.000001430511475 255 0 0
25.382049560546875 -16.102493286132812 1.9999970197677612 255 0 0
-26.929616928100586 -17.121816635131836 0.49999192357063293 244 208 63
17.939437866210938 -27.08258056640625 -5.21540641784668e-06 255 0 0
6.917387962341309 -14.965134620666504 0.33332735300064087 255 0 0
-19.353437423706055 -29.947267532348633 8.970297813415527 0 0 255
-9.596240043640137 -11.494504928588867 0.05940645933151245 244 208 63
18.708736419677734 -30.609580993652344 0.8999985456466675 255 0 0
-38.17524719238281 -15.120540618896484 11.940596580505371 0 0 255
-10.203784942626953 -10.15408706665039 0.49999192357063293 244 208 63
-8.99083423614502 -1.7513471841812134 0.49999192357063293 244 208 63
-18.23203468322754 -29.749692916870117 1.7499984502792358 244 208 63
-23.699115753173828 -7.994991302490234 1.9999970197677612 244 208 63
18.857616424560547 -29.951765060424805 1.5999972820281982 255 0 0
23.47502326965332 -11.383584976196289 0.33332735300064087 255 0 0
12.536145210266113 20.70562744140625 11.940596580505371 0 255 0
-21.466100692749023 -28.057485580444336 1.9999970197677612 244 208 63
-12.481958389282227 14.33669662475586 0.9999959468841553 244 208 63
9.747255325317383 -13.927179336547852 6.000001430511475 255 0 0
8.370686531066895 34.723426818847656 1.4999998807907104 255 0 0
13.05665111541748 -23.463056564331055 0.6666633486747742 255 0 0
-13.201464653015137 -16.103452682495117 -5.21540641784668e-06 244 208 63
7.867412567138672 -37.4079475402832 1.666664481163025 255 0 0
7.797359466552734 -37.42925262451172 1.3333284854888916 255 0 0
6.975555419921875 -38.4402961730957 -5.21540641784668e-06 255 0 0
-9.554852485656738 -26.15354347229004 1.7499984502792358 244 208 63
12.876501083374023 -10.593202590942383 6.000001430511475 255 0 0
-39.12687683105469 -14.845248222351074 0.9999959468841553 244 208 63
10.82046890258789 -14.668209075927734 1.699994683265686 255 0 0
-18.376171112060547 -31.68641471862793 1.571427583694458 244 208 63
-25.533401489257812 -19.5992374420166 0.33332735300064087 244 208 63
7.012871742248535 -14.756221771240234 1.666664481163025 255 0 0
9.05893611907959 -24.453907012939453 7.980197906494141 0 255 0
41.74874496459961 2.9245829582214355 -5.21540641784668e-06 255 0 0
10.97513484954834 -17.614452362060547 0.33332735300064087 255 0 0
9.583869934082031 -25.002338409423828 0.7999943494796753 255 0 0
-12.021744728088379 -19.15628433227539 0.33332735300064087 244 208 63
-2.0120959281921387 -49.25250244140625 8.970297813415527 0 0 255
25.63064956665039 -11.759597778320312 11.940596580505371 0 255 0
-14.268359184265137 -18.147310256958008 0.9999959468841553 244 208 63
0.5331982374191284 47.59555435180664 1.7499984502792358 255 0 0
-17.991975784301758 -6.79732608795166 -5.21540641784668e-06 244 208 63
14.796332359313965 -28.354232788085938 3.029705762863159 255 0 0
-12.407325744628906 13.911249160766602 -5.21540641784668e-06 244 208 63
8.23159408569336 -2.6767091751098633 1.2499945163726807 255 0 0
-20.038740158081055 -33.062557220458984 0.05940645933151245 244 208 63
17.294151306152344 -34.09376907348633 1.7499984502792358 255 0 0
23.60338020324707 -11.656628608703613 1.9999970197677612 255 0 0
12.259455680847168 27.689659118652344 0.05940645933151245 255 0 0
-5.002975940704346 46.4188232421875 0.9999959468841553 244 208 63
5.750924587249756 -3.7229442596435547 1.8333290815353394 255 0 0
-35.804840087890625 -14.523825645446777 1.4999998807907104 244 208 63
41.7353630065918 2.9649972915649414 1.4999998807907104 255 0 0
-12.546500205993652 14.727048873901367 -5.21540641784668e-06 244 208 63
-11.192949295043945 -23.96235466003418 8.970297813415527 0 0 255
10.03210163116455 -24.84360122680664 1.3999956846237183 255 0 0
-38.43536376953125 8.489203453063965 0.9999959468841553 244 208 63
10.236614227294922 -14.056414604187012 1.4999998807907104 255 0 0
-15.658966064453125 -36.267120361328125 2.0396060943603516 244 208 63
25.051620483398438 -16.833816528320312 1.7142795324325562 255 0 0
11.355164527893066 5.0824174880981445 0.6666633486747742 255 0 0
9.306398391723633 33.47825622558594 11.940596580505371 0 255 0
-36.309608459472656 7.633400917053223 3.029705762863159 244 208 63
7.383235931396484 -15.009469032287598 2.0396060943603516 255 0 0
-13.187426567077637 -23.275611877441406 0.49999192357063293 244 208 63
22.93134880065918 -15.112356185913086 -5.21540641784668e-06 255 0 0
-6.719639301300049 -24.396739959716797 0.24999335408210754 244 208 63
-21.00143051147461 -29.07792091369629 0.05940645933151245 244 208 63
-6.910784721374512 42.22072219848633 0.05940645933151245 244 208 63
-20.2293643951416 -26.635087966918945 1.3333284854888916 244 208 63
-1.2270735502243042 47.06852340698242 0.9999959468841553 244 208 63
-12.82999038696289 -27.823610305786133 0.49999192357063293 244 208 63
6.665003776550293 -24.455167770385742 0.6666633486747742 255 0 0
10.26907730102539 -15.053914070129395 7.485149383544922 0 255 0
14.419483184814453 -21.033262252807617 0.6666633486747742 255 0 0
-15.981924057006836 -7.0420331954956055 0.9999959468841553 244 208 63
39.8016471862793 2.226160764694214 0.05940645933151245 255 0 0
6.68170166015625 -15.632628440856934 1.9999970197677612 255 0 0
-7.322646141052246 38.13212966918945 11.940596580505371 0 0 255
25.470775604248047 -17.011459350585938 1.9999970197677612 255 0 0
22.656797409057617 -19.321985244750977 1.9999970197677612 255 0 0
42.035057067871094 -5.059523582458496 8.970297813415527 0 255 0
40.375877380371094 -6.9400787353515625 0.05940645933151245 255 0 0
18.459259033203125 -31.461462020874023 0.6999969482421875 255 0 0
-11.027055740356445 19.405405044555664 4.019805431365967 244 208 63
18.609865188598633 -29.666656494140625 1.666664481163025 255 0 0
-20.583688735961914 -26.719852447509766 0.9999959468841553 244 208 63
17.696142196655273 -33.42820739746094 1.2499945163726807 255 0 0
15.322732925415039 8.058985710144043 0.05940645933151245 255 0 0
-9.268552780151367 -25.62974739074707 0.9999959468841553 244 208 63
-1.7756145000457764 47.06926345825195 8.970297813415527 0 0 255
25.612485885620117 -17.028610229492188 1.3333284854888916 255 0 0
12.278702735900879 -11.040694236755371 6.000001430511475 255 0 0
9.70914363861084 -26.251178741455078 -5.21540641784668e-06 255 0 0
-12.148855209350586 -39.054176330566406 0.05940645933151245 244 208 63
-30.757461547851562 -17.419044494628906 11.940596580505371 0 0 255
18.609865188598633 -29.666656494140625 0.1666627824306488 255 0 0
-7.653514862060547 40.80734634399414 0.05940645933151245 244 208 63
7.675444602966309 -37.47338104248047 1.3333284854888916 255 0 0
8.624811172485352 -17.015682220458984 0.33332735300064087 255 0 0
19.069353103637695 -35.03544235229492 11.940596580505371 0 255 0
0.41047465801239014 48.23694610595703 6.000001430511475 255 0 0
10.709178924560547 22.237150192260742 -5.21540641784668e-06 255 0 0
10.950389862060547 -30.003515243530273 1.4999998807907104 255 0 0
-6.9553117752075195 -39.76352310180664 1.544554352760315 244 208 63
-23.699020385742188 -13.7611083984375 0.6666633486747742 244 208 63
9.794825553894043 -0.6918281316757202 0.49999192357063293 255 0 0
-8.543411254882812 -22.401330947875977 0.6666633486747742 244 208 63
9.85207462310791 -24.320709228515625 6.000001430511475 255 0 0
8.898759841918945 1.5863037109375 0.05940645933151245 255 0 0
-1.2378625869750977 47.64153289794922 8.970297813415527 0 0 255
-7.924323558807373 -37.837181091308594 3.029705762863159 244 208 63
-39.37174606323242 2.0710289478302 0.9999959468841553 244 208 63
25.595006942749023 -19.036849975585938 6.000001430511475 255 0 0
9.241828918457031 -14.804354667663574 6.000001430511475 255 0 0
-31.010038375854492 -19.432645797729492 1.3333284854888916 244 208 63
42.20011520385742 1.2654292583465576 0.49999192357063293 255 0 0
30.342620849609375 12.535297393798828 1.9999970197677612 255 0 0
8.141703605651855 -22.914199829101562 4.019805431365967 255 0 0
-8.627433776855469 -24.75351905822754 11.940596580505371 0 0 255
-7.924323558807373 -37.837181091308594 1.544554352760315 244 208 63
-18.833890914916992 -27.32960319519043 8.970297813415527 0 0 255
-10.742345809936523 -21.910737991333008 1.3333284854888916 244 208 63
-21.822097778320312 -16.44375228881836 1.2499945163726807 244 208 63
-19.691638946533203 -33.8997688293457 3.029705762863159 244 208 63
-6.162804126739502 -0.2691638469696045 1.4999998807907104 244 208 63
9.368857383728027 -22.808530807495117 8.970297813415527 0 255 0
42.29728698730469 0.7369446754455566 0.49999192357063293 255 0 0
11.00855827331543 -29.486753463745117 4.019805431365967 255 0 0
-14.335958480834961 -21.02953338623047 0.7499973773956299 244 208 63
41.336238861083984 2.4344289302825928 3.029705762863159 255 0 0
15.343364715576172 -36.05549240112305 -5.21540641784668e-06 255 0 0
20.86471939086914 -29.913049697875977 11.940596580505371 0 255 0
10.506669044494629 4.295352935791016 0.6666633486747742 255 0 0
25.912851333618164 -17.056549072265625 1.666664481163025 255 0 0
-2.071743965148926 -46.559051513671875 0.9999959468841553 244 208 63
1.0758305788040161 47.73390579223633 6.000001430511475 255 0 0
24.208580017089844 -19.450796127319336 -5.21540641784668e-06 255 0 0
-7.5051960945129395 -26.532804489135742 2.0396060943603516 244 208 63
-6.90782356262207 -26.240171432495117 -5.21540641784668e-06 244 208 63
-7.776512145996094 -37.44770431518555 -5.21540641784668e-06 244 208 63
-10.835156440734863 -21.864646911621094 0.9999959468841553 244 208 63
-25.2573299407959 -15.2278413772583 8.970297813415527 0 0 255
12.534966468811035 -19.673912048339844 6.000001430511475 255 0 0
-8.69379997253418 -39.51531982421875 11.940596580505371 0 0 255
9.154940605163574 1.843184232711792 9.564355850219727 0 255 0
14.455455780029297 -39.26397705078125 0.9999959468841553 255 0 0
-9.657286643981934 -24.827945709228516 1.2499945163726807 244 208 63
6.67979621887207 -15.641731262207031 0.9999959468841553 255 0 0
-9.477396011352539 -17.09978675842285 0.9999959468841553 244 208 63
17.00674057006836 6.785275936126709 1.9999970197677612 255 0 0
-14.029245376586914 -7.640804290771484 0.9999959468841553 244 208 63
9.129894256591797 2.584652900695801 6.000001430511475 255 0 0
12.073601722717285 -23.561487197875977 4.019805431365967 255 0 0
-10.245776176452637 -37.56151580810547 7.485149383544922 0 0 255
-13.58581256866455 -36.74207305908203 1.4999998807907104 244 208 63
9.621241569519043 -0.9099256992340088 1.4999998807907104 255 0 0
-12.37912654876709 -18.675369262695312 2.0396060943603516 244 208 63
11.430344581604004 -27.440975189208984 1.9999970197677612 255 0 0
-6.268898963928223 -1.9357478618621826 11.940596580505371 0 0 255
-36.3773307800293 -13.998356819152832 0.49999192357063293 244 208 63
38.424007415771484 -12.215190887451172 11.940596580505371 0 255 0
-7.963997840881348 -37.381832122802734 1.3333284854888916 244 208 63
10.300704002380371 3.23561429977417 0.05940645933151245 255 0 0
-10.454578399658203 -22.031335830688477 0.9999959468841553 244 208 63
-7.441051483154297 -13.869848251342773 1.4999998807907104 244 208 63
-29.614715576171875 12.05772876739502 3.029705762863159 244 208 63
23.84833335876465 -11.179141998291016 2.0396060943603516 255 0 0
9.691829681396484 -14.006650924682617 2.0396060943603516 255 0 0
7.244609832763672 -15.348316192626953 7.980197906494141 0 255 0
9.315131187438965 -14.904376029968262 8.640265464782715 0 255 0
-5.201894760131836 -42.4498405456543 0.9999959468841553 244 208 63
38.09111022949219 -15.937422752380371 -5.21540641784668e-06 255 0 0
-35.56282043457031 -15.302638053894043 3.029705762863159 244 208 63
17.9952335357666 -32.767799377441406 1.9999970197677612 255 0 0
39.145050048828125 2.75130033493042 1.9999970197677612 255 0 0
-21.842853546142578 -18.524789810180664 0.05940645933151245 244 208 63
17.767690658569336 -29.371158599853516 4.019805431365967 255 0 0
-18.448213577270508 -31.461009979248047 0.3571365773677826 244 208 63
-14.921185493469238 -29.932584762573242 3.029705762863159 244 208 63
13.704363822937012 -16.721704483032227 1.9999970197677612 255 0 0
6.43281364440918 -4.044695854187012 1.4999998807907104 255 0 0
-6.940725326538086 -38.635799407958984 1.4999998807907104 244 208 63
-21.183774948120117 -18.69110870361328 1.4999998807907104 244 208 63
-24.089672088623047 -11.479741096496582 3.029705762863159 244 208 63
-11.074406623840332 23.25600814819336 0.05940645933151245 244 208 63
-7.59296178817749 -38.271907806396484 0.05940645933151245 244 208 63
-16.911357879638672 -6.88485860824585 -5.21540641784668e-06 244 208 63
3.6288156509399414 -47.8950309753418 8.970297813415527 0 255 0
-11.514851570129395 -14.895273208618164 0.9999959468841553 244 208 63
27.050113677978516 -19.473114013671875 -5.21540641784668e-06 255 0 0
23.1459903717041 -14.828605651855469 -5.21540641784668e-06 255 0 0
19.1405029296875 -26.71759033203125 1.4999998807907104 255 0 0
-11.89226245880127 -27.551937103271484 1.4999998807907104 244 208 63
18.869474411010742 -29.87177276611328 1.5999972820281982 255 0 0
5.63107967376709 -3.57492733001709 0.9999959468841553 255 0 0
18.859577178955078 -29.640295028686523 1.9999970197677612 255 0 0
7.187922477722168 -16.60837173461914 0.6666633486747742 255 0 0
13.897963523864746 -22.370389938354492 1.666664481163025 255 0 0
-10.15979290008545 -24.802885055541992 0.24999335408210754 244 208 63
5.592036247253418 40.43558120727539 0.49999192357063293 255 0 0
-7.073744297027588 -14.600966453552246 -5.21540641784668e-06 244 208 63
14.528690338134766 -19.72277069091797 1.666664481163025 255 0 0
9.293594360351562 -14.889364242553711 11.280529022216797 0 255 0
20.271583557128906 -9.526280403137207 0.9999959468841553 255 0 0
-1.5026395320892334 -47.69667434692383 11.940596580505371 0 0 255
19.726181030273438 -27.14661407470703 3.029705762863159 255 0 0
-42.026123046875 -1.2596166133880615 8.970297813415527 0 0 255
-2.022953510284424 -49.245182037353516 0.05940645933151245 244 208 63
22.003080368041992 -16.81829833984375 7.485149383544922 255 0 0
39.87559127807617 0.1274394989013672 1.9999970197677612 255 0 0
-16.065248489379883 -7.0247321128845215 -5.21540641784668e-06 244 208 63
26.023401260375977 -17.064828872680664 1.3333284854888916 255 0 0
-13.467063903808594 -16.415855407714844 1.3333284854888916 244 208 63
18.672927856445312 -30.74224281311035 0.39999455213546753 255 0 0
-22.634510040283203 11.890231132507324 11.940596580505371 0 0 255
-13.893526077270508 -39.33610153198242 0.9999959468841553 244 208 63
22.746015548706055 12.484519958496094 1.4999998807907104 255 0 0
9.722564697265625 10.7796049118042 6.000001430511475 255 0 0
-22.5776309967041 -9.79991340637207 3.029705762863159 244 208 63
-8.178092002868652 -37.773033142089844 11.940596580505371 0 0 255
18.485017776489258 -26.904773712158203 0.49999192357063293 255 0 0
-10.698751449584961 -16.86869239807129 11.940596580505371 0 0 255
-11.036569595336914 25.024505615234375 11.940596580505371 0 0 255
-17.413726806640625 -6.831736087799072 0.49999192357063293 244 208 63
14.449739456176758 -18.675493240356445 0.6666633486747742 255 0 0
-17.817075729370117 -33.19176483154297 0.21428123116493225 244 208 63
19.593463897705078 -27.161680221557617 11.940596580505371 0 255 0
-9.309529304504395 -14.62379264831543 2.0396060943603516 244 208 63
-8.663599014282227 -24.55782127380371 4.81188440322876 244 208 63
-22.23543930053711 -16.646209716796875 7.980197906494141 0 0 255
-9.779420852661133 -26.986370086669922 9.960396766662598 0 0 255
10.628844261169434 -17.388458251953125 1.666664481163025 255 0 0
-20.356584548950195 -26.65323829650879 1.3333284854888916 244 208 63
-22.47673225402832 -7.423474311828613 -5.21540641784668e-06 244 208 63
-7.345033168792725 -16.062503814697266 4.019805431365967 244 208 63
8.534770011901855 -37.270790100097656 0.33332735300064087 255 0 0
-6.506819725036621 -4.089977264404297 1.9999970197677612 244 208 63
18.96823501586914 -8.917091369628906 3.029705762863159 255 0 0
-1.604964017868042 -46.99213790893555 0.9999959468841553 244 208 63
2.5180931091308594 -49.5274772644043 0.9999959468841553 255 0 0
-10.672950744628906 -29.893692016601562 0.9999959468841553 244 208 63
-29.875490188598633 -19.5474853515625 0.6666633486747742 244 208 63
-24.02787208557129 -11.347818374633789 3.029705762863159 244 208 63
20.912153244018555 -27.77805519104004 11.940596580505371 0 255 0
12.10420036315918 -21.244586944580078 3.029705762863159 255 0 0
6.829197406768799 -3.4589624404907227 11.940596580505371 0 255 0
-21.08686637878418 -9.133940696716309 11.940596580505371 0 0 255
-32.30839538574219 -18.737403869628906 11.940596580505371 0 0 255
10.22442626953125 -14.440913200378418 1.1999975442886353 255 0 0
-39.24444580078125 -9.612661361694336 0.9999959468841553 244 208 63
-19.824960708618164 -9.033138275146484 7.980197906494141 0 0 255
9.125685691833496 -26.367172241210938 6.000001430511475 255 0 0
-40.42972946166992 5.838418006896973 0.6666633486747742 244 208 63
-7.615691184997559 -37.53515625 0.33332735300064087 244 208 63
-9.028548240661621 -26.224571228027344 7.980197906494141 0 0 255
-1.0132532119750977 47.84730911254883 11.940596580505371 0 0 255
-19.658079147338867 -9.480670928955078 0.6666633486747742 244 208 63
-10.111221313476562 -15.052433967590332 10.35643482208252 0 0 255
-11.074105262756348 0.8995616436004639 -5.21540641784668e-06 244 208 63
7.154020309448242 -23.984769821166992 6.000001430511475 255 0 0
-7.172216415405273 -24.982460021972656 8.970297813415527 0 0 255
14.261898040771484 -21.63714599609375 1.666664481163025 255 0 0
-24.27608871459961 -8.39064884185791 -5.21540641784668e-06 244 208 63
-9.259477615356445 -39.16597366333008 11.940596580505371 0 0 255
-21.515329360961914 -28.4926815032959 0.49999192357063293 244 208 63
-7.709365367889404 -38.036277770996094 10.455445289611816 0 0 255
34.26496505737305 -18.628114700317383 -5.21540641784668e-06 255 0 0
-5.864015102386475 -1.3212662935256958 1.9999970197677612 244 208 63
-10.215780258178711 -15.070159912109375 1.2475268840789795 244 208 63
40.17036437988281 6.276340484619141 -5.21540641784668e-06 255 0 0
14.583992004394531 -30.49132537841797 0.49999192357063293 255 0 0
-7.772481918334961 -37.927852630615234 11.940596580505371 0 0 255
25.591360092163086 -15.703326225280762 0.33332735300064087 255 0 0
-7.194672107696533 -27.036174774169922 0.9999959468841553 244 208 63
29.45402717590332 -19.462379455566406 1.9999970197677612 255 0 0
-6.750210285186768 -15.850259780883789 1.9999970197677612 244 208 63
-1.6706167459487915 46.56126022338867 0.9999959468841553 244 208 63
33.6991081237793 -18.88947868347168 1.9999970197677612 255 0 0
-16.583600997924805 -27.52425765991211 1.9999970197677612 244 208 63
7.579494953155518 -13.688258171081543 1.9999970197677612 255 0 0
-12.226886749267578 -29.778276443481445 8.970297813415527 0 0 255
18.609865188598633 -29.666656494140625 1.8333290815353394 255 0 0
-39.332237243652344 -14.601473808288574 0.9999959468841553 244 208 63
38.34463119506836 -14.883620262145996 6.000001430511475 255 0 0
9.926830291748047 -24.870237350463867 0.9999959468841553 255 0 0
-21.36269187927246 -30.322416305541992 0.49999192357063293 244 208 63
13.990882873535156 -38.740882873535156 8.970297813415527 0 255 0
-8.054011344909668 -2.1759307384490967 11.940596580505371 0 0 255
24.1872501373291 12.661476135253906 1.4999998807907104 255 0 0
31.35045623779297 -17.312538146972656 0.05940645933151245 255 0 0
7.81960916519165 -3.163861036300659 0.9999959468841553 255 0 0
-7.19114875793457 -23.8602352142334 10.455445289611816 0 0 255
-7.4407501220703125 -43.66609573364258 1.9999970197677612 244 208 63
16.931943893432617 9.26801586151123 0.05940645933151245 255 0 0
-18.640729904174805 -30.810897827148438 0.21428123116493225 244 208 63
-19.541305541992188 -29.049612045288086 4.019805431365967 244 208 63
9.540961265563965 -14.230218887329102 6.000001430511475 255 0 0
-18.836467742919922 -29.601648330688477 0.42856425046920776 244 208 63
17.89053726196289 -33.01848220825195 1.1999975442886353 255 0 0
11.885225296020508 32.12613296508789 0.9999959468841553 255 0 0
6.796501159667969 -4.020307540893555 1.3333284854888916 255 0 0
-40.32866668701172 0.268094539642334 8.970297813415527 0 0 255
-1.2950979471206665 -47.26294708251953 1.4999998807907104 244 208 63
-33.96670150756836 9.17224407196045 3.029705762863159 244 208 63
7.943621635437012 -37.38711166381836 0.9999959468841553 255 0 0
11.946861267089844 -23.642549514770508 9.960396766662598 0 255 0
26.242595672607422 10.693840980529785 6.000001430511475 255 0 0
10.303253173828125 4.116750717163086 0.33332735300064087 255 0 0
8.864418029785156 33.45372009277344 -5.21540641784668e-06 255 0 0
-35.15064239501953 -15.600878715515137 11.940596580505371 0 0 255
35.67845153808594 -14.58755874633789 0.9999959468841553 255 0 0
-18.20916748046875 -27.943262100219727 -5.21540641784668e-06 244 208 63
-18.801427841186523 -30.164817810058594 0.6428506970405579 244 208 63
-6.406222343444824 -3.630558967590332 3.029705762863159 244 208 63
21.043128967285156 -17.58667755126953 0.49999192357063293 255 0 0
8.90642261505127 1.5889084339141846 0.05940645933151245 255 0 0
-17.436141967773438 -9.048670768737793 4.019805431365967 244 208 63
-10.690621376037598 23.42830467224121 -5.21540641784668e-06 244 208 63
-10.06417179107666 15.050939559936523 -5.21540641784668e-06 244 208 63
-22.42681884765625 -10.304516792297363 1.666664481163025 244 208 63
23.099681854248047 12.542070388793945 1.9999970197677612 255 0 0
12.36009407043457 -39.558353424072266 0.9999959468841553 255 0 0
-13.776382446289062 -16.865568161010742 0.6666633486747742 244 208 63
25.63632583618164 -13.883722305297852 8.970297813415527 0 255 0
-20.019121170043945 -26.626644134521484 0.33332735300064087 244 208 63
25.447168350219727 -9.677793502807617 0.9999959468841553 255 0 0
-19.451580047607422 -29.531389236450195 2.0396060943603516 244 208 63
-13.201464653015137 -16.103452682495117 1.9999970197677612 244 208 63
11.877904891967773 13.826637268066406 6.000001430511475 255 0 0
-8.683381080627441 -1.3739776611328125 3.029705762863159 244 208 63
-12.878341674804688 17.447092056274414 1.9999970197677612 244 208 63
10.72623348236084 0.4362773895263672 1.4999998807907104 255 0 0
16.47835350036621 -29.68986701965332 0.05940645933151245 255 0 0
-19.554384231567383 -28.851953506469727 6.990097999572754 0 0 255
-11.470736503601074 -17.339353561401367 9.960396766662598 0 0 255
-11.046371459960938 19.97438621520996 4.019805431365967 244 208 63
40.40059280395508 4.747066497802734 0.05940645933151245 255 0 0
-36.10679626464844 -14.865702629089355 11.940596580505371 0 0 255
12.108271598815918 15.350016593933105 6.000001430511475 255 0 0
33.96532440185547 9.170132637023926 11.940596580505371 0 255 0
14.193860054016113 -21.814350128173828 0.33332735300064087 255 0 0
-20.65993881225586 -6.9705400466918945 -5.21540641784668e-06 244 208 63
-10.672224044799805 20.5241756439209 -5.21540641784668e-06 244 208 63
-7.164608001708984 -24.881519317626953 1.544554352760315 244 208 63
-8.542862892150879 -1.555924415588379 0.05940645933151245 244 208 63
-16.34325408935547 -27.590377807617188 -5.21540641784668e-06 244 208 63
24.03200912475586 -11.564970016479492 9.960396766662598 0 255 0
-9.507309913635254 -14.2830810546875 9.960396766662598 0 0 255
-17.910160064697266 -27.10624122619629 0.33332735300064087 244 208 63
-36.17290115356445 -17.473730087280273 0.9999959468841553 244 208 63
-24.146360397338867 -19.488399505615234 1.9999970197677612 244 208 63
34.826663970947266 -15.806446075439453 0.05940645933151245 255 0 0
40.83916091918945 -12.26417350769043 0.9999959468841553 255 0 0
9.467000961303711 -10.915777206420898 1.9999970197677612 255 0 0
11.595457077026367 -27.973079681396484 8.970297813415527 0 255 0
-13.3104248046875 3.402947187423706 1.9999970197677612 244 208 63
-10.338627815246582 -37.556705474853516 11.940596580505371 0 0 255
5.284569263458252 -42.35264587402344 1.9999970197677612 255 0 0
17.9952335357666 -32.767799377441406 0.7999943494796753 255 0 0
-14.39138412475586 7.877669334411621 0.9999959468841553 244 208 63
11.140069007873535 22.733802795410156 0.05940645933151245 255 0 0
-14.239871978759766 -21.67669677734375 0.24999335408210754 244 208 63
-9.581722259521484 -24.83984375 1.7499984502792358 244 208 63
-36.75876998901367 -16.398252487182617 0.05940645933151245 244 208 63
10.595215797424316 3.570115566253662 6.000001430511475 255 0 0
-23.757078170776367 -13.370838165283203 1.3333284854888916 244 208 63
-20.416629791259766 -26.66608428955078 0.9999959468841553 244 208 63
-20.167509078979492 9.251646995544434 11.940596580505371 0 0 255
11.724733352661133 -11.522773742675781 11.940596580505371 0 255 0
-38.88990020751953 8.017912864685059 0.33332735300064087 244 208 63
39.31888198852539 2.2782278060913086 0.9999959468841553 255 0 0
-27.343286514282227 -17.607379913330078 9.960396766662598 0 0 255
10.1650390625 -24.279115676879883 2.0396060943603516 255 0 0
21.481943130493164 -29.23886489868164 1.3333284854888916 255 0 0
5.65692138671875 -2.1434950828552246 1.9999970197677612 255 0 0
35.396114349365234 -17.96743392944336 1.9999970197677612 255 0 0
25.04428482055664 -16.866966247558594 0.857137143611908 255 0 0
-24.021867752075195 -14.144057273864746 11.940596580505371 0 0 255
14.586775779724121 -39.21990203857422 0.33332735300064087 255 0 0
26.210365295410156 -13.439411163330078 0.6666633486747742 255 0 0
24.260112762451172 -13.217392921447754 0.05940645933151245 255 0 0
12.36009407043457 -39.558353424072266 1.666664481163025 255 0 0
13.55566120147705 -27.88913917541504 -5.21540641784668e-06 255 0 0
11.863839149475098 11.190465927124023 -5.21540641784668e-06 255 0 0
25.458614349365234 12.730926513671875 0.9999959468841553 255 0 0
-21.72562599182129 -18.97443389892578 1.9999970197677612 244 208 63
18.814294815063477 -29.634906768798828 -5.21540641784668e-06 255 0 0
-7.772468090057373 -22.58149528503418 0.33332735300064087 244 208 63
-24.257951736450195 -9.034097671508789 0.05940645933151245 244 208 63
26.230695724487305 -13.23701000213623 1.666664481163025 255 0 0
-37.857826232910156 -13.030524253845215 3.029705762863159 244 208 63
9.222403526306152 2.9216766357421875 0.05940645933151245 255 0 0
13.646114349365234 -17.709854125976562 0.05940645933151245 255 0 0
-19.951919555664062 -33.2883186340332 8.970297813415527 0 0 255
20.36133575439453 9.352463722229004 11.940596580505371 0 255 0
17.774873733520508 -29.88389015197754 1.4999998807907104 255 0 0
-20.34493064880371 -9.053811073303223 2.0396060943603516 244 208 63
-10.294978141784668 36.47983169555664 -5.21540641784668e-06 244 208 63
23.414812088012695 -14.422926902770996 -5.21540641784668e-06 255 0 0
-2.9887847900390625 -49.24557876586914 -5.21540641784668e-06 244 208 63
10.111751556396484 -14.349405288696289 1.899996280670166 255 0 0
18.990951538085938 -26.756372451782227 1.4999998807907104 255 0 0
-18.783687591552734 -30.24639892578125 1.9285659790039062 244 208 63
6.312543869018555 0.20914554595947266 1.9999970197677612 255 0 0
10.624238014221191 -14.606697082519531 1.0999932289123535 255 0 0
-8.598905563354492 38.913082122802734 11.940596580505371 0 0 255
-5.893160820007324 -3.8402528762817383 1.4999998807907104 244 208 63
-6.206220626831055 -2.211615562438965 0.05940645933151245 244 208 63
15.138496398925781 -38.99497985839844 0.9999959468841553 255 0 0
7.733392715454102 -37.45106506347656 0.6666633486747742 255 0 0
40.119529724121094 -8.362380981445312 0.05940645933151245 255 0 0
18.82151985168457 -29.634660720825195 0.8333313465118408 255 0 0
-35.92695999145508 7.337312698364258 1.9999970197677612 244 208 63
-5.844328880310059 -3.7965071201324463 1.9999970197677612 244 208 63
31.924537658691406 -19.329936981201172 1.9999970197677612 255 0 0
-11.867751121520996 -24.223909378051758 0.7499973773956299 244 208 63
17.942604064941406 -32.896114349365234 1.699994683265686 255 0 0
9.492773056030273 -14.971782684326172 11.280529022216797 0 255 0
0.933708667755127 47.251129150390625 1.2499945163726807 255 0 0
30.760705947875977 -17.41489028930664 2.0396060943603516 255 0 0
-6.7589430809021 -15.60076904296875 0.9999959468841553 244 208 63
-9.7112455368042 -37.59470748901367 10.455445289611816 0 0 255
6.284358024597168 40.07045364379883 3.029705762863159 255 0 0
-12.506771087646484 -19.218414306640625 4.019805431365967 244 208 63
17.920957565307617 -33.97482681274414 8.970297813415527 0 255 0
-20.530073165893555 -26.699384689331055 1.3333284854888916 244 208 63
-26.47553062438965 12.86368465423584 0.9999959468841553 244 208 63
25.28614044189453 -16.29314613342285 1.285710096359253 255 0 0
-11.637945175170898 -11.711451530456543 2.0396060943603516 244 208 63
9.521878242492676 3.9762604236602783 4.019805431365967 255 0 0
25.912851333618164 -17.056549072265625 0.6666633486747742 255 0 0
6.975061893463135 -3.962071418762207 1.3333284854888916 255 0 0
-39.91525650024414 -0.37762999534606934 -5.21540641784668e-06 244 208 63
-38.1986083984375 4.709339141845703 0.9999959468841553 244 208 63
17.82984733581543 -27.652177810668945 0.05940645933151245 255 0 0
20.77406120300293 -27.488710403442383 3.029705762863159 255 0 0
40.476924896240234 -1.1669844388961792 11.940596580505371 0 255 0
14.324000358581543 -39.30378723144531 0.33332735300064087 255 0 0
7.401523590087891 37.8875617980957 11.940596580505371 0 255 0
-21.169448852539062 -9.149870872497559 11.940596580505371 0 0 255
10.424880981445312 5.311825275421143 0.49999192357063293 255 0 0
25.988279342651367 -17.062292098999023 1.9999970197677612 255 0 0
-18.809612274169922 -28.95478630065918 10.752476692199707 0 0 255
21.434057235717773 -17.902851104736328 8.970297813415527 0 255 0
-22.05742645263672 9.533286094665527 -5.21540641784668e-06 244 208 63
12.01328182220459 -19.06502342224121 0.24999335408210754 255 0 0
-22.306835174560547 -15.904561996459961 1.666664481163025 244 208 63
-18.852575302124023 -29.621719360351562 0.9285682439804077 244 208 63
11.672008514404297 32.8055534362793 0.9999959468841553 255 0 0
-0.5860786437988281 -48.28684997558594 8.970297813415527 0 0 255
-2.7415006160736084 49.15093231201172 1.9999970197677612 244 208 63
9.05893611907959 -24.453907012939453 6.000001430511475 255 0 0
-17.89715003967285 -33.00370407104492 0.9285682439804077 244 208 63
-8.952448844909668 -39.240055084228516 0.05940645933151245 244 208 63
13.905146598815918 -28.36910629272461 3.029705762863159 255 0 0
