ply
format ascii 1.0
element vertex 761
property float x
property float y
property float z
end_header
-0.04308591037988663 0.032525550574064255 -0.13109999895095825
-0.04230327904224396 0.032451122999191284 -0.13079999387264252
-0.04152378812432289 0.032376695424318314 -0.13050000369548798
-0.04071613773703575 0.03227745369076729 -0.13009999692440033
-0.04560568928718567 0.03676801174879074 -0.14819999039173126
-0.062104541808366776 0.035240091383457184 -0.14509999752044678
-0.06143028289079666 0.03528866916894913 -0.1453000009059906
-0.06067041680216789 0.03528866916894913 -0.1453000009059906
-0.05991055443882942 0.03528866916894913 -0.1453000009059906
-0.05902855843305588 0.03521580621600151 -0.14499999582767487
-0.058189891278743744 0.035167232155799866 -0.14479999244213104
-0.05687735602259636 0.03482721745967865 -0.14339999854564667
-0.05554032325744629 0.03446291759610176 -0.14190000295639038
-0.05437344312667847 0.03419576212763786 -0.14079999923706055
-0.053332358598709106 0.03400146961212158 -0.14000000059604645
-0.05229963734745979 0.033807173371315 -0.13920000195503235
-0.05142347887158394 0.03371002525091171 -0.1387999951839447
-0.050551507622003555 0.03361288085579872 -0.13840000331401825
-0.0494316965341568 0.033345725387334824 -0.13729999959468842
-0.048394352197647095 0.03312714397907257 -0.1363999992609024
-0.047471292316913605 0.032981425523757935 -0.13580000400543213
-0.046210166066884995 0.032592833042144775 -0.13419999182224274
-0.045270975679159164 0.032422829419374466 -0.13349999487400055
-0.04427232965826988 0.03220424801111221 -0.13259999454021454
-0.04311877489089966 0.031864233314991 -0.13120000064373016
-0.04227093607187271 0.031742796301841736 -0.1306999921798706
-0.04136469215154648 0.031572792679071426 -0.12999999523162842
-0.04055966064333916 0.03147564455866814 -0.12960000336170197
-0.04467941075563431 0.03587155044078827 -0.1476999968290329
-0.06299333274364471 0.03455256670713425 -0.1454000025987625
-0.06231854483485222 0.034600093960762024 -0.14559999108314514
-0.06168394908308983 0.03467138484120369 -0.14589999616146088
-0.061004459857940674 0.03471891209483147 -0.1460999995470047
-0.06015794724225998 0.03467138484120369 -0.14589999616146088
-0.05927281454205513 0.034600093960762024 -0.14559999108314514
-0.058350637555122375 0.03450503945350647 -0.1451999992132187
-0.057234324514865875 0.034291163086891174 -0.14429999887943268
-0.05608828738331795 0.03405352681875229 -0.14329999685287476
-0.05479823797941208 0.03372083604335785 -0.14190000295639038
-0.05386567860841751 0.03360201418399811 -0.14139999449253082
-0.05263778194785118 0.03329308703541756 -0.14010000228881836
-0.051608726382255554 0.03310297429561615 -0.13930000364780426
-0.050734132528305054 0.033007919788360596 -0.1388999968767166
-0.04989972710609436 0.03293662518262863 -0.13859999179840088
-0.048926547169685364 0.03277027979493141 -0.1378999948501587
-0.04813546687364578 0.032722752541303635 -0.13769999146461487
-0.047105442732572556 0.03250887617468834 -0.13679999113082886
-0.046288300305604935 0.03243758901953697 -0.13650000095367432
-0.044639598578214645 0.031772200018167496 -0.13369999825954437
-0.04384180158376694 0.03170090913772583 -0.13339999318122864
-0.04227093607187271 0.03105928562581539 -0.1306999921798706
-0.04133287072181702 0.030869176611304283 -0.1298999935388565
-0.040403176099061966 0.030679065734148026 -0.1290999948978424
-0.04355026036500931 0.03481396660208702 -0.14649999141693115
-0.042608898133039474 0.03467138484120369 -0.14589999616146088
-0.06316662579774857 0.03388514369726181 -0.14579999446868896
-0.06253255158662796 0.033954866230487823 -0.1460999995470047
-0.06181078776717186 0.03397810831665993 -0.1462000012397766
-0.061129722744226456 0.03402458503842354 -0.14639998972415924
-0.06036410480737686 0.03402458503842354 -0.14639998972415924
-0.05947636440396309 0.033954866230487823 -0.1460999995470047
-0.05851138010621071 0.0338386595249176 -0.14559999108314514
-0.05751197040081024 0.033699214458465576 -0.14499999582767487
-0.056636251509189606 0.03362949192523956 -0.14469999074935913
-0.05553196743130684 0.03342032432556152 -0.14379999041557312
-0.054208531975746155 0.03307171165943146 -0.14229999482631683
-0.05323892831802368 0.03293227031826973 -0.14169999957084656
-0.05220150202512741 0.032746341079473495 -0.14090000092983246
-0.051135916262865067 0.032537173479795456 -0.14000000059604645
-0.050151750445365906 0.032374490052461624 -0.13930000364780426
-0.04931682348251343 0.03230476751923561 -0.13899999856948853
-0.04851999133825302 0.0322582833468914 -0.1387999951839447
-0.047759685665369034 0.0322350412607193 -0.1386999934911728
-0.046898696571588516 0.03214208036661148 -0.13830000162124634
-0.045841559767723083 0.03190967068076134 -0.13729999959468842
-0.04426904767751694 0.03130540996789932 -0.1347000002861023
-0.04317650943994522 0.03102651797235012 -0.13349999487400055
-0.04136469215154648 0.030213089659810066 -0.12999999523162842
-0.040403176099061966 0.030003922060132027 -0.1290999948978424
-0.039635710418224335 0.029934197664260864 -0.12879998981952667
-0.04328271746635437 0.0338386595249176 -0.14559999108314514
-0.04240446910262108 0.033745698630809784 -0.1451999992132187
-0.04164512827992439 0.033745698630809784 -0.1451999992132187
-0.013158720917999744 0.029469383880496025 -0.12680000066757202
-0.012515314854681492 0.029515866190195084 -0.12700000405311584
-0.011851152405142784 0.029515866190195084 -0.12700000405311584
-0.011204606853425503 0.029562344774603844 -0.12719999253749847
-0.010539399459958076 0.029562344774603844 -0.12719999253749847
-0.009874191135168076 0.029562344774603844 -0.12719999253749847
-0.009194504469633102 0.029515866190195084 -0.12700000405311584
-0.008516908623278141 0.029469383880496025 -0.12680000066757202
-0.007841404527425766 0.029422901570796967 -0.1265999972820282
-0.007167992182075977 0.029376419261097908 -0.12639999389648438
-0.06333992630243301 0.0332135371863842 -0.1462000012397766
-0.06257535517215729 0.0332135371863842 -0.1462000012397766
-0.06181078776717186 0.0332135371863842 -0.1462000012397766
-0.061129722744226456 0.03325897082686424 -0.14639998972415924
-0.06036410480737686 0.03325897082686424 -0.14639998972415924
-0.05951707437634468 0.0332135371863842 -0.1462000012397766
-0.05863194167613983 0.03314538300037384 -0.14589999616146088
-0.05771028250455856 0.03305450826883316 -0.14549998939037323
-0.056792814284563065 0.03296363726258278 -0.14509999752044678
-0.05587952584028244 0.0328727662563324 -0.14469999074935913
-0.054894231259822845 0.032736457884311676 -0.14409999549388885
-0.053689781576395035 0.03246384486556053 -0.1428999900817871
-0.052571989595890045 0.03223666921257973 -0.14190000295639038
-0.0515742227435112 0.032077640295028687 -0.141199991106987
-0.050547778606414795 0.031895898282527924 -0.1403999924659729
-0.04974257946014404 0.031850460916757584 -0.14019998908042908
-0.049079298973083496 0.031895898282527924 -0.1403999924659729
-0.04848279803991318 0.031986769288778305 -0.14079999923706055
-0.047644734382629395 0.031918615102767944 -0.1404999941587448
-0.046809807419776917 0.031850460916757584 -0.14019998908042908
-0.0460437536239624 0.03182774409651756 -0.14010000228881836
-0.04414677247405052 0.03100990131497383 -0.13650000095367432
-0.040403176099061966 0.029328778386116028 -0.1290999948978424
-0.039635710418224335 0.029260622337460518 -0.12879998981952667
-0.042346060276031494 0.03294092044234276 -0.14499999582767487
-0.041587766259908676 0.03294092044234276 -0.14499999582767487
-0.04082947224378586 0.03294092044234276 -0.14499999582767487
-0.016500288620591164 0.02885170467197895 -0.12700000405311584
-0.015798715874552727 0.02878355048596859 -0.1266999989748001
-0.015124176628887653 0.02876083180308342 -0.1265999972820282
-0.014462105929851532 0.02876083180308342 -0.1265999972820282
-0.013789135031402111 0.02873811312019825 -0.1264999955892563
-0.013127587735652924 0.02873811312019825 -0.1264999955892563
-0.012485750950872898 0.02878355048596859 -0.1266999989748001
-0.011823157779872417 0.02878355048596859 -0.1266999989748001
-0.011160564608871937 0.02878355048596859 -0.1266999989748001
-0.010522828437387943 0.02885170467197895 -0.12700000405311584
-0.00985866691917181 0.02885170467197895 -0.12700000405311584
-0.009194504469633102 0.02885170467197895 -0.12700000405311584
-0.008510191924870014 0.02878355048596859 -0.1266999989748001
-0.007835210300981998 0.02873811312019825 -0.1264999955892563
-0.007167992182075977 0.02871539443731308 -0.12639999389648438
-0.006496672052890062 0.02866995893418789 -0.12619999051094055
-0.005827444139868021 0.028624525293707848 -0.12600000202655792
-0.0051562050357460976 0.028556371107697487 -0.1256999969482422
-0.004480946809053421 0.028442783281207085 -0.12520000338554382
-0.0632966011762619 0.03242677077651024 -0.1460999995470047
-0.0624469518661499 0.032382380217313766 -0.14589999616146088
-0.06168394908308983 0.032382380217313766 -0.14589999616146088
-0.060920946300029755 0.032382380217313766 -0.14589999616146088
-0.06015794724225998 0.032382380217313766 -0.14589999616146088
-0.059394944459199905 0.032382380217313766 -0.14589999616146088
-0.058591753244400024 0.03236018493771553 -0.14579999446868896
-0.057749949395656586 0.03231579437851906 -0.14559999108314514
-0.056949373334646225 0.03229359909892082 -0.14549998939037323
-0.05607261508703232 0.03222701698541641 -0.1451999992132187
-0.05519898980855942 0.032160431146621704 -0.14489999413490295
-0.054290931671857834 0.03207165375351906 -0.1445000022649765
-0.05305361747741699 0.03178311511874199 -0.14319999516010284
-0.051902953535318375 0.03153897076845169 -0.142099991440773
-0.05101581662893295 0.031450193375349045 -0.14169999957084656
-0.05016833543777466 0.03138360753655434 -0.14139999449253082
-0.04942886903882027 0.03138360753655434 -0.14139999449253082
-0.04868939891457558 0.03138360753655434 -0.14139999449253082
-0.047916021198034286 0.0313614122569561 -0.1412999927997589
-0.04711029678583145 0.03131702169775963 -0.1410999894142151
-0.04617520794272423 0.03118385374546051 -0.1404999941587448
-0.04527873918414116 0.03107288107275963 -0.14000000059604645
-0.04270108789205551 0.029785573482513428 -0.13419999182224274
-0.04187409207224846 0.029696796089410782 -0.13379999995231628
-0.03966648504137993 0.028609242290258408 -0.12889999151229858
-0.038871388882398605 0.02852046489715576 -0.12849999964237213
-0.040801312774419785 0.032160431146621704 -0.14489999413490295
-0.017954954877495766 0.028387293219566345 -0.12789998948574066
-0.017245540395379066 0.028320711106061935 -0.12759999930858612
-0.01653926447033882 0.028254125267267227 -0.12729999423027039
-0.015811186283826828 0.028143152594566345 -0.12680000066757202
-0.015124176628887653 0.028098762035369873 -0.1265999972820282
-0.014450682327151299 0.028076566755771637 -0.1264999955892563
-0.013789135031402111 0.028076566755771637 -0.1264999955892563
-0.013127587735652924 0.028076566755771637 -0.1264999955892563
-0.01246604137122631 0.028076566755771637 -0.1264999955892563
-0.011804494075477123 0.028076566755771637 -0.1264999955892563
-0.011160564608871937 0.02812095731496811 -0.1266999989748001
-0.010497971437871456 0.02812095731496811 -0.1266999989748001
-0.00985866691917181 0.028187543153762817 -0.12700000405311584
-0.009194504469633102 0.028187543153762817 -0.12700000405311584
-0.008510191924870014 0.02812095731496811 -0.1266999989748001
-0.007835210300981998 0.028076566755771637 -0.1264999955892563
-0.007156650070101023 0.02800998091697693 -0.12619999051094055
-0.006496672052890062 0.02800998091697693 -0.12619999051094055
-0.005832069553434849 0.027987787500023842 -0.12610000371932983
-0.005164409521967173 0.02794339694082737 -0.125900000333786
-0.004488104488700628 0.02783242054283619 -0.12539999186992645
-0.003810917492955923 0.027677057310938835 -0.12469999492168427
-0.0031461180187761784 0.027566082775592804 -0.1241999939084053
-0.06392910331487656 0.03159770369529724 -0.14579999446868896
-0.06307997554540634 0.03155435994267464 -0.14559999108314514
-0.06227574497461319 0.031532689929008484 -0.14549998939037323
-0.061472561210393906 0.03151101991534233 -0.1454000025987625
-0.06071217358112335 0.03151101991534233 -0.1454000025987625
-0.0599517859518528 0.03151101991534233 -0.1454000025987625
-0.059191398322582245 0.03151101991534233 -0.1454000025987625
-0.05839082598686218 0.03148934617638588 -0.1453000009059906
-0.05759129673242569 0.03146767616271973 -0.1451999992132187
-0.056792814284563065 0.031446002423763275 -0.14509999752044678
-0.05599537864327431 0.031424328684806824 -0.14499999582767487
-0.05523708462715149 0.031424328684806824 -0.14499999582767487
-0.05436607077717781 0.03135931119322777 -0.14469999074935913
-0.05349820479750633 0.03129429742693901 -0.1444000005722046
-0.05204905569553375 0.03088253177702427 -0.14249999821186066
-0.05108782276511192 0.030752500519156456 -0.14190000295639038
-0.05031025782227516 0.030730828642845154 -0.14180000126361847
-0.049568697810173035 0.030730828642845154 -0.14180000126361847
-0.048792701214551926 0.03070915676653385 -0.14169999957084656
-0.04805166646838188 0.03070915676653385 -0.14169999957084656
-0.047143686562776566 0.03060079552233219 -0.141199991106987
-0.04617520794272423 0.030449092388153076 -0.1404999941587448
-0.045020006597042084 0.030167357996106148 -0.13920000195503235
-0.04422840103507042 0.030124014243483543 -0.13899999856948853
-0.04034349322319031 0.028411928564310074 -0.13109999895095825
-0.03896213695406914 0.027913471683859825 -0.12879998981952667
-0.03822910785675049 0.02787013165652752 -0.12860000133514404
-0.040801312774419785 0.03140265867114067 -0.14489999413490295
-0.04004354029893875 0.03140265867114067 -0.14489999413490295
-0.01866750791668892 0.02778344228863716 -0.1281999945640564
-0.01796899363398552 0.027740096673369408 -0.12799999117851257
-0.017259057611227036 0.02767508290708065 -0.12770000100135803
-0.016552256420254707 0.027610067278146744 -0.1273999959230423
-0.01583612523972988 0.027523379772901535 -0.12700000405311584
-0.015124176628887653 0.027436690405011177 -0.1265999972820282
-0.014450682327151299 0.027415018528699875 -0.1264999955892563
-0.013789135031402111 0.027415018528699875 -0.1264999955892563
-0.013117210939526558 0.027393346652388573 -0.12639999389648438
-0.01246604137122631 0.027415018528699875 -0.1264999955892563
-0.011804494075477123 0.027415018528699875 -0.1264999955892563
-0.011160564608871937 0.02745836414396763 -0.1266999989748001
-0.010539399459958076 0.02756672166287899 -0.12719999253749847
-0.009881953708827496 0.027588393539190292 -0.12729999423027039
-0.00920898374170065 0.02756672166287899 -0.12719999253749847
-0.008510191924870014 0.02745836414396763 -0.1266999989748001
-0.007835210300981998 0.027415018528699875 -0.1264999955892563
-0.007156650070101023 0.02735000103712082 -0.12619999051094055
-0.006496672052890062 0.02735000103712082 -0.12619999051094055
-0.005832069553434849 0.027328332886099815 -0.12610000371932983
-0.005164409521967173 0.027284987270832062 -0.125900000333786
-0.00449884170666337 0.027241643518209457 -0.1256999969482422
-0.003823142033070326 0.027111612260341644 -0.1251000016927719
-0.0031537176109850407 0.02698158100247383 -0.12449999898672104
-0.0024925789330154657 0.02687321975827217 -0.12399999797344208
-0.06370987743139267 0.03072948195040226 -0.1453000009059906
-0.06290668249130249 0.03070833347737789 -0.1451999992132187
-0.062104541808366776 0.030687185004353523 -0.14509999752044678
-0.06130344420671463 0.030666034668684006 -0.14499999582767487
-0.06054515019059181 0.030666034668684006 -0.14499999582767487
-0.05982808768749237 0.030687185004353523 -0.14509999752044678
-0.05902855843305588 0.030666034668684006 -0.14499999582767487
-0.05827026441693306 0.030666034668684006 -0.14499999582767487
-0.05751197040081024 0.030666034668684006 -0.14499999582767487
-0.056714531034231186 0.030644886195659637 -0.14489999413490295
-0.055918142199516296 0.03062373585999012 -0.14479999244213104
-0.055122796446084976 0.03060258738696575 -0.14469999074935913
-0.054253362119197845 0.030539141967892647 -0.1444000005722046
-0.04498766362667084 0.02941824495792389 -0.13910000026226044
-0.044164761900901794 0.029354797676205635 -0.1387999951839447
-0.04250001534819603 0.028720328584313393 -0.13580000400543213
-0.03822910785675049 0.02719760127365589 -0.12860000133514404
-0.03755657747387886 0.02719760127365589 -0.12860000133514404
-0.03688404709100723 0.02719760127365589 -0.12860000133514404
-0.0392044298350811 0.030581437051296234 -0.14459998905658722
-0.020008383318781853 0.02711300365626812 -0.1281999945640564
-0.019353030249476433 0.027134153991937637 -0.1282999962568283
-0.01866750791668892 0.02711300365626812 -0.1281999945640564
-0.017983030527830124 0.02709185518324375 -0.12809999287128448
-0.017286086454987526 0.027049556374549866 -0.12789998948574066
-0.01657824218273163 0.02698611095547676 -0.12759999930858612
-0.015861062332987785 0.02690151333808899 -0.12719999253749847
-0.015136122703552246 0.026795770972967148 -0.1266999989748001
-0.014450682327151299 0.026753472164273262 -0.1264999955892563
-0.013789135031402111 0.026753472164273262 -0.1264999955892563
-0.013127587735652924 0.026753472164273262 -0.1264999955892563
-0.01246604137122631 0.026753472164273262 -0.1264999955892563
-0.011832489632070065 0.026816919445991516 -0.12680000066757202
-0.01121341623365879 0.026922663673758507 -0.12729999423027039
-0.010564256459474564 0.026964962482452393 -0.1274999976158142
-0.00990524236112833 0.02698611095547676 -0.12759999930858612
-0.009230703115463257 0.026964962482452393 -0.1274999976158142
-0.008510191924870014 0.026795770972967148 -0.1266999989748001
-0.007835210300981998 0.026753472164273262 -0.1264999955892563
-0.007156650070101023 0.02669002301990986 -0.12619999051094055
-0.006491524633020163 0.02666887640953064 -0.12610000371932983
-0.005832069553434849 0.02666887640953064 -0.12610000371932983
-0.0051685115322470665 0.02664772793650627 -0.12600000202655792
-0.00449884170666337 0.026584280654788017 -0.1256999969482422
-0.0038323099724948406 0.026520831510424614 -0.12539999186992645
-0.003158783772960305 0.026372790336608887 -0.12469999492168427
-0.0024925789330154657 0.02622474730014801 -0.12399999797344208
-0.0018381568370386958 0.026140151545405388 -0.12359999865293503
-0.06357832998037338 0.02990773878991604 -0.14499999582767487
-0.06277670711278915 0.029887113720178604 -0.14489999413490295
-0.06201893836259842 0.029887113720178604 -0.14489999413490295
-0.061261165887117386 0.029887113720178604 -0.14489999413490295
-0.06050339341163635 0.029887113720178604 -0.14489999413490295
-0.05974562093615532 0.029887113720178604 -0.14489999413490295
-0.058987848460674286 0.029887113720178604 -0.14489999413490295
-0.058189891278743744 0.02986648678779602 -0.14479999244213104
-0.057432640343904495 0.02986648678779602 -0.14479999244213104
-0.056636251509189606 0.029845859855413437 -0.14469999074935913
-0.055840905755758286 0.029825234785676003 -0.14459998905658722
-0.05504661425948143 0.029804611578583717 -0.1445000022649765
-0.04268778860569 0.028133902698755264 -0.1363999992609024
-0.04138977825641632 0.02774200774729252 -0.13449999690055847
-0.038288556039333344 0.026566321030259132 -0.12879998981952667
-0.03752737119793892 0.02650444582104683 -0.12849999964237213
-0.036855366080999374 0.02650444582104683 -0.12849999964237213
-0.036211516708135605 0.026525072753429413 -0.12860000133514404
-0.03812915459275246 0.029577722772955894 -0.14339999854564667
-0.021299296990036964 0.026380687952041626 -0.12789998948574066
-0.020678820088505745 0.026442566886544228 -0.1281999945640564
-0.020008383318781853 0.026442566886544228 -0.1281999945640564
-0.019368113949894905 0.026483818888664246 -0.12839999794960022
-0.018696630373597145 0.026483818888664246 -0.12839999794960022
-0.017997069284319878 0.026442566886544228 -0.1281999945640564
-0.017313117161393166 0.026421939954161644 -0.12809999287128448
-0.016617218032479286 0.026380687952041626 -0.12789998948574066
-0.015910940244793892 0.026318810880184174 -0.12759999930858612
-0.015207801014184952 0.026256931945681572 -0.12729999423027039
-0.01450780127197504 0.02619505673646927 -0.12700000405311584
-0.013821837492287159 0.0261538028717041 -0.12680000066757202
-0.013179476372897625 0.02619505673646927 -0.12700000405311584
-0.012515314854681492 0.02619505673646927 -0.12700000405311584
-0.011888478882610798 0.026277558878064156 -0.1273999959230423
-0.011257459409534931 0.02636006474494934 -0.12780000269412994
-0.010613970458507538 0.026421939954161644 -0.12809999287128448
-0.009944056160748005 0.026421939954161644 -0.12809999287128448
-0.009266901761293411 0.02640131302177906 -0.12799999117851257
-0.008557208813726902 0.026277558878064156 -0.1273999959230423
-0.007866180501878262 0.02619505673646927 -0.12700000405311584
-0.007173663005232811 0.0260919239372015 -0.1264999955892563
-0.006501819938421249 0.026050671935081482 -0.12629999220371246
-0.005836693570017815 0.0260300450026989 -0.12619999051094055
-0.00517261354252696 0.026009421795606613 -0.12610000371932983
-0.004505999851971865 0.025968169793486595 -0.125900000333786
-0.0038323099724948406 0.025865036994218826 -0.12539999186992645
-0.003158783772960305 0.025720655918121338 -0.12469999492168427
-0.0024925789330154657 0.02557627484202385 -0.12399999797344208
-0.0018366696313023567 0.02547314390540123 -0.12349999696016312
-0.0011830974835902452 0.025308135896921158 -0.12269999831914902
-0.0005378927453421056 0.025143127888441086 -0.12189999967813492
-0.06344678997993469 0.02908913418650627 -0.14469999074935913
-0.06269006431102753 0.02908913418650627 -0.14469999074935913
-0.06193333491683006 0.02908913418650627 -0.14469999074935913
-0.0611766092479229 0.02908913418650627 -0.14469999074935913
-0.06041988357901573 0.02908913418650627 -0.14469999074935913
-0.05966315418481827 0.02908913418650627 -0.14469999074935913
-0.0589064285159111 0.02908913418650627 -0.14469999074935913
-0.05814970284700394 0.02908913418650627 -0.14469999074935913
-0.05735331401228905 0.02906903065741062 -0.14459998905658722
-0.056557975709438324 0.02904893085360527 -0.1445000022649765
-0.05576367676258087 0.02902882732450962 -0.1444000005722046
-0.054894231259822845 0.02896851673722267 -0.14409999549388885
-0.03920414298772812 0.026053573936223984 -0.12960000336170197
-0.03822910785675049 0.025852542370557785 -0.12860000133514404
-0.036155201494693756 0.025812335312366486 -0.12839999794960022
-0.035483717918395996 0.025812335312366486 -0.12839999794960022
-0.022583939135074615 0.025651510804891586 -0.12759999930858612
-0.021950991824269295 0.025691717863082886 -0.12780000269412994
-0.021349256858229637 0.025772128254175186 -0.1281999945640564
-0.020711081102490425 0.025812335312366486 -0.12839999794960022
-0.020039597526192665 0.025812335312366486 -0.12839999794960022
-0.019368113949894905 0.025812335312366486 -0.12839999794960022
-0.018696630373597145 0.025812335312366486 -0.12839999794960022
-0.018025146797299385 0.025812335312366486 -0.12839999794960022
-0.017353663221001625 0.025812335312366486 -0.12839999794960022
-0.01666918769478798 0.025792231783270836 -0.1282999962568283
-0.015985757112503052 0.025772128254175186 -0.1281999945640564
-0.015279479324817657 0.025711819529533386 -0.12789998948574066
-0.014564917422831059 0.025631409138441086 -0.1274999976158142
-0.013898140750825405 0.025631409138441086 -0.1274999976158142
-0.013231364078819752 0.025631409138441086 -0.1274999976158142
-0.012574441730976105 0.025651510804891586 -0.12759999930858612
-0.011953799054026604 0.025752026587724686 -0.12809999287128448
-0.011301502585411072 0.025792231783270836 -0.1282999962568283
-0.010638827458024025 0.025812335312366486 -0.12839999794960022
-0.00996734481304884 0.025812335312366486 -0.12839999794960022
-0.00929586123675108 0.025812335312366486 -0.12839999794960022
-0.008617660962045193 0.025792231783270836 -0.1282999962568283
-0.007934311404824257 0.025752026587724686 -0.12809999287128448
-0.00724738510325551 0.025691717863082886 -0.12780000269412994
-0.006563595030456781 0.025631409138441086 -0.1274999976158142
-0.005873694084584713 0.025530893355607986 -0.12700000405311584
-0.005197225138545036 0.025470584630966187 -0.1266999989748001
-0.004516736604273319 0.025370066985487938 -0.12619999051094055
-0.003850646549835801 0.025329863652586937 -0.12600000202655792
-0.0031638499349355698 0.02510872855782509 -0.12489999830722809
-0.0024925789330154657 0.02492780052125454 -0.12399999797344208
-0.0018336952198296785 0.02478707954287529 -0.1232999935746193
-0.0011782763758674264 0.02456594631075859 -0.12219999730587006
-0.0005374514730647206 0.02448553405702114 -0.121799997985363
9.935312846209854e-05 0.02444532699882984 -0.12159999459981918
-0.06322755664587021 0.028234507888555527 -0.14419999718666077
-0.06251676380634308 0.028254089877009392 -0.14429999887943268
-0.06176213175058365 0.028254089877009392 -0.14429999887943268
-0.06104977801442146 0.028273670002818108 -0.1444000005722046
-0.06037812680006027 0.02831282652914524 -0.14459998905658722
-0.05962192267179489 0.02831282652914524 -0.14459998905658722
-0.05886571854352951 0.02831282652914524 -0.14459998905658722
-0.05810951441526413 0.02831282652914524 -0.14459998905658722
-0.05731365457177162 0.028293250128626823 -0.1445000022649765
-0.056479692459106445 0.028254089877009392 -0.14429999887943268
-0.055647820234298706 0.02821492776274681 -0.14409999549388885
-0.035400811582803726 0.025082111358642578 -0.12809999287128448
-0.02326946146786213 0.025003792718052864 -0.12770000100135803
-0.022637033835053444 0.025042951107025146 -0.12789998948574066
-0.02201969549059868 0.025101691484451294 -0.1281999945640564
-0.021382564678788185 0.025140851736068726 -0.12839999794960022
-0.020711081102490425 0.025140851736068726 -0.12839999794960022
-0.02005520462989807 0.02516043372452259 -0.12849999964237213
-0.019398283213377 0.025180013850331306 -0.12860000133514404
-0.018711192533373833 0.02516043372452259 -0.12849999964237213
-0.018067263066768646 0.025199593976140022 -0.12870000302791595
-0.017380693927407265 0.025180013850331306 -0.12860000133514404
-0.016708165407180786 0.025180013850331306 -0.12860000133514404
-0.01603563502430916 0.025180013850331306 -0.12860000133514404
-0.015351158566772938 0.02516043372452259 -0.12849999964237213
-0.014656305313110352 0.02512127161026001 -0.1282999962568283
-0.013974444009363651 0.025101691484451294 -0.1281999945640564
-0.013293628580868244 0.025082111358642578 -0.12809999287128448
-0.012633568607270718 0.025101691484451294 -0.1281999945640564
-0.011981794610619545 0.025140851736068726 -0.12839999794960022
-0.011327928863465786 0.025180013850331306 -0.12860000133514404
-0.010671969503164291 0.02521917037665844 -0.12879998981952667
-0.00999839510768652 0.02521917037665844 -0.12879998981952667
-0.009324819780886173 0.02521917037665844 -0.12879998981952667
-0.008651244454085827 0.02521917037665844 -0.12879998981952667
-0.007971474900841713 0.025199593976140022 -0.12870000302791595
-0.007287080865353346 0.02516043372452259 -0.12849999964237213
-0.00666140578687191 0.025336652994155884 -0.12939999997615814
-0.005938442889600992 0.025140851736068726 -0.12839999794960022
-0.005258754827082157 0.025101691484451294 -0.1281999945640564
-0.004552526865154505 0.024905890226364136 -0.12719999253749847
-0.003868982894346118 0.02478841133415699 -0.1265999972820282
-0.0031917141750454903 0.024670930579304695 -0.12600000202655792
-0.0025006195064634085 0.024357648566365242 -0.12439999729394913
-0.0018381568370386958 0.024201007559895515 -0.12359999865293503
-0.0011782763758674264 0.023926885798573494 -0.12219999730587006
-0.0005370102007873356 0.023828985169529915 -0.1216999962925911
9.910801600199193e-05 0.02375066466629505 -0.12129999697208405
0.0007328565698117018 0.023731084540486336 -0.12119999527931213
-0.06283292919397354 0.027308883145451546 -0.14329999685287476
-0.062126848846673965 0.027327939867973328 -0.14339999854564667
-0.06146252527832985 0.02736605517566204 -0.1436000019311905
-0.06088066101074219 0.02744228206574917 -0.14399999380111694
-0.06025286391377449 0.027499454095959663 -0.14429999887943268
-0.05953946337103844 0.027518512681126595 -0.1444000005722046
-0.058784306049346924 0.027518512681126595 -0.1444000005722046
-0.057988960295915604 0.027499454095959663 -0.14429999887943268
-0.05715499818325043 0.02746133878827095 -0.14409999549388885
-0.056244850158691406 0.027385111898183823 -0.1437000036239624
-0.03456822410225868 0.02429785393178463 -0.1274999976158142
-0.023974772542715073 0.024374080821871758 -0.12789998948574066
-0.02332412637770176 0.02439313940703869 -0.12799999117851257
-0.02269013226032257 0.0244312547147274 -0.1281999945640564
-0.022054048255085945 0.024469368159770966 -0.12839999794960022
-0.02139921858906746 0.024488426744937897 -0.12849999964237213
-0.020743342116475105 0.02450748346745968 -0.12860000133514404
-0.02010202407836914 0.024545596912503242 -0.12879998981952667
-0.019428448751568794 0.024545596912503242 -0.12879998981952667
-0.018783997744321823 0.024583710357546806 -0.1289999932050705
-0.018193606287240982 0.024698056280612946 -0.12960000336170197
-0.017542876303195953 0.02473616786301136 -0.1297999918460846
-0.01694202795624733 0.02485051192343235 -0.13040000200271606
-0.016235144808888435 0.024812398478388786 -0.13019999861717224
-0.015530354343354702 0.024774283170700073 -0.12999999523162842
-0.01478196308016777 0.024659940972924232 -0.12939999997615814
-0.014050747267901897 0.024564653635025024 -0.12889999151229858
-0.013366270810365677 0.024545596912503242 -0.12879998981952667
-0.01269269548356533 0.024545596912503242 -0.12879998981952667
-0.012047115713357925 0.024602768942713737 -0.1290999948978424
-0.011416015215218067 0.024698056280612946 -0.12960000336170197
-0.01076311245560646 0.024755224585533142 -0.1298999935388565
-0.010122599080204964 0.02485051192343235 -0.13040000200271606
-0.00942617654800415 0.024812398478388786 -0.13019999861717224
-0.008745280094444752 0.024812398478388786 -0.13019999861717224
-0.008095351047813892 0.024907682090997696 -0.1306999921798706
-0.007417510729283094 0.024926738813519478 -0.13079999387264252
-0.006738624535501003 0.02494579739868641 -0.13089999556541443
-0.006067941896617413 0.025002969428896904 -0.13120000064373016
-0.005353101063519716 0.02486957050859928 -0.13050000369548798
-0.004624107852578163 0.02462182566523552 -0.12919999659061432
-0.0039301044307649136 0.02450748346745968 -0.12860000133514404
-0.0032246443443000317 0.024259740486741066 -0.12729999423027039
-0.0025247412268072367 0.023935768753290176 -0.12559999525547028
-0.0018441055435687304 0.023630855605006218 -0.12399999797344208
-0.0011850259033963084 0.02342122606933117 -0.12289999425411224
-0.0005365689285099506 0.023173483088612556 -0.12159999459981918
9.91897177300416e-05 0.023135369643568993 -0.12139999866485596
0.0007316472474485636 0.023059140890836716 -0.12099999934434891
0.0013621763791888952 0.023021025583148003 -0.12079999595880508
-0.0631830021739006 0.02639267034828663 -0.14239999651908875
-0.06252600252628326 0.026429738849401474 -0.14259999990463257
-0.06186690554022789 0.02646680735051632 -0.1428000032901764
-0.06124851480126381 0.026522409170866013 -0.14309999346733093
-0.06071155145764351 0.0266150813549757 -0.1436000019311905
-0.06012759730219841 0.02668921649456024 -0.14399999380111694
-0.059456996619701385 0.026726284995675087 -0.14419999718666077
-0.05870288610458374 0.026726284995675087 -0.14419999718666077
-0.05786839872598648 0.02668921649456024 -0.14399999380111694
-0.05687735602259636 0.026578012853860855 -0.14339999854564667
-0.05593172088265419 0.026485340669751167 -0.1428999900817871
-0.034351322799921036 0.023482805117964745 -0.1266999989748001
-0.03256789222359657 0.023631077259778976 -0.1274999976158142
-0.023993516340851784 0.023723747581243515 -0.12799999117851257
-0.023342348635196686 0.023742282763123512 -0.12809999287128448
-0.02269013226032257 0.02376081608235836 -0.1281999945640564
-0.022054048255085945 0.023797884583473206 -0.12839999794960022
-0.02139921858906746 0.023816419765353203 -0.12849999964237213
-0.020759472623467445 0.023853488266468048 -0.12870000302791595
-0.020133240148425102 0.02390909008681774 -0.1289999932050705
-0.019518956542015076 0.023983227089047432 -0.12939999997615814
-0.01894417218863964 0.024112965911626816 -0.13009999692440033
-0.01836206577718258 0.0242427047342062 -0.13079999387264252
-0.01771857775747776 0.024298308417201042 -0.13109999895095825
-0.017071951180696487 0.024353912100195885 -0.131400004029274
-0.016384778544306755 0.024353912100195885 -0.131400004029274
-0.015673711895942688 0.02431684359908104 -0.13120000064373016
-0.014964738860726357 0.024279773235321045 -0.13099999725818634
-0.014257856644690037 0.0242427047342062 -0.13079999387264252
-0.013532312586903572 0.02416856959462166 -0.13040000200271606
-0.01285037025809288 0.02416856959462166 -0.13040000200271606
-0.01219642162322998 0.02422417141497135 -0.1306999921798706
-0.011530527845025063 0.024261239916086197 -0.13089999556541443
-0.010862541384994984 0.024298308417201042 -0.13109999895095825
-0.010239039547741413 0.024446582421660423 -0.13189999759197235
-0.00951305404305458 0.024353912100195885 -0.131400004029274
-0.008825882337987423 0.024353912100195885 -0.131400004029274
-0.008213034830987453 0.024576321244239807 -0.13259999454021454
-0.007496903650462627 0.024502186104655266 -0.13220000267028809
-0.006810694932937622 0.024520717561244965 -0.1322999894618988
-0.006151190958917141 0.024650458246469498 -0.13300000131130219
-0.005410528741776943 0.024446582421660423 -0.13189999759197235
-0.004699267912656069 0.024335376918315887 -0.13130000233650208
-0.003969833254814148 0.02407589741051197 -0.1298999935388565
-0.003252508817240596 0.023797884583473206 -0.12839999794960022
-0.0025709744077175856 0.023705212399363518 -0.12789998948574066
-0.0011937039671465755 0.022945312783122063 -0.12379999458789825
-0.0005370102007873356 0.022556094452738762 -0.1216999962925911
9.91897177300416e-05 0.02250049263238907 -0.12139999866485596
0.0007316472474485636 0.022426355630159378 -0.12099999934434891
0.0013610486639663577 0.022370753809809685 -0.12069999426603317
-0.062306761741638184 0.025593938305974007 -0.142099991440773
-0.06165028363466263 0.025629960000514984 -0.14229999482631683
-0.061034511774778366 0.025683995336294174 -0.14259999990463257
-0.06054243817925453 0.025792062282562256 -0.14319999516010284
-0.06000233441591263 0.025882119312882423 -0.1437000036239624
-0.05941576510667801 0.02595416270196438 -0.14409999549388885
-0.05854004621505737 0.02590012736618519 -0.14379999041557312
-0.05762728303670883 0.025828083977103233 -0.14339999854564667
-0.056639377027750015 0.0257200188934803 -0.1428000032901764
-0.05561859905719757 0.025593938305974007 -0.142099991440773
-0.03426998481154442 0.022766176611185074 -0.12639999389648438
-0.033688731491565704 0.022820211946964264 -0.1266999989748001
-0.03310433775186539 0.022874245420098305 -0.12700000405311584
-0.032516803592443466 0.022928278893232346 -0.12729999423027039
-0.03185107186436653 0.022928278893232346 -0.12729999423027039
-0.024585839360952377 0.022982312366366386 -0.12759999930858612
-0.02393728494644165 0.02300032414495945 -0.12770000100135803
-0.023305904120206833 0.023036343976855278 -0.12789998948574066
-0.02269013226032257 0.023090379312634468 -0.1281999945640564
-0.022054048255085945 0.023126402869820595 -0.12839999794960022
-0.02139921858906746 0.02314441278576851 -0.12849999964237213
-0.020775599405169487 0.02319844625890255 -0.12879998981952667
-0.020273704081773758 0.0233965702354908 -0.1298999935388565
-0.019715050235390663 0.023540658876299858 -0.1306999921798706
-0.019118906930088997 0.02364872768521309 -0.13130000233650208
-0.01857263781130314 0.023828838020563126 -0.1322999894618988
-0.017975367605686188 0.02395491860806942 -0.13300000131130219
-0.017318803817033768 0.02400895021855831 -0.13329999148845673
-0.016621693968772888 0.02400895021855831 -0.13329999148845673
-0.01591263897716999 0.023990938439965248 -0.13319998979568481
-0.015181784518063068 0.023936906829476357 -0.13289999961853027
-0.014432264491915703 0.02384684979915619 -0.13239999115467072
-0.013667220249772072 0.023720771074295044 -0.13169999420642853
-0.012968624010682106 0.02370275929570198 -0.13159999251365662
-0.012308401055634022 0.02375679463148117 -0.13189999759197235
-0.011645040474832058 0.02381082996726036 -0.13220000267028809
-0.011011684313416481 0.023936906829476357 -0.13289999961853027
-0.010332193225622177 0.023972930386662483 -0.1331000030040741
-0.009636130183935165 0.023972930386662483 -0.1331000030040741
-0.008940067142248154 0.023972930386662483 -0.1331000030040741
-0.008250197395682335 0.023990938439965248 -0.13319998979568481
-0.007564953528344631 0.024026961997151375 -0.13339999318122864
-0.006867322139441967 0.024026961997151375 -0.13339999318122864
-0.006169690750539303 0.024026961997151375 -0.13339999318122864
-0.005472058430314064 0.024026961997151375 -0.13339999318122864
-0.004778006114065647 0.024044973775744438 -0.13349999487400055
-0.004055403172969818 0.02390088327229023 -0.13269999623298645
-0.003358899150043726 0.023882873356342316 -0.13259999454021454
-0.002623238367959857 0.02350463904440403 -0.13050000369548798
-0.0019050799310207367 0.023072367534041405 -0.12809999287128448
-0.0012004534946754575 0.022423963993787766 -0.12449999898672104
-0.0005383339594118297 0.021973682567477226 -0.12199999392032623
9.91897177300416e-05 0.021865617483854294 -0.12139999866485596
0.0007328565698117018 0.021829593926668167 -0.12119999527931213
0.0013610486639663577 0.021739536896348 -0.12069999426603317
0.0019873124547302723 0.021685505285859108 -0.12039999663829803
-0.06226291507482529 0.02483331970870495 -0.1419999897480011
-0.06152030825614929 0.02483331970870495 -0.1419999897480011
-0.06090610846877098 0.024885784834623337 -0.14229999482631683
-0.06037332862615585 0.024973228573799133 -0.1428000032901764
-0.05996057763695717 0.02511313371360302 -0.1436000019311905
-0.05929206311702728 0.02514810860157013 -0.14379999041557312
-0.058377210050821304 0.02507815696299076 -0.14339999854564667
-0.05738616734743118 0.024973228573799133 -0.1428000032901764
-0.05636172741651535 0.024850808084011078 -0.142099991440773
-0.05546204000711441 0.02478085644543171 -0.14169999957084656
-0.03358237072825432 0.022087663412094116 -0.12629999220371246
-0.033026136457920074 0.022157618775963783 -0.1266999989748001
-0.03249125927686691 0.02224505878984928 -0.12719999253749847
-0.03177601471543312 0.02221008390188217 -0.12700000405311584
-0.025134393945336342 0.02221008390188217 -0.12700000405311584
-0.02450876496732235 0.02224505878984928 -0.12719999253749847
-0.02389979362487793 0.02229752391576767 -0.1274999976158142
-0.02326946146786213 0.02233250066637993 -0.12770000100135803
-0.022637033835053444 0.02236747555434704 -0.12789998948574066
-0.022036870941519737 0.022437430918216705 -0.1282999962568283
-0.021449174731969833 0.022524870932102203 -0.12879998981952667
-0.02095303125679493 0.022717241197824478 -0.1298999935388565
-0.020445384085178375 0.022909613326191902 -0.13099999725818634
-0.01989606022834778 0.023067006841301918 -0.13189999759197235
-0.01938100904226303 0.02327686734497547 -0.1331000030040741
-0.01872706040740013 0.02332933060824871 -0.13339999318122864
-0.018069975078105927 0.0233817957341671 -0.13369999825954437
-0.017383767291903496 0.02339928410947323 -0.13379999995231628
-0.016684042289853096 0.02339928410947323 -0.13379999995231628
-0.015984319150447845 0.02339928410947323 -0.13379999995231628
-0.015261748805642128 0.02336430735886097 -0.13359999656677246
-0.014552170410752296 0.02334681898355484 -0.13349999487400055
-0.013843637891113758 0.02332933060824871 -0.13339999318122864
-0.013146006502211094 0.02332933060824871 -0.13339999318122864
-0.012457706965506077 0.02334681898355484 -0.13349999487400055
-0.011759552173316479 0.02334681898355484 -0.13349999487400055
-0.011069683358073235 0.02336430735886097 -0.13359999656677246
-0.010378768667578697 0.0233817957341671 -0.13369999825954437
-0.00967232882976532 0.02336430735886097 -0.13359999656677246
-0.008966933935880661 0.02334681898355484 -0.13349999487400055
-0.008268779143691063 0.02334681898355484 -0.13349999487400055
-0.007576295640319586 0.02336430735886097 -0.13359999656677246
-0.006877618376165628 0.02336430735886097 -0.13359999656677246
-0.006188190542161465 0.02339928410947323 -0.13379999995231628
-0.005488466937094927 0.02339928410947323 -0.13379999995231628
-0.004788743332028389 0.02339928410947323 -0.13379999995231628
-0.004089019726961851 0.02339928410947323 -0.13379999995231628
-0.003379163797944784 0.02332933060824871 -0.13339999318122864
-0.0026654512621462345 0.023189425468444824 -0.13259999454021454
-0.0019452337874099612 0.022874636575579643 -0.13079999387264252
-0.0005400989903137088 0.021405622363090515 -0.12239999324083328
9.927142673404887e-05 0.0212482288479805 -0.12150000035762787
0.0007328565698117018 0.02119576372206211 -0.12119999527931213
0.0013610486639663577 0.021108321845531464 -0.12069999426603317
0.001984011149033904 0.021020879969000816 -0.12019999325275421
-0.06217522546648979 0.02405678480863571 -0.14180000126361847
-0.06147699058055878 0.024073749780654907 -0.14190000295639038
-0.0607777014374733 0.024090712890028954 -0.1419999897480011
-0.060288768261671066 0.024192506447434425 -0.14259999990463257
-0.05979355424642563 0.024294298142194748 -0.14319999516010284
-0.05912713706493378 0.02432822994887829 -0.14339999854564667
-0.05825508013367653 0.024277333170175552 -0.14309999346733093
-0.05706467106938362 0.024090712890028954 -0.1419999897480011
-0.05620307847857475 0.024039819836616516 -0.14169999957084656
-0.03294793888926506 0.021444128826260567 -0.12639999389648438
-0.0324401780962944 0.02154592238366604 -0.12700000405311584
-0.03177601471543312 0.02154592238366604 -0.12700000405311584
-0.030915871262550354 0.021410197019577026 -0.12619999051094055
-0.025676671415567398 0.021444128826260567 -0.12639999389648438
-0.025035439059138298 0.021461093798279762 -0.1264999955892563
-0.024412427097558975 0.021495025604963303 -0.1266999989748001
-0.023806070908904076 0.02154592238366604 -0.12700000405311584
-0.023233016952872276 0.021630747243762016 -0.1274999976158142
-0.02261933870613575 0.021681644022464752 -0.12780000269412994
-0.022071223706007004 0.02180040068924427 -0.12849999964237213
-0.02163236029446125 0.022037914022803307 -0.1298999935388565
-0.021162724122405052 0.022258464246988297 -0.13120000064373016
-0.020695097744464874 0.022495977580547333 -0.13259999454021454
-0.02012232318520546 0.022631699219346046 -0.13339999318122864
-0.019482936710119247 0.022699560970067978 -0.13379999995231628
-0.01882532797753811 0.022750455886125565 -0.13409999012947083
-0.018164582550525665 0.0228013526648283 -0.13439999520778656
-0.017474712803959846 0.022818317636847496 -0.13449999690055847
-0.016758859157562256 0.0228013526648283 -0.13439999520778656
-0.016032103449106216 0.02276742085814476 -0.13419999182224274
-0.01533028855919838 0.02276742085814476 -0.13419999182224274
-0.014617572538554668 0.022750455886125565 -0.13409999012947083
-0.01389552652835846 0.022716525942087173 -0.1339000016450882
-0.013205135241150856 0.022733492776751518 -0.1340000033378601
-0.01251369621604681 0.022750455886125565 -0.13409999012947083
-0.011821212247014046 0.02276742085814476 -0.13419999182224274
-0.011119397357106209 0.02276742085814476 -0.13419999182224274
-0.010409818962216377 0.022750455886125565 -0.13409999012947083
-0.0026734918355941772 0.022563839331269264 -0.13300000131130219
-0.0019452337874099612 0.022190600633621216 -0.13079999387264252
-0.0012380580883473158 0.021783435717225075 -0.12839999794960022
9.935312846209854e-05 0.020629795268177986 -0.12159999459981918
0.0007316472474485636 0.020528003573417664 -0.12099999934434891
0.0013565381523221731 0.020409245043992996 -0.12029999494552612
0.0019807100761681795 0.02035835012793541 -0.11999999731779099
0.0026060910895466805 0.020341385155916214 -0.11989999562501907
-0.062131378799676895 0.023298781365156174 -0.14169999957084656
-0.06147699058055878 0.023331666365265846 -0.14190000295639038
-0.0607777014374733 0.023348107933998108 -0.1419999897480011
-0.060161933302879333 0.023397434502840042 -0.14229999482631683
-0.059626538306474686 0.023479647934436798 -0.1428000032901764
-0.05879728123545647 0.023446762934327126 -0.14259999990463257
-0.05792940780520439 0.023397434502840042 -0.14229999482631683
-0.056984301656484604 0.023315224796533585 -0.14180000126361847
-0.05604442209005356 0.02323301136493683 -0.1412999927997589
-0.032312456518411636 0.02079954743385315 -0.1264999955892563
-0.03081788308918476 0.02068445086479187 -0.1257999986410141
-0.026254350319504738 0.020717335864901543 -0.12600000202655792
-0.02561573125422001 0.020733779296278954 -0.12610000371932983
-0.024976065382361412 0.020750219002366066 -0.12619999051094055
-0.024373890832066536 0.02079954743385315 -0.1264999955892563
-0.023768579587340355 0.020848874002695084 -0.12680000066757202
-0.02326946146786213 0.020996855571866035 -0.12770000100135803
-0.02276092953979969 0.021144837141036987 -0.12860000133514404
-0.02234604023396969 0.021391471847891808 -0.13009999692440033
-0.02178223803639412 0.021506566554307938 -0.13079999387264252
-0.021453067660331726 0.021868299692869186 -0.13300000131130219
-0.02086677774786949 0.021983394399285316 -0.13369999825954437
-0.020242996513843536 0.022065605968236923 -0.13419999182224274
-0.01961398869752884 0.02214781939983368 -0.1347000002861023
-0.018951673060655594 0.022197144106030464 -0.13499999046325684
-0.018272703513503075 0.022230029106140137 -0.13519999384880066
-0.017539674416184425 0.022197144106030464 -0.13499999046325684
-0.016821207478642464 0.022180704399943352 -0.13490000367164612
-0.016091836616396904 0.02214781939983368 -0.1347000002861023
-0.015387407504022121 0.02214781939983368 -0.1347000002861023
-0.01466117613017559 0.022114934399724007 -0.13449999690055847
-0.013957791961729527 0.022114934399724007 -0.13449999690055847
0.0007310425862669945 0.019878776744008064 -0.120899997651577
0.001353155355900526 0.019730795174837112 -0.11999999731779099
0.0019774087704718113 0.01969791017472744 -0.11979999393224716
0.0026039176154881716 0.01969791017472744 -0.11979999393224716
-0.0620875284075737 0.022541824728250504 -0.14159999787807465
-0.06134701520204544 0.022541824728250504 -0.14159999787807465
-0.06069210544228554 0.022573664784431458 -0.14180000126361847
-0.0600350946187973 0.022605501115322113 -0.1419999897480011
-0.05929248780012131 0.022605501115322113 -0.1419999897480011
-0.05854988098144531 0.022605501115322113 -0.1419999897480011
-0.057807277888059616 0.022605501115322113 -0.1419999897480011
-0.0569441132247448 0.02255774475634098 -0.14169999957084656
-0.055925436317920685 0.02244631014764309 -0.14100000262260437
-0.02617100067436695 0.019994724541902542 -0.12559999525547028
-0.025575103238224983 0.020042484626173973 -0.125900000333786
-0.024976065382361412 0.020090240985155106 -0.12619999051094055
-0.02443169616162777 0.02018575929105282 -0.12680000066757202
-0.023974772542715073 0.02036087028682232 -0.12789998948574066
-0.023451682180166245 0.020488226786255836 -0.12870000302791595
-0.022603681311011314 0.020949887111783028 -0.13159999251365662
-0.022198565304279327 0.02122051641345024 -0.13329999148845673
-0.020363669842481613 0.021491145715117455 -0.13499999046325684
-0.01968679390847683 0.02152298390865326 -0.13519999384880066
-0.018993787467479706 0.021538903936743736 -0.13529999554157257
-0.018272703513503075 0.02152298390865326 -0.13519999384880066
-0.017539674416184425 0.021491145715117455 -0.13499999046325684
-0.016821207478642464 0.021475227549672127 -0.13490000367164612
-0.016091836616396904 0.021443389356136322 -0.1347000002861023
-0.015387407504022121 0.021443389356136322 -0.1347000002861023
