ply
format ascii 1.0
element vertex 751
property float x
property float y
property float z
end_header
-0.07301884889602661 0.007530621252954006 -0.17059999704360962
-0.053766585886478424 0.007583592087030411 -0.17180000245571136
-0.053022000938653946 0.007605662569403648 -0.17229999601840973
-0.052241936326026917 0.007623319514095783 -0.17270000278949738
-0.037144601345062256 0.0076762898825109005 -0.17389999330043793
-0.03627684339880943 0.007685118354856968 -0.17409999668598175
-0.03536636382341385 0.007685118354856968 -0.17409999668598175
-0.03445588797330856 0.007685118354856968 -0.17409999668598175
-0.03354541212320328 0.007685118354856968 -0.17409999668598175
-0.032634932547807693 0.007685118354856968 -0.17409999668598175
-0.016427580267190933 0.00735846720635891 -0.16669999063014984
-0.015826420858502388 0.007486479356884956 -0.1695999950170517
-0.01520373672246933 0.007618905510753393 -0.17260000109672546
-0.0781155377626419 0.006692925002425909 -0.171999990940094
-0.07730583101511002 0.006700707599520683 -0.17219999432563782
-0.07640528678894043 0.006700707599520683 -0.17219999432563782
-0.07541704922914505 0.006692925002425909 -0.171999990940094
-0.07434426248073578 0.006677360273897648 -0.17159999907016754
-0.07327565550804138 0.006661795079708099 -0.1711999922990799
-0.053578805178403854 0.006661795079708099 -0.1711999922990799
-0.05299122631549835 0.006700707599520683 -0.17219999432563782
-0.052241936326026917 0.006720163859426975 -0.17270000278949738
-0.05133877694606781 0.006720163859426975 -0.17270000278949738
-0.05040641501545906 0.006716272793710232 -0.17260000109672546
-0.03894105553627014 0.006762966979295015 -0.17379999160766602
-0.03803214803338051 0.006762966979295015 -0.17379999160766602
-0.037144601345062256 0.006766858510673046 -0.17389999330043793
-0.03627684339880943 0.00677464110776782 -0.17409999668598175
-0.03536636382341385 0.00677464110776782 -0.17409999668598175
-0.03447568044066429 0.006778532173484564 -0.17419999837875366
-0.03354541212320328 0.00677464110776782 -0.17409999668598175
-0.032634932547807693 0.00677464110776782 -0.17409999668598175
-0.015481149777770042 0.006455559749156237 -0.16589999198913574
-0.014992328360676765 0.0066228825598955154 -0.17019999027252197
-0.014392245560884476 0.006759075913578272 -0.1736999899148941
-0.07825178653001785 0.005803534761071205 -0.17229999601840973
-0.07753030210733414 0.005817008204758167 -0.17270000278949738
-0.07662714272737503 0.005817008204758167 -0.17270000278949738
-0.07572399079799652 0.005817008204758167 -0.17270000278949738
-0.07464753091335297 0.005803534761071205 -0.17229999601840973
-0.07361806184053421 0.005793429911136627 -0.171999990940094
-0.07254945486783981 0.005779956933110952 -0.17159999907016754
-0.052806589752435684 0.005779956933110952 -0.17159999907016754
-0.052090685814619064 0.005800166632980108 -0.17219999432563782
-0.051219865679740906 0.005803534761071205 -0.17229999601840973
-0.05031880363821983 0.005803534761071205 -0.17229999601840973
-0.03891865164041519 0.005850690416991711 -0.1736999899148941
-0.03803214803338051 0.005854059010744095 -0.17379999160766602
-0.037144601345062256 0.005857427138835192 -0.17389999330043793
-0.03627684339880943 0.005864163860678673 -0.17409999668598175
-0.03536636382341385 0.005864163860678673 -0.17409999668598175
-0.03445588797330856 0.005864163860678673 -0.17409999668598175
-0.014648791402578354 0.005601438693702221 -0.1662999987602234
-0.014143675565719604 0.0057496423833072186 -0.17069999873638153
-0.013499385677278042 0.005857427138835192 -0.17389999330043793
-0.0777098685503006 0.00492523331195116 -0.17309999465942383
-0.07689335942268372 0.004930923692882061 -0.17329999804496765
-0.0759870707988739 0.004930923692882061 -0.17329999804496765
-0.07495079934597015 0.004922387655824423 -0.17299999296665192
-0.0739176794886589 0.004913852084428072 -0.17270000278949738
-0.07284540683031082 0.0049024708569049835 -0.17229999601840973
-0.05184868350625038 0.004876862745732069 -0.17139999568462372
-0.05101177841424942 0.004882553592324257 -0.17159999907016754
-0.05017278343439102 0.004888244438916445 -0.17180000245571136
-0.049216970801353455 0.004882553592324257 -0.17159999907016754
-0.03885143622756004 0.004933769349008799 -0.17339999973773956
-0.03803214803338051 0.0049451501108706 -0.17379999160766602
-0.037123240530490875 0.0049451501108706 -0.17379999160766602
-0.03623516857624054 0.004947995766997337 -0.17389999330043793
-0.03532573580741882 0.004947995766997337 -0.17389999330043793
-0.013351893983781338 0.004893934819847345 -0.171999990940094
-0.012589954771101475 0.004947995766997337 -0.17389999330043793
-0.0777098685503006 0.004019985441118479 -0.17309999465942383
-0.07689335942268372 0.0040246304124593735 -0.17329999804496765
-0.0760309174656868 0.004026952665299177 -0.17339999973773956
-0.07508077472448349 0.0040246304124593735 -0.17329999804496765
-0.0740460753440857 0.004017663188278675 -0.17299999296665192
-0.07284540683031082 0.004001406952738762 -0.17229999601840973
-0.05154618248343468 0.0039572822861373425 -0.1703999936580658
-0.050744231790304184 0.003964249510318041 -0.17069999873638153
-0.0498807393014431 0.0039665717631578445 -0.17080000042915344
-0.04895883798599243 0.003964249510318041 -0.17069999873638153
-0.04775639995932579 0.003938703332096338 -0.1695999950170517
-0.03957482427358627 0.00400837417691946 -0.17260000109672546
-0.0387842170894146 0.004019985441118479 -0.17309999465942383
-0.03796650096774101 0.004029274918138981 -0.17350000143051147
-0.037123240530490875 0.004036242142319679 -0.17379999160766602
-0.03621433302760124 0.004036242142319679 -0.17379999160766602
-0.03532573580741882 0.004038564395159483 -0.17389999330043793
-0.013165588490664959 0.003938703332096338 -0.1695999950170517
-0.01247411873191595 0.004001406952738762 -0.17229999601840973
-0.011680522933602333 0.004038564395159483 -0.17389999330043793
-0.07748540490865707 0.0031057412270456553 -0.17260000109672546
-0.07676024734973907 0.0031129387207329273 -0.17299999296665192
-0.07585552334785461 0.0031129387207329273 -0.17299999296665192
-0.07495079934597015 0.0031129387207329273 -0.17299999296665192
-0.0740460753440857 0.0031129387207329273 -0.17299999296665192
-0.07297223806381226 0.0031057412270456553 -0.17260000109672546
-0.07194434106349945 0.0031003430485725403 -0.17229999601840973
-0.04970551282167435 0.0030625557992607355 -0.17019999027252197
-0.04870070889592171 0.0030553583055734634 -0.16979999840259552
-0.04767192527651787 0.0030463612638413906 -0.16929998993873596
-0.04534951597452164 0.0029527931474149227 -0.16409999132156372
-0.039597753435373306 0.0031075405422598124 -0.17270000278949738
-0.0387842170894146 0.0031147380359470844 -0.17309999465942383
-0.03794461861252785 0.0031201362144201994 -0.17339999973773956
-0.037101879715919495 0.0031255341600626707 -0.1736999899148941
-0.012336562387645245 0.0030661546625196934 -0.1703999936580658
-0.011640222743153572 0.0031183368992060423 -0.17329999804496765
-0.07712626457214355 0.002192896790802479 -0.17180000245571136
-0.07640528678894043 0.0021980025339871645 -0.17219999432563782
-0.07554859668016434 0.002199278911575675 -0.17229999601840973
-0.07464753091335297 0.002199278911575675 -0.17229999601840973
-0.0737464651465416 0.002199278911575675 -0.17229999601840973
-0.07284540683031082 0.002199278911575675 -0.17229999601840973
-0.07190258800983429 0.0021980025339871645 -0.17219999432563782
-0.04958869889378548 0.002167368307709694 -0.16979999840259552
-0.048585981130599976 0.002162262564525008 -0.16939999163150787
-0.04679902270436287 0.00212141708470881 -0.16619999706745148
-0.045211341232061386 0.0020882301032543182 -0.16359999775886536
-0.04384063929319382 0.002063977997750044 -0.16169999539852142
-0.040477458387613297 0.00220310827717185 -0.17260000109672546
-0.03966653719544411 0.0022082137875258923 -0.17299999296665192
-0.038829028606414795 0.0022120431531220675 -0.17329999804496765
-0.03792273625731468 0.0022120431531220675 -0.17329999804496765
-0.03703780099749565 0.002213319530710578 -0.17339999973773956
-0.012278644368052483 0.002164815552532673 -0.1695999950170517
-0.011566338129341602 0.0021980025339871645 -0.17219999432563782
-0.07667732983827591 0.0012869129423052073 -0.17080000042915344
-0.07596158981323242 0.0012899268185719848 -0.1711999922990799
-0.07515396922826767 0.0012914336984977126 -0.17139999568462372
-0.074430912733078 0.001294447691179812 -0.17180000245571136
-0.07353246212005615 0.001294447691179812 -0.17180000245571136
-0.0726340189576149 0.001294447691179812 -0.17180000245571136
-0.07173556834459305 0.001294447691179812 -0.17180000245571136
-0.048442576080560684 0.0012725972337648273 -0.1688999980688095
-0.045266613364219666 0.001234170631505549 -0.16380000114440918
-0.04386775195598602 0.0012191013665869832 -0.16179999709129333
-0.040594715625047684 0.0013042425271123648 -0.17309999465942383
-0.03973532095551491 0.0013057495234534144 -0.17329999804496765
-0.038829028606414795 0.0013057495234534144 -0.17329999804496765
-0.03792273625731468 0.0013057495234534144 -0.17329999804496765
-0.011485735885798931 0.001288419822230935 -0.17099998891353607
-0.07569536566734314 0.0003932324470952153 -0.17059999704360962
-0.07489088922739029 0.00039369345176965 -0.17080000042915344
-0.0740843117237091 0.0003941544273402542 -0.17099998891353607
-0.07336125522851944 0.0003950764366891235 -0.17139999568462372
-0.07246489822864532 0.0003950764366891235 -0.17139999568462372
-0.07156854122877121 0.0003950764366891235 -0.17139999568462372
-0.0706721842288971 0.0003950764366891235 -0.17139999568462372
-0.046967968344688416 0.0003844734455924481 -0.16679999232292175
-0.04403042420744896 0.0003743314591702074 -0.1623999923467636
-0.040665071457624435 0.0003996864543296397 -0.17339999973773956
-0.03975825011730194 0.0003996864543296397 -0.17339999973773956
-0.03885143622756004 0.0003996864543296397 -0.17339999973773956
-0.03792273625731468 0.00039945595199242234 -0.17329999804496765
-0.011526037007570267 0.0003955374413635582 -0.17159999907016754
-0.010746316984295845 0.000399916956666857 -0.17350000143051147
-0.07551788538694382 -0.0004977713106200099 -0.17019999027252197
-0.0747155025601387 -0.0004983562394045293 -0.1703999936580658
-0.07395434379577637 -0.0004992336616851389 -0.17069999873638153
-0.07319004833698273 -0.0005001110257580876 -0.17099998891353607
-0.07238034158945084 -0.0005006959545426071 -0.1711999922990799
-0.07148502767086029 -0.0005006959545426071 -0.1711999922990799
-0.07058972120285034 -0.0005006959545426071 -0.1711999922990799
-0.046770863234996796 -0.00048578035784885287 -0.16609999537467957
-0.045764047652482986 -0.00048431806499138474 -0.1656000018119812
-0.0442202091217041 -0.0004770064551848918 -0.1630999892950058
-0.041595861315727234 -0.0005074226064607501 -0.17350000143051147
-0.04068852216005325 -0.0005074226064607501 -0.17350000143051147
-0.039781179279088974 -0.0005074226064607501 -0.17350000143051147
-0.03885143622756004 -0.0005071301711723208 -0.17339999973773956
-0.03794461861252785 -0.0005071301711723208 -0.17339999973773956
-0.010764897800981998 -0.0005082999705336988 -0.17379999160766602
-0.07462780177593231 -0.0013878530589863658 -0.17019999027252197
-0.07382436841726303 -0.0013894839212298393 -0.1703999936580658
-0.07306165248155594 -0.0013919302728027105 -0.17069999873638153
-0.07229578495025635 -0.00139437650796026 -0.17099998891353607
-0.07140152156352997 -0.00139437650796026 -0.17099998891353607
-0.07050725072622299 -0.00139437650796026 -0.17099998891353607
-0.06961298733949661 -0.00139437650796026 -0.17099998891353607
-0.045764047652482986 -0.00135034357663244 -0.1656000018119812
-0.04489802196621895 -0.00135034357663244 -0.1656000018119812
-0.04157188907265663 -0.0014139467384666204 -0.17339999973773956
-0.04073542356491089 -0.0014163929736241698 -0.1736999899148941
-0.03982703387737274 -0.0014163929736241698 -0.1736999899148941
-0.03887384012341499 -0.0014147622277960181 -0.17350000143051147
-0.010783479548990726 -0.0014196546981111169 -0.17409999668598175
-0.07462780177593231 -0.0022779346909374 -0.17019999027252197
-0.07378105074167252 -0.0022792730014771223 -0.17029999196529388
-0.07301884889602661 -0.002283288398757577 -0.17059999704360962
-0.07216895371675491 -0.0022846267092972994 -0.17069999873638153
-0.07127625495195389 -0.0022846267092972994 -0.17069999873638153
-0.07038356363773346 -0.0022846267092972994 -0.17069999873638153
-0.06949086487293243 -0.0022846267092972994 -0.17069999873638153
-0.045542966574430466 -0.002205661963671446 -0.1648000031709671
-0.04497935622930527 -0.0022203840781003237 -0.16589999198913574
-0.04429788887500763 -0.002229752717539668 -0.16659998893737793
-0.04426075890660286 -0.0022725812159478664 -0.16979999840259552
-0.041595861315727234 -0.0023221017327159643 -0.17350000143051147
-0.04068852216005325 -0.0023221017327159643 -0.17350000143051147
-0.03982703387737274 -0.002324778353795409 -0.1736999899148941
-0.03891865164041519 -0.002324778353795409 -0.1736999899148941
-0.010802061296999454 -0.0023341472260653973 -0.17440000176429749
-0.0737377256155014 -0.0031680166721343994 -0.17019999027252197
-0.07289044559001923 -0.003169878153130412 -0.17029999196529388
-0.07204211503267288 -0.003171739401295781 -0.1703999936580658
-0.07115098834037781 -0.003171739401295781 -0.1703999936580658
-0.07034232467412949 -0.003175462130457163 -0.17059999704360962
-0.06945015490055084 -0.003175462130457163 -0.17059999704360962
-0.04481668397784233 -0.0030768106225878 -0.16529999673366547
-0.04432447627186775 -0.0031028694938868284 -0.16669999063014984
-0.04415649175643921 -0.003153125988319516 -0.16939999163150787
-0.04154791310429573 -0.0032257186248898506 -0.17329999804496765
-0.040665071457624435 -0.0032275801058858633 -0.17339999973773956
-0.039781179279088974 -0.0032294413540512323 -0.17350000143051147
-0.03891865164041519 -0.0032331638503819704 -0.1736999899148941
-0.010746316984295845 -0.0032294413540512323 -0.17350000143051147
-0.07276204228401184 -0.004053330048918724 -0.17000000178813934
-0.0719575583934784 -0.004058098420500755 -0.17019999027252197
-0.07106747478246689 -0.004058098420500755 -0.17019999027252197
-0.07021863013505936 -0.004060482606291771 -0.17029999196529388
-0.06936873495578766 -0.0040628667920827866 -0.1703999936580658
-0.06847760826349258 -0.0040628667920827866 -0.1703999936580658
-0.044244710355997086 -0.0039674947038292885 -0.1664000004529953
-0.04415649175643921 -0.004039024002850056 -0.16939999163150787
-0.04378146305680275 -0.004086710046976805 -0.17139999568462372
-0.04311029240489006 -0.004108169116079807 -0.17229999601840973
-0.042282722890377045 -0.0041153221391141415 -0.17260000109672546
-0.041475988924503326 -0.004124858882278204 -0.17299999296665192
-0.04064161702990532 -0.0041320123709738255 -0.17329999804496765
-0.039781179279088974 -0.004136780742555857 -0.17350000143051147
-0.03891865164041519 -0.004141549114137888 -0.1736999899148941
-0.010616245679557323 -0.004086710046976805 -0.17139999568462372
-0.0718730092048645 -0.004942365922033787 -0.17000000178813934
-0.07106747478246689 -0.004948179703205824 -0.17019999027252197
-0.07017739862203598 -0.004948179703205824 -0.17019999027252197
-0.06928731501102448 -0.004948179703205824 -0.17019999027252197
-0.06843741983175278 -0.004951087292283773 -0.17029999196529388
-0.04443083703517914 -0.004858054686337709 -0.1670999974012375
-0.044078294187784195 -0.004916200414299965 -0.16910000145435333
-0.04373037815093994 -0.004977252800017595 -0.1711999922990799
-0.04298518970608711 -0.004994696471840143 -0.17180000245571136
-0.0421847328543663 -0.005006325431168079 -0.17219999432563782
-0.04140406474471092 -0.005020861979573965 -0.17270000278949738
-0.04057126119732857 -0.005029583815485239 -0.17299999296665192
-0.03973532095551491 -0.005038305651396513 -0.17329999804496765
-0.03885143622756004 -0.005041212774813175 -0.17339999973773956
-0.07098396867513657 -0.005831401329487562 -0.17000000178813934
-0.07017739862203598 -0.00583826145157218 -0.17019999027252197
-0.06928731501102448 -0.00583826145157218 -0.17019999027252197
-0.06843741983175278 -0.005841691978275776 -0.17029999196529388
-0.06754681468009949 -0.005841691978275776 -0.17029999196529388
-0.04429788887500763 -0.005714773200452328 -0.16659998893737793
-0.04392189532518387 -0.005779947619885206 -0.16849999129772186
-0.04357711598277092 -0.00585198262706399 -0.17059999704360962
-0.04208674281835556 -0.005893145687878132 -0.17180000245571136
-0.041284192353487015 -0.005906866397708654 -0.17219999432563782
-0.040477458387613297 -0.005920587573200464 -0.17260000109672546
-0.03966653719544411 -0.005934308283030987 -0.17299999296665192
-0.038829028606414795 -0.0059445989318192005 -0.17329999804496765
-0.07017739862203598 -0.006728343199938536 -0.17019999027252197
-0.06928731501102448 -0.006728343199938536 -0.17019999027252197
-0.06847760826349258 -0.006736249662935734 -0.1703999936580658
-0.06758648157119751 -0.006736249662935734 -0.1703999936580658
-0.06669535487890244 -0.006736249662935734 -0.1703999936580658
-0.04403199627995491 -0.0065464964136481285 -0.1656000018119812
-0.04379156231880188 -0.006641373038291931 -0.1679999977350235
-0.043474942445755005 -0.006728343199938536 -0.17019999027252197
-0.042734984308481216 -0.00675206258893013 -0.17080000042915344
-0.04198875278234482 -0.006775781977921724 -0.17139999568462372
-0.04118829593062401 -0.0067915949039161205 -0.17180000245571136
-0.04038365185260773 -0.006807407364249229 -0.17219999432563782
-0.039597753435373306 -0.006827173754572868 -0.17270000278949738
-0.011976062320172787 -0.007048552390187979 -0.17829999327659607
-0.06932802498340607 -0.007622901815921068 -0.17029999196529388
-0.06847760826349258 -0.00762737775221467 -0.1703999936580658
-0.06766580790281296 -0.007636330556124449 -0.17059999704360962
-0.04358303174376488 -0.007484140805900097 -0.1671999990940094
-0.04337276890873909 -0.007600521203130484 -0.16979999840259552
-0.04268494248390198 -0.007636330556124449 -0.17059999704360962
-0.04189075902104378 -0.007654234766960144 -0.17099998891353607
-0.041140343993902206 -0.007681092247366905 -0.17159999907016754
-0.04038365185260773 -0.007707948796451092 -0.17219999432563782
-0.03957482427358627 -0.007725853938609362 -0.17260000109672546
-0.011714108288288116 -0.007806424517184496 -0.17440000176429749
-0.04342663288116455 -0.00832853838801384 -0.16659998893737793
-0.04329613968729973 -0.008473513647913933 -0.16949999332427979
-0.04263490065932274 -0.008518505841493607 -0.1703999936580658
-0.041841767728328705 -0.008538502268493176 -0.17080000042915344
-0.041140343993902206 -0.008578495122492313 -0.17159999907016754
-0.04038365185260773 -0.008608490228652954 -0.17219999432563782
-0.039597753435373306 -0.008633485995233059 -0.17270000278949738
-0.025356542319059372 -0.008403525687754154 -0.1680999994277954
-0.02456481009721756 -0.008433520793914795 -0.16869999468326569
-0.0221259742975235 -0.00851350650191307 -0.17029999196529388
-0.011888745240867138 -0.008848448283970356 -0.1770000010728836
-0.043193966150283813 -0.00933784618973732 -0.16910000145435333
-0.04263490065932274 -0.009409633465111256 -0.1703999936580658
-0.041841767728328705 -0.009431721642613411 -0.17080000042915344
-0.041140343993902206 -0.009475897997617722 -0.17159999907016754
-0.04038365185260773 -0.009509030729532242 -0.17219999432563782
-0.039597753435373306 -0.009536641649901867 -0.17270000278949738
-0.02687278762459755 -0.009199793450534344 -0.16659998893737793
-0.025939105078577995 -0.009177705273032188 -0.16619999706745148
-0.02505485713481903 -0.009172183461487293 -0.16609999537467957
-0.024157093837857246 -0.009161138907074928 -0.16589999198913574
-0.0227192435413599 -0.009282625280320644 -0.1680999994277954
-0.022009043022990227 -0.00935441255569458 -0.16939999163150787
-0.02118549309670925 -0.009382023476064205 -0.16990000009536743
-0.020308926701545715 -0.0093875452876091 -0.17000000178813934
-0.013569250702857971 -0.009652605280280113 -0.17479999363422394
-0.012741990387439728 -0.009718869812786579 -0.17599999904632568
-0.01182157639414072 -0.009718869812786579 -0.17599999904632568
-0.06153775006532669 -0.010040823370218277 -0.16609999537467957
-0.04314287751913071 -0.010210085660219193 -0.1688999980688095
-0.04263490065932274 -0.010300761088728905 -0.1703999936580658
-0.041841767728328705 -0.010324941016733646 -0.17080000042915344
-0.041140343993902206 -0.010373301804065704 -0.17159999907016754
-0.04038365185260773 -0.01040957123041153 -0.17219999432563782
-0.039506036788225174 -0.010415616445243359 -0.17229999601840973
-0.03858256712555885 -0.01040957123041153 -0.17219999432563782
-0.028529418632388115 -0.010040823370218277 -0.16609999537467957
-0.027660777792334557 -0.010040823370218277 -0.16609999537467957
-0.026792136952280998 -0.010040823370218277 -0.16609999537467957
-0.025892281904816628 -0.010028733871877193 -0.16589999198913574
-0.02497943677008152 -0.01001059915870428 -0.1656000018119812
-0.024069728329777718 -0.009992463514208794 -0.16529999673366547
-0.021671243011951447 -0.010083138942718506 -0.16679999232292175
-0.020998449996113777 -0.010179859586060047 -0.16839998960494995
-0.020201409235596657 -0.010222175158560276 -0.16910000145435333
-0.019351348280906677 -0.010240309871733189 -0.16939999163150787
-0.014367389492690563 -0.010482112877070904 -0.17339999973773956
-0.013545962050557137 -0.0105486074462533 -0.1744999885559082
-0.012662352062761784 -0.010572788305580616 -0.17489999532699585
-0.06549528241157532 -0.011139344424009323 -0.1695999950170517
-0.06238986551761627 -0.011060528457164764 -0.16839998960494995
-0.06150919944047928 -0.011060528457164764 -0.16839998960494995
-0.060484521090984344 -0.011034256778657436 -0.1679999977350235
-0.0425848588347435 -0.011178752407431602 -0.17019999027252197
-0.041841767728328705 -0.011218161322176456 -0.17080000042915344
-0.0410923957824707 -0.011257569305598736 -0.17139999568462372
-0.04028984531760216 -0.011283841915428638 -0.17180000245571136
-0.03939139470458031 -0.011283841915428638 -0.17180000245571136
-0.03835850954055786 -0.011244433000683784 -0.1711999922990799
-0.029327260330319405 -0.010883192531764507 -0.16569998860359192
-0.02849506586790085 -0.010896327905356884 -0.16589999198913574
-0.027660777792334557 -0.010909464210271835 -0.16609999537467957
-0.026792136952280998 -0.010909464210271835 -0.16609999537467957
-0.025861067697405815 -0.010883192531764507 -0.16569998860359192
-0.024934183806180954 -0.01085692085325718 -0.16529999673366547
-0.020711654797196388 -0.010909464210271835 -0.16609999537467957
-0.019962478429079056 -0.010975144803524017 -0.1670999974012375
-0.019191421568393707 -0.011034256778657436 -0.1679999977350235
-0.01836734637618065 -0.011067096143960953 -0.16849999129772186
-0.015150884166359901 -0.011296977289021015 -0.171999990940094
-0.014392245560884476 -0.01140863262116909 -0.1736999899148941
-0.013522674329578876 -0.011441473849117756 -0.17419999837875366
-0.06526358425617218 -0.01198374293744564 -0.16899999976158142
-0.06460834294557571 -0.0120262885466218 -0.1695999950170517
-0.06283444911241531 -0.0120262885466218 -0.1695999950170517
-0.06194750964641571 -0.0120262885466218 -0.1695999950170517
-0.061024561524391174 -0.012019197456538677 -0.16949999332427979
-0.04250980168581009 -0.012047561816871166 -0.16990000009536743
-0.041792772710323334 -0.012097198516130447 -0.17059999704360962
-0.040948547422885895 -0.012111380696296692 -0.17080000042915344
-0.04010222852230072 -0.012125561945140362 -0.17099998891353607
-0.039162106812000275 -0.012111380696296692 -0.17080000042915344
-0.038224074989557266 -0.012097198516130447 -0.17059999704360962
-0.0301755890250206 -0.011742650531232357 -0.1656000018119812
-0.02936265990138054 -0.01176392287015915 -0.16589999198913574
-0.028546594083309174 -0.011785196140408516 -0.16619999706745148
-0.027694085612893105 -0.011792287230491638 -0.1662999987602234
-0.02682439796626568 -0.011792287230491638 -0.1662999987602234
-0.025892281904816628 -0.01176392287015915 -0.16589999198913574
-0.020537083968520164 -0.011678831651806831 -0.1647000014781952
-0.01974744349718094 -0.01172137726098299 -0.16529999673366547
-0.018928680568933487 -0.011749740689992905 -0.16569998860359192
-0.018105734139680862 -0.011778105050325394 -0.16609999537467957
-0.017392756417393684 -0.011884468607604504 -0.16759999096393585
-0.015929067507386208 -0.01210428960621357 -0.17069999873638153
-0.01520373672246933 -0.012239018455147743 -0.17260000109672546
-0.014392245560884476 -0.012317018583416939 -0.1736999899148941
-0.06437977403402328 -0.012867549434304237 -0.16899999976158142
-0.06372139602899551 -0.012913232669234276 -0.1695999950170517
-0.06290855258703232 -0.012928460724651814 -0.16979999840259552
-0.06202056258916855 -0.012928460724651814 -0.16979999840259552
-0.061168573796749115 -0.01293607521802187 -0.16990000009536743
-0.06024458259344101 -0.012928460724651814 -0.16979999840259552
-0.04171928018331528 -0.01296653039753437 -0.17029999196529388
-0.04090059921145439 -0.01298937201499939 -0.17059999704360962
-0.04000842571258545 -0.01298937201499939 -0.17059999704360962
-0.03907039016485214 -0.012974143959581852 -0.1703999936580658
-0.03808964416384697 -0.012943688780069351 -0.17000000178813934
-0.030266698449850082 -0.012646744959056377 -0.16609999537467957
-0.02952195145189762 -0.012700042687356472 -0.16679999232292175
-0.02878705784678459 -0.012760953977704048 -0.16759999096393585
-0.02794387936592102 -0.012776182033121586 -0.16779999434947968
-0.027034088969230652 -0.012760953977704048 -0.16759999096393585
-0.019412944093346596 -0.012372643686830997 -0.16249999403953552
-0.01864309422671795 -0.012425940483808517 -0.1631999909877777
-0.01799672842025757 -0.012570605613291264 -0.16509999334812164
-0.0172682274132967 -0.012669587507843971 -0.1664000004529953
-0.016742927953600883 -0.01293607521802187 -0.16990000009536743
-0.016013052314519882 -0.013065511360764503 -0.17159999907016754
-0.015212545171380043 -0.013149265199899673 -0.17270000278949738
-0.06279740482568741 -0.013792039826512337 -0.16949999332427979
-0.06194750964641571 -0.013800176791846752 -0.1695999950170517
-0.06113257259130478 -0.013816450722515583 -0.16979999840259552
-0.06024458259344101 -0.013816450722515583 -0.16979999840259552
-0.05935659259557724 -0.013816450722515583 -0.16979999840259552
-0.05846860259771347 -0.013816450722515583 -0.16979999840259552
-0.04082867503166199 -0.013857134617865086 -0.17029999196529388
-0.03991461917757988 -0.01384899765253067 -0.17019999027252197
-0.03897867724299431 -0.013832724653184414 -0.17000000178813934
-0.030521804466843605 -0.013629301451146603 -0.16749998927116394
-0.029858233407139778 -0.013726944103837013 -0.16869999468326569
-0.0290103480219841 -0.013743218965828419 -0.1688999980688095
-0.028127064928412437 -0.013743218965828419 -0.1688999980688095
-0.019317371770739555 -0.01315736211836338 -0.16169999539852142
-0.018506012856960297 -0.013181773014366627 -0.16200000047683716
-0.01773511804640293 -0.01323873084038496 -0.16269999742507935
-0.01724747195839882 -0.013523521833121777 -0.16619999706745148
-0.01664438284933567 -0.013743218965828419 -0.1688999980688095
-0.061024561524391174 -0.01467846054583788 -0.16949999332427979
-0.06017361953854561 -0.014687119983136654 -0.1695999950170517
-0.05928667634725571 -0.014687119983136654 -0.1695999950170517
-0.058399733155965805 -0.014687119983136654 -0.1695999950170517
-0.0575127899646759 -0.014687119983136654 -0.1695999950170517
-0.040804699063301086 -0.014739079400897026 -0.17019999027252197
-0.03991461917757988 -0.014739079400897026 -0.17019999027252197
-0.03897867724299431 -0.014721760526299477 -0.17000000178813934
-0.03081335872411728 -0.014643821865320206 -0.16910000145435333
-0.03001752309501171 -0.014687119983136654 -0.1695999950170517
-0.02913057990372181 -0.014687119983136654 -0.1695999950170517
-0.018460318446159363 -0.01399433147162199 -0.1615999937057495
-0.017724215984344482 -0.01408093050122261 -0.16259999573230743
-0.01730973646044731 -0.014444644562900066 -0.16679999232292175
-0.060067180544137955 -0.015546515583992004 -0.16929998993873596
-0.05925171822309494 -0.015564881265163422 -0.16949999332427979
-0.058399733155965805 -0.01557406410574913 -0.1695999950170517
-0.0575127899646759 -0.01557406410574913 -0.1695999950170517
-0.056625846773386 -0.01557406410574913 -0.1695999950170517
-0.05570603534579277 -0.015564881265163422 -0.16949999332427979
-0.03145400434732437 -0.01540877390652895 -0.16779999434947968
-0.030940912663936615 -0.015592430718243122 -0.16979999840259552
-0.03008832037448883 -0.01561079639941454 -0.17000000178813934
-0.029199285432696342 -0.01561079639941454 -0.17000000178813934
-0.01796402782201767 -0.015133289620280266 -0.1648000031709671
-0.05974786356091499 -0.01634453795850277 -0.16839998960494995
-0.05911189690232277 -0.016412479802966118 -0.16910000145435333
-0.05833086371421814 -0.016441596671938896 -0.16939999163150787
-0.057478878647089005 -0.01645130291581154 -0.16949999332427979
-0.05659245699644089 -0.01645130291581154 -0.16949999332427979
-0.0557388998568058 -0.016461007297039032 -0.1695999950170517
-0.05481961369514465 -0.01645130291581154 -0.16949999332427979
-0.053933195769786835 -0.01645130291581154 -0.16949999332427979
-0.03169768676161766 -0.016412479802966118 -0.16910000145435333
-0.031013797968626022 -0.016519242897629738 -0.17019999027252197
-0.0301591157913208 -0.016538653522729874 -0.1703999936580658
-0.029199285432696342 -0.016499832272529602 -0.17000000178813934
-0.058762326836586 -0.01719452068209648 -0.1680999994277954
-0.058193132281303406 -0.017286580055952072 -0.16899999976158142
-0.057444967329502106 -0.01732749491930008 -0.16939999163150787
-0.05659245699644089 -0.017337722703814507 -0.16949999332427979
-0.05570603534579277 -0.017337722703814507 -0.16949999332427979
-0.0548519566655159 -0.017347952350974083 -0.1695999950170517
-0.053933195769786835 -0.017337722703814507 -0.16949999332427979
-0.05304677411913872 -0.017337722703814507 -0.16949999332427979
-0.031791411340236664 -0.017347952350974083 -0.1695999950170517
-0.03103202022612095 -0.01741955243051052 -0.17029999196529388
-0.0301591157913208 -0.017429782077670097 -0.1703999936580658
-0.02923363447189331 -0.017409324645996094 -0.17019999027252197
-0.056458909064531326 -0.01818113774061203 -0.16910000145435333
-0.05570603534579277 -0.018224144354462624 -0.16949999332427979
-0.0548519566655159 -0.018234895542263985 -0.1695999950170517
-0.053965013474226 -0.018234895542263985 -0.1695999950170517
-0.053078070282936096 -0.018234895542263985 -0.1695999950170517
-0.052191127091646194 -0.018234895542263985 -0.1695999950170517
-0.031828902661800385 -0.018256399780511856 -0.16979999840259552
-0.03103202022612095 -0.01831015758216381 -0.17029999196529388
-0.030141416937112808 -0.01831015758216381 -0.17029999196529388
-0.05612502992153168 -0.01895271986722946 -0.1680999994277954
-0.055541712790727615 -0.019054193049669266 -0.16899999976158142
-0.05481961369514465 -0.01911056414246559 -0.16949999332427979
-0.053965013474226 -0.019121840596199036 -0.1695999950170517
-0.05314066261053085 -0.019144389778375626 -0.16979999840259552
-0.052252672612667084 -0.019144389778375626 -0.16979999840259552
-0.051364682614803314 -0.019144389778375626 -0.16979999840259552
-0.050476688891649246 -0.019144389778375626 -0.16979999840259552
-0.031828902661800385 -0.019144389778375626 -0.16979999840259552
-0.031013797968626022 -0.019189488142728806 -0.17019999027252197
-0.030123716220259666 -0.019189488142728806 -0.17019999027252197
-0.05747716501355171 -0.01911216415464878 -0.16200000047683716
-0.055690985172986984 -0.019678449258208275 -0.16679999232292175
-0.05521306395530701 -0.019820021465420723 -0.1679999977350235
-0.05465790629386902 -0.019937997683882713 -0.16899999976158142
-0.053933195769786835 -0.01999698579311371 -0.16949999332427979
-0.053078070282936096 -0.020008783787488937 -0.1695999950170517
-0.052252672612667084 -0.020032379776239395 -0.16979999840259552
-0.05139493569731712 -0.020044177770614624 -0.16990000009536743
-0.05050641670823097 -0.020044177770614624 -0.16990000009536743
-0.04964710772037506 -0.020055975764989853 -0.17000000178813934
-0.048758070915937424 -0.020055975764989853 -0.17000000178813934
-0.03095913492143154 -0.020044177770614624 -0.16990000009536743
-0.030070621520280838 -0.020044177770614624 -0.16990000009536743
-0.029182108119130135 -0.020044177770614624 -0.16990000009536743
-0.028276942670345306 -0.020032379776239395 -0.16979999840259552
-0.027356691658496857 -0.020008783787488937 -0.1695999950170517
-0.026438534259796143 -0.01998518779873848 -0.16939999163150787
-0.06369543075561523 -0.019528143107891083 -0.15850000083446503
-0.06282687187194824 -0.01951582171022892 -0.15839999914169312
-0.06195935606956482 -0.019503500312566757 -0.1582999974489212
-0.06113150715827942 -0.019503500312566757 -0.1582999974489212
-0.06034175306558609 -0.01951582171022892 -0.15839999914169312
-0.05955095216631889 -0.019528143107891083 -0.15850000083446503
-0.058833200484514236 -0.019565103575587273 -0.15879999101161957
-0.05818536877632141 -0.019626706838607788 -0.15929999947547913
-0.05764031037688255 -0.019725272431969643 -0.16009999811649323
-0.0571933276951313 -0.019860798493027687 -0.16120000183582306
-0.056595008820295334 -0.01994704268872738 -0.16189999878406525
-0.05602380260825157 -0.020045606419444084 -0.16269999742507935
-0.05585116147994995 -0.020292019471526146 -0.1647000014781952
-0.055290333926677704 -0.020402904599905014 -0.1656000018119812
-0.05465435981750488 -0.020489148795604706 -0.1662999987602234
-0.05426980182528496 -0.020673956722021103 -0.16779999434947968
-0.05377409979701042 -0.02082180418074131 -0.16899999976158142
-0.05304677411913872 -0.020883407443761826 -0.16949999332427979
-0.052191127091646194 -0.02089572697877884 -0.1695999950170517
-0.051364682614803314 -0.020920369774103165 -0.16979999840259552
-0.050476688891649246 -0.020920369774103165 -0.16979999840259552
-0.04964710772037506 -0.02094501070678234 -0.17000000178813934
-0.048758070915937424 -0.02094501070678234 -0.17000000178813934
-0.047925349324941635 -0.020969649776816368 -0.17019999027252197
-0.04709053784608841 -0.020994292572140694 -0.1703999936580658
-0.030776914209127426 -0.020809484645724297 -0.1688999980688095
-0.029929030686616898 -0.020834125578403473 -0.16910000145435333
-0.0291134025901556 -0.020883407443761826 -0.16949999332427979
-0.028243636712431908 -0.02089572697877884 -0.1695999950170517
-0.027356691658496857 -0.02089572697877884 -0.1695999950170517
-0.026469748467206955 -0.02089572697877884 -0.1695999950170517
-0.02556771971285343 -0.020883407443761826 -0.16949999332427979
-0.024623055011034012 -0.020834125578403473 -0.16910000145435333
-0.06468715518712997 -0.02040841057896614 -0.15889999270439148
-0.06365524232387543 -0.020344194024801254 -0.15839999914169312
-0.06282687187194824 -0.020344194024801254 -0.15839999914169312
-0.06195935606956482 -0.020331349223852158 -0.1582999974489212
-0.06113150715827942 -0.020331349223852158 -0.1582999974489212
-0.06030365824699402 -0.020331349223852158 -0.1582999974489212
-0.059513382613658905 -0.020344194024801254 -0.15839999914169312
-0.052858997136354446 -0.02169276773929596 -0.1688999980688095
-0.05212957784533501 -0.021756984293460846 -0.16939999163150787
-0.05130418390035629 -0.02178267203271389 -0.1695999950170517
-0.050476688891649246 -0.021808359771966934 -0.16979999840259552
-0.04961790144443512 -0.02182120271027088 -0.16990000009536743
-0.048758070915937424 -0.02183404751121998 -0.17000000178813934
-0.047925349324941635 -0.021859731525182724 -0.17019999027252197
-0.04706290364265442 -0.02187257632613182 -0.17029999196529388
-0.030266698449850082 -0.02133314684033394 -0.16609999537467957
-0.02950425073504448 -0.021410208195447922 -0.16669999063014984
-0.028872940689325333 -0.021590018644928932 -0.1680999994277954
-0.028160370886325836 -0.021718455478549004 -0.16910000145435333
-0.027356691658496857 -0.02178267203271389 -0.1695999950170517
-0.026500962674617767 -0.021808359771966934 -0.16979999840259552
-0.025612972676753998 -0.021808359771966934 -0.16979999840259552
-0.02472498267889023 -0.021808359771966934 -0.16979999840259552
-0.0238089170306921 -0.02178267203271389 -0.1695999950170517
-0.0677720159292221 -0.021426530554890633 -0.16030000150203705
-0.06680843979120255 -0.02138642966747284 -0.1599999964237213
-0.06572431325912476 -0.02130623161792755 -0.15940000116825104
-0.06468715518712997 -0.021239398047327995 -0.15889999270439148
-0.06369543075561523 -0.02118593268096447 -0.15850000083446503
-0.06278720498085022 -0.021159199997782707 -0.1582999974489212
-0.06195935606956482 -0.021159199997782707 -0.1582999974489212
-0.029902258887887 -0.02193445712327957 -0.16409999132156372
-0.02923876792192459 -0.022081488743424416 -0.16519999504089355
-0.02849506586790085 -0.022175053134560585 -0.16589999198913574
-0.027843963354825974 -0.02234881930053234 -0.1671999990940094
-0.024739544838666916 -0.022709716111421585 -0.16990000009536743
-0.02383699268102646 -0.022696349769830704 -0.16979999840259552
-0.02294900454580784 -0.022696349769830704 -0.16979999840259552
-0.06925234198570251 -0.022473180666565895 -0.16179999709129333
-0.06832163035869598 -0.022445401176810265 -0.1615999937057495
-0.06730950623750687 -0.022389844059944153 -0.16120000183582306
-0.0661778599023819 -0.022292615845799446 -0.16049998998641968
-0.06513496488332748 -0.02222316898405552 -0.1599999964237213
-0.06393654644489288 -0.02209816314280033 -0.1590999960899353
-0.023851031437516212 -0.02359822764992714 -0.16990000009536743
-0.022976035252213478 -0.023612117394804955 -0.17000000178813934
-0.016143694519996643 -0.024028802290558815 -0.17299999296665192
-0.015265396796166897 -0.02407046966254711 -0.17329999804496765
-0.014367389492690563 -0.024084359407424927 -0.17339999973773956
-0.013460572808980942 -0.024084359407424927 -0.17339999973773956
-0.07151465862989426 -0.02350669354200363 -0.1630999892950058
-0.07096497714519501 -0.023607581853866577 -0.16380000114440918
-0.06985155493021011 -0.02352110669016838 -0.1631999909877777
-0.06895580142736435 -0.02350669354200363 -0.1630999892950058
-0.06781056523323059 -0.023405807092785835 -0.1623999923467636
-0.06679634749889374 -0.023348158225417137 -0.16200000047683716
-0.06586772948503494 -0.023319333791732788 -0.16179999709129333
-0.022112982347607613 -0.02452997677028179 -0.17019999027252197
-0.016106368973851204 -0.024875877425074577 -0.17260000109672546
-0.015212545171380043 -0.024890290573239326 -0.17270000278949738
-0.014342531561851501 -0.024947939440608025 -0.17309999465942383
-0.013437284156680107 -0.024947939440608025 -0.17309999465942383
-0.012524796649813652 -0.024933526292443275 -0.17299999296665192
-0.07312190532684326 -0.024613548070192337 -0.1648000031709671
-0.07247930020093918 -0.024688225239515305 -0.16529999673366547
-0.07174481451511383 -0.024733031168580055 -0.1656000018119812
-0.07087878882884979 -0.024733031168580055 -0.1656000018119812
-0.07001276314258575 -0.024733031168580055 -0.1656000018119812
-0.06897971779108047 -0.02467328868806362 -0.16519999504089355
-0.06795085966587067 -0.024613548070192337 -0.1648000031709671
-0.0238089170306921 -0.025330446660518646 -0.1695999950170517
-0.016890747472643852 -0.0255992840975523 -0.17139999568462372
-0.016031716018915176 -0.025659026578068733 -0.17180000245571136
-0.015168501064181328 -0.025718767195940018 -0.17219999432563782
-0.014301103539764881 -0.02577850967645645 -0.17260000109672546
-0.013398471288383007 -0.02577850967645645 -0.17260000109672546
-0.012495838105678558 -0.02577850967645645 -0.17260000109672546
-0.01157305482774973 -0.0257337037473917 -0.17229999601840973
-0.074657142162323 -0.025707265362143517 -0.1662999987602234
-0.07392056286334991 -0.02575363963842392 -0.16659998893737793
-0.07313700020313263 -0.025784555822610855 -0.16679999232292175
-0.07243800163269043 -0.025846390053629875 -0.1671999990940094
-0.07152080535888672 -0.025830931961536407 -0.1670999974012375
-0.07064693421125412 -0.025830931961536407 -0.1670999974012375
-0.06956429034471512 -0.02575363963842392 -0.16659998893737793
-0.02373872697353363 -0.02614009939134121 -0.16910000145435333
-0.02294900454580784 -0.026248307898640633 -0.16979999840259552
-0.01664438284933567 -0.026109183207154274 -0.1688999980688095
-0.01581708900630474 -0.02620193175971508 -0.16949999332427979
-0.014974711462855339 -0.026279225945472717 -0.17000000178813934
-0.014143675565719604 -0.02638743445277214 -0.17069999873638153
-0.013320843689143658 -0.0265265591442585 -0.17159999907016754
-0.012452398426830769 -0.02658839151263237 -0.171999990940094
-0.011552903801202774 -0.02658839151263237 -0.171999990940094
-0.07533053308725357 -0.02681667171418667 -0.16779999434947968
-0.07445300370454788 -0.02681667171418667 -0.16779999434947968
-0.07366316765546799 -0.02684863470494747 -0.1679999977350235
-0.07282792031764984 -0.026864616200327873 -0.1680999994277954
-0.07207722216844559 -0.02691255882382393 -0.16839998960494995
-0.071196548640728 -0.02691255882382393 -0.16839998960494995
-0.024142533540725708 -0.026497043669223785 -0.16579999029636383
-0.023584304377436638 -0.02684863470494747 -0.1679999977350235
-0.02290845662355423 -0.027088353410363197 -0.16949999332427979
-0.016299473121762276 -0.026433119550347328 -0.16539999842643738
-0.015565134584903717 -0.026656856760382652 -0.16679999232292175
-0.012365522794425488 -0.02729611098766327 -0.17080000042915344
-0.011512603610754013 -0.02739199809730053 -0.17139999568462372
-0.07629889994859695 -0.027727212756872177 -0.1679999977350235
-0.07564478367567062 -0.027809733524918556 -0.16849999129772186
-0.07485233247280121 -0.027842743322253227 -0.16869999468326569
-0.07405779510736465 -0.02787575125694275 -0.1688999980688095
-0.07317451387643814 -0.02787575125694275 -0.1688999980688095
-0.07229122519493103 -0.02787575125694275 -0.1688999980688095
-0.024084288626909256 -0.027298102155327797 -0.16539999842643738
-0.02341584488749504 -0.027529161423444748 -0.16679999232292175
-0.02282736636698246 -0.02787575125694275 -0.1688999980688095
-0.019974425435066223 -0.02759517915546894 -0.1671999990940094
-0.01795312762260437 -0.027182571589946747 -0.1647000014781952
-0.01693614572286606 -0.02693500556051731 -0.1631999909877777
-0.016033397987484932 -0.026852484792470932 -0.16269999742507935
-0.012293124571442604 -0.02802428975701332 -0.16979999840259552
-0.011445434764027596 -0.028123315423727036 -0.1703999936580658
-0.0766168087720871 -0.028724979609251022 -0.16869999468326569
-0.07586925476789474 -0.02877606265246868 -0.16899999976158142
-0.07498545199632645 -0.02877606265246868 -0.16899999976158142
-0.07410164177417755 -0.02877606265246868 -0.16899999976158142
-0.07321783900260925 -0.02877606265246868 -0.16899999976158142
-0.07233402878046036 -0.02877606265246868 -0.16899999976158142
-0.02405516617000103 -0.028129026293754578 -0.16519999504089355
-0.02334565483033657 -0.028316326439380646 -0.1662999987602234
-0.022597605362534523 -0.028469571843743324 -0.1671999990940094
-0.021671243011951447 -0.028401462361216545 -0.16679999232292175
-0.02072412520647049 -0.028299298137426376 -0.16619999706745148
-0.018574552610516548 -0.027686316519975662 -0.16259999573230743
-0.017669714987277985 -0.027601182460784912 -0.16210000216960907
-0.016790859401226044 -0.027550099417567253 -0.16179999709129333
-0.011391701176762581 -0.0288782250136137 -0.1695999950170517
-0.07740716636180878 -0.02957211621105671 -0.16849999129772186
-0.07675305753946304 -0.029659869149327278 -0.16899999976158142
-0.07591415196657181 -0.029677418991923332 -0.16910000145435333
-0.07502982020378113 -0.029677418991923332 -0.16910000145435333
-0.07414548844099045 -0.029677418991923332 -0.16910000145435333
-0.07321783900260925 -0.029659869149327278 -0.16899999976158142
-0.02405516617000103 -0.02899296022951603 -0.16519999504089355
-0.023317577317357063 -0.029150910675525665 -0.16609999537467957
-0.022421905770897865 -0.029115810990333557 -0.16589999198913574
-0.019484620541334152 -0.028624404221773148 -0.1630999892950058
-0.01848316565155983 -0.028396252542734146 -0.16179999709129333
-0.01759340986609459 -0.02832604944705963 -0.1613999903202057
-0.016718218103051186 -0.02827340178191662 -0.16110000014305115
-0.01049236860126257 -0.029730068519711494 -0.16939999163150787
-0.07824189960956573 -0.030435234308242798 -0.16839998960494995
-0.07763686776161194 -0.030543673783540726 -0.16899999976158142
-0.07679847627878189 -0.030561748892068863 -0.16910000145435333
-0.07600393146276474 -0.03059789165854454 -0.16929998993873596
-0.07511855661869049 -0.03059789165854454 -0.16929998993873596
-0.07423318177461624 -0.03059789165854454 -0.16929998993873596
-0.07326116412878036 -0.030561748892068863 -0.16910000145435333
-0.04970551282167435 -0.030760550871491432 -0.17019999027252197
-0.04881543293595314 -0.030760550871491432 -0.17019999027252197
-0.047925349324941635 -0.030760550871491432 -0.17019999027252197
-0.04706290364265442 -0.03077862411737442 -0.17029999196529388
-0.046199411153793335 -0.030796697363257408 -0.1703999936580658
-0.045388054102659225 -0.03085091896355152 -0.17069999873638153
-0.04462568834424019 -0.030941283330321312 -0.1711999922990799
-0.043832551687955856 -0.031013578176498413 -0.17159999907016754
-0.04311029240489006 -0.03114008903503418 -0.17229999601840973
-0.042282722890377045 -0.031194308772683144 -0.17260000109672546
-0.04130816459655762 -0.03114008903503418 -0.17229999601840973
-0.023149115964770317 -0.029802672564983368 -0.16489998996257782
-0.022259723395109177 -0.02976652793586254 -0.1647000014781952
-0.021255487576127052 -0.029567722231149673 -0.16359999775886536
-0.02028769627213478 -0.02940506301820278 -0.16269999742507935
-0.018437471240758896 -0.029170110821723938 -0.1613999903202057
-0.011136461980640888 -0.02996533177793026 -0.16579999029636383
-0.010393267497420311 -0.03032679483294487 -0.16779999434947968
-0.07847420871257782 -0.0314088836312294 -0.1688999980688095
-0.07768280804157257 -0.031446076929569244 -0.16910000145435333
-0.07688930630683899 -0.03148326650261879 -0.16929998993873596
-0.0760488212108612 -0.03150186315178871 -0.16939999163150787
-0.07516292482614517 -0.03150186315178871 -0.16939999163150787
-0.07427702844142914 -0.03150186315178871 -0.16939999163150787
-0.07334780693054199 -0.03148326650261879 -0.16929998993873596
-0.05228344723582268 -0.03159484639763832 -0.16990000009536743
-0.05139493569731712 -0.03159484639763832 -0.16990000009536743
-0.0505361445248127 -0.03161344304680824 -0.17000000178813934
-0.04961790144443512 -0.03159484639763832 -0.16990000009536743
-0.048729389905929565 -0.03159484639763832 -0.16990000009536743
-0.04784087836742401 -0.03159484639763832 -0.16990000009536743
-0.04698000103235245 -0.03161344304680824 -0.17000000178813934
-0.04614518582820892 -0.03165063261985779 -0.17019999027252197
-0.04528169333934784 -0.03166922926902771 -0.17029999196529388
-0.04452142491936684 -0.03176221251487732 -0.17080000042915344
-0.04378146305680275 -0.03187378868460655 -0.17139999568462372
-0.04308526962995529 -0.03202255815267563 -0.17219999432563782
-0.042282722890377045 -0.03209694102406502 -0.17260000109672546
-0.04130816459655762 -0.03204115107655525 -0.17229999601840973
-0.04005533084273338 -0.03176221251487732 -0.17080000042915344
-0.01027558371424675 -0.030850999057292938 -0.16589999198913574
-0.07856713235378265 -0.032330404967069626 -0.16910000145435333
-0.07777468115091324 -0.03236864134669304 -0.16929998993873596
-0.07698013633489609 -0.03240688145160675 -0.16949999332427979
-0.07609371840953827 -0.03240688145160675 -0.16949999332427979
-0.07516292482614517 -0.032387763261795044 -0.16939999163150787
-0.07427702844142914 -0.032387763261795044 -0.16939999163150787
-0.05377409979701042 -0.03231128677725792 -0.16899999976158142
-0.052858997136354446 -0.03229216858744621 -0.1688999980688095
-0.051914166659116745 -0.0322539284825325 -0.16869999468326569
