ply
format ascii 1.0
element vertex 757
property float x
property float y
property float z
end_header
-0.03879515857864665 0.023203867105242738 0.0010528109269216657
-0.03893966234148879 0.02290404693728189 0.002105627441778779
-0.03894269428040354 0.02289803310883499 -5.408772096870962e-09
-0.03850382243958214 0.023768651997445926 -5.490859766865697e-09
-0.03871860409668267 0.023357228950261752 -5.490859766865697e-09
-0.03379511445612519 0.029597823411852877 -5.475089714934711e-09
-0.034535858983502685 0.028860793075500393 -5.481918030625366e-09
-0.03453636639204608 0.02886053327969199 0.002105627441778779
-0.034970044292333025 0.02841744082711893 0.002105627441778779
-0.037733636856794636 0.025056774933227745 -5.180430306950257e-09
-0.037784481761166964 0.024978223744315565 0.0021056272089481354
-0.026412040432865446 0.03422427227154545 0.002105627441778779
-0.026343246568655797 0.03424873818783378 -5.470209174518459e-09
-0.026959998195800663 0.03402963153967707 0.002105627441778779
-0.027200865788679147 0.03394223115893887 -5.498751676213942e-09
-0.028383687457634532 0.03347741266450295 -5.375363265613942e-09
-0.028794559796973904 0.033295745424077955 -5.452573947906103e-09
-0.0286670097685814 0.03335384798283663 0.002105627441778779
-0.0281089143714903 0.033592438658078774 0.002105627441778779
-0.030619470346064596 0.03229113898755479 -5.178799167282477e-09
-0.030868885270430257 0.032122477424936 -5.462999830285753e-09
-0.030868899964204593 0.03212176203980518 0.0021056272089481354
-0.03111747392723356 0.03194470601034313 -5.301484140574075e-09
-0.032158090482951915 0.031117115432067025 -5.390145663142221e-09
-0.032597231298045794 0.030730637104187507 -5.468586472545667e-09
-0.032606357654791605 0.030722195633729996 0.002105627441778779
-0.032905094517036826 0.03044878375908376 -5.427543747771324e-09
-0.03294674721021254 0.03040996017311434 0.002105627441778779
-0.03382009025049881 0.029573111035282443 0.002105627441778779
-0.03326878411801276 0.030107205448507857 0.002105627441778779
-0.029050474967223672 0.033176127893556354 0.002105627441778779
-0.029148890986583024 0.03312905200403934 -5.524505741760777e-09
-0.02794252190629183 0.0336586691377911 -5.27442933773159e-09
-0.027489766959425392 0.03383481431788054 0.002105627441778779
-0.027627324724069584 0.033782077085864524 -5.394821922521942e-09
-0.03323863743216245 0.03013575582247081 -5.4918465330899835e-09
-0.0322001604463915 0.031080993442623536 0.002105627441778779
-0.031821653799781115 0.031398582088067485 -5.470881081492962e-09
-0.03182019109011082 0.0313998235267831 0.002105627441778779
-0.031461911576324574 0.03168614783344912 -5.47740386380724e-09
-0.031583564149895355 0.0315903207413034 0.002105627441778779
-0.031346018670642545 0.031774402943220134 0.0021056272089481354
-0.031122413710746966 0.031941162341186644 0.002105627441778779
-0.030615814189274337 0.03229363610601099 0.0021056272089481354
-0.030390867403784716 0.03243884105411801 -5.328322671971364e-09
-0.03038663123391905 0.032441575742505474 0.002105627441778779
-0.030153951901134755 0.03258473516905263 -5.4456510412137504e-09
-0.03015384439374383 0.03258476891945866 0.002105627441778779
-0.029914441733123347 0.0327248999467678 -5.432701399854523e-09
-0.02991402800253621 0.032725171431741217 0.002105627441778779
-0.029591037769242618 0.032903645389847004 -5.474446229669638e-09
-0.02967089419336962 0.032860372430227464 0.002105627441778779
-0.029374226477968484 0.033016754360360084 0.002105627441778779
-0.02456754452315316 0.03474969299505623 0.0021056269761174917
-0.024854344278374425 0.034689253426474845 -5.183793394536451e-09
-0.024848476976080558 0.03469048457543252 0.0021056269761174917
-0.025162131847065106 0.03461426924389016 -5.359711341412776e-09
-0.022894316942176442 0.03492480030900109 0.0021056276746094227
-0.023058042302117585 0.034918029812914524 -5.283335546835133e-09
-0.023394468325099158 0.03489983356961445 0.0021056272089481354
-0.02237397392609447 0.03493298009033474 0.002105627441778779
-0.022284878122520474 0.03493369922093746 -5.511298084570626e-09
-0.021858028011692295 0.034931425925295904 0.002105627441778779
-0.02603185577368969 0.03435472104822598 0.002105627441778779
-0.025882875225282282 0.03440348165923054 -5.489832144434104e-09
-0.0245729804787943 0.034748708800289047 -5.057641416783554e-09
-0.024286103673865602 0.034799705499170476 -5.019954230078838e-09
-0.023968473498958615 0.03484507756940921 0.0021056269761174917
-0.023996618703413033 0.0348416409548943 -5.331924235463248e-09
-0.023679830806931753 0.034876545460178654 0.0021056272089481354
-0.02368420420100927 0.03487604430780808 -5.239916944788092e-09
-0.023394046198069545 0.034899728861037684 -5.35833644121908e-09
-0.02273904136681723 0.03492806273849364 -5.476520126279638e-09
-0.025519503536667577 0.034515768766197656 0.002105627441778779
-0.025494416942180482 0.03452237396761272 -5.5083844152648e-09
-0.025141048215369784 0.03461951092890145 0.002105627441778779
-0.02426884881993969 0.03480273052336789 0.0021056272089481354
-0.012705106238969763 0.03152823254416821 -3.967172368390948e-09
-0.013037397260985717 0.03177633523628365 -4.321343283208989e-09
-0.012844076252311326 0.03163359308000036 0.0021056276746094227
-0.013415332002849951 0.032047751721070696 0.0021056272089481354
-0.013781437968261801 0.03229869669128259 0.0021056262776255608
-0.014110627904189663 0.03251480268138868 -4.830465805127915e-09
-0.014146527140953324 0.032537745713502285 0.002105627441778779
-0.01443844477481838 0.032720712426877664 -5.13350606468066e-09
-0.014574116138719458 0.03280384115866483 0.0021056276746094227
-0.014764673894638352 0.03291658792969852 -4.609373327468802e-09
-0.015141788748590146 0.03313212098608266 0.002105627441778779
-0.015127490430232827 0.03312317531748622 0.0010528110433369875
-0.015501829519083478 0.033324409396968534 -4.192259428492662e-09
-0.015574443929256191 0.03336180879812138 0.002105627441778779
-0.015828686231819555 0.03348972250771842 0.0021056269761174917
-0.016431430946551882 0.03376970138819826 0.002105627441778779
-0.016156956181069763 0.03364616765812381 0.0021056269761174917
-0.01648209738536255 0.033791891045394734 -4.4712322733175824e-09
-0.016858298179537264 0.033949564381307515 0.002105627441778779
-0.016849058800090265 0.03394484261718528 0.0010528110433369875
-0.017224133483156333 0.034089264720508425 0.0021056265104562044
-0.017554313211479693 0.03420599436872639 -4.927014352062997e-09
-0.017728804457037332 0.03426437499790357 0.0021056276746094227
-0.01788885513862393 0.03431472138408336 -5.07000352811815e-09
-0.01820976717008645 0.03441019914248422 0.0021056272089481354
-0.018727491813204683 0.03454602460580016 -5.438558492443235e-09
-0.018462867556472973 0.03447930614460742 0.002105627441778779
-0.018316197840744078 0.03444100914729019 -5.28837995616982e-09
-0.013421658639938142 0.032052694097603106 -5.478138831449542e-09
-0.01385985481409435 0.03235084551378072 -5.490859766865697e-09
-0.015141788748590146 0.03313212098608266 -5.3796052057464294e-09
-0.016004171221039743 0.03357505802215184 -5.6878159959694585e-09
-0.016858298179537264 0.033949564381307515 -5.367704947190077e-09
-0.017292870383266046 0.034114199191214174 -5.490859766865697e-09
-0.018910444697145395 0.03458913688055976 0.002105627441778779
-0.019186734411291515 0.034648641645212065 -5.3927404763953746e-09
-0.0193782233491447 0.03468600482641697 0.002105627441778779
-0.019638515700102898 0.03473254153261807 -5.490859766865697e-09
-0.01964426676929111 0.03473351815412341 0.002105627441778779
-0.01991332500619507 0.034776220155654534 -5.423133941917513e-09
-0.020102656552240104 0.03480330740835688 0.002105627441778779
-0.020387194536348702 0.034838611320885324 -5.425532911829123e-09
-0.020582846134036846 0.03485918886112627 0.002105627441778779
-0.02113186020236286 0.03490346017421991 -5.429752203411908e-09
-0.020856227057091205 0.03488373347348329 0.002105627441778779
-0.020853329461256082 0.034883506934172546 -5.490859766865697e-09
-0.021326734717531586 0.034914552039367865 0.002105627441778779
-0.02154102378334015 0.034923362047795656 -5.314765516573061e-09
-0.021824201873039767 0.03493067057474525 -5.4212838662692775e-09
-0.004765804286207441 0.015029576057152431 0.002105627441778779
-0.004752058157420064 0.01452069863022669 -5.4903623869506646e-09
-0.004766482587050663 0.015049767031767181 -5.485101262081571e-09
-0.004796405861676637 0.015742739917354986 0.002105627441778779
-0.004800514520861942 0.015819870625763444 -5.495538690780677e-09
-0.004828236939742236 0.016279592314979833 -5.3594328974782e-09
-0.004846944872125008 0.016551172118804858 0.002105627441778779
-0.004873198407480247 0.01689075981396926 -5.496089361400891e-09
-0.004894662348628929 0.017139498001534904 0.002105627441778779
-0.00493798206490854 0.017582327694849277 -5.410888626045107e-09
-0.004974649164568509 0.017916853158380815 0.002105627441778779
-0.005004915870155395 0.01816904936315788 -5.2942095152275215e-09
-0.0050590732534028775 0.018585211296621492 -5.49478906819445e-09
-0.005046926399953137 0.01849351885205252 0.002105627441778779
-0.00510446606779362 0.01889778747170197 0.002105627441778779
-0.005140518086883133 0.019129454868531685 -5.375202505319976e-09
-0.005211419622790584 0.019554758716855115 -5.519487977778681e-09
-0.0052056145529527165 0.019519607586652523 0.0021056272089481354
-0.005288795309756013 0.019969160360848892 0.002105626044794917
-0.005302851283734397 0.02004012511702911 -5.490859766865697e-09
-0.005390246066844276 0.020463091790893714 0.0021056265104562044
-0.005398975732842095 0.020504377263188166 -5.372541522774554e-09
-0.005490597713148715 0.020902298830869675 0.0021056258119642735
-0.00550416965691373 0.02095878548604189 -5.490859766865697e-09
-0.005609119260972904 0.021377355058226695 -5.469600772300964e-09
-0.00559598129803865 0.021324825597002946 0.0021056265104562044
-0.00569054104539538 0.021675636866216895 0.002105627441778779
-0.005750567377298005 0.02188503162924213 -5.412341685939737e-09
-0.005824140628274342 0.02213110007737241 -5.490859766865697e-09
-0.005857312173685939 0.022239188963101137 0.002105627441778779
-0.005965832406067396 0.022576345311942067 -5.43851319534383e-09
-0.006153454370569704 0.02311056978770781 -5.4930757720228485e-09
-0.0060599627824049224 0.022851579379241888 0.002105627441778779
-0.006260052970076868 0.023392818012562155 0.002105627441778779
-0.006355344360381967 0.023633552908722287 -5.423530513581909e-09
-0.006488092445212108 0.023951143900231047 0.002105627441778779
-0.007120854277162795 0.0252645549451194 0.0021056272089481354
-0.007253130185580713 0.025505736993000454 -5.296979743718566e-09
-0.0073319500606521485 0.025645000717192577 0.0021056272089481354
-0.007796318769189115 0.026407189594019647 0.002105627441778779
-0.007839335554995054 0.026474281449948418 -5.477247988494582e-09
-0.008064453726692882 0.026807906683137542 0.002105627441778779
-0.006593833619769876 0.024193303886706454 -5.491659127443427e-09
-0.006630801015725487 0.024274081614600124 0.002105627441778779
-0.006747611006373429 0.024525843180001915 0.002105627441778779
-0.006835022911640515 0.024708508279992637 -5.4896576173746325e-09
-0.006867385764396311 0.02477323069278169 0.0021056272089481354
-0.00699176769979704 0.025019356434284167 0.0021056272089481354
-0.007091943514717845 0.025211495355566726 -5.493276500345701e-09
-0.007504260865343858 0.02593970333578189 -5.496894051049139e-09
-0.007469829524288489 0.025881182436624513 0.0021056272089481354
-0.00761309983326718 0.026117315423762864 0.0021056272089481354
-0.008117639098246584 0.02688545029895251 -5.492581944821495e-09
-0.008304190269378913 0.02714733896179806 0.002105627441778779
-0.00845594789997648 0.02735256250390973 -5.495773613972688e-09
-0.00865303051488047 0.0276103523857376 0.002105627441778779
-0.008804035429105416 0.027801456075053615 -5.690374837996615e-09
-0.012308780983175603 0.031220700161474373 0.002105627441778779
-0.012306008510796997 0.031218033056217044 -2.9974633886098445e-09
-0.011867355306752246 0.030863248129441925 -2.4551556343510583e-09
-0.011806744187326535 0.030813258015840957 0.002105627441778779
-0.011512513745149442 0.030564826710016032 6.184091905225841e-09
-0.01144240904809665 0.030504431593188937 0.002105627441778779
-0.011132341269047084 0.030232965059019287 5.525311319587445e-09
-0.011088827940682125 0.030194323642924382 0.002105627441778779
-0.010794336056335365 0.029925399090555544 5.4304333474419764e-08
-0.010744100305632918 0.02987854430735708 0.002105627441778779
-0.010439772400514928 0.029589557855097055 2.0680447221366194e-07
-0.010409274545805742 0.029560317820398117 0.002105627441778779
-0.010129014466820994 0.02928179761600346 5.10656434471457e-07
-0.009983563716976377 0.029133864153363748 0.0021056276746094227
-0.009833453106193272 0.028977222098150467 5.005758652032455e-08
-0.00958332934098283 0.028709637683855375 0.002105627441778779
-0.009539033661742387 0.02866114707609908 -2.3527351178387335e-09
-0.009197028449689183 0.028274235714046535 0.002105627441778779
-0.009164520717141633 0.02823638191718318 -5.0520618799509975e-09
-0.008906369294378883 0.02792679421707993 0.002105627441778779
-0.004751258025842865 0.01448455441490606 0.002105627441778779
-0.004666031829797773 0.01026250045077233 -5.490859766865697e-09
-0.004666031829797773 0.01026250045077233 0.002105627441778779
-0.0020480371998783174 0.014615167169169066 -5.490276233643954e-09
-0.0020550098691288383 0.01460350171175466 0.002105627441778779
0.007096410422115492 0.02651899925621848 -5.4908100288741934e-09
0.006387239646537095 0.02580425455992451 -5.488401288999967e-09
0.006909632053127909 0.026332461914520818 0.002105627441778779
0.00628307041771988 0.02569812945391859 0.002105627441778779
0.005864556821818258 0.025268840752777355 -5.480524478684856e-09
0.005621808096552715 0.025017939246502988 0.002105627441778779
0.005322681375958774 0.024704911968434544 -5.482331033590526e-09
0.004941964942092819 0.024301130671721006 0.002105627441778779
0.004675961693161391 0.024014854788655837 -5.4551345662900985e-09
0.00449165089044522 0.023813764271876266 0.002105627441778779
0.003462858830639949 0.022648639010939393 0.0021056272089481354
0.0031651618101728347 0.02229436906596952 -5.337110309255877e-09
0.0030060969697146903 0.022101923921490744 0.0021056276746094227
0.002812226076376133 0.02186311263383843 -5.49834222596246e-09
0.002586103624303631 0.021579060655576722 0.0021056272089481354
0.0022536196487468398 0.021152158519732414 0.002105627441778779
0.0023016038357764924 0.021213837798350076 -5.003841785367058e-09
0.0019447221032879568 0.02074206243973183 0.0021056269761174917
0.0012810962658816422 0.019825168287089457 0.002105627441778779
0.0009565477516460436 0.01935784468934517 -5.489857013429855e-09
0.0008952833560684117 0.01926721579415659 0.002105627441778779
0.004091796494632781 0.023371321802732582 -5.477059250580396e-09
0.004163206426900395 0.023450589488069447 0.0021056272089481354
0.0038051696073448573 0.023045992254710514 0.0021056272089481354
0.0035189115049814043 0.022715144103711553 -5.461175955900899e-09
0.001992856438465429 0.020807448006840416 -5.453728135762503e-09
0.0016616730883119045 0.02035690214752601 0.0021056272089481354
0.0014869454252758982 0.02011508460419475 -5.567427407981995e-09
0.0004509923524908223 0.01860688531346822 -5.494447563592075e-09
7.658675064486624e-05 0.018034912407960402 -5.483183684873438e-09
7.517219704171963e-05 0.01803298945799709 0.002105627441778779
-0.0010782586305223929 0.016205655547435086 0.002105627441778779
-0.0009672840027596866 0.016384988412215418 -5.4857332010271875e-09
-0.0015282427513714934 0.015472675095170573 -5.496261223925103e-09
-0.001596884162527548 0.015359555587945365 0.002105627441778779
-0.0006986024533142922 0.01681625669814765 0.002105627441778779
-0.00039177800596653994 0.01730466425685951 -5.489001253522474e-09
-0.00033251756132669883 0.01739733398147833 0.002105627441778779
0.000533110877002742 0.01873074765725215 0.002105627441778779
0.011970368789957954 0.03087201072266514 0.0021056276746094227
0.011946578211062568 0.030855930382869223 -5.64616753351288e-09
0.011509554246130569 0.030546473074578553 0.002105627441778779
0.011596235825538303 0.03060849347925135 -5.414846793172501e-09
0.011329376468746497 0.030411708526464968 -5.352350562759511e-09
0.011073295509916843 0.030214955842359482 0.002105627441778779
0.010981421965608175 0.030143275906843594 -5.287581483770509e-09
0.010667736143031752 0.029889148849569124 0.002105627441778779
0.010478075324732727 0.029730062935686724 -5.482909681830961e-09
0.010222587055960259 0.029509125863070078 0.002105627441778779
0.009964212386609304 0.029280659651093666 -5.4878364075250374e-09
0.00975866945041126 0.029095243152148592 0.002105627441778779
0.009506132119579064 0.028862385765392948 -5.517692081014047e-09
0.009281255633715665 0.028651832622578175 0.002105627441778779
0.008912041996770646 0.028301712825097605 -5.483187681676327e-09
0.008791754891120555 0.028186204118397437 0.002105627441778779
0.008181966384330844 0.027593550939705436 -5.487120535718759e-09
0.008006144878867076 0.027421086694143365 0.002105627441778779
0.02272720402928624 0.03601446032059019 -5.476385123159844e-09
0.022075481383861714 0.03578804810893418 -5.357763122049164e-09
0.02255915795882823 0.03595695226288609 0.002105627441778779
0.021546894049084303 0.03560012848231426 0.002105627441778779
0.021538890757678793 0.035597041884205344 -5.380057732651267e-09
0.021013077212369006 0.035405057720882156 0.002105627441778779
0.018622112838126304 0.03446474572553592 0.002105627441778779
0.019108930011851388 0.034666223466486186 0.002105627441778779
0.01859463111726368 0.034452814874684795 -5.198696584329809e-09
0.018180437573334422 0.034275777696059294 -5.303659733613131e-09
0.017844083990248727 0.03412868058494472 0.002105627441778779
0.016947115418784388 0.03371965529831411 0.002105627441778779
0.017371950383418135 0.03391623873648105 0.0021056272089481354
0.016940548412950784 0.03371629145296733 -5.331160846111516e-09
0.016432811255840615 0.03347270308345412 -5.468165475974729e-09
0.016218221893736413 0.03336717132604988 0.002105627441778779
0.015716571663513527 0.03311331295493467 0.002105627441778779
0.015309852599749877 0.03290014143915616 -5.253009138783682e-09
0.015263226331495686 0.0328752392371313 0.002105627441778779
0.014870227384011345 0.03266246679932462 0.0021056272089481354
0.013812292095549806 0.03205502205243883 0.002105627441778779
0.014099161985761175 0.03222469209365352 0.0021056272089481354
0.01373820254567921 0.032010631542789235 -4.762155558779568e-09
0.013249731108150078 0.03171090422960401 0.002105627441778779
0.013269070584716006 0.031722990496959015 -5.421015192297318e-09
0.01291699425150222 0.031500125864567505 0.0010528110433369875
0.01269491592125324 0.03135638798898815 -5.490859766865697e-09
0.020787192494863885 0.035321352762650506 -5.5259343767488645e-09
0.02054302724036167 0.035229507535755676 0.002105627441778779
0.020037013494228893 0.03503617335619113 -5.46570477766295e-09
0.020038272631328156 0.03503643150563826 0.002105627441778779
0.019546183808816675 0.03484275422438505 0.0021056272089481354
0.019126229317531586 0.03467411217114731 -5.547796000371363e-09
0.017610441618439568 0.03402453177100725 -5.529280588945085e-09
0.015715851874366304 0.03311323195396019 -5.447279516346271e-09
0.01482464029899075 0.03263751059665011 -5.483264953198841e-09
0.014474349938482615 0.03244103515978248 0.0021056269761174917
0.014235389819771497 0.03230427192908717 -5.545209180723987e-09
0.012617598186204513 0.03130607453003376 0.0021056269761174917
0.035638086823118253 0.038520051775073 0.0021056272089481354
0.03590603039112439 0.03846591916956262 -5.586518803113449e-09
0.03560614000585538 0.0385255198347589 -5.490859766865697e-09
0.035418877935926685 0.03855565845343899 0.0021056269761174917
0.035326076337770136 0.03856833889257632 -5.208664166644894e-09
0.03509915128457853 0.03859436045562862 -5.490859766865697e-09
0.035098974959286516 0.038594383998594786 0.002105627441778779
0.03486485053289752 0.038614628973859186 -5.3292747992372824e-09
0.03476457297285023 0.038621340530212295 0.0021056272089481354
0.034132623620186264 0.03863912073801944 0.002105627441778779
0.03377082634685402 0.03863215942866169 -5.4427777840260205e-09
0.03361270585922032 0.03862632340723195 0.002105627441778779
0.033286900512791234 0.038607831148175537 0.002105627441778779
0.032994014324591064 0.03858550632471879 -5.453358209450698e-09
0.032718404228377185 0.038560093092155745 0.002105627441778779
0.032548778638916774 0.0385413749523331 -5.395688784659569e-09
0.032091672688486096 0.03848574868556056 -5.453012708045435e-09
0.031962547256994364 0.03846788698287054 0.002105627441778779
0.03147135635991952 0.038392935068966745 -5.474481756806426e-09
0.031335840412522326 0.038370732240880105 0.002105627441778779
0.03094453293660674 0.03830232296666312 -5.461919805327398e-09
0.030745703203123073 0.038265341082728326 0.002105627441778779
0.030080149476669638 0.03813195914880926 0.002105627441778779
0.029893692477401954 0.038091792543633866 -5.466158192746207e-09
0.029360268791757918 0.03797187685708628 0.002105627441778779
0.027707963499072067 0.03755644195675947 0.002105627441778779
0.027347184170913037 0.0374573622891722 -7.401753432390024e-09
0.02681745689559231 0.03730808276155817 0.0021056351251900196
0.0266435129005208 0.03725790035296087 -1.2546119698697566e-09
0.026147944328829137 0.03711224677140779 0.002105627441778779
0.02601822159746867 0.03707355596447479 -7.518516476068271e-09
0.025412404772606603 0.03688944601783355 0.0021056265104562044
0.025315272750401692 0.03685911016507333 -5.494277033335493e-09
0.024579462532386374 0.036627381523604376 0.0021056276746094227
0.024495496131985057 0.036600828350498 -1.6484063891653022e-08
0.023623068221610692 0.03631594594761173 0.002105627441778779
0.023481844668962814 0.03626874147727952 -5.4925100023694995e-09
0.03449803761995635 0.03863376199672186 -5.503074440582623e-09
0.03449453646807966 0.03863362798291449 0.002105627441778779
0.034092637126933806 0.038638972894777406 -5.484500409380644e-09
0.03332320607151632 0.038610674743361 -5.504988909166286e-09
0.03041054290268584 0.03819952680314504 -5.499977806522338e-09
0.029333745253154405 0.03796553112220735 -5.4937094873253045e-09
0.0287821332267444 0.03783377941521779 -5.488139720455365e-09
0.028650087808904275 0.03780108333894096 0.002105627441778779
0.028067551849488413 0.0376517603473894 -5.905437472364383e-09
0.03587076319245226 0.03847365393944501 0.0021056276746094227
0.038026576222463825 0.029736763296783195 -5.4959010675759146e-09
0.038041486328669064 0.029807901250169012 0.002105627441778779
0.03814220906480375 0.030312554772620553 0.002105627441778779
0.038168533393693596 0.030448985767611587 -5.442290174073605e-09
0.03828492257440094 0.031088452899742554 0.002105627441778779
0.038283525142955 0.03108289083282813 -5.464176666691856e-09
0.03837497886513983 0.03164459209037269 -5.388958168595082e-09
0.03841999235789397 0.03194739019659864 0.002105627441778779
0.03857282259285892 0.03334304044428 0.002105627441778779
0.038542641991966456 0.03297991719158093 0.002105627441778779
0.03856586688112948 0.0332461463212786 -5.4568434215696016e-09
0.03859514758095179 0.033711964650913764 -5.468534958197324e-09
0.03859691890104214 0.0337577507810119 0.002105627441778779
0.038607618438299456 0.03409177558608124 0.002105627441778779
0.03860854715069184 0.03415181229005986 -5.415601300740036e-09
0.03860782950181427 0.03447406824622705 0.002105627441778779
0.038606193183348056 0.034579069710666224 -5.434272587478972e-09
0.03859534860166285 0.03483454513782079 0.002105627441778779
0.03858658436207836 0.034974681104213735 -5.448973716681849e-09
0.03857425953697534 0.03512179681921066 0.002105627441778779
0.03855145265893876 0.03533974887420875 -5.2184900845020366e-09
0.03852587742442674 0.03553049233967889 0.002105627441778779
0.038238901014641204 0.036609745207772215 0.0021056269761174917
0.03821860294422584 0.03665659579274944 -5.388527846150737e-09
0.03813756904251857 0.03683213346553026 0.002105627441778779
0.038107493191361905 0.03689173318406881 -4.845825518628999e-09
0.03801240294524496 0.037060975541784606 0.0021056272089481354
0.0380231858707006 0.03704196871251327 -1.992728426714052e-09
0.037945626614453574 0.03716575252486463 -2.497552165081629e-09
0.037875531239921476 0.037266467584839896 0.002105625346302986
0.037680812810090905 0.037505313765061374 0.002105599967762828
0.037655857343134085 0.03753355668620204 6.845861122428687e-08
0.03751016921886361 0.03767645785011473 0.0021055906545370817
0.03740133260214998 0.03777089604970583 8.235740089901356e-09
0.037322329528228226 0.03783398868831472 0.002105627441778779
0.037176503469752605 0.03793872683784828 0.002105627441778779
0.03709003315965484 0.03799446682702554 -2.756946670956495e-09
0.03691157591211593 0.038098951087071765 0.0021056262776255608
0.036903219311581886 0.03810343017754281 -4.342678217028606e-09
0.03664986497396947 0.0382245909248008 0.0021056272089481354
0.036427171069241655 0.038312083007861736 0.002105627441778779
0.0362372590985309 0.03837647639535098 -5.199559449664548e-09
0.036162292120421484 0.03839814341516232 0.0021056272089481354
0.038433771743179 0.03204796047967973 -5.476194608888818e-09
0.03848937957070532 0.032479601831075726 0.002105627441778779
0.03850391266017974 0.03260468017729365 -5.5102096219172836e-09
0.03851426069930592 0.03560101455394975 -5.468098862593251e-09
0.03846459878782412 0.035866173301867754 0.002105627441778779
0.03845797736975055 0.03589460044568965 -5.525106150372494e-09
0.03839999071482527 0.03613218009047591 -5.50814593935911e-09
0.03838811806284504 0.03617488316214186 0.0021056272089481354
0.03831804546983701 0.036398918192760185 -5.411528114507291e-09
0.03831769940469806 0.03639903245023232 0.0021056269761174917
0.03780766705534145 0.03735609534831973 -7.501330223647074e-09
0.037781453547144586 0.03738827790393695 0.002105621388182044
0.037511048576432046 0.03767609479144055 3.5044009361051565e-10
0.03724932025888443 0.03788818992651053 -6.526781781701629e-09
0.03658403019718838 0.038252303877103794 -5.7391504881820765e-09
0.018444670654628393 0.03211661703735946 6.254424079088494e-05
0.01884890042015187 0.0322944984700442 6.254410982364789e-05
0.018853312668355354 0.032295928828715535 0.006316893734037876
0.019276445295435967 0.0324757753582121 6.254420441109687e-05
0.019696748156765777 0.032649068711309716 6.254410982364789e-05
0.019704250295800717 0.03265168181591739 0.006316893734037876
0.020148512323419954 0.0328291648291748 6.25441680313088e-05
0.020589876096659562 0.03300060569657146 6.254408799577504e-05
0.020595549457595834 0.033002381791109495 0.006316893734037876
0.021041766703859273 0.03317069720627127 6.254407344385982e-05
0.021992471190085985 0.03351483346835231 0.006316893734037876
0.02160186407625464 0.03337573899009874 6.254408071981743e-05
0.022359651241590353 0.033642942107123715 6.254408799577504e-05
0.02294480030561389 0.033841813987455886 6.254402978811413e-05
0.023504280621805276 0.03402638886651976 6.254409527173266e-05
0.0229405605960715 0.03384040075094176 0.0125712426379323
0.023520144959002582 0.03403140302440354 0.0125712426379323
0.023929258161325004 0.03416279681245302 0.006316893734037876
0.024344423387675788 0.03429332790719703 0.0125712426379323
0.025545308273940626 0.03465480562180678 0.0125712426379323
0.02492030837683328 0.034469621918345274 0.0125712426379323
0.02573050350193102 0.034708509267888266 0.009444067254662514
0.026198731939829273 0.03484180592029355 0.0125712426379323
0.026544196486182912 0.034937882295652166 0.009444067254662514
0.02688816942922597 0.035031625447819 0.0125712426379323
0.02745516373825344 0.035181912548530245 0.0125712426379323
0.027436103813831148 0.03517694350094526 6.254405889194459e-05
0.02774924403228271 0.03525770246032045 0.009444067254662514
0.02774924403228271 0.03525770246032045 0.003189720679074526
0.028143595630186445 0.03535704324080514 6.254402978811413e-05
0.024321339097765217 0.03428616656494497 6.254410254769027e-05
0.02492706998256899 0.0344716742723044 6.254420441109687e-05
0.025545308273940626 0.03465480562180678 6.254402978811413e-05
0.02573050350193102 0.034708509267888266 0.003189720679074526
0.026198731939829273 0.03484180592029355 6.254402978811413e-05
0.026544196486182912 0.034937882295652166 0.003189720679074526
0.026873384775749503 0.03502763368028386 6.254404434002936e-05
0.028532152694964442 0.035452221361454865 6.254413892747834e-05
0.028913176010571116 0.03554307943013222 6.254405161598697e-05
0.028920175021601956 0.03554446764195505 0.0125712426379323
0.02931429382402212 0.035635279941789104 6.254409527173266e-05
0.030037949944598106 0.035793709945341555 6.254410254769027e-05
0.030409813400007122 0.03587083159876303 6.254404434002936e-05
0.0304145470179305 0.0358715138508733 0.0125712426379323
0.03078536964374465 0.03594495588685642 6.254409527173266e-05
0.031455539602562914 0.036068347865225524 6.254412437556311e-05
0.031795475173863656 0.036126162640034216 6.254405161598697e-05
0.03179679868368858 0.03612606665717218 0.0125712426379323
0.03213390103187985 0.03617938110344945 6.25441170996055e-05
0.03273478980355256 0.036263563012541 6.254413165152073e-05
0.03303468570413182 0.03629989886431346 6.254405889194459e-05
0.033034528805902796 0.0362994551699512 0.006316893734037876
0.03332442141540581 0.036329883877487056 6.254418258322403e-05
0.03437498026451537 0.0363894940915787 0.0125712426379323
0.034376487178985754 0.03638935168132885 6.254410982364789e-05
0.03454448591655726 0.03638841778289846 6.254402978811413e-05
0.03479803962851947 0.03637919988846604 0.0125712426379323
0.034874489237270545 0.036373820403016455 6.254410982364789e-05
0.03500469245916765 0.03636196553173794 0.0125712426379323
0.03513838213916711 0.036344964670196954 0.0125712426379323
0.035079963149772346 0.03635334481369716 6.254384061321616e-05
0.035218957364624576 0.036332093088516176 6.254438631003723e-05
0.03400223139601537 0.0363792545476602 6.254408799577504e-05
0.034196390320258105 0.036386283604784214 6.254403706407174e-05
0.03409423656690757 0.036383417948357734 0.0125712426379323
0.035306192409532235 0.03631551196678096 0.0125712426379323
0.03468666559351267 0.0363846378197407 6.254442996578291e-05
0.03454416775724184 0.03638842510920611 0.0125712426379323
0.033319121119933306 0.03632934683444079 0.0125712426379323
0.03303468570413182 0.03629989886431346 0.0125712426379323
0.032730211766769185 0.03626299913380604 0.0125712426379323
0.02814229006569937 0.03535673668833667 0.0125712426379323
0.02239805953292943 0.033656232193839314 0.0125712426379323
0.021582600332307127 0.03336878212591641 0.0125712426379323
0.02103604197645138 0.033168587888212205 0.0125712426379323
0.020589876096659562 0.03300060569657146 0.0125712426379323
0.020140242980033217 0.032825912277849874 0.0125712426379323
0.019696748156765777 0.032649068711309716 0.0125712426379323
0.019268568444575987 0.03247248329421669 0.0125712426379323
0.01884890042015187 0.0322944984700442 0.0125712426379323
0.01844438813903447 0.03211654130474104 0.0125712426379323
0.017668264460418484 0.0317569443932461 0.0125712426379323
0.01776071291408262 0.03180150480737875 6.254405889194459e-05
0.018022747773808946 0.03192476063167082 0.0125712426379323
0.03379877135377801 0.03636808703221189 6.254405889194459e-05
0.03378220690145066 0.03636712893227084 0.0125712426379323
0.033583520812987794 0.036352625724253476 6.254405889194459e-05
0.03357870076109774 0.03635226698213275 0.0125712426379323
0.03243754866052109 0.03622375053967478 6.254407344385982e-05
0.0324339584404997 0.03622324724703455 0.0125712426379323
0.03212858262643338 0.03617855660572545 0.0125712426379323
0.031451855046040755 0.03606773344319958 0.0125712426379323
0.031125476601253595 0.03600911623190791 6.254405889194459e-05
0.031121306862065178 0.03600834952146449 0.0125712426379323
0.03078022229523413 0.035943949795484355 0.0125712426379323
0.030045990443768322 0.03579536322132885 0.0125712426379323
0.029682280921821024 0.03571716830499549 6.25440661679022e-05
0.029680100810227344 0.03571672477526936 0.0125712426379323
0.029309849307137745 0.035634250636723125 0.0125712426379323
0.028523443443846372 0.03545014101935415 0.0125712426379323
0.018098996032576708 0.03195973790612331 6.254419713513926e-05
0.008584216565063325 0.02507642458425693 6.254402978811413e-05
0.008849468414711143 0.02534076895957275 6.254402978811413e-05
0.008608092754744745 0.02510042984866192 0.0125712426379323
0.009157683708059755 0.02564531352583387 0.0125712426379323
0.00921581013905685 0.025702290138120025 6.254402978811413e-05
0.009553264808559895 0.026030742504198946 0.0125712426379323
0.009752112981289784 0.026222490250043768 6.254405889194459e-05
0.009820970395044459 0.026288015428588045 0.0125712426379323
0.010096137949348973 0.026549287693774126 0.0125712426379323
0.010125593986646532 0.026577003856481596 6.254402978811413e-05
0.010395778334659142 0.026829558968015508 6.254405889194459e-05
0.010369909389296566 0.026805615606794272 0.0125712426379323
0.010655624850985439 0.02706858362408841 6.25440661679022e-05
0.010634887942973572 0.027049673518541685 0.0125712426379323
0.010917576734103759 0.02730577950206264 6.254414620343596e-05
0.011216247741898177 0.02757079888549914 6.254407344385982e-05
0.011214142375106158 0.02756892927764098 0.0125712426379323
0.011468247041867352 0.027789761641680854 6.25440661679022e-05
0.011718937155354658 0.028003218965775834 6.254414620343596e-05
0.011709718849331916 0.027995423115890334 0.0125712426379323
0.011991855121619906 0.02823024691654681 6.254417530726641e-05
0.011988416860743726 0.028227376321036515 0.0125712426379323
0.012268945625887729 0.028454756593119267 6.254410982364789e-05
0.012553723320197238 0.02867926824532524 6.254404434002936e-05
0.012552803333519586 0.028678526065664744 0.0125712426379323
0.012836689358565283 0.028895779240303735 6.254414620343596e-05
0.01311045618870132 0.02909915688215953 6.25442698947154e-05
0.013114458822220839 0.02910204262419351 0.0125712426379323
0.013396530557147046 0.029305025797889024 6.25442189630121e-05
0.013989016465534018 0.029710556188815768 0.006316893734037876
0.014304117500258097 0.029915607850810856 6.254421168705449e-05
0.014299786911573603 0.029912773475248497 0.0125712426379323
0.014594947218595966 0.0300983243172732 6.254420441109687e-05
0.01459123697883799 0.030095986484269862 0.0125712426379323
0.014889440420031742 0.030277545888031682 6.25441170996055e-05
0.014885630740053063 0.03027522846990809 0.0125712426379323
0.01519209759773298 0.030456121426627833 6.254405161598697e-05
0.015190968852446298 0.03045544312578461 0.0125712426379323
0.01550379066462825 0.03063448557243692 6.254408071981743e-05
0.015813166971944435 0.030806547447304614 6.254413165152073e-05
0.015817485706827786 0.030808887914485984 0.0125712426379323
0.01614130389520403 0.03098397250864532 6.254418258322403e-05
0.016780057165088347 0.03131656711967945 0.006316893734037876
0.017033373554073486 0.03144446897547534 6.254403706407174e-05
0.01703978053359165 0.03144774523440256 0.0125712426379323
0.01735177323823805 0.03160253414537038 6.254403706407174e-05
0.017343362307782096 0.03159841692510647 0.0125712426379323
0.013586368523918715 0.029437869371672823 6.254402978811413e-05
0.013698724119514663 0.029515219375402444 0.006316893734037876
0.0139788761972001 0.02970454894581395 6.254405889194459e-05
0.016509493495439138 0.031177984989053092 6.254403706407174e-05
0.01649843850878363 0.031171786109599448 0.006316893734037876
0.016509493495439138 0.031177984989053092 0.0125712426379323
0.016136813938748606 0.03098162413892985 0.0125712426379323
0.0139788761972001 0.02970454894581395 0.0125712426379323
0.013586368523918715 0.029437869371672823 0.0125712426379323
0.013390996807646466 0.02930115553181561 0.0125712426379323
0.015501793957680046 0.030633379217663508 0.0125712426379323
0.01283449969807624 0.02889415987935861 0.0125712426379323
0.01227181556285352 0.02845708652358851 0.0125712426379323
0.01147525658961032 0.02779580971444217 0.0125712426379323
0.010922168106413414 0.02730993096664096 0.0125712426379323
0.004513443445303383 0.020710260008352327 0.0125712426379323
0.004345830697131622 0.020504377921732674 0.0125712426379323
0.004352458947604468 0.020512577459401566 6.254402978811413e-05
0.005925923291794627 0.02231777834759478 0.0125712426379323
0.005547900304966323 0.02190111460321608 0.0125712426379323
0.00574334116841191 0.022117443181365867 6.254404434002936e-05
0.007268303051044635 0.023746285191776798 0.0125712426379323
0.007717436990933928 0.024208368750871068 0.0021473285742104053
0.007717436990933928 0.024208368750871068 0.01048645842820406
0.00820866772995151 0.024704699258558466 6.254424806684256e-05
0.008224180404381552 0.024720388422916646 0.0125712426379323
0.007917235443388838 0.024411330851142325 6.254402978811413e-05
0.0072680982437026516 0.023746015847073036 6.254410254769027e-05
0.006308221549568756 0.02273207396592277 6.254409527173266e-05
0.006785515511163898 0.023241195383588723 6.254405889194459e-05
0.006550832639032129 0.022991861213243352 0.0125712426379323
0.0062389841556329765 0.02265740621397417 0.0125712426379323
0.004527417759762777 0.020726889574267906 6.254402251215652e-05
0.004706548451379157 0.020940659707004178 6.254403706407174e-05
0.005002447645339476 0.021285332024314714 6.254403706407174e-05
0.004731190528323361 0.02096971008088482 0.0125712426379323
0.004937438765689454 0.021210081460476544 0.0125712426379323
0.0052156942351919 0.021528351411373037 0.0125712426379323
0.007917235443388838 0.024411330851142325 0.0125712426379323
0.006041530780170994 0.02244353795810621 6.254404434002936e-05
0.004185665428800637 0.02030041549235379 0.0125712426379323
0.0041930510054576636 0.020310144170370217 6.25440661679022e-05
0.006870793732225122 0.023330697509124143 0.0125712426379323
0.0053690139333624045 0.021701322077661744 6.254403706407174e-05
-0.003659650533507535 0.007590443103378414 6.254402978811413e-05
-0.003145018580034914 0.008531508967550165 6.254403706407174e-05
-0.0031477829852432984 0.00852650155974759 0.0125712426379323
-0.002878404531072332 0.009013027162891762 0.0125712426379323
-0.0026178082618236965 0.00947995332902548 0.0125712426379323
-0.002611659102480408 0.009490925668345234 6.254403706407174e-05
-0.0023526835112659176 0.00995123543780725 0.0125712426379323
-0.002344776038086315 0.00996523839895274 6.254403706407174e-05
-0.002078398406602099 0.010434894232072046 0.0125712426379323
-0.001729488684654949 0.011044557286132987 0.0125712426379323
-0.001546936195775091 0.011360758748729905 6.254403706407174e-05
-0.0012805154296256025 0.011819338851041705 0.0125712426379323
-0.0009464779475744794 0.012389263024585187 0.0125712426379323
-0.000753243208230634 0.012716007126210401 6.254404434002936e-05
-0.000399623246690138 0.013309582267213578 0.0125712426379323
-0.0004915586941825575 0.013155607975802138 6.254404434002936e-05
-0.00016286530081371405 0.013702798534385552 6.254402978811413e-05
2.7365817029221632e-05 0.014016566016480967 0.0125712426379323
0.0003736067873577724 0.014583331152019659 0.0125712426379323
0.00028464005850733907 0.01443802989177835 6.254405161598697e-05
0.0005391556570415162 0.014851418035774343 6.254405889194459e-05
0.0008762066387611673 0.01539358719248439 0.0125712426379323
0.0007895764258250567 0.015254569763938252 6.254404434002936e-05
0.0010364766156689222 0.015648521625325644 6.254404434002936e-05
0.0012621440134864082 0.01600542245560491 0.0125712426379323
0.0012812799997993698 0.016035574574447407 6.254404434002936e-05
0.001524295435590645 0.016416252154187388 0.0125712426379323
0.0018300023329083511 0.016890010390319173 0.0125712426379323
0.0020003987487153562 0.017151152922237182 6.254403706407174e-05
0.00223271349479642 0.01750429478046488 0.0125712426379323
0.0033428937532542606 0.019136098924072722 0.0125712426379323
0.003133022862549756 0.01883531332986317 0.0125712426379323
0.003347711006330154 0.019142951079678283 6.254403706407174e-05
0.0035552131124394447 0.019436269437711817 0.0125712426379323
0.003558908205673736 0.019441456792801196 6.254403706407174e-05
0.0037631050768974616 0.019725928922459002 0.0125712426379323
0.003765562765001253 0.019729329646298224 6.254402978811413e-05
0.00396641291303541 0.02000478103328568 0.0125712426379323
0.0039677899296016025 0.020006662494944986 6.254402978811413e-05
0.003126326781992586 0.018825639311040906 6.254402978811413e-05
0.0029141220095517915 0.018517553092415855 0.0125712426379323
0.0029056893471270727 0.01850520867561372 6.254402978811413e-05
0.0026914167449312108 0.018190282813728767 0.0125712426379323
0.002681142133517665 0.018175053313437158 6.254402978811413e-05
0.0024643268909764825 0.017852618068527674 0.0125712426379323
0.0023424349123604368 0.017670261167366686 6.254403706407174e-05
0.0016122545913438656 0.016553538927766547 6.254402978811413e-05
-0.0011826672402682598 0.011987239053891199 6.254402978811413e-05
-0.0019827464631788794 0.01060282802069145 6.254402978811413e-05
-0.002882892841166488 0.009004957687763196 6.254402978811413e-05
-0.003676196134998347 0.007560302509064807 0.0125712426379323
-0.007294952700921425 0.001986674351896742 0.006316893268376589
-0.007265826923694619 0.001980426410877256 6.25432949163951e-05
-0.007228317216336685 0.0019769410640687575 6.255101470742375e-05
-0.007265826923694619 0.001980426410877256 0.01257124450057745
-0.007189865790332337 0.001978423777028481 0.012571243569254875
-0.007150115714558246 0.001985392824284208 6.254455365706235e-05
-0.007096823988066507 0.002003264075869589 0.012571241706609726
-0.007053214018295001 0.0020246191925383256 6.254394247662276e-05
-0.007001250411439736 0.002057212371235787 0.0125712426379323
-0.006946337677641597 0.00209886662845471 6.254400796024129e-05
-0.006894433175155923 0.0021445939834555065 0.0125712426379323
-0.0068480569891786365 0.0021903438936057007 6.254438631003723e-05
-0.00676498966666684 0.002280372690111383 6.254400796024129e-05
-0.006666560476417329 0.0023999378663445985 6.254413892747834e-05
-0.006765354006415881 0.00227963034581476 0.0125712426379323
-0.0066290133966585675 0.002448327222882788 0.0125712426379323
-0.006568876100006347 0.0025290144009066087 6.254403706407174e-05
-0.006483094257032645 0.002648315500792123 0.0125712426379323
-0.0064605361441839515 0.002681559156827345 6.254404434002936e-05
-0.006342317362197307 0.002857125311658141 6.254405161598697e-05
-0.006296375980231417 0.0029272016912970903 0.0125712426379323
-0.0062131873208940225 0.0030573524765877464 6.254403706407174e-05
-0.006074404663464983 0.0032795279421516544 0.0125712426379323
-0.005824814319306008 0.003695003013693444 0.0125712426379323
-0.0058951021740500835 0.0035764754566506188 6.254402978811413e-05
-0.005644638599873524 0.0040031391993830346 6.254402978811413e-05
-0.005635584353751333 0.004019046259655294 0.0125712426379323
-0.005442241036881733 0.004355376711365149 0.0125712426379323
-0.005364311102394773 0.004492544041434171 6.254402978811413e-05
-0.005141231568408742 0.004888725950610508 0.0125712426379323
-0.004996700789807138 0.00514728700349186 6.254402978811413e-05
-0.00483018106602738 0.005447453725355155 0.0125712426379323
-0.004377548258587657 0.0062705448188599845 0.0125712426379323
-0.0043185693417249794 0.006378408153094728 6.254402978811413e-05
-0.003939427570095675 0.007074728008826288 0.0125712426379323
-0.006071552177928655 0.0032847880664091662 6.254403706407174e-05
-0.004676051707963826 0.0057268573466277535 6.254402978811413e-05
-0.007422679713150451 0.005926263759305254 0.0125712426379323
-0.0074404189265619815 0.005796129437627297 6.254402978811413e-05
-0.00749035726210101 0.005418470378957717 0.0125712426379323
-0.007498739875143122 0.005353514841412841 6.254403706407174e-05
-0.007555031024914532 0.004905013021933147 6.254404434002936e-05
-0.007606871154674551 0.004458629657817569 6.25440661679022e-05
-0.007589419560576882 0.00461231567137064 0.0125712426379323
-0.007648905227438453 0.004052056955570817 6.254407344385982e-05
-0.007626582708887489 0.004274465051982169 0.0125712426379323
-0.007673312039357181 0.003775584330687607 6.254408799577504e-05
-0.007664138843633236 0.0038849326827878517 0.0125712426379323
-0.007708625500780992 0.0031441517708262817 0.0125712426379323
-0.00771007676824046 0.003022302762239383 6.254402978811413e-05
-0.0077101915196209755 0.0029670790307973487 0.0125712426379323
-0.007708271697744079 0.0028531490199189408 6.254434993024915e-05
-0.007703536433459429 0.002751493126216443 0.0125712426379323
-0.007697408512176523 0.0026695077923312607 6.254510662984103e-05
-0.007651976679023684 0.002385390782799387 0.012571243569254875
-0.007664139831449998 0.0024371716435536875 6.254626350710168e-05
-0.007643594395253826 0.002355618314865743 6.25440661679022e-05
-0.007621179515835619 0.0022872218822666576 6.254569598240778e-05
-0.007623273028826496 0.002292407261722514 0.012571241706609726
-0.007356806164561447 0.0020032996372730196 6.255138578126207e-05
-0.007362302706297326 0.0020050141578995526 0.012571236118674278
-0.007700868834293719 0.0033625182149560184 0.0125712426379323
-0.007690914440147178 0.003536070869953657 6.254397158045322e-05
-0.007706274496887494 0.003231100060759748 6.254393520066515e-05
-0.007682567553144625 0.0025413372503761086 0.0125712426379323
-0.007683157279751523 0.0025452730416280667 6.254341860767454e-05
-0.007685624681386807 0.0036118341106912903 0.0125712426379323
-0.0075485861790871595 0.004957687692220906 0.0125712426379323
-0.0074155669385558565 0.0020287245590010893 6.255516200326383e-05
-0.007420710335799329 0.0020317793823374946 0.012571209110319614
-0.007471586521035788 0.002065825804127947 6.265048432396725e-05
-0.007472369859728033 0.0020664497750492606 0.01257080677896738
-0.007520578610434908 0.0021118188818377145 6.264526746235788e-05
-0.007521839723167695 0.002113186020236286 0.01257115788757801
-0.007562953644617819 0.0021683908185237163 6.256811320781708e-05
-0.0075636599336026305 0.0021694428433752188 0.012571228668093681
-0.007598115640804794 0.0022325926518792054 6.254600157262757e-05
-0.007598158446197813 0.0022328613380384623 0.0125712426379323
-0.008034611123769138 0.021628999402706066 0.0125712426379323
-0.00803459400161193 0.021628945402056413 6.254402978811413e-05
-0.007928439919647656 0.02130056547587337 6.254438631003723e-05
-0.007843899268435373 0.021020672864724078 0.006316893268376589
-0.0078059855440217926 0.02088964094688174 6.254402978811413e-05
-0.007754886441469383 0.020707009432660926 0.006316893268376589
-0.007700977988045916 0.020506098039987524 6.254402978811413e-05
-0.007670117275312831 0.020387100364484063 0.006316893268376589
-0.0075948950288885035 0.020083580493477367 6.25442189630121e-05
-0.00750955885591058 0.019712131756472254 6.254402978811413e-05
-0.007511121582028022 0.01971920123176545 0.0125712426379323
-0.007433157156272456 0.019351984301768634 0.0125712426379323
-0.007373454828267759 0.019047287611726173 0.006316893268376589
-0.0073430320476324815 0.01888349508024522 0.0125712426379323
-0.007309935576294793 0.018697762479936313 0.006316893268376589
-0.007269121621868057 0.01845662982289336 0.0125712426379323
-0.007250659985131269 0.018342642354006632 0.006316893268376589
-0.00720145847857861 0.018021681260978268 0.0125712426379323
-0.0071980100102625585 0.017998524531171817 6.254414620343596e-05
-0.007142063690859141 0.017594298387643134 0.0125712426379323
-0.0070984617882578595 0.017244614875899105 0.006316893268376589
-0.007140030434690745 0.017578761676338553 6.254402978811413e-05
-0.007084887210314812 0.017128084766667055 6.254402978811413e-05
-0.007423178231342994 0.01930206465243002 6.254402978811413e-05
-0.0073430320476324815 0.01888349508024522 6.254402978811413e-05
-0.007269121621868057 0.01845662982289336 6.254402978811413e-05
-0.007056281024704804 0.016868053528606267 0.006316893268376589
