ply
format ascii 1.0
element vertex 769
property float x
property float y
property float z
end_header
0.028243547305464745 0.03717798739671707 -0.11959999799728394
0.02884487248957157 0.03714689984917641 -0.11949999630451202
0.02942049130797386 0.037084732204675674 -0.1193000003695488
0.02994365058839321 0.03696038946509361 -0.11889999359846115
0.03051403909921646 0.03689821809530258 -0.11869999766349792
0.031056106090545654 0.036804962903261185 -0.11840000003576279
0.031595032662153244 0.03671170771121979 -0.11809999495744705
0.03213082626461983 0.03661845251917839 -0.11779999732971191
0.03269127756357193 0.03655628114938736 -0.11759999394416809
0.033249638974666595 0.03649410977959633 -0.11739999800920486
-0.03379976004362106 0.0347493477165699 -0.11369999498128891
-0.033234357833862305 0.03477990999817848 -0.11379999667406082
-0.03269658982753754 0.034841034561395645 -0.11400000005960464
-0.032241202890872955 0.03499384596943855 -0.11449999362230301
-0.03175295144319534 0.03511609509587288 -0.11490000039339066
-0.031260520219802856 0.035238344222307205 -0.1152999997138977
-0.030710721388459206 0.03529946878552437 -0.11549999564886093
-0.03013276681303978 0.03533003106713295 -0.11559999734163284
-0.02957930974662304 0.03539115563035011 -0.11580000072717667
-0.028998738154768944 0.035421717911958694 -0.11589999496936798
-0.028392627835273743 0.035421717911958694 -0.11589999496936798
-0.027810489758849144 0.035452280193567276 -0.11599999666213989
-0.027180401608347893 0.035421717911958694 -0.11589999496936798
-0.026574285700917244 0.035421717911958694 -0.11589999496936798
-0.025968173518776894 0.035421717911958694 -0.11589999496936798
-0.02538394182920456 0.035452280193567276 -0.11599999666213989
-0.024777306243777275 0.035452280193567276 -0.11599999666213989
-0.014576715417206287 0.03572734072804451 -0.1168999969959259
-0.01386980153620243 0.03548284247517586 -0.1160999983549118
-0.009089402854442596 0.03352685272693634 -0.10969999432563782
0.020347960293293 0.03698039799928665 -0.12099999934434891
0.02101542428135872 0.037041518837213516 -0.12119999527931213
0.021613530814647675 0.03698039799928665 -0.12099999934434891
0.02228308655321598 0.037041518837213516 -0.12119999527931213
0.022954734042286873 0.03710264712572098 -0.12139999866485596
0.023628471419215202 0.03716376796364784 -0.12159999459981918
0.024304302409291267 0.037224896252155304 -0.121799997985363
0.024961747229099274 0.037255458533763885 -0.12189999967813492
0.025620236992836 0.03728601709008217 -0.12199999392032623
0.02621520683169365 0.037224896252155304 -0.121799997985363
0.026808081194758415 0.03716376796364784 -0.12159999459981918
0.02735372632741928 0.037041518837213516 -0.12119999527931213
0.02784900553524494 0.036858148872852325 -0.12060000002384186
0.028361624106764793 0.03670533746480942 -0.1200999990105629
0.028917286545038223 0.036613646894693375 -0.11979999393224716
0.029519135132431984 0.03658308833837509 -0.11969999969005585
0.030119938775897026 0.03655252233147621 -0.11959999799728394
0.030745400115847588 0.03655252233147621 -0.11959999799728394
0.03134463354945183 0.03652196004986763 -0.11949999630451202
0.031916070729494095 0.036460839211940765 -0.1193000003695488
0.03243085741996765 0.03633858636021614 -0.11889999359846115
0.032941464334726334 0.036216337233781815 -0.1184999942779541
0.033419568091630936 0.03606352582573891 -0.11800000071525574
0.03395012766122818 0.03597183898091316 -0.11769999563694
-0.03439437225461006 0.0341547392308712 -0.11369999498128891
-0.03382948786020279 0.034184779971838 -0.11379999667406082
-0.03326356038451195 0.034214816987514496 -0.11389999836683273
-0.03281131386756897 0.03436501696705818 -0.1143999993801117
-0.032381992787122726 0.03454525023698807 -0.11499999463558197
-0.0318634957075119 0.03463536873459816 -0.1152999997138977
-0.031341854482889175 0.03472548723220825 -0.11559999734163284
-0.03076389990746975 0.03475552797317505 -0.11569999903440475
-0.030158832669258118 0.03475552797317505 -0.11569999903440475
-0.029604852199554443 0.034815605729818344 -0.11589999496936798
-0.029023759067058563 0.03484564274549484 -0.11599999666213989
-0.028417125344276428 0.03484564274549484 -0.11599999666213989
-0.027834463864564896 0.03487568348646164 -0.1160999983549118
-0.027227304875850677 0.03487568348646164 -0.1160999983549118
-0.02662014402449131 0.03487568348646164 -0.1160999983549118
-0.026012985035777092 0.03487568348646164 -0.1160999983549118
-0.00839927326887846 0.03250257670879364 -0.10819999873638153
0.016523897647857666 0.03628753125667572 -0.12079999595880508
0.017155636101961136 0.03628753125667572 -0.12079999595880508
0.017787374556064606 0.03628753125667572 -0.12079999595880508
0.018449608236551285 0.036347612738609314 -0.12099999934434891
0.01911393366754055 0.03640769049525261 -0.12119999527931213
0.019780350849032402 0.036467768251895905 -0.12139999866485596
0.020432043820619583 0.0364978089928627 -0.12150000035762787
0.021084781736135483 0.0365278460085392 -0.12159999459981918
0.021720705553889275 0.0365278460085392 -0.12159999459981918
0.022375013679265976 0.036557886749506 -0.1216999962925911
0.023030366748571396 0.036587927490472794 -0.121799997985363
0.02370619587600231 0.03664800524711609 -0.12199999392032623
0.024384118616580963 0.036708083003759384 -0.12219999730587006
0.025043657049536705 0.03673812374472618 -0.12229999899864197
0.025683239102363586 0.03673812374472618 -0.12229999899864197
0.026301298290491104 0.036708083003759384 -0.12219999730587006
0.026896266266703606 0.03664800524711609 -0.12199999392032623
0.02746657282114029 0.036557886749506 -0.1216999962925911
0.028056833893060684 0.0364978089928627 -0.12150000035762787
0.028621386736631393 0.03640769049525261 -0.12119999527931213
0.029158666729927063 0.03628753125667572 -0.12079999595880508
0.029741084203124046 0.036227453500032425 -0.12060000002384186
0.030346592888236046 0.036197416484355927 -0.12049999833106995
0.03092534840106964 0.03613733500242233 -0.12029999494552612
0.03150201216340065 0.03607725724577904 -0.1200999990105629
0.03204983100295067 0.035987138748168945 -0.11979999393224716
0.03262178972363472 0.03592706099152565 -0.11959999799728394
0.03321945294737816 0.03589702025055885 -0.11949999630451202
0.03373110666871071 0.03577686473727226 -0.11909999698400497
0.034180887043476105 0.03559662774205208 -0.1184999942779541
-0.034958209842443466 0.03353061527013779 -0.1136000007390976
-0.03439437225461006 0.0335601307451725 -0.11369999498128891
-0.033859215676784515 0.03361916542053223 -0.11389999836683273
-0.033380378037691116 0.03373723104596138 -0.11429999768733978
-0.032897356897592545 0.03385529667139053 -0.11469999700784683
-0.03246647119522095 0.034032393246889114 -0.1152999997138977
-0.03191876411437988 0.03409142419695854 -0.11549999564886093
-0.031341854482889175 0.034120943397283554 -0.11559999734163284
-0.03076389990746975 0.03415045887231827 -0.11569999903440475
-0.030158832669258118 0.03415045887231827 -0.11569999903440475
-0.029604852199554443 0.034209489822387695 -0.11589999496936798
-0.028998738154768944 0.034209489822387695 -0.11589999496936798
-0.028417125344276428 0.03423900902271271 -0.11599999666213989
-0.027834463864564896 0.03426852449774742 -0.1160999983549118
-0.009707136079668999 0.03252705559134483 -0.11019999533891678
-0.00839927326887846 0.031936731189489365 -0.10819999873638153
-0.007811708375811577 0.031848181039094925 -0.1078999936580658
0.015336218290030956 0.03583289310336113 -0.12139999866485596
0.015971094369888306 0.03583289310336113 -0.12139999866485596
0.016592292115092278 0.035803377628326416 -0.12129999697208405
0.01721244305372238 0.035773858428001404 -0.12119999527931213
0.01787572167813778 0.03583289310336113 -0.12139999866485596
0.018525846302509308 0.035862408578395844 -0.12150000035762787
0.019177015870809555 0.03589192405343056 -0.12159999459981918
0.019812937825918198 0.03589192405343056 -0.12159999459981918
0.020465675741434097 0.03592144325375557 -0.1216999962925911
0.021119460463523865 0.03595095872879028 -0.121799997985363
0.02177429385483265 0.035980474203825 -0.12189999967813492
0.022430168464779854 0.03600998967885971 -0.12199999392032623
0.023087091743946075 0.03603950887918472 -0.12209999561309814
0.023764491081237793 0.03609853982925415 -0.12229999899864197
0.024443982169032097 0.03615757077932358 -0.1224999949336052
0.025125565007328987 0.036216605454683304 -0.12269999831914902
0.025767240673303604 0.036216605454683304 -0.12269999831914902
0.026408914476633072 0.036216605454683304 -0.12269999831914902
0.0269624050706625 0.03609853982925415 -0.12229999899864197
0.027534279972314835 0.03600998967885971 -0.12199999392032623
0.028126109391450882 0.03595095872879028 -0.121799997985363
0.028715847060084343 0.03589192405343056 -0.12159999459981918
0.02932763285934925 0.035862408578395844 -0.12150000035762787
0.02993836998939514 0.03583289310336113 -0.12139999866485596
0.030548064038157463 0.035803377628326416 -0.12129999697208405
0.031156709417700768 0.035773858428001404 -0.12119999527931213
0.03171185031533241 0.03568531200289726 -0.120899997651577
0.03223710134625435 0.03556724637746811 -0.12049999833106995
0.032730892300605774 0.03541966527700424 -0.11999999731779099
0.03330284729599953 0.035360630601644516 -0.11979999393224716
0.03387271612882614 0.03530159965157509 -0.11959999799728394
0.03441164270043373 0.03521304950118065 -0.1193000003695488
-0.03555229306221008 0.03293653205037117 -0.1136000007390976
-0.03498898074030876 0.0329655222594738 -0.11369999498128891
-0.03442462161183357 0.03299451619386673 -0.11379999667406082
-0.03391866758465767 0.03308149427175522 -0.11409999430179596
-0.0334387868642807 0.033197470009326935 -0.11449999362230301
-0.03301208093762398 0.03337142989039421 -0.11509999632835388
-0.03249462693929672 0.033458411693573 -0.11539999395608902
-0.03194639831781387 0.033516399562358856 -0.11559999734163284
-0.031341854482889175 0.033516399562358856 -0.11559999734163284
-0.03076389990746975 0.033545393496751785 -0.11569999903440475
-0.030158832669258118 0.033545393496751785 -0.11569999903440475
-0.029553765431046486 0.033545393496751785 -0.11569999903440475
-0.028998738154768944 0.033603377640247345 -0.11589999496936798
-0.028392627835273743 0.033603377640247345 -0.11589999496936798
-0.027834463864564896 0.0336613655090332 -0.1160999983549118
-0.009023117832839489 0.031573839485645294 -0.10889999568462372
-0.007804468739777803 0.03125490993261337 -0.10779999941587448
0.01408963929861784 0.035256002098321915 -0.12159999459981918
0.014725561253726482 0.035256002098321915 -0.12159999459981918
0.015361483208835125 0.035256002098321915 -0.12159999459981918
0.015984250232577324 0.035227011889219284 -0.12150000035762787
0.01660596951842308 0.035198017954826355 -0.12139999866485596
0.01725504919886589 0.035227011889219284 -0.12150000035762787
0.0178904477506876 0.035227011889219284 -0.12150000035762787
0.018541093915700912 0.035256002098321915 -0.12159999459981918
0.019177015870809555 0.035256002098321915 -0.12159999459981918
0.01982923038303852 0.035284996032714844 -0.1216999962925911
0.020482493564486504 0.03531398996710777 -0.121799997985363
0.021136799827218056 0.0353429839015007 -0.12189999967813492
0.021792154759168625 0.03537197783589363 -0.12199999392032623
0.02246694080531597 0.03542996570467949 -0.12219999730587006
0.02312490902841091 0.03545895963907242 -0.12229999899864197
0.023842215538024902 0.035574931651353836 -0.12269999831914902
0.024523798376321793 0.035632915794849396 -0.12289999425411224
0.025166518986225128 0.035632915794849396 -0.12289999425411224
0.025809239596128464 0.035632915794849396 -0.12289999425411224
0.0264519602060318 0.035632915794849396 -0.12289999425411224
0.02705059014260769 0.035574931651353836 -0.12269999831914902
0.027624554932117462 0.03548794984817505 -0.12239999324083328
0.02819538488984108 0.03540097177028656 -0.12209999561309814
0.028786692768335342 0.0353429839015007 -0.12189999967813492
0.029400046914815903 0.03531398996710777 -0.121799997985363
0.030012352392077446 0.035284996032714844 -0.1216999962925911
0.03062361478805542 0.035256002098321915 -0.12159999459981918
0.03125953674316406 0.035256002098321915 -0.12159999459981918
0.031816769391298294 0.035169024020433426 -0.12129999697208405
0.033386245369911194 0.034821104258298874 -0.1200999990105629
0.033929355442523956 0.03473412245512009 -0.11979999393224716
0.0344981774687767 0.03467613458633423 -0.11959999799728394
-0.03558358922600746 0.0323709137737751 -0.11369999498128891
-0.03501975163817406 0.032399386167526245 -0.11379999667406082
-0.03448512405157089 0.032456327229738235 -0.11400000005960464
-0.03400785103440285 0.032570209354162216 -0.1143999993801117
-0.03355560451745987 0.03271256014704704 -0.11490000039339066
-0.03306944668292999 0.032826442271471024 -0.1152999997138977
-0.03249462693929672 0.03285491093993187 -0.11539999395608902
-0.03191876411437988 0.032883383333683014 -0.11549999564886093
-0.031341854482889175 0.03291185572743416 -0.11559999734163284
-0.030737310647964478 0.03291185572743416 -0.11559999734163284
-0.03013276681303978 0.03291185572743416 -0.11559999734163284
-0.029553765431046486 0.032940324395895004 -0.11569999903440475
-0.028948698192834854 0.032940324395895004 -0.11569999903440475
-0.00779722910374403 0.030662687495350838 -0.10769999772310257
0.012181873433291912 0.03462008014321327 -0.12159999459981918
0.012817795388400555 0.03462008014321327 -0.12159999459981918
0.013453717343509197 0.03462008014321327 -0.12159999459981918
0.01408963929861784 0.03462008014321327 -0.12159999459981918
0.014725561253726482 0.03462008014321327 -0.12159999459981918
0.015361483208835125 0.03462008014321327 -0.12159999459981918
0.015997404232621193 0.03462008014321327 -0.12159999459981918
0.016633328050374985 0.03462008014321327 -0.12159999459981918
0.017269250005483627 0.03462008014321327 -0.12159999459981918
0.01790517196059227 0.03462008014321327 -0.12159999459981918
0.018556341528892517 0.034648552536964417 -0.1216999962925911
0.019208556041121483 0.03467702120542526 -0.121799997985363
0.019845524802803993 0.03467702120542526 -0.121799997985363
0.02049930952489376 0.03470549359917641 -0.12189999967813492
0.021154139190912247 0.03473396226763725 -0.12199999392032623
0.021827880293130875 0.03479090332984924 -0.12219999730587006
0.02250370942056179 0.034847844392061234 -0.12239999324083328
0.023200541734695435 0.03493325784802437 -0.12269999831914902
0.023881077766418457 0.03499019518494606 -0.12289999425411224
0.024563707411289215 0.03504713997244835 -0.12309999763965607
0.02520747482776642 0.03504713997244835 -0.12309999763965607
0.025851240381598473 0.03504713997244835 -0.12309999763965607
0.02651653066277504 0.035075608640909195 -0.12319999933242798
0.02713877335190773 0.03504713997244835 -0.12309999763965607
0.027782540768384933 0.03504713997244835 -0.12309999763965607
0.028380122035741806 0.03499019518494606 -0.12289999425411224
0.02897561341524124 0.03493325784802437 -0.12269999831914902
0.029544873163104057 0.034847844392061234 -0.12239999324083328
0.030160319060087204 0.03481937572360039 -0.12229999899864197
0.030774720013141632 0.03479090332984924 -0.12219999730587006
0.03133665770292282 0.03470549359917641 -0.12189999967813492
0.03237086534500122 0.0344492606818676 -0.12099999934434891
0.032894548028707504 0.03433537855744362 -0.12060000002384186
0.03341404348611832 0.03422149270772934 -0.12019999325275421
0.03395767882466316 0.0341360829770565 -0.11989999562501907
0.034555867314338684 0.03410761058330536 -0.11979999393224716
-0.03611455857753754 0.03172041103243828 -0.11349999904632568
-0.03558358922600746 0.0317763052880764 -0.11369999498128891
-0.03501975163817406 0.03180425614118576 -0.11379999667406082
-0.0345153734087944 0.031888097524642944 -0.11409999430179596
-0.034037575125694275 0.03199988603591919 -0.11449999362230301
-0.03358480706810951 0.032139625400304794 -0.11499999463558197
-0.03306944668292999 0.03222346678376198 -0.1152999997138977
-0.03249462693929672 0.03225141391158104 -0.11539999395608902
-0.031891126185655594 0.03225141391158104 -0.11539999395608902
-0.031287629157304764 0.03225141391158104 -0.11539999395608902
-0.030710721388459206 0.0322793610394001 -0.11549999564886093
-0.03013276681303978 0.03230730816721916 -0.11559999734163284
-0.029528222978115082 0.03230730816721916 -0.11559999734163284
-0.0071802642196416855 0.029875878244638443 -0.10689999908208847
0.011536456644535065 0.03395621478557587 -0.12150000035762787
0.012181873433291912 0.03398415818810463 -0.12159999459981918
0.012817795388400555 0.03398415818810463 -0.12159999459981918
0.013453717343509197 0.03398415818810463 -0.12159999459981918
0.01408963929861784 0.03398415818810463 -0.12159999459981918
0.014725561253726482 0.03398415818810463 -0.12159999459981918
0.015361483208835125 0.03398415818810463 -0.12159999459981918
0.015997404232621193 0.03398415818810463 -0.12159999459981918
0.016633328050374985 0.03398415818810463 -0.12159999459981918
0.017269250005483627 0.03398415818810463 -0.12159999459981918
0.01793462038040161 0.03404005616903305 -0.121799997985363
0.01857158914208412 0.03404005616903305 -0.121799997985363
0.01924009807407856 0.03409595042467117 -0.12199999392032623
0.019894404336810112 0.034123897552490234 -0.12209999561309814
0.02054975926876068 0.034151844680309296 -0.12219999730587006
0.02120615914463997 0.03417979180812836 -0.12229999899864197
0.0218814667314291 0.03423568606376648 -0.1224999949336052
0.022558867931365967 0.0342915840446949 -0.12269999831914902
0.02323835715651512 0.034347474575042725 -0.12289999425411224
0.02391994185745716 0.034403372555971146 -0.12309999763965607
0.024563707411289215 0.034403372555971146 -0.12309999763965607
0.02520747482776642 0.034403372555971146 -0.12309999763965607
0.02589324116706848 0.03445926681160927 -0.1232999935746193
0.026559576392173767 0.03448721393942833 -0.1233999952673912
0.02722695842385292 0.03451516106724739 -0.12349999696016312
0.02787281572818756 0.03451516106724739 -0.12349999696016312
0.028541767969727516 0.03454310819506645 -0.12359999865293503
0.02916453219950199 0.03451516106724739 -0.12349999696016312
0.02981039136648178 0.03451516106724739 -0.12349999696016312
0.030431589111685753 0.03448721393942833 -0.1233999952673912
0.031895458698272705 0.03398415818810463 -0.12159999459981918
0.03237086534500122 0.03381647542119026 -0.12099999934434891
0.032894548028707504 0.03370468690991402 -0.12060000002384186
0.03344184160232544 0.033620841801166534 -0.12029999494552612
0.034014321863651276 0.03356494754552841 -0.1200999990105629
0.034613557159900665 0.03353700041770935 -0.11999999731779099
-0.036146380007267 0.031154274940490723 -0.1136000007390976
-0.03558358922600746 0.03118169866502285 -0.11369999498128891
-0.03505052626132965 0.031236547976732254 -0.11389999836683273
-0.034545622766017914 0.031318821012973785 -0.11419999599456787
-0.03409703075885773 0.03145594522356987 -0.11469999700784683
-0.033614009618759155 0.03156564384698868 -0.11509999632835388
-0.03306944668292999 0.03162049129605293 -0.1152999997138977
-0.03246647119522095 0.03162049129605293 -0.1152999997138977
-0.0318634957075119 0.03162049129605293 -0.1152999997138977
-0.031260520219802856 0.03162049129605293 -0.1152999997138977
-0.030684130266308784 0.03164791688323021 -0.11539999395608902
-0.007173547521233559 0.029289405792951584 -0.10679999738931656
-0.006608829367905855 0.029261980205774307 -0.10669999569654465
0.010240310803055763 0.03323853760957718 -0.12119999527931213
0.010892084799706936 0.03329338878393173 -0.12139999866485596
0.011536456644535065 0.03332081437110901 -0.12150000035762787
0.012181873433291912 0.03334823623299599 -0.12159999459981918
0.012817795388400555 0.03334823623299599 -0.12159999459981918
0.013453717343509197 0.03334823623299599 -0.12159999459981918
0.01408963929861784 0.03334823623299599 -0.12159999459981918
0.014725561253726482 0.03334823623299599 -0.12159999459981918
0.015361483208835125 0.03334823623299599 -0.12159999459981918
0.015997404232621193 0.03334823623299599 -0.12159999459981918
0.016633328050374985 0.03334823623299599 -0.12159999459981918
0.017283450812101364 0.033375661820173264 -0.1216999962925911
0.01793462038040161 0.03340308740735054 -0.121799997985363
0.01860208436846733 0.033457934856414795 -0.12199999392032623
0.019271638244390488 0.03351278603076935 -0.12219999730587006
0.01994328573346138 0.0335676334798336 -0.12239999324083328
0.020600207149982452 0.03359505906701088 -0.1224999949336052
0.021275516599416733 0.033649906516075134 -0.12269999831914902
0.02195291593670845 0.03370475396513939 -0.12289999425411224
0.022595636546611786 0.03370475396513939 -0.12289999425411224
0.02323835715651512 0.03370475396513939 -0.12289999425411224
0.02391994185745716 0.03375960513949394 -0.12309999763965607
0.031439486891031265 0.033540211617946625 -0.12229999899864197
0.031921688467264175 0.033375661820173264 -0.1216999962925911
0.03242437168955803 0.03323853760957718 -0.12119999527931213
0.032921820878982544 0.03310141712427139 -0.12069999426603317
0.03346963971853256 0.03301914408802986 -0.12039999663829803
0.03404264524579048 0.03296429291367531 -0.12019999325275421
0.034642402082681656 0.03293687105178833 -0.1200999990105629
-0.03670812025666237 0.030533287674188614 -0.11349999904632568
-0.036146380007267 0.030560189858078957 -0.1136000007390976
-0.03558358922600746 0.03058709017932415 -0.11369999498128891
-0.03505052626132965 0.030640894547104836 -0.11389999836683273
-0.034606125205755234 0.0307754036039114 -0.1143999993801117
-0.03412675857543945 0.030883008614182472 -0.11479999870061874
-0.0336432158946991 0.030990615487098694 -0.1151999980211258
-0.03306944668292999 0.031017517670989037 -0.1152999997138977
-0.03246647119522095 0.031017517670989037 -0.1152999997138977
-0.03183585777878761 0.030990615487098694 -0.1151999980211258
-0.0312334056943655 0.030990615487098694 -0.1151999980211258
-0.007173547521233559 0.028730882331728935 -0.10679999738931656
-0.006602635607123375 0.02867707796394825 -0.10659999400377274
0.009574775584042072 0.0324971042573452 -0.12079999595880508
0.01022341288626194 0.03255090489983559 -0.12099999934434891
0.010883113369345665 0.032631609588861465 -0.12129999697208405
0.011526960879564285 0.03265851363539696 -0.12139999866485596
0.012171855196356773 0.03268541395664215 -0.12150000035762787
0.012817795388400555 0.032712314277887344 -0.12159999459981918
0.013453717343509197 0.032712314277887344 -0.12159999459981918
0.01408963929861784 0.032712314277887344 -0.12159999459981918
0.014725561253726482 0.032712314277887344 -0.12159999459981918
0.015361483208835125 0.032712314277887344 -0.12159999459981918
0.015997404232621193 0.032712314277887344 -0.12159999459981918
0.016647005453705788 0.032739218324422836 -0.1216999962925911
0.017283450812101364 0.032739218324422836 -0.1216999962925911
0.01793462038040161 0.03276611864566803 -0.121799997985363
0.01860208436846733 0.03281991928815842 -0.12199999392032623
0.019287409260869026 0.032900627702474594 -0.12229999899864197
0.019992167130112648 0.033008232712745667 -0.12269999831914902
0.020633840933442116 0.033008232712745667 -0.12269999831914902
0.021310193464159966 0.03306203708052635 -0.12289999425411224
0.03110210970044136 0.03322344645857811 -0.12349999696016312
0.03146519139409065 0.03292752802371979 -0.12239999324083328
0.031921688467264175 0.032739218324422836 -0.1216999962925911
0.032451122999191284 0.032631609588861465 -0.12129999697208405
0.03297637403011322 0.03252400457859039 -0.120899997651577
0.033525239676237106 0.032443299889564514 -0.12060000002384186
0.0341276116669178 0.03241639956831932 -0.12049999833106995
0.03470008820295334 0.032362595200538635 -0.12029999494552612
-0.036740463227033615 0.02996610477566719 -0.1136000007390976
-0.03617819398641586 0.02999248169362545 -0.11369999498128891
-0.03561488538980484 0.030018862336874008 -0.11379999667406082
-0.03511207178235054 0.030097996816039085 -0.11409999430179596
-0.034636370837688446 0.03020351193845272 -0.11449999362230301
-0.034186214208602905 0.030335403978824615 -0.11499999463558197
-0.03367242217063904 0.03041454218327999 -0.1152999997138977
-0.03306944668292999 0.03041454218327999 -0.1152999997138977
-0.03246647119522095 0.03041454218327999 -0.1152999997138977
-0.0318634957075119 0.03041454218327999 -0.1152999997138977
-0.006608829367905855 0.028145980089902878 -0.10669999569654465
0.008263137191534042 0.03168071433901787 -0.1200999990105629
0.00890602171421051 0.031733471900224686 -0.12029999494552612
0.009574775584042072 0.03186536580324173 -0.12079999595880508
0.01022341288626194 0.03191812336444855 -0.12099999934434891
0.01087414100766182 0.031970877200365067 -0.12119999527931213
0.011507971212267876 0.031970877200365067 -0.12119999527931213
0.01215181965380907 0.031997255980968475 -0.12129999697208405
0.012796713970601559 0.03202363848686218 -0.12139999866485596
0.01344265416264534 0.03205001726746559 -0.12150000035762787
0.01408963929861784 0.0320763923227787 -0.12159999459981918
0.014725561253726482 0.0320763923227787 -0.12159999459981918
0.015361483208835125 0.0320763923227787 -0.12159999459981918
0.015997404232621193 0.0320763923227787 -0.12159999459981918
0.016647005453705788 0.03210277110338211 -0.1216999962925911
0.01729765348136425 0.03212914988398552 -0.121799997985363
0.03110210970044136 0.03257758542895317 -0.12349999696016312
0.03149089962244034 0.03231380134820938 -0.1224999949336052
0.031947918236255646 0.03212914988398552 -0.121799997985363
0.03247787803411484 0.03202363848686218 -0.12139999866485596
0.03300365060567856 0.03191812336444855 -0.12099999934434891
0.03358083590865135 0.03186536580324173 -0.12079999595880508
0.03415593132376671 0.03181260824203491 -0.12060000002384186
-0.036740463227033615 0.029372019693255424 -0.1136000007390976
-0.03617819398641586 0.0293978750705719 -0.11369999498128891
-0.03564618155360222 0.02944958582520485 -0.11389999836683273
-0.035142846405506134 0.029527153819799423 -0.11419999599456787
-0.034636370837688446 0.029604719951748848 -0.11449999362230301
-0.03421594202518463 0.029759854078292847 -0.11509999632835388
-0.03370162472128868 0.02983742021024227 -0.11539999395608902
-0.03309812396764755 0.02983742021024227 -0.11539999395608902
-0.03249462693929672 0.02983742021024227 -0.11539999395608902
-0.006776701658964157 0.03089750185608864 -0.11949999630451202
0.007615987211465836 0.030975069850683212 -0.11979999393224716
0.008263137191534042 0.031052637845277786 -0.1200999990105629
0.008913424797356129 0.03113020397722721 -0.12039999663829803
0.009566850028932095 0.031207770109176636 -0.12069999426603317
0.010214962996542454 0.031259480863809586 -0.120899997651577
0.010856197215616703 0.03128533810377121 -0.12099999934434891
0.011488981544971466 0.03128533810377121 -0.12099999934434891
0.012141801416873932 0.03133704885840416 -0.12119999527931213
0.012775631621479988 0.03133704885840416 -0.12119999527931213
0.013431590050458908 0.03138875961303711 -0.12139999866485596
0.014078052714467049 0.031414616852998734 -0.12150000035762787
0.014725561253726482 0.03144047036767006 -0.12159999459981918
0.031026558950543404 0.031854163855314255 -0.12319999933242798
0.031439486891031265 0.03162145987153053 -0.12229999899864197
0.031947918236255646 0.03149218484759331 -0.121799997985363
0.03250462934374809 0.031414616852998734 -0.12150000035762787
0.033085476607084274 0.031362906098365784 -0.12129999697208405
0.033636435866355896 0.03128533810377121 -0.12099999934434891
0.03424089774489403 0.031259480863809586 -0.120899997651577
-0.036740463227033615 0.02877793461084366 -0.1136000007390976
-0.03617819398641586 0.0288032665848732 -0.11369999498128891
-0.03564618155360222 0.02885393239557743 -0.11389999836683273
-0.035142846405506134 0.028929930180311203 -0.11419999599456787
-0.034696873277425766 0.029056593775749207 -0.11469999700784683
-0.03421594202518463 0.02915792353451252 -0.11509999632835388
-0.03370162472128868 0.029233921319246292 -0.11539999395608902
-0.03309812396764755 0.029233921319246292 -0.11539999395608902
-0.032522786408662796 0.029259255155920982 -0.11549999564886093
-0.007160113658756018 0.027004646137356758 -0.10659999400377274
-0.006776701658964157 0.03027256205677986 -0.11949999630451202
0.006352347321808338 0.03029789589345455 -0.11959999799728394
0.006989479064941406 0.030348559841513634 -0.11979999393224716
0.007622344885021448 0.030373893678188324 -0.11989999562501907
0.008263137191534042 0.030424559488892555 -0.1200999990105629
0.008920827880501747 0.03052588924765587 -0.12049999833106995
0.009566850028932095 0.0305765550583601 -0.12069999426603317
0.010206514038145542 0.03060188703238964 -0.12079999595880508
0.010847224853932858 0.03062722086906433 -0.120899997651577
0.011479485780000687 0.03062722086906433 -0.120899997651577
0.012121765874326229 0.03065255470573902 -0.12099999934434891
0.012775631621479988 0.030703218653798103 -0.12119999527931213
0.030951006338000298 0.031133873388171196 -0.12289999425411224
0.031388070434331894 0.03093121200799942 -0.12209999561309814
0.031947918236255646 0.030855214223265648 -0.121799997985363
0.03253138065338135 0.030804548412561417 -0.12159999459981918
0.03311275318264961 0.030753884464502335 -0.12139999866485596
0.03369203209877014 0.030703218653798103 -0.12119999527931213
0.03432586044073105 0.030703218653798103 -0.12119999527931213
-0.036740463227033615 0.028183849528431892 -0.1136000007390976
-0.03617819398641586 0.0282086580991745 -0.11369999498128891
-0.03564618155360222 0.028258278965950012 -0.11389999836683273
-0.03517361730337143 0.02835751697421074 -0.11429999768733978
-0.034696873277425766 0.028456756845116615 -0.11469999700784683
-0.03421594202518463 0.028555994853377342 -0.11509999632835388
-0.03370162472128868 0.028630424290895462 -0.11539999395608902
-0.03312680497765541 0.02865523286163807 -0.11549999564886093
-0.03255094215273857 0.028680043295025826 -0.11559999734163284
-0.007166830822825432 0.026471978053450584 -0.10669999569654465
-0.006602635607123375 0.026447167620062828 -0.10659999400377274
-0.006776701658964157 0.029647622257471085 -0.11949999630451202
0.0063576591201126575 0.029697243124246597 -0.11969999969005585
0.006989479064941406 0.029722051694989204 -0.11979999393224716
0.007635059300810099 0.029796481132507324 -0.1200999990105629
0.00828377716243267 0.029870910570025444 -0.12039999663829803
0.00892823189496994 0.029920531436800957 -0.12060000002384186
0.009574775584042072 0.02997014857828617 -0.12079999595880508
0.010206514038145542 0.02997014857828617 -0.12079999595880508
0.010838252492249012 0.02997014857828617 -0.12079999595880508
0.03085027076303959 0.030391914770007133 -0.1224999949336052
0.03136236593127251 0.03026786632835865 -0.12199999392032623
0.031921688467264175 0.03019343689084053 -0.1216999962925911
0.03253138065338135 0.030168626457452774 -0.12159999459981918
0.03314002975821495 0.030143817886710167 -0.12150000035762787
0.03374762833118439 0.03011900745332241 -0.12139999866485596
-0.036210015416145325 0.027638336643576622 -0.11379999667406082
-0.0356774777173996 0.027686910703778267 -0.11400000005960464
-0.03520439192652702 0.027784056961536407 -0.1143999993801117
-0.03472712263464928 0.027881203219294548 -0.11479999870061874
-0.03421594202518463 0.027954064309597015 -0.11509999632835388
-0.03370162472128868 0.028026923537254333 -0.11539999395608902
-0.03309812396764755 0.028026923537254333 -0.11539999395608902
-0.0060451580211520195 0.025889689102768898 -0.10659999400377274
0.005736461374908686 0.029095541685819626 -0.11979999393224716
0.006368281319737434 0.02911982871592045 -0.11989999562501907
0.0070069823414087296 0.029168402776122093 -0.1200999990105629
0.007654130924493074 0.02924126200377941 -0.12039999663829803
0.008297538384795189 0.029289836063981056 -0.12060000002384186
0.008935634046792984 0.02931412123143673 -0.12069999426603317
0.009582702070474625 0.029362697154283524 -0.120899997651577
0.010214962996542454 0.029362697154283524 -0.120899997651577
0.030308283865451813 0.029848430305719376 -0.12289999425411224
0.031921688467264175 0.029556989669799805 -0.1216999962925911
0.03253138065338135 0.029532702639698982 -0.12159999459981918
0.03316730260848999 0.029532702639698982 -0.12159999459981918
0.03380322456359863 0.029532702639698982 -0.12159999459981918
-0.036210015416145325 0.027043204754590988 -0.11379999667406082
-0.0356774777173996 0.027090733870863914 -0.11400000005960464
-0.03520439192652702 0.02718578837811947 -0.1143999993801117
-0.034757375717163086 0.02730460837483406 -0.11490000039339066
-0.03421594202518463 0.02735213376581669 -0.11509999632835388
-0.03367242217063904 0.027399662882089615 -0.1152999997138977
-0.03309812396764755 0.027423424646258354 -0.11539999395608902
-0.006039487197995186 0.02530844882130623 -0.10649999976158142
-0.006141466088593006 0.028350215405225754 -0.1193000003695488
0.004475959111005068 0.02842150628566742 -0.11959999799728394
0.005109952762722969 0.028469031676650047 -0.11979999393224716
0.005736461374908686 0.028469031676650047 -0.11979999393224716
0.0063789039850234985 0.028540324419736862 -0.1200999990105629
0.0070186504162848 0.02858785167336464 -0.12029999494552612
0.007660488598048687 0.028635380789637566 -0.12049999833106995
0.008304418064653873 0.028682906180620193 -0.12069999426603317
0.008935634046792984 0.028682906180620193 -0.12069999426603317
0.031310953199863434 0.028944309800863266 -0.121799997985363
0.031895458698272705 0.02889678068459034 -0.12159999459981918
0.03250462934374809 0.0288730189204216 -0.12150000035762787
0.03316730260848999 0.02889678068459034 -0.12159999459981918
0.03380322456359863 0.02889678068459034 -0.12159999459981918
-0.036210015416145325 0.026448074728250504 -0.11379999667406082
-0.03570877015590668 0.026517795398831367 -0.11409999430179596
-0.03520439192652702 0.02658751979470253 -0.1143999993801117
-0.03472712263464928 0.026680482551455498 -0.11479999870061874
-0.03421594202518463 0.02675020508468151 -0.11509999632835388
-0.03367242217063904 0.02679668739438057 -0.1152999997138977
-0.03309812396764755 0.026819927617907524 -0.11539999395608902
-0.006602635607123375 0.024774732068181038 -0.10659999400377274
-0.006039487197995186 0.024751493707299232 -0.10649999976158142
-0.006141466088593006 0.027726320549845695 -0.1193000003695488
0.0038504963740706444 0.02779604308307171 -0.11959999799728394
0.004475959111005068 0.02779604308307171 -0.11959999799728394
0.005109952762722969 0.027842523530125618 -0.11979999393224716
0.005746038164943457 0.027889005839824677 -0.11999999731779099
0.006389526650309563 0.02795872837305069 -0.12029999494552612
0.007030319422483444 0.028005210682749748 -0.12049999833106995
0.007666845805943012 0.028028450906276703 -0.12060000002384186
0.031842999160289764 0.028214378282427788 -0.12139999866485596
0.032451122999191284 0.028191136196255684 -0.12129999697208405
0.03311275318264961 0.028214378282427788 -0.12139999866485596
-0.036210015416145325 0.02585294283926487 -0.11379999667406082
-0.03570877015590668 0.02592109516263008 -0.11409999430179596
-0.03523516282439232 0.026011968031525612 -0.11449999362230301
-0.034757375717163086 0.026102840900421143 -0.11490000039339066
-0.03424566984176636 0.026170993223786354 -0.1151999980211258
-0.03367242217063904 0.026193711906671524 -0.1152999997138977
-0.006602635607123375 0.024217255413532257 -0.10659999400377274
-0.006039487197995186 0.024194538593292236 -0.10649999976158142
-0.006146613974124193 0.027125144377350807 -0.11939999461174011
0.003222336759790778 0.027147861197590828 -0.11949999630451202
0.0038504963740706444 0.027170579880475998 -0.11959999799728394
0.00447970163077116 0.027193298563361168 -0.11969999969005585
0.005109952762722969 0.02721601538360119 -0.11979999393224716
0.005750826559960842 0.02728416956961155 -0.1200999990105629
0.006389526650309563 0.02732960507273674 -0.12029999494552612
0.0070244851522147655 0.02735232189297676 -0.12039999663829803
0.02949659712612629 0.027761245146393776 -0.12219999730587006
0.03173808008432388 0.027488630264997482 -0.12099999934434891
0.03237086534500122 0.027488630264997482 -0.12099999934434891
0.033058200031518936 0.027534065768122673 -0.12119999527931213
-0.036210015416145325 0.025257812812924385 -0.11379999667406082
-0.03570877015590668 0.025324396789073944 -0.11409999430179596
-0.03523516282439232 0.02541317604482174 -0.11449999362230301
-0.03472712263464928 0.025479761883616447 -0.11479999870061874
-0.03424566984176636 0.025568541139364243 -0.1151999980211258
-0.03367242217063904 0.02559073641896248 -0.1152999997138977
-0.006608829367905855 0.023681972175836563 -0.10669999569654465
-0.0060451580211520195 0.023659776896238327 -0.10659999400377274
-0.00615176185965538 0.02652292139828205 -0.11949999630451202
0.002590876305475831 0.026456337422132492 -0.11919999867677689
0.003222336759790778 0.02652292139828205 -0.11949999630451202
0.0038504963740706444 0.026545116677880287 -0.11959999799728394
0.004483443684875965 0.02658950537443161 -0.11979999393224716
0.005118483677506447 0.026633895933628082 -0.11999999731779099
0.005750826559960842 0.02665609121322632 -0.1200999990105629
0.030976762995123863 0.026744872331619263 -0.12049999833106995
0.03160693123936653 0.026744872331619263 -0.12049999833106995
0.0322638563811779 0.0267670676112175 -0.12060000002384186
-0.036210015416145325 0.02466268092393875 -0.11379999667406082
-0.03570877015590668 0.024727696552872658 -0.11409999430179596
-0.03520439192652702 0.024792714044451714 -0.1143999993801117
-0.03472712263464928 0.024879401549696922 -0.11479999870061874
-0.03424566984176636 0.02496608905494213 -0.1151999980211258
-0.03367242217063904 0.024987760931253433 -0.1152999997138977
-0.006615023594349623 0.02314564399421215 -0.10679999738931656
-0.006050828844308853 0.02312397211790085 -0.10669999569654465
-0.00615176185965538 0.025897981598973274 -0.11949999630451202
-0.005522197112441063 0.025876309722661972 -0.11939999461174011
0.0019625534769147635 0.02576795034110546 -0.11889999359846115
0.00259304977953434 0.02585463970899582 -0.1193000003695488
0.003222336759790778 0.025897981598973274 -0.11949999630451202
0.0038504963740706444 0.025919655337929726 -0.11959999799728394
0.004483443684875965 0.02596299722790718 -0.11979999393224716
0.005118483677506447 0.026006342843174934 -0.11999999731779099
0.005746038164943457 0.026006342843174934 -0.11999999731779099
0.030822521075606346 0.025984669104218483 -0.11989999562501907
0.03150201216340065 0.026028014719486237 -0.1200999990105629
0.03218359500169754 0.02607135660946369 -0.12029999494552612
-0.036210015416145325 0.024067550897598267 -0.11379999667406082
-0.03570877015590668 0.02413099631667137 -0.11409999430179596
-0.03520439192652702 0.024194445461034775 -0.1143999993801117
-0.03472712263464928 0.024279041215777397 -0.11479999870061874
-0.03424566984176636 0.02436363697052002 -0.1151999980211258
-0.0336432158946991 0.02436363697052002 -0.1151999980211258
-0.006621217355132103 0.02260827086865902 -0.10689999908208847
-0.006056499667465687 0.022587120532989502 -0.10679999738931656
0.0019625534769147635 0.02514614723622799 -0.11889999359846115
0.00259304977953434 0.02523074485361576 -0.1193000003695488
0.0032250334043055773 0.025294192135334015 -0.11959999799728394
0.00385371595621109 0.025315340608358383 -0.11969999969005585
0.004483443684875965 0.02533648908138275 -0.11979999393224716
0.030119938775897026 0.025294192135334015 -0.11959999799728394
0.030745400115847588 0.025294192135334015 -0.11959999799728394
0.03139709308743477 0.025315340608358383 -0.11969999969005585
-0.036210015416145325 0.023472419008612633 -0.11379999667406082
-0.03564618155360222 0.023493045940995216 -0.11389999836683273
-0.03517361730337143 0.023575549945235252 -0.11429999768733978
-0.034696873277425766 0.02365805394947529 -0.11469999700784683
-0.03415648639202118 0.023699305951595306 -0.11490000039339066
-0.03355560451745987 0.023699305951595306 -0.11490000039339066
-0.0066336048766970634 0.022090474143624306 -0.1070999950170517
-0.006090525072067976 0.022152353078126907 -0.10740000009536743
0.001337368506938219 0.024462468922138214 -0.11859999597072601
0.0019658547826111317 0.024565597996115685 -0.11909999698400497
0.0025973969604820013 0.02464810200035572 -0.11949999630451202
0.0032250334043055773 0.024668728932738304 -0.11959999799728394
0.0038569350726902485 0.024709980934858322 -0.11979999393224716
0.028526928275823593 0.024916240945458412 -0.12079999595880508
0.028917286545038223 0.024709980934858322 -0.11979999393224716
0.029469812288880348 0.02464810200035572 -0.11949999630451202
0.029994018375873566 0.024565597996115685 -0.11909999698400497
0.03066828101873398 0.024606851860880852 -0.1193000003695488
-0.03617819398641586 0.0228571854531765 -0.11369999498128891
-0.03561488538980484 0.022877288982272148 -0.11379999667406082
-0.035081300884485245 0.0229174941778183 -0.11400000005960464
-0.034545622766017914 0.02295769937336445 -0.11419999599456787
-0.03397812321782112 0.0229778029024601 -0.11429999768733978
-0.033380378037691116 0.0229778029024601 -0.11429999768733978
-0.0066521866247057915 0.021590692922472954 -0.10740000009536743
-0.006118879187852144 0.021691206842660904 -0.1078999936580658
-0.005600934382528067 0.021872134879231453 -0.1087999939918518
-0.005082826130092144 0.022093268111348152 -0.10989999771118164
0.0007165305432863533 0.023822132498025894 -0.1184999942779541
0.0013407513033598661 0.023902542889118195 -0.11889999359846115
0.0019691558554768562 0.023982957005500793 -0.1193000003695488
0.0025973969604820013 0.024023162201046944 -0.11949999630451202
0.0032250334043055773 0.024043265730142593 -0.11959999799728394
0.027987556532025337 0.024364914745092392 -0.12119999527931213
0.028338007628917694 0.024123677983880043 -0.11999999731779099
0.02884487248957157 0.024023162201046944 -0.11949999630451202
0.02932184562087059 0.023902542889118195 -0.11889999359846115
0.029893282800912857 0.023862337693572044 -0.11869999766349792
0.03030838444828987 0.023701515048742294 -0.11789999902248383
-0.03611455857753754 0.022223416715860367 -0.11349999904632568
-0.03498898074030876 0.0222625769674778 -0.11369999498128891
-0.03439437225461006 0.0222625769674778 -0.11369999498128891
-0.03379976004362106 0.0222625769674778 -0.11369999498128891
-0.03314674645662308 0.022223416715860367 -0.11349999904632568
-0.006664574146270752 0.021068191155791283 -0.10759999603033066
-0.0061358921229839325 0.021185671910643578 -0.10819999873638153
-0.0055906386114656925 0.02126399241387844 -0.10859999805688858
-0.005068951286375523 0.0214597936719656 -0.1096000000834465
9.698368376120925e-05 0.02324158325791359 -0.11869999766349792
0.0007189491880126297 0.023280741646885872 -0.11889999359846115
0.0013441343326121569 0.02333948388695717 -0.11919999867677689
0.0019724571611732244 0.023398222401738167 -0.11949999630451202
0.0025973969604820013 0.023398222401738167 -0.11949999630451202
0.028243547305464745 0.023417802527546883 -0.11959999799728394
0.028748320415616035 0.023319901898503304 -0.11909999698400497
0.029247863218188286 0.023222001269459724 -0.11859999597072601
0.029842915013432503 0.02320242114365101 -0.1184999942779541
0.030436920002102852 0.023182842880487442 -0.11840000003576279
-0.03536451607942581 0.021534569561481476 -0.11299999803304672
-0.0347735695540905 0.021534569561481476 -0.11299999803304672
-0.03412212058901787 0.021496454253792763 -0.1127999946475029
-0.03347276151180267 0.0214583408087492 -0.11259999871253967
-0.03273788467049599 0.02136305533349514 -0.11209999769926071
-0.006676962133497 0.020543597638607025 -0.10779999941587448
-0.0061358921229839325 0.020619826391339302 -0.10819999873638153
-0.005595786962658167 0.02071511186659336 -0.10869999974966049
-0.0005246549844741821 0.02265894040465355 -0.11889999359846115
9.731050522532314e-05 0.022697053849697113 -0.11909999698400497
0.0007213678909465671 0.022735169157385826 -0.1193000003695488
0.0013463895302265882 0.022754225879907608 -0.11939999461174011
0.0019724571611732244 0.02277328260242939 -0.11949999630451202
0.028172703459858894 0.022735169157385826 -0.1193000003695488
0.0286517683416605 0.022620826959609985 -0.11869999766349792
0.029247863218188286 0.022601768374443054 -0.11859999597072601
0.029893282800912857 0.022620826959609985 -0.11869999766349792
-0.03511414676904678 0.020795349031686783 -0.11219999939203262
-0.033849868923425674 0.02073974534869194 -0.11189999431371689
-0.033205218613147736 0.020702676847577095 -0.11169999837875366
-0.03256266191601753 0.02066560834646225 -0.11149999499320984
-0.0061358921229839325 0.020053980872035027 -0.10819999873638153
-0.005595786962658167 0.020146653056144714 -0.10869999974966049
-0.00504120159894228 0.020202254876494408 -0.10899999737739563
-0.0011445287382230163 0.02200007066130638 -0.11869999766349792
-0.0005255375290289521 0.022074205800890923 -0.11909999698400497
9.747391595738009e-05 0.022111276164650917 -0.1193000003695488
0.0007225772133097053 0.022148342803120613 -0.11949999630451202
0.001347517129033804 0.022148342803120613 -0.11949999630451202
0.0286517683416605 0.02200007066130638 -0.11869999766349792
0.029272524639964104 0.02200007066130638 -0.11869999766349792
0.02994365058839321 0.022037137299776077 -0.11889999359846115
0.0310024693608284 0.022352220490574837 -0.12060000002384186
-0.03437351807951927 0.020118528977036476 -0.11169999837875366
-0.033056583255529404 0.02002847194671631 -0.1111999973654747
-0.03165733069181442 0.019524158909916878 -0.10839999467134476
-0.006670767907053232 0.019398080185055733 -0.10769999772310257
-0.006130221299827099 0.019470125436782837 -0.10809999704360962
-0.005580342840403318 0.019524158909916878 -0.10839999467134476
-0.0050180768594145775 0.019542168825864792 -0.10849999636411667
-0.0017623105086386204 0.02134329080581665 -0.1184999942779541
-0.0011454930063337088 0.02139732614159584 -0.11879999935626984
-0.0005255375290289521 0.02145135961472988 -0.11909999698400497
9.747391595738009e-05 0.02148738130927086 -0.1193000003695488
0.0007225772133097053 0.021523403003811836 -0.11949999630451202
0.027889322489500046 0.021271245554089546 -0.11809999495744705
0.02853107824921608 0.02128925733268261 -0.11819999665021896
0.029247863218188286 0.021361302584409714 -0.11859999597072601
-0.0342196524143219 0.01944693922996521 -0.1111999973654747
-0.03351711854338646 0.019376985728740692 -0.11079999804496765
-0.032075583934783936 0.018869824707508087 -0.1078999936580658
-0.03124847449362278 0.01871243305504322 -0.10700000077486038
-0.030545497313141823 0.018624991178512573 -0.10649999976158142
-0.026707660406827927 0.01948191598057747 -0.11140000075101852
-0.026171982288360596 0.01951689086854458 -0.11159999668598175
-0.025611283257603645 0.019534379243850708 -0.11169999837875366
-0.02301676943898201 0.020338838919997215 -0.11629999428987503
-0.006658380385488272 0.01879987306892872 -0.10749999433755875
-0.006113208830356598 0.018852338194847107 -0.10779999941587448
-0.005564899183809757 0.018904803320765495 -0.10809999704360962
-0.0023739803582429886 0.020653627812862396 -0.11809999495744705
-0.001759336213581264 0.020688604563474655 -0.11829999834299088
-0.0011445287382230163 0.020758558064699173 -0.11869999766349792
-0.0005255375290289521 0.02082851156592369 -0.11909999698400497
9.747391595738009e-05 0.02086348831653595 -0.1193000003695488
0.02713315188884735 0.02054869942367077 -0.11749999970197678
0.027676787227392197 0.02049623429775238 -0.11719999462366104
0.028386250138282776 0.02056618593633175 -0.11759999394416809
-0.0302263256162405 0.017559075728058815 -0.10349999368190765
-0.02979978546500206 0.017626939341425896 -0.1039000004529953
-0.027437224984169006 0.019001126289367676 -0.1119999960064888
-0.026851506903767586 0.019001126289367676 -0.1119999960064888
-0.026265788823366165 0.019001126289367676 -0.1119999960064888
-0.02570299804210663 0.01901809312403202 -0.11209999769926071
-0.025139164179563522 0.019035058096051216 -0.11219999939203262
-0.022427832707762718 0.019747599959373474 -0.11639999598264694
