ply
format ascii 1.0
element vertex 781
property float x
property float y
property float z
end_header
0.012217399664223194 0.05856095999479294 -0.14459998905658722
0.014081122353672981 0.06005940958857536 -0.14829999208450317
0.014936819672584534 0.060383398085832596 -0.14909999072551727
0.01586413010954857 0.0609503835439682 -0.15049999952316284
0.01669544354081154 0.06111237406730652 -0.1508999913930893
0.01747300662100315 0.06107187643647194 -0.15079998970031738
0.018237413838505745 0.06099088117480278 -0.15060000121593475
0.018987096846103668 0.06086938455700874 -0.15029999613761902
0.019681019708514214 0.06058589369058609 -0.14959999918937683
0.02035394124686718 0.060261908918619156 -0.14880000054836273
0.021046897396445274 0.060018911957740784 -0.14819999039173126
0.02177775464951992 0.059897419065237045 -0.14790000021457672
0.02249022386968136 0.05973542109131813 -0.14749999344348907
0.023166971281170845 0.059492431581020355 -0.1468999981880188
0.02382114715874195 0.059208944439888 -0.1462000012397766
0.012208951637148857 0.05776478722691536 -0.1445000022649765
0.013090240769088268 0.05832444503903389 -0.14589999616146088
0.014043143019080162 0.05912395939230919 -0.14790000021457672
0.014926801435649395 0.059563685208559036 -0.14899998903274536
0.015874670818448067 0.06020330265164375 -0.15060000121593475
0.01669544354081154 0.06032322347164154 -0.1508999913930893
0.017484592273831367 0.06032322347164154 -0.1508999913930893
0.018273742869496346 0.06032322347164154 -0.1508999913930893
0.019012361764907837 0.06016332656145096 -0.15049999952316284
0.019733641296625137 0.059963442385196686 -0.14999999105930328
0.020422333851456642 0.05968361347913742 -0.1492999941110611
0.021117907017469406 0.05944376438856125 -0.14869999885559082
0.021821927279233932 0.059243880212306976 -0.14819999039173126
0.022551216185092926 0.05912395939230919 -0.14790000021457672
0.023293135687708855 0.0590440072119236 -0.1476999968290329
0.023984083905816078 0.058844130486249924 -0.14720000326633453
0.02463616617023945 0.05856429785490036 -0.14649999141693115
0.013108184561133385 0.05764034762978554 -0.1460999995470047
0.014043143019080162 0.058350495994091034 -0.14790000021457672
0.014926801435649395 0.058784473687410355 -0.14899998903274536
0.01586413010954857 0.05937626585364342 -0.15049999952316284
0.01669544354081154 0.05953407287597656 -0.1508999913930893
0.017484592273831367 0.05953407287597656 -0.1508999913930893
0.018273742869496346 0.05953407287597656 -0.1508999913930893
0.01902499608695507 0.05941572040319443 -0.15060000121593475
0.019746797159314156 0.059218455106019974 -0.1500999927520752
0.02046336978673935 0.05902119353413582 -0.14959999918937683
0.021174712106585503 0.058823924511671066 -0.14909999072551727
0.021880825981497765 0.05862666666507721 -0.1485999971628189
0.02259695716202259 0.05846885219216347 -0.14819999039173126
0.023324675858020782 0.058350495994091034 -0.14790000021457672
0.024065550416707993 0.05827159062027931 -0.1476999968290329
0.024770697578787804 0.05811377614736557 -0.14729999005794525
0.025402305647730827 0.05779815837740898 -0.14649999141693115
0.02604341134428978 0.057521987706422806 -0.14579999446868896
0.026658806949853897 0.05720636993646622 -0.14499999582767487
0.013215849176049232 0.05734345316886902 -0.14729999005794525
0.014043143019080162 0.05757703632116318 -0.14790000021457672
0.014896748587489128 0.05788847431540489 -0.14869999885559082
0.015843048691749573 0.05851134657859802 -0.15029999613761902
0.01665118895471096 0.058589208871126175 -0.15049999952316284
0.01744983345270157 0.0586281381547451 -0.15060000121593475
0.018237413838505745 0.0586281381547451 -0.15060000121593475
0.019012361764907837 0.058589208871126175 -0.15049999952316284
0.019733641296625137 0.05839455500245094 -0.14999999105930328
0.0204770490527153 0.05827777087688446 -0.14970000088214874
0.021203115582466125 0.058122050017118454 -0.1492999941110611
0.021939724683761597 0.058005258440971375 -0.14899998903274536
0.02265794761478901 0.057849545031785965 -0.1485999971628189
0.023387758061289787 0.057732753455638885 -0.14829999208450317
0.02411443181335926 0.057615965604782104 -0.14800000190734863
0.02483796514570713 0.057499174028635025 -0.1476999968290329
0.025541020557284355 0.05734345316886902 -0.14729999005794525
0.026168446987867355 0.0570320188999176 -0.14649999141693115
0.027417102828621864 0.0564480721950531 -0.14499999582767487
0.028097670525312424 0.056292351335287094 -0.14459998905658722
0.02865433506667614 0.055903058499097824 -0.1436000019311905
0.014936819672584534 0.05726445093750954 -0.14909999072551727
0.015779802575707436 0.05749489739537239 -0.14970000088214874
0.016573742032051086 0.05753330513834953 -0.14980000257492065
0.01735713891685009 0.05753330513834953 -0.14980000257492065
0.018164753913879395 0.05761011317372322 -0.14999999105930328
0.018923932686448097 0.05753330513834953 -0.14980000257492065
0.019694175571203232 0.05749489739537239 -0.14970000088214874
0.02046336978673935 0.05745648965239525 -0.14959999918937683
0.021203115582466125 0.05734126642346382 -0.1492999941110611
0.021983899176120758 0.05734126642346382 -0.1492999941110611
0.022718938067555428 0.05722604691982269 -0.14899998903274536
0.023435069248080254 0.05707241967320442 -0.1485999971628189
0.02416331134736538 0.05695720016956329 -0.14829999208450317
0.024905232712626457 0.05688038840889931 -0.14810000360012054
0.02561037987470627 0.056726761162281036 -0.1476999968290329
0.02751164324581623 0.0558818094432354 -0.14549998939037323
0.028155965730547905 0.05565137043595314 -0.14489999413490295
0.028853874653577805 0.05553614720702171 -0.14459998905658722
0.02940530888736248 0.055152084678411484 -0.1436000019311905
0.029883278533816338 0.05465279519557953 -0.14229999482631683
0.015684934332966805 0.056371066719293594 -0.14880000054836273
0.01648522913455963 0.05644683167338371 -0.14899998903274536
0.017276030033826828 0.05648471787571907 -0.14909999072551727
0.018079984933137894 0.05656048655509949 -0.1492999941110611
0.018860768526792526 0.05656048655509949 -0.1492999941110611
0.01964155025780201 0.05656048655509949 -0.1492999941110611
0.020394975319504738 0.05648471787571907 -0.14909999072551727
0.021174712106585503 0.05648471787571907 -0.14909999072551727
0.021983899176120758 0.05656048655509949 -0.1492999941110611
0.022734185680747032 0.05648471787571907 -0.14909999072551727
0.02349815145134926 0.05644683167338371 -0.14899998903274536
0.024212192744016647 0.05629529803991318 -0.1485999971628189
0.024922046810388565 0.056143760681152344 -0.14819999039173126
0.0256450604647398 0.056030113250017166 -0.14790000021457672
0.026382798328995705 0.05595434457063675 -0.1476999968290329
0.028291985392570496 0.05515878275036812 -0.14559999108314514
0.029610078781843185 0.05477994680404663 -0.14459998905658722
0.03015628270804882 0.05440111085772514 -0.1436000019311905
0.030605928972363472 0.05387073755264282 -0.14219999313354492
0.015463573858141899 0.054808322340250015 -0.14669999480247498
0.01637458987534046 0.055294014513492584 -0.14800000190734863
0.017160162329673767 0.05533137544989586 -0.14810000360012054
0.017970997840166092 0.055443454533815384 -0.14839999377727509
0.018772339448332787 0.05551817640662193 -0.1485999971628189
0.01956261694431305 0.05555553734302521 -0.14869999885559082
0.020381296053528786 0.05566761642694473 -0.14899998903274536
0.021160509437322617 0.05566761642694473 -0.14899998903274536
0.021939724683761597 0.05566761642694473 -0.14899998903274536
0.022718938067555428 0.05566761642694473 -0.14899998903274536
0.02349815145134926 0.05566761642694473 -0.14899998903274536
0.024212192744016647 0.05551817640662193 -0.1485999971628189
0.024922046810388565 0.055368732661008835 -0.14819999039173126
0.02566239982843399 0.055294014513492584 -0.14800000190734863
0.02640066109597683 0.055219292640686035 -0.1477999985218048
0.027118440717458725 0.05510720610618591 -0.14749999344348907
0.027833087369799614 0.05499512702226639 -0.14720000326633453
0.02846686728298664 0.05473359674215317 -0.14649999141693115
0.029053417965769768 0.054397352039813995 -0.14559999108314514
0.029691988602280617 0.05417318642139435 -0.14499999582767487
0.030366281047463417 0.05402374267578125 -0.14459998905658722
0.030928779393434525 0.053687501698732376 -0.1437000036239624
0.03141571953892708 0.05323916673660278 -0.14249999821186066
0.01613118313252926 0.053709596395492554 -0.14579999446868896
0.01706746593117714 0.05426216125488281 -0.14729999005794525
0.020312903448939323 0.0547042191028595 -0.148499995470047
0.02110370434820652 0.05474105477333069 -0.1485999971628189
0.021880825981497765 0.05474105477333069 -0.1485999971628189
0.02265794761478901 0.05474105477333069 -0.1485999971628189
0.023435069248080254 0.05474105477333069 -0.1485999971628189
0.024195898324251175 0.0547042191028595 -0.148499995470047
0.024922046810388565 0.05459370091557503 -0.14819999039173126
0.02567973919212818 0.054556868970394135 -0.14810000360012054
0.026418523862957954 0.054483190178871155 -0.14790000021457672
0.030450282618403435 0.05341489240527153 -0.14499999582767487
0.031122485175728798 0.05326753854751587 -0.14459998905658722
0.03170231729745865 0.052972834557294846 -0.14379999041557312
0.03225121647119522 0.05264129489660263 -0.1428999900817871
0.012031536549329758 0.04869827255606651 -0.13409999012947083
0.021046897396445274 0.05381867289543152 -0.14819999039173126
0.021821927279233932 0.05381867289543152 -0.14819999039173126
0.02259695716202259 0.05381867289543152 -0.14819999039173126
0.02337198704481125 0.05381867289543152 -0.14819999039173126
0.024147016927599907 0.05381867289543152 -0.14819999039173126
0.024905232712626457 0.05378236249089241 -0.14810000360012054
0.030513284727931023 0.05276554450392723 -0.1453000009059906
0.0325220488011837 0.052329763770103455 -0.14409999549388885
0.033090900629758835 0.052039243280887604 -0.14329999685287476
0.012085369788110256 0.04821173474192619 -0.1347000002861023
0.022551216185092926 0.05293627083301544 -0.14790000021457672
0.02334044687449932 0.052972063422203064 -0.14800000190734863
0.024098137393593788 0.05293627083301544 -0.14790000021457672
0.03265745937824249 0.05179092288017273 -0.14469999074935913
0.03334491327404976 0.05168355256319046 -0.1444000005722046
0.03393476456403732 0.051433008164167404 -0.1437000036239624
0.01219303347170353 0.0479305274784565 -0.13589999079704285
0.024081844836473465 0.05212754011154175 -0.1477999985218048
0.032725170254707336 0.05114000663161278 -0.14499999582767487
0.033437278121709824 0.0510694682598114 -0.14479999244213104
0.03412368521094322 0.050963662564754486 -0.1445000022649765
0.03471039608120918 0.05071677640080452 -0.14379999041557312
0.03487936779856682 0.05020798370242119 -0.1445000022649765
0.03543775901198387 0.049930017441511154 -0.1437000036239624
0.012498085387051105 0.04767270386219025 -0.13930000364780426
0.01288475003093481 0.04644067585468292 -0.13570000231266022
0.034855227917432785 0.04941808059811592 -0.1444000005722046
0.03546241670846939 0.0492127388715744 -0.14379999041557312
0.03586186468601227 0.04873361811041832 -0.14239999651908875
0.054045017808675766 0.04644067585468292 -0.13570000231266022
0.054835375398397446 0.046509116888046265 -0.13589999079704285
0.05558695271611214 0.046543341130018234 -0.13599999248981476
0.056339576840400696 0.046577565371990204 -0.13609999418258667
0.05709324777126312 0.04661178961396217 -0.13619999587535858
0.05780552327632904 0.04661178961396217 -0.13619999587535858
0.05856076255440712 0.04664601385593414 -0.1362999975681305
0.05931704863905907 0.046680234372615814 -0.1363999992609024
0.06007438153028488 0.046714458614587784 -0.13650000095367432
0.06078822538256645 0.046714458614587784 -0.13650000095367432
0.012462195940315723 0.04680941626429558 -0.1388999968767166
0.012989194132387638 0.04610171169042587 -0.13679999113082886
0.03543775901198387 0.048427022993564606 -0.1437000036239624
0.035962603986263275 0.04812372103333473 -0.1428000032901764
0.03647803142666817 0.04782042279839516 -0.14190000295639038
0.05082903057336807 0.045394014567136765 -0.1347000002861023
0.051763005554676056 0.04559621214866638 -0.13529999554157257
0.05266448110342026 0.04576471820473671 -0.13580000400543213
0.05349257215857506 0.04586581513285637 -0.13609999418258667
0.05424414947628975 0.045899514108896255 -0.13619999587535858
0.05495642498135567 0.045899514108896255 -0.13619999587535858
0.055668700486421585 0.045899514108896255 -0.13619999587535858
0.0563809759914875 0.045899514108896255 -0.13619999587535858
0.057135168462991714 0.04593321308493614 -0.1362999975681305
0.05797529220581055 0.0460343174636364 -0.13660000264644623
0.0586896575987339 0.0460343174636364 -0.13660000264644623
0.05949099734425545 0.04610171169042587 -0.13679999113082886
0.06020640954375267 0.04610171169042587 -0.13679999113082886
0.06092182174324989 0.04610171169042587 -0.13679999113082886
0.06154712289571762 0.0460343174636364 -0.13660000264644623
0.06217033043503761 0.04596691578626633 -0.1363999992609024
0.012875255197286606 0.044988177716732025 -0.1356000006198883
0.035962603986263275 0.047376930713653564 -0.1428000032901764
0.03658085688948631 0.047211043536663055 -0.14229999482631683
0.03719388321042061 0.047045160084962845 -0.14180000126361847
0.04912665858864784 0.04442416876554489 -0.1339000016450882
0.0503106564283371 0.04485546797513962 -0.13519999384880066
0.051281847059726715 0.04508770629763603 -0.13589999079704285
0.052107326686382294 0.04518723860383034 -0.13619999587535858
0.05289716646075249 0.04525359347462654 -0.1363999992609024
0.05372839421033859 0.04535312205553055 -0.13669998943805695
0.05444328114390373 0.04535312205553055 -0.13669998943805695
0.05515817180275917 0.04535312205553055 -0.13669998943805695
0.05583219230175018 0.045319948345422745 -0.13660000264644623
0.05658794939517975 0.04535312205553055 -0.13669998943805695
0.05734475702047348 0.04538629949092865 -0.13679999113082886
0.058272384107112885 0.04555219039320946 -0.13729999959468842
0.05899041146039963 0.04555219039320946 -0.13729999959468842
0.05983889475464821 0.045651718974113464 -0.13759998977184296
0.060426462441682816 0.04555219039320946 -0.13729999959468842
0.061099957674741745 0.045519012957811356 -0.1371999979019165
0.061637233942747116 0.04538629949092865 -0.13679999113082886
0.06235264614224434 0.04538629949092865 -0.13679999113082886
0.0630219504237175 0.04535312205553055 -0.13669998943805695
0.06364359706640244 0.04528677091002464 -0.13650000095367432
0.06426314264535904 0.04522041603922844 -0.1362999975681305
0.01277080923318863 0.043919842690229416 -0.13449999690055847
0.01337401382625103 0.04359330236911774 -0.13349999487400055
0.03004010021686554 0.04790365323424339 -0.14669999480247498
0.030765285715460777 0.04783834144473076 -0.14649999141693115
0.03591223433613777 0.04656483232975006 -0.14259999990463257
0.03655514866113663 0.04643421247601509 -0.14219999313354492
0.03724634274840355 0.046368904411792755 -0.1419999897480011
0.048317909240722656 0.043625958263874054 -0.13359999656677246
0.049310099333524704 0.0438871905207634 -0.13439999520778656
0.05057113990187645 0.04437699913978577 -0.13589999079704285
0.051432788372039795 0.04450761899352074 -0.1362999975681305
0.052298612892627716 0.04463823512196541 -0.13669998943805695
0.05316862836480141 0.04476885125041008 -0.1370999962091446
0.053964219987392426 0.044834163039922714 -0.13729999959468842
0.054722074419260025 0.04486681520938873 -0.13740000128746033
0.055561669170856476 0.04496477544307709 -0.13769999146461487
0.05640440806746483 0.04506273940205574 -0.1379999965429306
0.057250287383794785 0.04516070336103439 -0.13830000162124634
0.05809929594397545 0.04525866359472275 -0.13859999179840088
0.05886656418442726 0.045291319489479065 -0.1386999934911728
0.05954894796013832 0.04525866359472275 -0.13859999179840088
0.06027377396821976 0.04525866359472275 -0.13859999179840088
0.060910582542419434 0.04519335925579071 -0.13840000331401825
0.06145622581243515 0.04506273940205574 -0.1379999965429306
0.06204273924231529 0.04496477544307709 -0.13769999146461487
0.06262612342834473 0.04486681520938873 -0.13740000128746033
0.06329857558012009 0.044834163039922714 -0.13729999959468842
0.06392334401607513 0.04476885125041008 -0.1370999962091446
0.06449887901544571 0.04467088729143143 -0.13679999113082886
0.06507128477096558 0.04457293078303337 -0.13650000095367432
0.06564054638147354 0.04447496309876442 -0.13619999587535858
0.012818284332752228 0.0433771125972271 -0.13499999046325684
0.01341408584266901 0.04302367568016052 -0.1339000016450882
0.030576283112168312 0.046783022582530975 -0.14559999108314514
0.03475867584347725 0.046268921345472336 -0.14399999380111694
0.03588705137372017 0.04578695818781853 -0.14249999821186066
0.03655514866113663 0.04569056257605553 -0.14219999313354492
0.047512300312519073 0.04283088445663452 -0.13329999148845673
0.04835407808423042 0.042959410697221756 -0.13369999825954437
0.04978705942630768 0.04360203817486763 -0.13570000231266022
0.050682779401540756 0.0437626913189888 -0.13619999587535858
0.051734667271375656 0.044051870703697205 -0.1370999962091446
0.05264293774962425 0.044212523847818375 -0.13759998977184296
0.053595222532749176 0.044405315071344376 -0.13819999992847443
0.05447516590356827 0.04453383758664131 -0.13859999179840088
0.055279649794101715 0.04459810256958008 -0.1387999951839447
0.0560862198472023 0.044662363827228546 -0.13899999856948853
0.05689488351345062 0.04472662881016731 -0.13920000195503235
0.05770563334226608 0.04479088634252548 -0.13939999043941498
0.05843464285135269 0.04479088634252548 -0.13939999043941498
0.0591636523604393 0.04479088634252548 -0.13939999043941498
0.059806738048791885 0.04472662881016731 -0.13920000195503235
0.06049121543765068 0.04469449818134308 -0.13910000026226044
0.06113063171505928 0.04463023319840431 -0.1388999968767166
0.06176795810461044 0.044565968215465546 -0.1386999934911728
0.06244824826717377 0.04453383758664131 -0.13859999179840088
0.06312749534845352 0.04450170695781708 -0.13849999010562897
0.06380569934844971 0.04446958005428314 -0.13840000331401825
0.06501751393079758 0.044308919459581375 -0.1378999948501587
0.06550032645463943 0.044148266315460205 -0.13740000128746033
0.06592970341444016 0.043955475091934204 -0.13679999113082886
0.06640153378248215 0.043794821947813034 -0.1362999975681305
0.06696660816669464 0.043698426336050034 -0.13599999248981476
0.013524282723665237 0.04267111420631409 -0.13499999046325684
0.014072167687118053 0.04219699278473854 -0.13349999487400055
0.03588705137372017 0.04504173621535301 -0.14249999821186066
0.03652944043278694 0.044915299862623215 -0.142099991440773
0.03722011670470238 0.04485208913683891 -0.14190000295639038
0.03785518556833267 0.044725652784109116 -0.14149999618530273
0.04535283148288727 0.04207056388258934 -0.1331000030040741
0.04597969725728035 0.04200734570622444 -0.13289999961853027
0.046569354832172394 0.041912518441677094 -0.13259999454021454
0.04729844629764557 0.04194412752985954 -0.13269999623298645
0.04839024320244789 0.04229182004928589 -0.13379999995231628
0.04993381351232529 0.04301880672574043 -0.13609999418258667
0.05109211057424545 0.04339810833334923 -0.13729999959468842
0.05226295441389084 0.043777402490377426 -0.13849999010562897
0.05317855253815651 0.04393544793128967 -0.13899999856948853
0.05398303270339966 0.04399866610765457 -0.13920000195503235
0.05490751191973686 0.04415670409798622 -0.1396999955177307
0.055956702679395676 0.04440956935286522 -0.1404999941587448
0.05685286596417427 0.044536005705595016 -0.14090000092983246
0.05767146125435829 0.04459921643137932 -0.1410999894142151
0.05840936303138733 0.04459921643137932 -0.1410999894142151
0.05910534784197807 0.044567614793777466 -0.14100000262260437
0.059757839888334274 0.04450439661741257 -0.14079999923706055
0.060236379504203796 0.04431474208831787 -0.14019998908042908
0.06075213849544525 0.04415670409798622 -0.1396999955177307
0.061394691467285156 0.04409348592162132 -0.1394999921321869
0.06203516200184822 0.04403027519583702 -0.13930000364780426
0.06271859258413315 0.04399866610765457 -0.13920000195503235
0.06340097635984421 0.04396705701947212 -0.13910000026226044
0.06476260721683502 0.043903838843107224 -0.1388999968767166
0.06650803983211517 0.043619364500045776 -0.1379999965429306
0.0668887048959732 0.04339810833334923 -0.13729999959468842
0.06721281260251999 0.04314524307847023 -0.13650000095367432
0.06772760301828384 0.04301880672574043 -0.13609999418258667
0.013634481467306614 0.0423070564866066 -0.13609999418258667
0.014251364395022392 0.04202728718519211 -0.13519999384880066
0.03788193687796593 0.04401674494147301 -0.14159999787807465
0.038104213774204254 0.04342612624168396 -0.1396999955177307
0.04508023336529732 0.041125815361738205 -0.1322999894618988
0.04563372582197189 0.04100147634744644 -0.13189999759197235
0.046463992446660995 0.041125815361738205 -0.1322999894618988
0.04729844629764557 0.04125015810132027 -0.13269999623298645
0.04943905770778656 0.04249356687068939 -0.13669998943805695
0.05059421807527542 0.04286659136414528 -0.1378999948501587
0.051724717020988464 0.0432085283100605 -0.13899999856948853
0.05279124900698662 0.04348829761147499 -0.13989999890327454
0.05421151593327522 0.04404783248901367 -0.14169999957084656
0.05491377040743828 0.04401674494147301 -0.14159999787807465
0.05573289468884468 0.04407892003655434 -0.14180000126361847
0.056514281779527664 0.0441100038588047 -0.14190000295639038
0.05729671195149422 0.04414108395576477 -0.1419999897480011
0.05803931877017021 0.04414108395576477 -0.1419999897480011
0.058740533888339996 0.0441100038588047 -0.14190000295639038
0.059440698474645615 0.04407892003655434 -0.14180000126361847
0.060139816254377365 0.04404783248901367 -0.14169999957084656
0.06079492345452309 0.04398566111922264 -0.14149999618530273
0.061360958963632584 0.04386131837964058 -0.1410999894142151
0.0619228221476078 0.043736979365348816 -0.14069999754428864
0.06312409788370132 0.04355046898126602 -0.14010000228881836
0.06440503150224686 0.04342612624168396 -0.1396999955177307
0.06508897989988327 0.043395038694143295 -0.1395999938249588
0.06790217757225037 0.04286659136414528 -0.1378999948501587
0.06812570989131927 0.04255573824048042 -0.13689999282360077
0.06848964840173721 0.042338140308856964 -0.13619999587535858
0.014356774277985096 0.041625868529081345 -0.13619999587535858
0.015069047920405865 0.041625868529081345 -0.13619999587535858
0.03790869191288948 0.04330679401755333 -0.14169999957084656
0.038486070930957794 0.04312341660261154 -0.1410999894142151
0.03875139355659485 0.042603857815265656 -0.13939999043941498
0.044153496623039246 0.040219999849796295 -0.13159999251365662
0.04487578943371773 0.04025056213140488 -0.13169999420642853
0.04549533501267433 0.040189437568187714 -0.1314999908208847
0.047654878348112106 0.040861811488866806 -0.13369999825954437
0.050017718225717545 0.04226767644286156 -0.13830000162124634
0.05099779739975929 0.04248161241412163 -0.13899999856948853
0.05250616371631622 0.04312341660261154 -0.1410999894142151
0.0535082146525383 0.04333735629916191 -0.14180000126361847
0.05432628467679024 0.043398480862379074 -0.1419999897480011
0.05522402003407478 0.0435207299888134 -0.14239999651908875
0.05600802227854729 0.04355129227042198 -0.14249999821186066
0.05679307132959366 0.04358185455203056 -0.14259999990463257
0.05749846249818802 0.04355129227042198 -0.14249999821186066
0.058243684470653534 0.04355129227042198 -0.14249999821186066
0.05890611186623573 0.04349016770720482 -0.14229999482631683
0.059566449373960495 0.043429043143987656 -0.142099991440773
0.0602671355009079 0.043398480862379074 -0.1419999897480011
0.06096678227186203 0.04336792230606079 -0.14190000295639038
0.061665378510951996 0.04333735629916191 -0.14180000126361847
0.062318917363882065 0.04327623173594475 -0.14159999787807465
0.0635746568441391 0.04312341660261154 -0.1410999894142151
0.06892191618680954 0.04232879728078842 -0.13849999010562897
0.06919364631175995 0.04205373674631119 -0.13759998977184296
0.06945595890283585 0.041778676211833954 -0.13669998943805695
0.06981153041124344 0.04156474024057388 -0.13599999248981476
0.015069047920405865 0.04091359302401543 -0.13619999587535858
0.015758149325847626 0.04085351154208183 -0.13599999248981476
0.03788193687796593 0.04253571853041649 -0.14159999787807465
0.03859517723321915 0.04250567778944969 -0.14149999618530273
0.039251770824193954 0.0424155592918396 -0.141199991106987
0.04323408007621765 0.03932150825858116 -0.13089999556541443
0.044019293040037155 0.039411626756191254 -0.13120000064373016
0.0448417142033577 0.039531782269477844 -0.13159999251365662
0.04556452855467796 0.03956182301044464 -0.13169999420642853
0.04702591896057129 0.040222689509391785 -0.1339000016450882
0.05048787593841553 0.04193492978811264 -0.1395999938249588
0.05187833309173584 0.042475637048482895 -0.14139999449253082
0.05276665464043617 0.042595796287059784 -0.14180000126361847
0.05362141504883766 0.04268591105937958 -0.142099991440773
0.05447931960225105 0.04277603328227997 -0.14239999651908875
0.05526280030608177 0.04280607029795647 -0.14249999821186066
0.055968716740608215 0.04277603328227997 -0.14239999651908875
0.05671341344714165 0.04277603328227997 -0.14239999651908875
0.05745811387896538 0.04277603328227997 -0.14239999651908875
0.058161936700344086 0.04274599254131317 -0.14229999482631683
0.05890611186623573 0.04274599254131317 -0.14229999482631683
0.05965028703212738 0.04274599254131317 -0.14229999482631683
0.06035201996564865 0.042715951800346375 -0.14219999313354492
0.061052706092596054 0.04268591105937958 -0.142099991440773
0.06175234913825989 0.04265587404370308 -0.1419999897480011
0.0674719288945198 0.04205508902668953 -0.14000000059604645
0.06800919771194458 0.04193492978811264 -0.1395999938249588
0.06854230165481567 0.04181477427482605 -0.13920000195503235
0.06912097334861755 0.04172465577721596 -0.1388999968767166
0.06974679231643677 0.041664574295282364 -0.1386999934911728
0.07011647522449493 0.04145430028438568 -0.1379999965429306
0.0702735185623169 0.04112386703491211 -0.13689999282360077
0.015057984739542007 0.040171802043914795 -0.13609999418258667
0.01571180298924446 0.04002422094345093 -0.1356000006198883
0.03859517723321915 0.04176568612456322 -0.14149999618530273
0.0393073707818985 0.0417361706495285 -0.14139999449253082
0.03993355482816696 0.04161810502409935 -0.14100000262260437
0.043101970106363297 0.038518887013196945 -0.13050000369548798
0.04398574307560921 0.038695983588695526 -0.13109999895095825
0.04490986466407776 0.03890259563922882 -0.13179999589920044
0.04591050371527672 0.03916824609041214 -0.13269999623298645
0.047517597675323486 0.03993567079305649 -0.13529999554157257
0.04940138757228851 0.04090971127152443 -0.13859999179840088
0.05059637501835823 0.0412934236228466 -0.13989999890327454
0.05191502347588539 0.04176568612456322 -0.14149999618530273
0.052841074764728546 0.041913267225027084 -0.1419999897480011
0.05365915223956108 0.04197230190038681 -0.14219999313354492
0.05436454340815544 0.0419427827000618 -0.142099991440773
0.05506889149546623 0.041913267225027084 -0.1419999897480011
0.05581149831414223 0.041913267225027084 -0.1419999897480011
0.056514281779527664 0.04188375547528267 -0.14190000295639038
0.057256367057561874 0.04188375547528267 -0.14190000295639038
0.057998448610305786 0.04188375547528267 -0.14190000295639038
0.05878192186355591 0.041913267225027084 -0.1419999897480011
0.0595245286822319 0.041913267225027084 -0.1419999897480011
0.060309577733278275 0.0419427827000618 -0.142099991440773
0.0683014988899231 0.041381970047950745 -0.14019998908042908
0.06878849864006042 0.041234392672777176 -0.1396999955177307
0.06932003051042557 0.04111632704734802 -0.13930000364780426
0.06989765912294388 0.04102777689695358 -0.13899999856948853
0.07047214359045029 0.04093922674655914 -0.1386999934911728
0.07099217176437378 0.04082116484642029 -0.13830000162124634
0.07124872505664825 0.04055551439523697 -0.13740000128746033
0.01571180298924446 0.03931508585810661 -0.1356000006198883
0.016311950981616974 0.03905414417386055 -0.1347000002861023
0.039251770824193954 0.040938712656497955 -0.141199991106987
0.03996187075972557 0.040909718722105026 -0.1410999894142151
0.04193191975355148 0.03740151599049568 -0.1289999932050705
0.04290379583835602 0.037662457674741745 -0.1298999935388565
0.04391863942146301 0.03795239329338074 -0.13089999556541443
0.045012086629867554 0.03830031305551529 -0.13210000097751617
0.04611808434128761 0.03864823281764984 -0.13329999148845673
0.047377120703458786 0.03911213204264641 -0.13490000367164612
0.049151886254549026 0.03998193144798279 -0.1378999948501587
0.05059637501835823 0.04056180268526077 -0.13989999890327454
0.05187833309173584 0.040996700525283813 -0.14139999449253082
0.05280386656522751 0.04114167019724846 -0.14190000295639038
0.05354594811797142 0.04114167019724846 -0.14190000295639038
0.05424977466464043 0.04111267626285553 -0.14180000126361847
0.054952554404735565 0.0410836823284626 -0.14169999957084656
0.055654287338256836 0.04105468839406967 -0.14159999787807465
0.05635497346520424 0.04102569445967674 -0.14149999618530273
0.057094965130090714 0.04102569445967674 -0.14149999618530273
0.05787583068013191 0.04105468839406967 -0.14159999787807465
0.05861634388566017 0.04105468839406967 -0.14159999787807465
0.05939877778291702 0.0410836823284626 -0.14169999957084656
0.06018225848674774 0.04111267626285553 -0.14180000126361847
0.07009879499673843 0.04041683301329613 -0.13939999043941498
0.07067538052797318 0.04032985493540764 -0.13910000026226044
0.07124882936477661 0.04024287313222885 -0.1387999951839447
0.07187098264694214 0.04018488526344299 -0.13859999179840088
0.07222916930913925 0.03998193144798279 -0.1378999948501587
0.016275620087981224 0.03826430067420006 -0.13439999520778656
0.016877418383955956 0.0380365364253521 -0.13359999656677246
0.03427591547369957 0.040428053587675095 -0.1419999897480011
0.03499386087059975 0.04039958864450455 -0.14190000295639038
0.03911278024315834 0.040057938545942307 -0.14069999754428864
0.03970697522163391 0.03991558402776718 -0.14019998908042908
0.041801899671554565 0.036613013595342636 -0.12860000133514404
0.04263956844806671 0.03675536438822746 -0.1290999948978424
0.04395218938589096 0.03729630634188652 -0.13099999725818634
0.04494393989443779 0.03755253925919533 -0.13189999759197235
0.04615268111228943 0.037979595363140106 -0.13339999318122864
0.04741223528981209 0.03843512013554573 -0.13499999046325684
0.04940138757228851 0.03946005925536156 -0.13859999179840088
0.05041554197669029 0.03968782350420952 -0.13939999043941498
0.051621511578559875 0.040057938545942307 -0.14069999754428864
0.052655015140771866 0.04028570279479027 -0.14149999618530273
0.05335726961493492 0.04025723412632942 -0.14139999449253082
0.05405848100781441 0.04022876173257828 -0.1412999927997589
0.054758645594120026 0.04020028933882713 -0.141199991106987
0.055457763373851776 0.04017182067036629 -0.1410999894142151
0.056195661425590515 0.04017182067036629 -0.1410999894142151
0.05693356320261955 0.04017182067036629 -0.1410999894142151
0.05767146125435829 0.04017182067036629 -0.1410999894142151
0.05840936303138733 0.04017182067036629 -0.1410999894142151
0.059231098741292953 0.04022876173257828 -0.1412999927997589
0.06005493178963661 0.04028570279479027 -0.14149999618530273
0.06079492345452309 0.04028570279479027 -0.14149999618530273
0.06157840043306351 0.04031417518854141 -0.14159999787807465
0.07197469472885132 0.03951700031757355 -0.1387999951839447
0.07264818996191025 0.0394885279238224 -0.1386999934911728
0.07310903072357178 0.039346180856227875 -0.13819999992847443
0.01680162362754345 0.0371701754629612 -0.13300000131130219
0.01739191636443138 0.03694659471511841 -0.13220000267028809
0.03956536948680878 0.03904265537858009 -0.1396999955177307
0.04026710242033005 0.03901470825076103 -0.1395999938249588
0.04106540605425835 0.035884588956832886 -0.12839999794960022
0.04167187586426735 0.03582869470119476 -0.1281999945640564
0.0423753447830677 0.035856641829013824 -0.1282999962568283
0.04470542073249817 0.0366671197116375 -0.13120000064373016
0.045460741966962814 0.03672301769256592 -0.131400004029274
0.04808259755373001 0.03770117834210396 -0.13490000367164612
0.05027088150382042 0.038847025483846664 -0.13899999856948853
0.05118124186992645 0.03898676112294197 -0.1394999921321869
0.05239453166723251 0.039350081235170364 -0.14079999923706055
0.0531308650970459 0.039350081235170364 -0.14079999923706055
0.053867194801568985 0.039350081235170364 -0.14079999923706055
0.07202655076980591 0.0388190783560276 -0.1388999968767166
0.07264818996191025 0.03876318037509918 -0.1386999934911728
0.07332063466310501 0.03873523324728012 -0.13859999179840088
0.07393862307071686 0.0386793427169323 -0.13840000331401825
0.017194578424096107 0.0358438678085804 -0.1306999921798706
0.03948040306568146 0.0382298044860363 -0.13939999043941498
0.0400940366089344 0.03812010586261749 -0.13899999856948853
0.04040980339050293 0.037736162543296814 -0.13759998977184296
0.04103342443704605 0.03518567979335785 -0.1282999962568283
0.04144434258341789 0.03496628627181053 -0.1274999976158142
0.04187992215156555 0.03477431461215019 -0.12680000066757202
0.04250948503613472 0.034746889024972916 -0.1266999989748001
0.045164547860622406 0.03526795655488968 -0.12860000133514404
0.0720784068107605 0.03812010586261749 -0.13899999856948853
0.07270056754350662 0.03806525841355324 -0.1387999951839447
0.07337353378534317 0.03803783282637596 -0.1386999934911728
0.07404546439647675 0.038010407239198685 -0.13859999179840088
0.0746084451675415 0.03792813792824745 -0.13830000162124634
0.017727626487612724 0.03486444428563118 -0.12960000336170197
0.0400940366089344 0.03739318996667862 -0.13899999856948853
0.04052727669477463 0.03712417557835579 -0.1379999965429306
0.04045684263110161 0.03459542617201805 -0.12860000133514404
0.041281815618276596 0.03416500240564346 -0.12700000405311584
0.04181386157870293 0.03405739367008209 -0.1265999972820282
0.04237527772784233 0.03397668898105621 -0.12629999220371246
0.043001703917980194 0.03394978493452072 -0.12619999051094055
0.04383467137813568 0.034084297716617584 -0.1266999989748001
0.07337353378534317 0.03731248527765274 -0.1386999934911728
0.07444660365581512 0.03712417557835579 -0.1379999965429306
0.07473254203796387 0.036908961832523346 -0.1371999979019165
0.017741303890943527 0.03421305865049362 -0.12969999015331268
0.018348578363656998 0.034081168472766876 -0.12919999659061432
0.04005739837884903 0.035980429500341415 -0.1363999992609024
0.04150935262441635 0.03368549048900604 -0.12770000100135803
0.0417478047311306 0.03334256634116173 -0.12639999389648438
0.042341724038124084 0.03328980877995491 -0.12619999051094055
0.0739920362830162 0.036534376442432404 -0.13849999010562897
0.07444660365581512 0.03640248626470566 -0.1379999965429306
0.07456912845373154 0.03611231967806816 -0.13689999282360077
0.07490011304616928 0.0359276719391346 -0.13619999587535858
0.01899479515850544 0.033353786915540695 -0.1289999932050705
0.03960367664694786 0.03549981117248535 -0.13729999959468842
0.03927619010210037 0.03397432714700699 -0.131400004029274
0.040372107177972794 0.033741626888513565 -0.13050000369548798
0.04080289229750633 0.03353477641940117 -0.12969999015331268
0.04109738767147064 0.03322451189160347 -0.12849999964237213
0.041379328817129135 0.03291424363851547 -0.12729999423027039
0.0417478047311306 0.03268154338002205 -0.12639999389648438
0.07428476214408875 0.03560322895646095 -0.13769999146461487
0.07451465725898743 0.03537052869796753 -0.13679999113082886
0.07479012757539749 0.03516368567943573 -0.13599999248981476
0.018476393073797226 0.03295782953500748 -0.13009999692440033
0.019638920202851295 0.03262850269675255 -0.12879998981952667
0.03908826783299446 0.0337178111076355 -0.1331000030040741
0.039216410368680954 0.033236488699913025 -0.13120000064373016
0.03981129452586174 0.0331604890525341 -0.13089999556541443
0.040372107177972794 0.03305916115641594 -0.13050000369548798
0.04080289229750633 0.032856494188308716 -0.12969999015331268
0.041129373013973236 0.032577838748693466 -0.12860000133514404
0.04167187586426735 0.032476507127285004 -0.1281999945640564
0.0417478047311306 0.03202051669359207 -0.12639999389648438
0.07388519495725632 0.035035111010074615 -0.13830000162124634
0.07412292808294296 0.03480711579322815 -0.13740000128746033
0.0743512511253357 0.03457912057638168 -0.13650000095367432
0.07479012757539749 0.03445245698094368 -0.13599999248981476
0.020312495529651642 0.03195492550730705 -0.12879998981952667
0.020986070856451988 0.03195492550730705 -0.12879998981952667
0.03888269141316414 0.03284807503223419 -0.13239999115467072
0.039186518639326096 0.032525550574064255 -0.13109999895095825
0.0397808775305748 0.032451122999191284 -0.13079999387264252
0.04027929529547691 0.032302264124155045 -0.13019999861717224
0.0407085195183754 0.03210378810763359 -0.12939999997615814
0.04109738767147064 0.03188049793243408 -0.12849999964237213
0.04144434258341789 0.031632401049137115 -0.1274999976158142
0.07396108657121658 0.03401413559913635 -0.1370999962091446
0.07429677993059158 0.03384046629071236 -0.1363999992609024
0.074735127389431 0.03371641784906387 -0.13589999079704285
0.020920898765325546 0.031184203922748566 -0.12839999794960022
0.0215755645185709 0.031159916892647743 -0.1282999962568283
0.038853321224451065 0.0321313850581646 -0.1322999894618988
0.039659228175878525 0.031669940799474716 -0.13040000200271606
0.04012461006641388 0.03149992972612381 -0.12969999015331268
0.04051975905895233 0.03128134831786156 -0.12879998981952667
0.04103342443704605 0.031159916892647743 -0.1282999962568283
0.041281815618276596 0.0308441910892725 -0.12700000405311584
0.06160673871636391 0.03006701171398163 -0.12379999458789825
0.07367149740457535 0.03349144384264946 -0.1378999948501587
0.0737992376089096 0.03322428837418556 -0.13679999113082886
0.07418783754110336 0.033078569918870926 -0.13619999587535858
0.07462514936923981 0.03295713663101196 -0.13570000231266022
0.021424217149615288 0.03027508221566677 -0.1273999959230423
0.02177836000919342 0.02984733320772648 -0.12559999525547028
0.03909684345126152 0.03108305111527443 -0.13079999387264252
0.03947674483060837 0.030845411121845245 -0.1297999918460846
0.039938993752002716 0.030679065734148026 -0.1290999948978424
0.04045684263110161 0.030560249462723732 -0.12860000133514404
0.04096945747733116 0.03044142760336399 -0.12809999287128448
0.041281815618276596 0.030180027708411217 -0.12700000405311584
0.07407890260219574 0.03231876716017723 -0.13599999248981476
0.07407522201538086 0.03200984001159668 -0.1347000002861023
0.02103743702173233 0.02907429076731205 -0.1251000016927719
0.02158762700855732 0.028934843838214874 -0.12449999898672104
0.0222029909491539 0.028888361528515816 -0.12429999560117722
0.03929426521062851 0.03002716228365898 -0.12919999659061432
0.039846181869506836 0.029934197664260864 -0.12879998981952667
0.04039392247796059 0.029841236770153046 -0.12839999794960022
0.04084153100848198 0.029678551480174065 -0.12770000100135803
0.041281815618276596 0.029515866190195084 -0.12700000405311584
0.07310903072357178 0.03211883828043938 -0.13819999992847443
0.073244109749794 0.03186319023370743 -0.1370999962091446
0.0735834613442421 0.0317005030810833 -0.1363999992609024
0.0735802873969078 0.031096242368221283 -0.13379999995231628
0.021535607054829597 0.028215602040290833 -0.1241999939084053
0.022185128182172775 0.028215602040290833 -0.1241999939084053
0.022834647446870804 0.028215602040290833 -0.1241999939084053
0.03926384821534157 0.029328778386116028 -0.1290999948978424
0.03981525078415871 0.029237907379865646 -0.12870000302791595
0.04039392247796059 0.029169753193855286 -0.12839999794960022
0.04100143909454346 0.029124315828084946 -0.1281999945640564
0.04144434258341789 0.028965292498469353 -0.1274999976158142
0.0729769915342331 0.031032619997859 -0.13660000264644623
0.07347556203603745 0.03094174712896347 -0.13619999587535858
0.07298950850963593 0.030441954731941223 -0.1340000033378601
0.07297536730766296 0.03014662116765976 -0.13269999623298645
0.022185128182172775 0.027566082775592804 -0.1241999939084053
0.022834647446870804 0.027566082775592804 -0.1241999939084053
0.023484166711568832 0.027566082775592804 -0.1241999939084053
0.039938993752002716 0.02865363284945488 -0.1290999948978424
0.04048830270767212 0.028564855456352234 -0.12870000302791595
0.04109738767147064 0.02852046489715576 -0.12849999964237213
0.04167187586426735 0.028453879058361053 -0.1281999945640564
0.052272599190473557 0.027677057310938835 -0.12469999492168427
0.0527549684047699 0.02758827805519104 -0.12429999560117722
0.05344797298312187 0.027610473334789276 -0.12439999729394913
0.0542290024459362 0.027677057310938835 -0.12469999492168427
0.05514519661664963 0.027810225263237953 -0.12529999017715454
0.05597860366106033 0.027899006381630898 -0.1256999969482422
0.05663596838712692 0.027899006381630898 -0.1256999969482422
0.07108306884765625 0.028964364901185036 -0.13050000369548798
0.015161516144871712 0.027133284136652946 -0.12520000338554382
0.015828896313905716 0.0271549541503191 -0.12529999017715454
0.016536790877580643 0.027241643518209457 -0.1256999969482422
0.017207834869623184 0.02726331539452076 -0.1257999986410141
0.019823608919978142 0.027241643518209457 -0.1256999969482422
0.020399505272507668 0.027133284136652946 -0.12520000338554382
0.02288980409502983 0.02698158100247383 -0.12449999898672104
0.023540891706943512 0.02698158100247383 -0.12449999898672104
0.02415311709046364 0.026938235387206078 -0.12429999560117722
0.024743296205997467 0.02687321975827217 -0.12399999797344208
0.040155548602342606 0.028130192309617996 -0.1297999918460846
0.040645599365234375 0.028000161051750183 -0.12919999659061432
0.04122531786561012 0.027935145422816277 -0.12889999151229858
0.0515405535697937 0.027328332886099815 -0.12610000371932983
0.05182744935154915 0.027133284136652946 -0.12520000338554382
0.05197916924953461 0.02687321975827217 -0.12399999797344208
0.05262764170765877 0.02687321975827217 -0.12399999797344208
0.05336204171180725 0.026916563510894775 -0.1241999939084053
0.0542290024459362 0.027024922892451286 -0.12469999492168427
0.05545327439904213 0.027306661009788513 -0.12600000202655792
0.05624580383300781 0.02737167477607727 -0.12629999220371246
0.056951362639665604 0.027393346652388573 -0.12639999389648438
0.05752122402191162 0.02735000103712082 -0.12619999051094055
0.05818120390176773 0.02735000103712082 -0.12619999051094055
0.06555107235908508 0.026591485366225243 -0.12269999831914902
0.06950344145298004 0.027653411030769348 -0.12759999930858612
0.011206107214093208 0.026415089145302773 -0.12489999830722809
0.01185928750783205 0.026415089145302773 -0.12489999830722809
0.012512466870248318 0.026415089145302773 -0.12489999830722809
0.01316564716398716 0.026415089145302773 -0.12489999830722809
0.013840954750776291 0.02645738609135151 -0.1251000016927719
0.014495180919766426 0.02645738609135151 -0.1251000016927719
0.015161516144871712 0.026478536427021027 -0.12520000338554382
0.015828896313905716 0.026499683037400246 -0.12529999017715454
0.016523635014891624 0.0265631303191185 -0.12559999525547028
0.017194155603647232 0.026584280654788017 -0.1256999969482422
0.017879921942949295 0.026626579463481903 -0.125900000333786
0.018553057685494423 0.02664772793650627 -0.12600000202655792
0.019211988896131516 0.02664772793650627 -0.12600000202655792
0.019870921969413757 0.02664772793650627 -0.12600000202655792
0.020497266203165054 0.026605429127812386 -0.1257999986410141
0.021121518686413765 0.0265631303191185 -0.12559999525547028
0.02174367941915989 0.026520831510424614 -0.12539999186992645
0.022399475798010826 0.026520831510424614 -0.12539999186992645
0.023018501698970795 0.026478536427021027 -0.12520000338554382
0.02365434356033802 0.02645738609135151 -0.1251000016927719
0.024230841547250748 0.026372790336608887 -0.12469999492168427
0.02478320337831974 0.026267044246196747 -0.1241999939084053
0.025371292605996132 0.026203598827123642 -0.12389999628067017
0.0259772427380085 0.026161300018429756 -0.12370000034570694
0.04043397679924965 0.02764172852039337 -0.1306999921798706
0.04096019268035889 0.02753598429262638 -0.13019999861717224
0.04151315614581108 0.02745138667523861 -0.1297999918460846
0.05092144384980202 0.02669002301990986 -0.12619999051094055
0.05141793191432953 0.026605429127812386 -0.1257999986410141
0.051413487643003464 0.026267044246196747 -0.1241999939084053
0.05189533159136772 0.026182448491454124 -0.12379999458789825
0.05258519947528839 0.026203598827123642 -0.12389999628067017
0.05336204171180725 0.026267044246196747 -0.1241999939084053
0.05466387793421745 0.026584280654788017 -0.1256999969482422
0.05589338019490242 0.026859218254685402 -0.12700000405311584
0.057002872228622437 0.027070704847574234 -0.12799999117851257
0.05771731957793236 0.02709185518324375 -0.12809999287128448
0.05825050175189972 0.027028409764170647 -0.12780000269412994
0.058642227202653885 0.02690151333808899 -0.12719999253749847
0.05898106098175049 0.026753472164273262 -0.1264999955892563
0.059454020112752914 0.02666887640953064 -0.12610000371932983
0.06555107235908508 0.025949809700250626 -0.12269999831914902
0.06678615510463715 0.026182448491454124 -0.12379999458789825
0.06781487911939621 0.026330491527915 -0.12449999898672104
0.06879591941833496 0.02645738609135151 -0.1251000016927719
0.009216954931616783 0.02567940391600132 -0.12449999898672104
0.009868043474853039 0.02567940391600132 -0.12449999898672104
0.010536029003560543 0.025720655918121338 -0.12469999492168427
0.011188162490725517 0.025720655918121338 -0.12469999492168427
0.011840296909213066 0.025720655918121338 -0.12469999492168427
0.012512466870248318 0.025761907920241356 -0.12489999830722809
0.01316564716398716 0.025761907920241356 -0.12489999830722809
0.013840954750776291 0.025803161785006523 -0.1251000016927719
0.014506767503917217 0.025823786854743958 -0.12520000338554382
0.015161516144871712 0.025823786854743958 -0.12520000338554382
0.015828896313905716 0.025844410061836243 -0.12529999017715454
0.016523635014891624 0.025906290858983994 -0.12559999525547028
0.017194155603647232 0.025926915928721428 -0.1256999969482422
0.017879921942949295 0.025968169793486595 -0.125900000333786
0.018553057685494423 0.02598879486322403 -0.12600000202655792
0.01922723650932312 0.026009421795606613 -0.12610000371932983
0.019886692985892296 0.026009421795606613 -0.12610000371932983
0.02052985318005085 0.02598879486322403 -0.12600000202655792
0.021171970292925835 0.025968169793486595 -0.125900000333786
0.021830378100275993 0.025968169793486595 -0.125900000333786
0.022470926865935326 0.02594754286110401 -0.1257999986410141
0.02311042882502079 0.025926915928721428 -0.1256999969482422
0.02371106669306755 0.025865036994218826 -0.12539999186992645
0.024308567866683006 0.025803161785006523 -0.1251000016927719
0.024843068793416023 0.02567940391600132 -0.12449999898672104
0.025412246584892273 0.025596899911761284 -0.12409999966621399
0.026040242984890938 0.02557627484202385 -0.12399999797344208
0.026645667850971222 0.025535020977258682 -0.12379999458789825
0.04114894941449165 0.02697884291410446 -0.13079999387264252
0.049915920943021774 0.02619505673646927 -0.12700000405311584
0.050380948930978775 0.0260919239372015 -0.1264999955892563
0.050840746611356735 0.02598879486322403 -0.12600000202655792
0.05105007812380791 0.025761907920241356 -0.12489999830722809
0.05128930136561394 0.025555647909641266 -0.12389999628067017
0.05185341462492943 0.025514395907521248 -0.12370000034570694
0.05258519947528839 0.025555647909641266 -0.12389999628067017
0.053662799298763275 0.025761907920241356 -0.12489999830722809
0.05505526438355446 0.026112550869584084 -0.1265999972820282
0.056597549468278885 0.026525072753429413 -0.12860000133514404
0.05744820833206177 0.0266075748950243 -0.1289999932050705
0.05803271383047104 0.026566321030259132 -0.12879998981952667
