ply
format ascii 1.0
element vertex 778
property float x
property float y
property float z
end_header
0.059001896530389786 0.041680339723825455 -0.1679999977350235
0.060201261192560196 0.04190362989902496 -0.1688999980688095
0.06126537173986435 0.04202767461538315 -0.16939999163150787
0.062224648892879486 0.04207729548215866 -0.1695999950170517
0.06311159580945969 0.04207729548215866 -0.1695999950170517
0.06399853527545929 0.04207729548215866 -0.1695999950170517
0.05078405141830444 0.04126321151852608 -0.16990000009536743
0.05164215341210365 0.041238922625780106 -0.16979999840259552
0.052406392991542816 0.041141774505376816 -0.16939999163150787
0.05795033276081085 0.04068032652139664 -0.16749998927116394
0.059142373502254486 0.04089890792965889 -0.16839998960494995
0.06027254834771156 0.041068919003009796 -0.16910000145435333
0.061337705701589584 0.04119034856557846 -0.1695999950170517
0.06229802966117859 0.041238922625780106 -0.16979999840259552
0.06318601965904236 0.041238922625780106 -0.16979999840259552
0.06407400965690613 0.041238922625780106 -0.16979999840259552
0.06488548219203949 0.04119034856557846 -0.1695999950170517
0.05010111257433891 0.04054104536771774 -0.17059999704360962
0.05087372288107872 0.04044598713517189 -0.17019999027252197
0.05164215341210365 0.040350932627916336 -0.16979999840259552
0.05237545818090439 0.04023211449384689 -0.16929998993873596
0.058157917112112045 0.03994695097208023 -0.1680999994277954
0.05935309827327728 0.04016082361340523 -0.16899999976158142
0.060415118932724 0.04027964174747467 -0.16949999332427979
0.06141003966331482 0.040350932627916336 -0.16979999840259552
0.06237141042947769 0.04039846360683441 -0.17000000178813934
0.06326044350862503 0.04039846360683441 -0.17000000178813934
0.06414948403835297 0.04039846360683441 -0.17000000178813934
0.0650385171175003 0.04039846360683441 -0.17000000178813934
0.05013047903776169 0.039672110229730606 -0.17069999873638153
0.05087372288107872 0.039555907249450684 -0.17019999027252197
0.05158132314682007 0.03941646218299866 -0.1695999950170517
0.05952869728207588 0.03939322009682655 -0.16949999332427979
0.06052204966545105 0.039462942630052567 -0.16979999840259552
0.06155470013618469 0.039555907249450684 -0.17019999027252197
0.06248147413134575 0.03957914561033249 -0.17029999196529388
0.06340929120779037 0.03960238769650459 -0.1703999936580658
0.06430041790008545 0.03960238769650459 -0.1703999936580658
0.06515328586101532 0.03957914561033249 -0.17029999196529388
0.06592755019664764 0.039509426802396774 -0.17000000178813934
0.0494396947324276 0.03893844038248062 -0.17139999568462372
0.050042375922203064 0.03871126100420952 -0.1703999936580658
0.0508139431476593 0.03862038999795914 -0.17000000178813934
0.060664620250463486 0.03866582363843918 -0.17019999027252197
0.06162703409790993 0.03871126100420952 -0.1703999936580658
0.0625915452837944 0.03875669836997986 -0.17059999704360962
0.06355813890695572 0.0388021320104599 -0.17080000042915344
0.06441362202167511 0.03877941519021988 -0.17069999873638153
0.06526806205511093 0.03875669836997986 -0.17059999704360962
0.06600511074066162 0.03866582363843918 -0.17019999027252197
0.04923778399825096 0.03788672015070915 -0.17069999873638153
0.04992491006851196 0.0377313569188118 -0.17000000178813934
0.05066448822617531 0.03762037679553032 -0.16949999332427979
0.05109470710158348 0.037287455052137375 -0.1679999977350235
0.06087848171591759 0.03790891543030739 -0.17080000042915344
0.06191636249423027 0.037997692823410034 -0.1711999922990799
0.06288505345582962 0.038042083382606506 -0.17139999568462372
0.06378141045570374 0.038042083382606506 -0.17139999568462372
0.06460230052471161 0.037997692823410034 -0.1711999922990799
0.06534457951784134 0.03790891543030739 -0.17080000042915344
0.06604389101266861 0.03779793903231621 -0.17029999196529388
0.06681659072637558 0.0377313569188118 -0.17000000178813934
0.04837340861558914 0.03701569512486458 -0.17080000042915344
0.04909355938434601 0.03688566014170647 -0.17019999027252197
0.04977806657552719 0.0367339588701725 -0.16949999332427979
0.05060809478163719 0.036062128841876984 -0.1664000004529953
0.061234913766384125 0.0372324138879776 -0.17180000245571136
0.06220569089055061 0.037275757640600204 -0.171999990940094
0.06310518831014633 0.037275757640600204 -0.171999990940094
0.06400468200445175 0.037275757640600204 -0.171999990940094
0.06475324183702469 0.037189070135354996 -0.17159999907016754
0.06542108952999115 0.037059035152196884 -0.17099998891353607
0.06616023927927017 0.036972351372241974 -0.17059999704360962
0.06681659072637558 0.03684232011437416 -0.17000000178813934
0.0676259696483612 0.036798976361751556 -0.16979999840259552
0.04823179915547371 0.03601672872900963 -0.17029999196529388
0.04892049357295036 0.03586868569254875 -0.1695999950170517
0.04945502430200577 0.035614896565675735 -0.16839998960494995
0.04973788559436798 0.03519191965460777 -0.1664000004529953
0.06227802485227585 0.03641856089234352 -0.17219999432563782
0.06317856907844543 0.03641856089234352 -0.17219999432563782
0.06400468200445175 0.036376260221004486 -0.171999990940094
0.06482870876789093 0.03633396700024605 -0.17180000245571136
0.06549760699272156 0.03620706871151924 -0.1711999922990799
0.06619901955127716 0.0361013263463974 -0.17069999873638153
0.06689519435167313 0.03599558025598526 -0.17019999027252197
0.06766579300165176 0.035932134836912155 -0.16990000009536743
0.047424592077732086 0.03518800437450409 -0.17059999704360962
0.048090193420648575 0.03502299636602402 -0.16979999840259552
0.04871857911348343 0.03483736142516136 -0.1688999980688095
0.04898514226078987 0.0344042144715786 -0.16679999232292175
0.04952864721417427 0.034177325665950775 -0.16569998860359192
0.06245885789394379 0.03562115132808685 -0.17270000278949738
0.0633620172739029 0.03562115132808685 -0.17270000278949738
0.06422796100378036 0.03560052439570427 -0.17260000109672546
0.06497965008020401 0.03551802039146423 -0.17219999432563782
0.06565064191818237 0.03539426252245903 -0.17159999907016754
0.06631535291671753 0.03527050465345383 -0.17099998891353607
0.06705240905284882 0.03518800437450409 -0.17059999704360962
0.06770562380552292 0.035064246505498886 -0.17000000178813934
0.047313395887613297 0.03421541675925255 -0.17019999027252197
0.04797690361738205 0.03405459225177765 -0.16939999163150787
0.04834359884262085 0.03369273617863655 -0.16759999096393585
0.048720832914114 0.03335098549723625 -0.16589999198913574
0.06347207725048065 0.034778300672769547 -0.17299999296665192
0.0642651692032814 0.034717995673418045 -0.17270000278949738
0.06513059139251709 0.034697890281677246 -0.17260000109672546
0.06580366939306259 0.034577272832393646 -0.171999990940094
0.06647048145532608 0.034456655383110046 -0.17139999568462372
0.06713102012872696 0.03433603793382645 -0.17080000042915344
0.06770562380552292 0.03417521342635155 -0.17000000178813934
0.04675062373280525 0.03356029465794563 -0.17139999568462372
0.04725779965519905 0.03328617662191391 -0.17000000178813934
0.047835297882556915 0.033070795238018036 -0.1688999980688095
0.04799746721982956 0.03258129209280014 -0.1664000004529953
0.048573996871709824 0.03238549083471298 -0.16539999842643738
0.0635087713599205 0.0338931567966938 -0.17309999465942383
0.06441401690244675 0.0338931567966938 -0.17309999465942383
0.06513059139251709 0.03379525989294052 -0.17260000109672546
0.065880186855793 0.03371693566441536 -0.17219999432563782
0.06662560999393463 0.033638618886470795 -0.17180000245571136
0.06728822737932205 0.0335211344063282 -0.1711999922990799
0.06778527051210403 0.03332533314824104 -0.17019999027252197
0.046696070581674576 0.032625824213027954 -0.1711999922990799
0.047202203422784805 0.03235902637243271 -0.16979999840259552
0.0477786548435688 0.03214939683675766 -0.16869999468326569
0.04785323888063431 0.03161579743027687 -0.16589999198913574
0.04842715710401535 0.031425222754478455 -0.16489998996257782
0.06437680125236511 0.032968852669000626 -0.17299999296665192
0.0659184455871582 0.032835453748703 -0.17229999601840973
0.06670316308736801 0.03277828171849251 -0.171999990940094
0.06728822737932205 0.032625824213027954 -0.1711999922990799
0.06786492466926575 0.0324733667075634 -0.1703999936580658
0.06839291006326675 0.032301854342222214 -0.16949999332427979
0.04655969515442848 0.03163784369826317 -0.17069999873638153
0.04711880534887314 0.0314154326915741 -0.16949999332427979
0.04752375930547714 0.031100351363420486 -0.16779999434947968
0.047766707837581635 0.030692601576447487 -0.1656000018119812
0.06497965008020401 0.031915854662656784 -0.17219999432563782
0.06580366939306259 0.03187878802418709 -0.171999990940094
0.06662560999393463 0.03184172138571739 -0.17180000245571136
0.0673668384552002 0.0317675806581974 -0.17139999568462372
0.06794458627700806 0.03161931037902832 -0.17059999704360962
0.0684332549571991 0.031433966010808945 -0.1695999950170517
0.04574725404381752 0.030799178406596184 -0.17099998891353607
0.04645058885216713 0.030673101544380188 -0.17029999196529388
0.0469520129263401 0.030420944094657898 -0.1688999980688095
0.04704229161143303 0.029916631057858467 -0.16609999537467957
0.0475647933781147 0.029700495302677155 -0.16489998996257782
0.06565064191818237 0.030907247215509415 -0.17159999907016754
0.06654804944992065 0.030907247215509415 -0.17159999907016754
0.0673668384552002 0.030871225520968437 -0.17139999568462372
0.06802424043416977 0.030763158574700356 -0.17080000042915344
0.06851395964622498 0.03058304637670517 -0.16979999840259552
0.045667000114917755 0.029852449893951416 -0.17069999873638153
0.04642331227660179 0.02976500801742077 -0.17019999027252197
0.04681301862001419 0.029450219124555588 -0.16839998960494995
0.04695732519030571 0.02899552509188652 -0.16579999029636383
0.0472475066781044 0.02864576131105423 -0.16380000114440918
0.06549760699272156 0.029939889907836914 -0.1711999922990799
0.06647048145532608 0.029974868521094322 -0.17139999568462372
0.0673668384552002 0.029974868521094322 -0.17139999568462372
0.0681835412979126 0.029939889907836914 -0.1711999922990799
0.06871570646762848 0.029782496392726898 -0.17029999196529388
0.06927932798862457 0.029642591252923012 -0.16949999332427979
0.045667000114917755 0.02895975299179554 -0.17069999873638153
0.04636876657605171 0.02884099818766117 -0.17000000178813934
0.04700761288404465 0.028688309714198112 -0.16910000145435333
0.04704229161143303 0.02817934937775135 -0.16609999537467957
0.046930212527513504 0.027602531015872955 -0.16269999742507935
0.06542108952999115 0.029010647907853127 -0.17099998891353607
0.0663929209113121 0.029044579714536667 -0.1711999922990799
0.0673668384552002 0.029078509658575058 -0.17139999568462372
0.0681835412979126 0.029044579714536667 -0.1711999922990799
0.06875605881214142 0.028908858075737953 -0.1703999936580658
0.06903409212827682 0.028654377907514572 -0.1688999980688095
0.0456402450799942 0.028050614520907402 -0.17059999704360962
0.04636876657605171 0.027951961383223534 -0.17000000178813934
0.0469520129263401 0.02777109481394291 -0.1688999980688095
0.04698564484715462 0.02727782353758812 -0.16589999198913574
0.06549760699272156 0.02814926765859127 -0.1711999922990799
0.06647048145532608 0.028182152658700943 -0.17139999568462372
0.0673668384552002 0.028182152658700943 -0.17139999568462372
0.06826319545507431 0.028182152658700943 -0.17139999568462372
0.06891746073961258 0.028083499521017075 -0.17080000042915344
0.06927932798862457 0.027869747951626778 -0.16949999332427979
0.0448005311191082 0.027190281078219414 -0.17080000042915344
0.045667000114917755 0.027174361050128937 -0.17069999873638153
0.04636876657605171 0.027062926441431046 -0.17000000178813934
0.046840816736221313 0.026824133470654488 -0.16849999129772186
0.046929001808166504 0.026378391310572624 -0.16569998860359192
0.06565064191818237 0.027317635715007782 -0.17159999907016754
0.06654804944992065 0.027317635715007782 -0.17159999907016754
0.06744544953107834 0.027317635715007782 -0.17159999907016754
0.06834284961223602 0.027317635715007782 -0.17159999907016754
0.06907885521650314 0.027253957465291023 -0.1711999922990799
0.0694836974143982 0.027062926441431046 -0.17000000178813934
0.04485298693180084 0.02632785215973854 -0.17099998891353607
0.045667000114917755 0.02628166414797306 -0.17069999873638153
0.046314213424921036 0.026143096387386322 -0.16979999840259552
0.04625704884529114 0.025619618594646454 -0.1664000004529953
0.04653250053524971 0.025296293199062347 -0.16429999470710754
0.06572715938091278 0.026451025158166885 -0.17180000245571136
0.06662560999393463 0.026451025158166885 -0.17180000245571136
0.06752406060695648 0.026451025158166885 -0.17180000245571136
0.06834284961223602 0.0264202319085598 -0.17159999907016754
0.06907885521650314 0.026358645409345627 -0.1711999922990799
0.06956543773412704 0.026204681023955345 -0.17019999027252197
0.04485298693180084 0.025433586910367012 -0.17099998891353607
0.045667000114917755 0.025388967245817184 -0.17069999873638153
0.046314213424921036 0.025255106389522552 -0.16979999840259552
0.046229247003793716 0.024734536185860634 -0.1662999987602234
0.0464758537709713 0.024407319724559784 -0.16409999132156372
0.06654804944992065 0.025522828102111816 -0.17159999907016754
0.06744544953107834 0.025522828102111816 -0.17159999907016754
0.06842250376939774 0.025552576407790184 -0.17180000245571136
0.06899815052747726 0.025433586910367012 -0.17099998891353607
0.06972893327474594 0.025374094024300575 -0.17059999704360962
0.0448005311191082 0.024510622024536133 -0.17080000042915344
0.0456402450799942 0.024481920525431633 -0.17059999704360962
0.04625966027379036 0.024338414892554283 -0.1695999950170517
0.046229247003793716 0.023864850401878357 -0.1662999987602234
0.04644753411412239 0.023534787818789482 -0.1639999896287918
0.06534457951784134 0.024510622024536133 -0.17080000042915344
0.06631535291671753 0.024539321660995483 -0.17099998891353607
0.06728822737932205 0.024568023160099983 -0.1711999922990799
0.06826319545507431 0.024596724659204483 -0.17139999568462372
0.06899815052747726 0.024539321660995483 -0.17099998891353607
0.06976980715990067 0.024496272206306458 -0.17069999873638153
0.04477430135011673 0.02360357530415058 -0.17069999873638153
0.04558673873543739 0.02356209233403206 -0.1703999936580658
0.04623238369822502 0.02343764342367649 -0.16949999332427979
0.04617365077137947 0.0229675080627203 -0.16609999537467957
0.046390894800424576 0.022649476304650307 -0.16380000114440918
0.06619901955127716 0.02360357530415058 -0.17069999873638153
0.06713102012872696 0.023617403581738472 -0.17080000042915344
0.0681835412979126 0.023672711104154587 -0.1711999922990799
0.06887710839509964 0.02360357530415058 -0.17069999873638153
0.06972893327474594 0.02358974702656269 -0.17059999704360962
0.07049691677093506 0.023548264056444168 -0.17029999196529388
0.04558673873543739 0.022670963779091835 -0.1703999936580658
0.04623238369822502 0.022551223635673523 -0.16949999332427979
0.046229247003793716 0.022125478833913803 -0.1662999987602234
0.04644753411412239 0.021819472312927246 -0.1639999896287918
0.06515328586101532 0.02265765890479088 -0.17029999196529388
0.0660826712846756 0.022670963779091835 -0.1703999936580658
0.06705240905284882 0.02269757352769375 -0.17059999704360962
0.06798440963029861 0.022710878401994705 -0.17069999873638153
0.0688367560505867 0.02269757352769375 -0.17059999704360962
0.06964718550443649 0.022670963779091835 -0.1703999936580658
0.07049691677093506 0.02265765890479088 -0.17029999196529388
0.045533232390880585 0.021754272282123566 -0.17019999027252197
0.04625966027379036 0.02167758345603943 -0.1695999950170517
0.046229247003793716 0.021255791187286377 -0.1662999987602234
0.0464758537709713 0.020974595099687576 -0.16409999132156372
0.06511502712965012 0.021754272282123566 -0.17019999027252197
0.06604389101266861 0.021767055615782738 -0.17029999196529388
0.06697379797697067 0.02177983708679676 -0.1703999936580658
0.06794458627700806 0.021805400028824806 -0.17059999704360962
0.06871570646762848 0.021767055615782738 -0.17029999196529388
0.06956543773412704 0.021754272282123566 -0.17019999027252197
0.0702071487903595 0.02167758345603943 -0.1695999950170517
0.045533232390880585 0.02086419053375721 -0.17019999027252197
0.04625966027379036 0.020790638402104378 -0.1695999950170517
0.04681301862001419 0.020643534138798714 -0.16839998960494995
0.06515328586101532 0.0208764486014843 -0.17029999196529388
0.0660826712846756 0.020888708531856537 -0.1703999936580658
0.06697379797697067 0.020888708531856537 -0.1703999936580658
0.06786492466926575 0.020888708531856537 -0.1703999936580658
0.06867535412311554 0.02086419053375721 -0.17019999027252197
0.06944282352924347 0.020827414467930794 -0.16990000009536743
0.045533232390880585 0.019974108785390854 -0.17019999027252197
0.046314213424921036 0.019927166402339935 -0.16979999840259552
0.04689641669392586 0.019798073917627335 -0.16869999468326569
0.0625915452837944 0.020021051168441772 -0.17059999704360962
0.06616023927927017 0.020021051168441772 -0.17059999704360962
0.06705240905284882 0.020021051168441772 -0.17059999704360962
0.06794458627700806 0.020021051168441772 -0.17059999704360962
0.06867535412311554 0.019974108785390854 -0.17019999027252197
0.06927932798862457 0.019891958683729172 -0.16949999332427979
0.06896527111530304 0.019551623612642288 -0.16659998893737793
0.045533232390880585 0.019084027037024498 -0.17019999027252197
0.046341490000486374 0.019050389528274536 -0.16990000009536743
0.0469520129263401 0.01893826201558113 -0.1688999980688095
0.04664578661322594 0.018467329442501068 -0.1647000014781952
0.0625181645154953 0.01910645328462124 -0.1703999936580658
0.06619901955127716 0.0191400907933712 -0.17069999873638153
0.06709171086549759 0.0191400907933712 -0.17069999873638153
0.06798440963029861 0.0191400907933712 -0.17069999873638153
0.06867535412311554 0.019084027037024498 -0.17019999027252197
0.06903409212827682 0.01893826201558113 -0.1688999980688095
0.06904806196689606 0.0187027957290411 -0.16679999232292175
0.045533232390880585 0.018193945288658142 -0.17019999027252197
0.046314213424921036 0.018151186406612396 -0.16979999840259552
0.0469520129263401 0.018054978922009468 -0.1688999980688095
0.04667410999536514 0.017616700381040573 -0.1648000031709671
0.06623779982328415 0.01825808547437191 -0.17080000042915344
0.06713102012872696 0.01825808547437191 -0.17080000042915344
0.06802424043416977 0.01825808547437191 -0.17080000042915344
0.06927932798862457 0.018119117245078087 -0.16949999332427979
0.045533232390880585 0.017303863540291786 -0.17019999027252197
0.046314213424921036 0.017263196408748627 -0.16979999840259552
0.0469520129263401 0.017171695828437805 -0.1688999980688095
0.046759072691202164 0.016785357147455215 -0.16509999334812164
0.04667061194777489 0.016449853777885437 -0.16179999709129333
0.06534457951784134 0.0173648651689291 -0.17080000042915344
0.06631535291671753 0.017385197803378105 -0.17099998891353607
0.0672096237540245 0.017385197803378105 -0.17099998891353607
0.06802424043416977 0.0173648651689291 -0.17080000042915344
0.06867535412311554 0.017303863540291786 -0.17019999027252197
0.06911583989858627 0.01719203032553196 -0.16910000145435333
0.045479729771614075 0.016394495964050293 -0.17000000178813934
0.04625966027379036 0.01635591872036457 -0.1695999950170517
0.04689641669392586 0.016269125044345856 -0.16869999468326569
0.04678739607334137 0.015931591391563416 -0.16519999504089355
0.04672830179333687 0.015622989274561405 -0.16200000047683716
0.06542108952999115 0.016490932554006577 -0.17099998891353607
0.0663929209113121 0.016510220244526863 -0.1711999922990799
0.06728822737932205 0.016510220244526863 -0.1711999922990799
0.06802424043416977 0.01647164486348629 -0.17080000042915344
0.06855431199073792 0.016384851187467575 -0.16990000009536743
0.06895234435796738 0.016269125044345856 -0.16869999468326569
0.04507843405008316 0.015368646010756493 -0.16849999129772186
0.04595962539315224 0.015368646010756493 -0.16849999129772186
0.04656283184885979 0.015277436934411526 -0.16749998927116394
0.04718981683254242 0.014921723864972591 -0.16359999775886536
0.06549760699272156 0.015614909119904041 -0.1711999922990799
0.06647048145532608 0.015633150935173035 -0.17139999568462372
0.0673668384552002 0.015633150935173035 -0.17139999568462372
0.06851395964622498 0.015487217344343662 -0.16979999840259552
0.06797140091657639 0.015167987905442715 -0.1662999987602234
0.04432935640215874 0.014246713370084763 -0.16569998860359192
0.04519590362906456 0.014246713370084763 -0.16569998860359192
0.04606245458126068 0.014246713370084763 -0.16569998860359192
0.046900682151317596 0.014238116331398487 -0.1656000018119812
0.047334037721157074 0.014109146781265736 -0.16409999132156372
0.06445135921239853 0.014685207046568394 -0.17080000042915344
0.06549760699272156 0.01471959799528122 -0.1711999922990799
0.06647048145532608 0.01473679393529892 -0.17139999568462372
0.0673668384552002 0.01473679393529892 -0.17139999568462372
0.06802424043416977 0.014685207046568394 -0.17080000042915344
0.06839291006326675 0.014573433436453342 -0.16949999332427979
0.06768529117107391 0.014238116331398487 -0.1656000018119812
0.042570993304252625 0.01310561690479517 -0.1622999906539917
0.043526776134967804 0.013137917034327984 -0.16269999742507935
0.04459584131836891 0.013202517293393612 -0.16349999606609344
0.04592346027493477 0.013339790515601635 -0.16519999504089355
0.04664578661322594 0.01329941675066948 -0.1647000014781952
0.04718981683254242 0.013210591860115528 -0.16359999775886536
0.06530632078647614 0.013783912174403667 -0.17069999873638153
0.06623779982328415 0.013791987672448158 -0.17080000042915344
0.06709171086549759 0.013783912174403667 -0.17069999873638153
0.06782510131597519 0.013751612044870853 -0.17029999196529388
0.06798940896987915 0.01360626332461834 -0.16849999129772186
0.06776703149080276 0.013388239778578281 -0.16579999029636383
0.07669869065284729 0.013283266685903072 -0.16449999809265137
0.0779832974076271 0.013355940580368042 -0.16539999842643738
0.07894362509250641 0.013372090645134449 -0.1656000018119812
0.07980965077877045 0.013372090645134449 -0.1656000018119812
0.08067567646503448 0.013372090645134449 -0.1656000018119812
0.08164017647504807 0.013388239778578281 -0.16579999029636383
0.08265653997659683 0.01341246534138918 -0.16609999537467957
0.08382689952850342 0.013460914604365826 -0.16669999063014984
0.08510514348745346 0.013525513932108879 -0.16749998927116394
0.08623777329921722 0.01356588862836361 -0.1679999977350235
0.028714144602417946 0.012506064027547836 -0.1656000018119812
0.02963375858962536 0.012528719380497932 -0.16589999198913574
0.030593281611800194 0.012566479854285717 -0.1664000004529953
0.03159584850072861 0.01261934358626604 -0.1670999974012375
0.03254744037985802 0.012649551033973694 -0.16749998927116394
0.03336354345083237 0.012626895681023598 -0.1671999990940094
0.03407411649823189 0.012566479854285717 -0.1664000004529953
0.03483932465314865 0.012528719380497932 -0.16589999198913574
0.03544864058494568 0.012438096106052399 -0.1647000014781952
0.0431789867579937 0.012188880704343319 -0.1613999903202057
0.04413215443491936 0.012219089083373547 -0.16179999709129333
0.045339688658714294 0.012317264452576637 -0.1630999892950058
0.0464758537709713 0.012392783537507057 -0.16409999132156372
0.047449417412281036 0.012422991916537285 -0.16449999809265137
0.04816284775733948 0.0123852314427495 -0.1639999896287918
0.06422494351863861 0.012853453867137432 -0.17019999027252197
0.06515328586101532 0.012861005961894989 -0.17029999196529388
0.06600511074066162 0.012853453867137432 -0.17019999027252197
0.06689519435167313 0.012853453867137432 -0.17019999027252197
0.0675463154911995 0.012808142229914665 -0.1695999950170517
0.06770695745944977 0.012672207318246365 -0.16779999434947968
0.07374750077724457 0.012219089083373547 -0.16179999709129333
0.07491637021303177 0.01227195281535387 -0.16249999403953552
0.07627906650304794 0.012355024926364422 -0.16359999775886536
0.07737036794424057 0.012392783537507057 -0.16409999132156372
0.07832389324903488 0.012407887727022171 -0.16429999470710754
0.07908672839403152 0.012392783537507057 -0.16409999132156372
0.0799449160695076 0.012392783537507057 -0.16409999132156372
0.0810985416173935 0.012438096106052399 -0.1647000014781952
0.0822584331035614 0.012483407743275166 -0.16529999673366547
0.08337432146072388 0.012521167285740376 -0.16579999029636383
0.0844954401254654 0.01255892775952816 -0.1662999987602234
0.08577578514814377 0.01261934358626604 -0.1670999974012375
0.08685706555843353 0.012649551033973694 -0.16749998927116394
0.08789017051458359 0.012672207318246365 -0.16779999434947968
0.08876769244670868 0.012672207318246365 -0.16779999434947968
0.025554994121193886 0.011780617758631706 -0.16759999096393585
0.026194920763373375 0.011675183661282063 -0.16609999537467957
0.026949506253004074 0.011625980958342552 -0.16539999842643738
0.027713587507605553 0.011583806946873665 -0.1648000031709671
0.028662124648690224 0.011618951335549355 -0.16529999673366547
0.029580172151327133 0.011640039272606373 -0.1656000018119812
0.030538123100996017 0.011675183661282063 -0.16609999537467957
0.03153912350535393 0.011724386364221573 -0.16679999232292175
0.03254744037985802 0.011773589067161083 -0.16749998927116394
0.03344335779547691 0.011780617758631706 -0.16759999096393585
0.034135546535253525 0.011717356741428375 -0.16669999063014984
0.03479732200503349 0.011647067032754421 -0.16569998860359192
0.0353194996714592 0.01153460331261158 -0.16409999132156372
0.03578085079789162 0.011408080346882343 -0.1622999906539917
0.03651677444577217 0.011372935958206654 -0.16179999709129333
0.03731674328446388 0.011358877643942833 -0.1615999937057495
0.03809100389480591 0.01133779063820839 -0.16129998862743378
0.042884711176157 0.011267500929534435 -0.16030000150203705
0.04391394928097725 0.01131670456379652 -0.16099999845027924
0.045006103813648224 0.011379965580999851 -0.16189999878406525
0.046305928379297256 0.011492429301142693 -0.16349999606609344
0.04753595218062401 0.011583806946873665 -0.1648000031709671
0.04842715710401535 0.011590834707021713 -0.16489998996257782
0.06414948403835297 0.01194931473582983 -0.17000000178813934
0.0650385171175003 0.01194931473582983 -0.17000000178813934
0.06588876992464066 0.011942286044359207 -0.16990000009536743
0.0666593685746193 0.011921199038624763 -0.1695999950170517
0.06710821390151978 0.011843879707157612 -0.16849999129772186
0.06685961037874222 0.011647067032754421 -0.16569998860359192
0.07160986214876175 0.0113026462495327 -0.1607999950647354
0.07272112369537354 0.011344819329679012 -0.1613999903202057
0.07666314393281937 0.011429168283939362 -0.16259999573230743
0.08031068742275238 0.011464312672615051 -0.1630999892950058
0.08166127651929855 0.01153460331261158 -0.16409999132156372
0.08302231878042221 0.011604893021285534 -0.16509999334812164
0.08876769244670868 0.011794676072895527 -0.16779999434947968
0.08964522927999496 0.011794676072895527 -0.16779999434947968
0.024043451994657516 0.011014736257493496 -0.16929998993873596
0.024707958102226257 0.010917145758867264 -0.16779999434947968
0.025326279923319817 0.010806542821228504 -0.16609999537467957
0.026068756356835365 0.010754494927823544 -0.16529999673366547
0.02680286392569542 0.010702447034418583 -0.16449999809265137
0.027663137763738632 0.010702447034418583 -0.16449999809265137
0.028644785284996033 0.01074798870831728 -0.16519999504089355
0.02959803305566311 0.010780518874526024 -0.16569998860359192
0.030574895441532135 0.010819555260241032 -0.1662999987602234
0.03167147934436798 0.010897627100348473 -0.16749998927116394
0.03266403079032898 0.010936664417386055 -0.1680999994277954
0.033602990210056305 0.010956182144582272 -0.16839998960494995
0.03442222997546196 0.010936664417386055 -0.1680999994277954
0.03498632460832596 0.010839072987437248 -0.16659998893737793
0.0356423519551754 0.010774013586342335 -0.1656000018119812
0.036177683621644974 0.010676422156393528 -0.16409999132156372
0.03662961721420288 0.010559312999248505 -0.1622999906539917
0.037409111857414246 0.010539795272052288 -0.16200000047683716
0.03818546608090401 0.010520277544856071 -0.16169999539852142
0.03900695592164993 0.010513771325349808 -0.1615999937057495
0.039753422141075134 0.010487747378647327 -0.16120000183582306
0.04283120483160019 0.010416180826723576 -0.16009999811649323
0.04385939612984657 0.010461722500622272 -0.1607999950647354
0.04495050758123398 0.010520277544856071 -0.16169999539852142
0.046135999262332916 0.010598350316286087 -0.16290000081062317
0.04750710725784302 0.010715458542108536 -0.1647000014781952
0.048515260219573975 0.01074798870831728 -0.16519999504089355
0.0649619996547699 0.011047267355024815 -0.16979999840259552
0.06577242910861969 0.011034254916012287 -0.1695999950170517
0.06642355024814606 0.01099521853029728 -0.16899999976158142
0.06639133393764496 0.010845579206943512 -0.16669999063014984
0.06649646908044815 0.0107219647616148 -0.1648000031709671
0.06958011537790298 0.010409674607217312 -0.1599999964237213
0.0705488845705986 0.010429193265736103 -0.16030000150203705
0.07169892638921738 0.0104747349396348 -0.16099999845027924
0.07633311301469803 0.010533289052546024 -0.16189999878406525
0.07717978954315186 0.010533289052546024 -0.16189999878406525
0.07797826826572418 0.01052678283303976 -0.16179999709129333
0.07882442325353622 0.01052678283303976 -0.16179999709129333
0.07976905256509781 0.010539795272052288 -0.16200000047683716
0.08091483265161514 0.010578831657767296 -0.16259999573230743
0.08246917277574539 0.010669915936887264 -0.1639999896287918
0.08393653482198715 0.01074798870831728 -0.16519999504089355
0.0851598009467125 0.010793531313538551 -0.16589999198913574
0.08799492567777634 0.010930158197879791 -0.1679999977350235
0.09063065052032471 0.010930158197879791 -0.1679999977350235
0.09101900458335876 0.010871604084968567 -0.1670999974012375
0.02311704307794571 0.010111412964761257 -0.16899999976158142
0.02385883219540119 0.010051582008600235 -0.1679999977350235
0.02448708936572075 0.00994987040758133 -0.1662999987602234
0.02526528760790825 0.009913970716297626 -0.16569998860359192
0.026084527373313904 0.009896022267639637 -0.16539999842643738
0.02686803787946701 0.009866106323897839 -0.16489998996257782
0.02778085134923458 0.009884055703878403 -0.16519999504089355
0.034667953848838806 0.010129362344741821 -0.16929998993873596
0.035469330847263336 0.010105430148541927 -0.1688999980688095
0.03618042916059494 0.01005756575614214 -0.1680999994277954
0.03657451272010803 0.00992593728005886 -0.16589999198913574
0.037216413766145706 0.009866106323897839 -0.16489998996257782
0.03775549307465553 0.009782343171536922 -0.16349999606609344
0.038374386727809906 0.0097225122153759 -0.16249999403953552
0.0391276478767395 0.009698580950498581 -0.16210000216960907
0.03990138694643974 0.009680630639195442 -0.16179999709129333
0.04072235897183418 0.009674647822976112 -0.16169999539852142
0.04307197779417038 0.009632766246795654 -0.16099999845027924
0.04396849870681763 0.009644732810556889 -0.16120000183582306
0.04495050758123398 0.009674647822976112 -0.16169999539852142
0.0460510328412056 0.009728495962917805 -0.16259999573230743
0.047391727566719055 0.009830208495259285 -0.16429999470710754
0.0483684241771698 0.009854140691459179 -0.1647000014781952
0.06488548219203949 0.010147311724722385 -0.1695999950170517
0.0657336413860321 0.010141327977180481 -0.16949999332427979
0.06606981158256531 0.01005756575614214 -0.1680999994277954
0.06607271730899811 0.00992593728005886 -0.16589999198913574
0.06601227074861526 0.009788326919078827 -0.16359999775886536
0.06790663301944733 0.009572935290634632 -0.1599999964237213
0.06874337792396545 0.009572935290634632 -0.1599999964237213
0.06971058249473572 0.009590884670615196 -0.16030000150203705
0.07063690572977066 0.009602850303053856 -0.16049998998641968
0.07347402721643448 0.009644732810556889 -0.16120000183582306
0.07431704550981522 0.009644732810556889 -0.16120000183582306
0.07516005635261536 0.009644732810556889 -0.16120000183582306
0.0760030746459961 0.009644732810556889 -0.16120000183582306
0.07684608548879623 0.009644732810556889 -0.16120000183582306
0.07773729413747787 0.009650714695453644 -0.16129998862743378
0.0785808265209198 0.009650714695453644 -0.16129998862743378
0.0796213299036026 0.009674647822976112 -0.16169999539852142
0.08061625063419342 0.009692597202956676 -0.16200000047683716
0.08191603422164917 0.009746445342898369 -0.16290000081062317
0.08368249237537384 0.009854140691459179 -0.1647000014781952
0.08526246249675751 0.009937903843820095 -0.16609999537467957
0.08690892159938812 0.010027649812400341 -0.16759999096393585
0.08825681358575821 0.010081497021019459 -0.16849999129772186
0.08940251171588898 0.010111412964761257 -0.16899999976158142
0.09033974260091782 0.010117396712303162 -0.16910000145435333
0.09227781742811203 0.010039616376161575 -0.16779999434947968
0.02224639244377613 0.009233066812157631 -0.16910000145435333
0.022980256006121635 0.009173004887998104 -0.1679999977350235
0.02366000786423683 0.00909656286239624 -0.16659998893737793
0.024428190663456917 0.009058342315256596 -0.16589999198913574
0.02526528760790825 0.009047421626746655 -0.16569998860359192
0.02611606754362583 0.009041962213814259 -0.1656000018119812
0.037622660398483276 0.00910202320665121 -0.16669999063014984
0.03826351463794708 0.009047421626746655 -0.16569998860359192
0.038941144943237305 0.00900374073535204 -0.16489998996257782
0.03958626836538315 0.008954599499702454 -0.1639999896287918
0.04017265886068344 0.008894539438188076 -0.16290000081062317
0.0408986434340477 0.008867237716913223 -0.1623999923467636
0.0416451096534729 0.00884539820253849 -0.16200000047683716
0.04325924813747406 0.008829017169773579 -0.16169999539852142
0.04407760128378868 0.008823556825518608 -0.1615999937057495
0.0449783056974411 0.00883447751402855 -0.16179999709129333
0.04590942710638046 0.00885085854679346 -0.16210000216960907
0.04704558849334717 0.008905459195375443 -0.1630999892950058
0.04792790859937668 0.008910918608307838 -0.1631999909877777
0.04869171604514122 0.008894539438188076 -0.16290000081062317
0.06326044350862503 0.009282208047807217 -0.17000000178813934
0.06411174684762955 0.009276747703552246 -0.16990000009536743
0.06488548219203949 0.009260366670787334 -0.1695999950170517
0.0657336413860321 0.009254907257854939 -0.16949999332427979
0.06583398580551147 0.009145704098045826 -0.16749998927116394
0.06595323979854584 0.009041962213814259 -0.1656000018119812
0.0658508688211441 0.008910918608307838 -0.1631999909877777
0.06609125435352325 0.008829017169773579 -0.16169999539852142
0.06656432151794434 0.008779875934123993 -0.1607999950647354
0.06719565391540527 0.00875257607549429 -0.16030000150203705
0.067949078977108 0.008741655386984348 -0.16009999811649323
0.07152079045772552 0.008768956176936626 -0.1605999916791916
0.07236067205667496 0.008768956176936626 -0.1605999916791916
0.08191603422164917 0.008894539438188076 -0.16290000081062317
0.08393653482198715 0.009020121768116951 -0.16519999504089355
0.08557045459747314 0.00910202320665121 -0.16669999063014984
0.0875830426812172 0.00922214612364769 -0.1688999980688095
0.0886758342385292 0.009243986569344997 -0.16929998993873596
0.08966700732707977 0.009254907257854939 -0.16949999332427979
0.09055343270301819 0.009254907257854939 -0.16949999332427979
0.09143985062837601 0.009254907257854939 -0.16949999332427979
0.09293773025274277 0.00922760646790266 -0.16899999976158142
0.09332190454006195 0.009178465232253075 -0.1680999994277954
0.021412594243884087 0.008368485607206821 -0.16949999332427979
0.022114835679531097 0.008299365639686584 -0.1680999994277954
0.022802431136369705 0.008230245672166348 -0.16669999063014984
0.02358900010585785 0.008200622163712978 -0.16609999537467957
0.03948429226875305 0.008254931308329105 -0.1671999990940094
0.04009316489100456 0.008200622163712978 -0.16609999537467957
0.04083850234746933 0.008175937458872795 -0.1656000018119812
0.04150306060910225 0.008136440068483353 -0.1648000031709671
0.04205641895532608 0.008077193982899189 -0.16359999775886536
0.042675916105508804 0.00803275965154171 -0.16269999742507935
0.044186703860759735 0.007998199202120304 -0.16200000047683716
0.045033905655145645 0.007998199202120304 -0.16200000047683716
0.04588110372424126 0.007998199202120304 -0.16200000047683716
0.04675714671611786 0.00800313614308834 -0.16210000216960907
0.047604870051145554 0.00800313614308834 -0.16210000216960907
0.04842269793152809 0.007998199202120304 -0.16200000047683716
0.06411174684762955 0.008388235233724117 -0.16990000009536743
0.0649619996547699 0.008383297361433506 -0.16979999840259552
0.0657336413860321 0.008368485607206821 -0.16949999332427979
0.06567677110433578 0.008249994367361069 -0.1670999974012375
0.06560876965522766 0.008027821779251099 -0.16259999573230743
0.06592775881290436 0.007963638752698898 -0.16129998862743378
0.06719565391540527 0.007914267480373383 -0.16030000150203705
0.06958011537790298 0.007899455726146698 -0.1599999964237213
0.07046086341142654 0.007904392667114735 -0.16009999811649323
0.07125359028577805 0.007899455726146698 -0.1599999964237213
0.08893772959709167 0.008383297361433506 -0.16979999840259552
0.08993151783943176 0.008393172174692154 -0.17000000178813934
0.0908205583691597 0.008393172174692154 -0.17000000178813934
0.09165564179420471 0.008388235233724117 -0.16990000009536743
0.09238074719905853 0.008373423479497433 -0.1695999950170517
0.09382154047489166 0.008343799971044064 -0.16899999976158142
0.09414495527744293 0.008294428698718548 -0.1679999977350235
0.02053828351199627 0.007486479356884956 -0.1695999950170517
0.021311530843377113 0.007446751464158297 -0.16869999468326569
0.021930653601884842 0.00735846720635891 -0.16669999063014984
0.022693000733852386 0.007323153782635927 -0.16589999198913574
0.04081730544567108 0.0074644084088504314 -0.16910000145435333
0.04138104245066643 0.007407023571431637 -0.16779999434947968
0.04188081622123718 0.007340810727328062 -0.1662999987602234
0.042570557445287704 0.007309911772608757 -0.1656000018119812
0.04322674497961998 0.007274598348885775 -0.1648000031709671
0.043767549097537994 0.00722162751480937 -0.16359999775886536
0.04506170377135277 0.007155414670705795 -0.16210000216960907
0.04588110372424126 0.007151000667363405 -0.16200000047683716
0.04667061194777489 0.0071421717293560505 -0.16179999709129333
0.047487396746873856 0.00713775772601366 -0.16169999539852142
0.04824335128068924 0.007124514784663916 -0.1613999903202057
0.0633348673582077 0.007512964308261871 -0.17019999027252197
0.06414948403835297 0.007504136301577091 -0.17000000178813934
0.0649619996547699 0.007495307829231024 -0.16979999840259552
0.06569486111402512 0.007477650884538889 -0.16939999163150787
0.06548025459051132 0.0073540532030165195 -0.16659998893737793
0.06548772007226944 0.007164242677390575 -0.1622999906539917
0.06592775881290436 0.007120100781321526 -0.16129998862743378
0.06648153066635132 0.007089201360940933 -0.1605999916791916
0.06865744292736053 0.007053887937217951 -0.1597999930381775
0.06944964826107025 0.0070494734682142735 -0.15969999134540558
0.07028482109308243 0.0070494734682142735 -0.15969999134540558
0.08914723992347717 0.007512964308261871 -0.17019999027252197
0.09009021520614624 0.007517378311604261 -0.17029999196529388
0.09103424847126007 0.007521792780607939 -0.1703999936580658
0.0918174758553505 0.007512964308261871 -0.17019999027252197
0.09259863197803497 0.007504136301577091 -0.17000000178813934
0.09337767213582993 0.007495307829231024 -0.16979999840259552
0.09470534324645996 0.007459994405508041 -0.16899999976158142
0.02052617259323597 0.0065956441685557365 -0.16949999332427979
0.021197836846113205 0.006529493257403374 -0.16779999434947968
0.021825406700372696 0.006455559749156237 -0.16589999198913574
0.04258596897125244 0.006580079440027475 -0.16910000145435333
0.043058983981609344 0.006517819128930569 -0.16749998927116394
0.043489038944244385 0.006451668217778206 -0.16579999029636383
0.04416884109377861 0.006424429826438427 -0.16509999334812164
0.04459584131836891 0.006362169981002808 -0.16349999606609344
0.04588110372424126 0.006303801666945219 -0.16200000047683716
0.046641767024993896 0.006292127538472414 -0.16169999539852142
0.04739929363131523 0.006280453875660896 -0.1613999903202057
0.048064012080430984 0.006257106550037861 -0.1607999950647354
0.04875287041068077 0.006237650755792856 -0.16030000150203705
0.0633348673582077 0.0066228825598955154 -0.17019999027252197
0.06414948403835297 0.0066151004284620285 -0.17000000178813934
0.0649619996547699 0.006607317831367254 -0.16979999840259552
0.06565608084201813 0.006587861571460962 -0.16929998993873596
0.0653623417019844 0.006471124943345785 -0.1662999987602234
0.06536667793989182 0.006303801666945219 -0.16200000047683716
0.0658460184931755 0.006268780678510666 -0.16110000014305115
0.06782174855470657 0.006218194030225277 -0.1597999930381775
0.06848558783531189 0.006202629767358303 -0.15940000116825104
0.06927569955587387 0.006198738235980272 -0.15929999947547913
0.09124794602394104 0.006646230351179838 -0.17080000042915344
0.09187142550945282 0.006626774091273546 -0.17029999196529388
0.0927075669169426 0.0066228825598955154 -0.17019999027252197
0.09348765760660172 0.0066151004284620285 -0.17000000178813934
0.09426566958427429 0.006607317831367254 -0.16979999840259552
0.09498553723096848 0.0065956441685557365 -0.16949999332427979
0.09558915346860886 0.006576187908649445 -0.16899999976158142
0.019686101004481316 0.005722696427255869 -0.16990000009536743
0.02039296366274357 0.005672172177582979 -0.16839998960494995
0.020983079448342323 0.00559470197185874 -0.16609999537467957
0.02178594097495079 0.005577860865741968 -0.1656000018119812
0.04357312247157097 0.005709222983568907 -0.16949999332427979
0.04401363432407379 0.005651962477713823 -0.16779999434947968
0.044436369091272354 0.00559470197185874 -0.16609999537467957
0.04503225162625313 0.005561019293963909 -0.16509999334812164
0.045339688658714294 0.0054936534725129604 -0.1630999892950058
0.046641767024993896 0.005446497816592455 -0.16169999539852142
0.04734056070446968 0.005429656710475683 -0.16120000183582306
0.04800422862172127 0.00540944654494524 -0.1605999916791916
0.04866162687540054 0.0053892373107373714 -0.1599999964237213
0.0624447837471962 0.0057328008115291595 -0.17019999027252197
0.0633348673582077 0.0057328008115291595 -0.17019999027252197
0.06414948403835297 0.005726065021008253 -0.17000000178813934
0.0650002583861351 0.005722696427255869 -0.16990000009536743
0.06557852774858475 0.005695750471204519 -0.16910000145435333
0.06587328761816025 0.005645225755870342 -0.16759999096393585
0.06635734438896179 0.005399342160671949 -0.16030000150203705
0.0670698955655098 0.0053892373107373714 -0.1599999964237213
0.09046052396297455 0.0057597472332417965 -0.17099998891353607
0.0911945253610611 0.0057496423833072186 -0.17069999873638153
0.09187142550945282 0.005736169405281544 -0.17029999196529388
0.09259863197803497 0.005726065021008253 -0.17000000178813934
0.09348765760660172 0.005726065021008253 -0.17000000178813934
0.09426566958427429 0.005719328299164772 -0.16979999840259552
0.09504157304763794 0.005712591577321291 -0.1695999950170517
0.09587196260690689 0.005709222983568907 -0.16949999332427979
0.09641586989164352 0.005689013749361038 -0.1688999980688095
0.019628165289759636 0.004819956608116627 -0.16939999163150787
0.020919915288686752 0.00471183517947793 -0.1656000018119812
0.02178594097495079 0.00471183517947793 -0.1656000018119812
0.044485773891210556 0.004825647454708815 -0.1695999950170517
0.04497142508625984 0.004782967735081911 -0.1680999994277954
0.04530500993132591 0.004726061597466469 -0.16609999537467957
0.04581226781010628 0.004689072724431753 -0.1648000031709671
0.046079352498054504 0.004629320930689573 -0.16269999742507935
0.04667061194777489 0.004603713285177946 -0.16179999709129333
0.04739929363131523 0.00459233159199357 -0.1613999903202057
0.0481237918138504 0.004580950830131769 -0.16099999845027924
0.04875287041068077 0.0045610335655510426 -0.16030000150203705
0.06237141042947769 0.004837028682231903 -0.17000000178813934
0.0633348673582077 0.004842719063162804 -0.17019999027252197
0.06422494351863861 0.004842719063162804 -0.17019999027252197
0.0650385171175003 0.004837028682231903 -0.17000000178813934
0.06571608036756516 0.004757360089570284 -0.1671999990940094
0.06523635983467102 0.004660619422793388 -0.16380000114440918
0.06580514460802078 0.004580950830131769 -0.16099999845027924
0.06635734438896179 0.0045610335655510426 -0.16030000150203705
0.09035472571849823 0.00485979113727808 -0.17080000042915344
0.09114109724760056 0.004854100290685892 -0.17059999704360962
0.0918174758553505 0.004842719063162804 -0.17019999027252197
0.09248968958854675 0.004831337835639715 -0.16979999840259552
0.09326768666505814 0.004825647454708815 -0.1695999950170517
0.09409911930561066 0.004822801798582077 -0.16949999332427979
0.09498553723096848 0.004822801798582077 -0.16949999332427979
0.09587196260690689 0.004822801798582077 -0.16949999332427979
0.09647295624017715 0.004808575380593538 -0.16899999976158142
0.01878652349114418 0.003943348303437233 -0.16979999840259552
0.01946594938635826 0.0039015458896756172 -0.1679999977350235
0.020078107714653015 0.0038504539988934994 -0.16579999029636383
0.020932545885443687 0.0038481317460536957 -0.16569998860359192
0.02179909497499466 0.0038481317460536957 -0.16569998860359192
0.045426223427057266 0.003943348303437233 -0.16979999840259552
0.04595962539315224 0.003913157619535923 -0.16849999129772186
0.04606245458126068 0.0038481317460536957 -0.16569998860359192
0.04670242965221405 0.0038295527920126915 -0.16489998996257782
0.046930212527513504 0.003778461366891861 -0.16269999742507935
0.04751676321029663 0.003757560160011053 -0.16179999709129333
0.04821346327662468 0.0037459481973201036 -0.16129998862743378
0.04890493303537369 0.0037343367002904415 -0.1607999950647354
0.061337705701589584 0.003938703332096338 -0.1695999950170517
0.06233472004532814 0.003945670556277037 -0.16990000009536743
0.06326044350862503 0.00394799280911684 -0.17000000178813934
0.06422494351863861 0.003952637314796448 -0.17019999027252197
0.0650385171175003 0.00394799280911684 -0.17000000178813934
0.06550095975399017 0.003922447096556425 -0.1688999980688095
0.06512457132339478 0.003748270682990551 -0.1613999903202057
0.06564164906740189 0.0037296919617801905 -0.1605999916791916
0.06627455353736877 0.0037180802319198847 -0.16009999811649323
0.09098082780838013 0.0039549595676362514 -0.17029999196529388
0.09165564179420471 0.003945670556277037 -0.16990000009536743
0.09238074719905853 0.003938703332096338 -0.1695999950170517
0.09321269392967224 0.003936381079256535 -0.16949999332427979
0.09404360502958298 0.003934058826416731 -0.16939999163150787
0.09476138651371002 0.0039270916022360325 -0.16910000145435333
0.0957588329911232 0.00393173610791564 -0.16929998993873596
0.09641586989164352 0.003922447096556425 -0.1688999980688095
0.0967806950211525 0.0039015458896756172 -0.1679999977350235
0.01873120293021202 0.0030463612638413906 -0.16929998993873596
0.019315319135785103 0.0029995772056281567 -0.16669999063014984
0.020090218633413315 0.0029851822182536125 -0.16589999198913574
0.02094518020749092 0.0029833826702088118 -0.16579999029636383
0.04636876657605171 0.0030589571688324213 -0.17000000178813934
0.04700761288404465 0.0030427626334130764 -0.16910000145435333
0.046929001808166504 0.0029815833549946547 -0.16569998860359192
0.04730519279837608 0.0029509938322007656 -0.1639999896287918
0.047781072556972504 0.0029276018030941486 -0.16269999742507935
0.04836291819810867 0.0029114075005054474 -0.16179999709129333
0.0490569993853569 0.002902410225942731 -0.16129998862743378
0.061337705701589584 0.0030517594423145056 -0.1695999950170517
0.06229802966117859 0.0030553583055734634 -0.16979999840259552
0.06326044350862503 0.0030589571688324213 -0.17000000178813934
0.06414948403835297 0.0030589571688324213 -0.17000000178813934
