ply
format ascii 1.0
element vertex 756
property float x
property float y
property float z
end_header
0.009164444170892239 0.030956795439124107 -0.13319998979568481
0.009875837713479996 0.031003277748823166 -0.13339999318122864
0.01057346910238266 0.031003277748823166 -0.13339999318122864
0.011271100491285324 0.031003277748823166 -0.13339999318122864
0.011968731880187988 0.031003277748823166 -0.13339999318122864
0.012666364200413227 0.031003277748823166 -0.13339999318122864
0.023489084094762802 0.030561700463294983 -0.1314999908208847
0.02415839582681656 0.030538463965058327 -0.131400004029274
-0.03742232173681259 0.0301920585334301 -0.13289999961853027
-0.03678257763385773 0.03023749403655529 -0.1331000030040741
-0.036086514592170715 0.03023749403655529 -0.1331000030040741
-0.035417038947343826 0.030260208994150162 -0.13319998979568481
-0.03474652022123337 0.03028292767703533 -0.13329999148845673
0.006963150110095739 0.029783135280013084 -0.13109999895095825
0.007742102723568678 0.03014662116765976 -0.13269999623298645
0.008480573073029518 0.0303056463599205 -0.13339999318122864
0.009178205393254757 0.0303056463599205 -0.13339999318122864
0.009875837713479996 0.0303056463599205 -0.13339999318122864
0.01057346910238266 0.0303056463599205 -0.13339999318122864
0.011271100491285324 0.0303056463599205 -0.13339999318122864
0.023506946861743927 0.029896724969148636 -0.13159999251365662
0.024826660752296448 0.029828572645783424 -0.13130000233650208
-0.03678257763385773 0.02954143099486828 -0.1331000030040741
-0.03611362352967262 0.029563624411821365 -0.13319998979568481
-0.03547021746635437 0.029608014971017838 -0.13339999318122864
-0.034772586077451706 0.029608014971017838 -0.13339999318122864
0.006277546752244234 0.029097532853484154 -0.13109999895095825
0.007026885636150837 0.02936386875808239 -0.1322999894618988
0.007771273609250784 0.029563624411821365 -0.13319998979568481
0.008480573073029518 0.029608014971017838 -0.13339999318122864
0.009178205393254757 0.029608014971017838 -0.13339999318122864
0.009875837713479996 0.029608014971017838 -0.13339999318122864
0.024195164442062378 0.029208505526185036 -0.13159999251365662
0.02549387887120247 0.02911972813308239 -0.13120000064373016
-0.03678257763385773 0.028845369815826416 -0.1331000030040741
-0.03614073619246483 0.028888709843158722 -0.13329999148845673
-0.03547021746635437 0.028910383582115173 -0.13339999318122864
-0.034772586077451706 0.028910383582115173 -0.13339999318122864
0.005583412479609251 0.02836858481168747 -0.13089999556541443
0.006339794956147671 0.028693662956357002 -0.13239999115467072
0.007064065430313349 0.028823696076869965 -0.13300000131130219
0.007771273609250784 0.02886703796684742 -0.13319998979568481
0.008480573073029518 0.028910383582115173 -0.13339999318122864
0.02484556846320629 0.02847694605588913 -0.131400004029274
0.026160050183534622 0.028411928564310074 -0.13109999895095825
0.026804698631167412 0.02836858481168747 -0.13089999556541443
-0.03675494343042374 0.028128156438469887 -0.13300000131130219
-0.03614073619246483 0.02819160185754299 -0.13329999148845673
-0.03547021746635437 0.02821275219321251 -0.13339999318122864
-0.034772586077451706 0.02821275219321251 -0.13339999318122864
-0.034100499004125595 0.028233900666236877 -0.13349999487400055
0.004891369957476854 0.02764172852039337 -0.1306999921798706
0.005617535673081875 0.027853218838572502 -0.13169999420642853
0.0063637373968958855 0.02810700796544552 -0.13289999961853027
0.007069376762956381 0.028149306774139404 -0.1331000030040741
0.025532741099596024 0.027789773419499397 -0.131400004029274
0.026825176551938057 0.027705175802111626 -0.13099999725818634
0.027468254789710045 0.02766287699341774 -0.13079999387264252
-0.03675494343042374 0.02743261680006981 -0.13300000131130219
-0.03611362352967262 0.027473866939544678 -0.13319998979568481
-0.03547021746635437 0.027515118941664696 -0.13339999318122864
-0.034772586077451706 0.027515118941664696 -0.13339999318122864
-0.034100499004125595 0.02753574587404728 -0.13349999487400055
0.004211077932268381 0.02697884291410446 -0.13079999387264252
0.004921309184283018 0.02712322399020195 -0.1314999908208847
0.0056559243239462376 0.027350110933184624 -0.13259999454021454
0.006368525791913271 0.02743261680006981 -0.13300000131130219
0.026845652610063553 0.027040721848607063 -0.13109999895095825
0.027510255575180054 0.02702009677886963 -0.13099999725818634
-0.03664439916610718 0.02665666490793228 -0.13259999454021454
-0.03605940192937851 0.02673707716166973 -0.13300000131130219
-0.03544362634420395 0.026797384023666382 -0.13329999148845673
-0.034772586077451706 0.02681748755276203 -0.13339999318122864
-0.034100499004125595 0.02683759108185768 -0.13349999487400055
0.003524346509948373 0.026274705305695534 -0.1306999921798706
0.004252931103110313 0.026556149125099182 -0.13210000097751617
0.004962476436048746 0.02665666490793228 -0.13259999454021454
0.005672986153513193 0.02673707716166973 -0.13300000131130219
0.027531256899237633 0.026355119422078133 -0.13109999895095825
0.028216859325766563 0.026355119422078133 -0.13109999895095825
-0.036032289266586304 0.026021957397460938 -0.13289999961853027
-0.035390451550483704 0.02606111764907837 -0.1331000030040741
-0.034772586077451706 0.026119856163859367 -0.13339999318122864
-0.03407495468854904 0.026119856163859367 -0.13339999318122864
-0.03340234234929085 0.026139436289668083 -0.13349999487400055
0.003551311558112502 0.025786995887756348 -0.13169999420642853
0.0042722481302917 0.025982797145843506 -0.13269999623298645
0.004977446515113115 0.026041537523269653 -0.13300000131130219
0.02759425900876522 0.02572825737297535 -0.131400004029274
0.028902463614940643 0.025669515132904053 -0.13109999895095825
-0.035950951278209686 0.0252697691321373 -0.13259999454021454
-0.03533727303147316 0.025326941162347794 -0.13289999961853027
-0.03474652022123337 0.02540316805243492 -0.13329999148845673
-0.03407495468854904 0.025422224774956703 -0.13339999318122864
-0.03337732329964638 0.025422224774956703 -0.13339999318122864
0.0028517027385532856 0.025002969428896904 -0.13120000064373016
0.0035863665398210287 0.025345997884869576 -0.13300000131130219
0.004288345109671354 0.02538410946726799 -0.13319998979568481
0.02894655615091324 0.025022026151418686 -0.13130000233650208
-0.035284094512462616 0.024594854563474655 -0.13269999623298645
-0.03469438850879669 0.024668993428349495 -0.1331000030040741
-0.03407495468854904 0.02472459338605404 -0.13339999318122864
-0.03337732329964638 0.02472459338605404 -0.13339999318122864
0.002163925673812628 0.024298308417201042 -0.13109999895095825
0.002890826901420951 0.024650458246469498 -0.13300000131130219
0.0035971524193882942 0.02472459338605404 -0.13339999318122864
0.004294784273952246 0.02472459338605404 -0.13339999318122864
0.028990646824240685 0.024372443556785583 -0.1314999908208847
0.02965577505528927 0.024353912100195885 -0.131400004029274
-0.034668322652578354 0.02395491860806942 -0.13300000131130219
-0.03404941037297249 0.02400895021855831 -0.13329999148845673
-0.03337732329964638 0.024026961997151375 -0.13339999318122864
-0.03267969191074371 0.024026961997151375 -0.13339999318122864
0.002198588103055954 0.023990938439965248 -0.13319998979568481
0.002901694504544139 0.024044973775744438 -0.13349999487400055
0.003602545475587249 0.0240629855543375 -0.13359999656677246
0.029056785628199577 0.023738782852888107 -0.13179999589920044
0.0296783410012722 0.023684749379754066 -0.1314999908208847
-0.034642256796360016 0.023241890594363213 -0.13289999961853027
-0.034023866057395935 0.02329435385763645 -0.13319998979568481
-0.03337732329964638 0.02332933060824871 -0.13339999318122864
-0.03267969191074371 0.02332933060824871 -0.13339999318122864
0.002211793093010783 0.023434260860085487 -0.1340000033378601
0.002914735581725836 0.023451747372746468 -0.13409999012947083
0.02912292443215847 0.023101983591914177 -0.13210000097751617
0.029723480343818665 0.02303203009068966 -0.13169999420642853
0.030342947691679 0.02297956682741642 -0.131400004029274
-0.03459012135863304 0.02251294255256653 -0.13269999623298645
-0.03399832546710968 0.02258080430328846 -0.1331000030040741
-0.03337732329964638 0.022631699219346046 -0.13339999318122864
-0.0327041894197464 0.022648664191365242 -0.13349999487400055
-0.03198206052184105 0.022631699219346046 -0.13339999318122864
0.002231599995866418 0.022937074303627014 -0.13519999384880066
0.002938644727692008 0.022937074303627014 -0.13519999384880066
0.029167015105485916 0.022445080801844597 -0.1322999894618988
0.030389130115509033 0.02232632413506508 -0.13159999251365662
-0.0345640555024147 0.02180252969264984 -0.13259999454021454
-0.03399832546710968 0.021884741261601448 -0.1331000030040741
-0.03337732329964638 0.021934067830443382 -0.13339999318122864
-0.0327041894197464 0.021950509399175644 -0.13349999487400055
-0.03200603649020195 0.021950509399175644 -0.13349999487400055
0.0022382023744285107 0.022295799106359482 -0.1356000006198883
0.029746050015091896 0.02167098969221115 -0.13179999589920044
0.030389130115509033 0.02163810469210148 -0.13159999251365662
0.031030120328068733 0.021605223417282104 -0.131400004029274
-0.03397278115153313 0.02117276005446911 -0.13300000131130219
-0.03337732329964638 0.021236436441540718 -0.13339999318122864
-0.0327041894197464 0.021252354606986046 -0.13349999487400055
-0.03203001245856285 0.021268274635076523 -0.13359999656677246
-0.005785819608718157 0.019915129989385605 -0.1251000016927719
0.029768619686365128 0.02099764533340931 -0.13189999759197235
0.030389130115509033 0.020949887111783028 -0.13159999251365662
0.031030120328068733 0.020918050780892372 -0.131400004029274
-0.03397278115153313 0.02047722041606903 -0.13300000131130219
-0.03335230052471161 0.02052340842783451 -0.13329999148845673
-0.03267969191074371 0.020538805052638054 -0.13339999318122864
-0.03203001245856285 0.02056959830224514 -0.13359999656677246
-0.03137823939323425 0.020600391551852226 -0.13379999995231628
0.02981375902891159 0.020338652655482292 -0.13210000097751617
0.031053733080625534 0.020246272906661034 -0.1314999908208847
-0.03332728147506714 0.019811425358057022 -0.13319998979568481
-0.03267969191074371 0.01984117180109024 -0.13339999318122864
-0.03203001245856285 0.019870920106768608 -0.13359999656677246
-0.03137823939323425 0.019900666549801826 -0.13379999995231628
-0.005078267306089401 0.018413322046399117 -0.12379999458789825
0.02981375902891159 0.01964781992137432 -0.13210000097751617
-0.03267969191074371 0.019143540412187576 -0.13339999318122864
-0.03200603649020195 0.0191578920930624 -0.13349999487400055
-0.03137823939323425 0.019200943410396576 -0.13379999995231628
-0.004430840257555246 0.017765894532203674 -0.12379999458789825
0.031077347695827484 0.018885232508182526 -0.13159999251365662
-0.03263069689273834 0.01841825433075428 -0.13319998979568481
-0.03198206052184105 0.018445909023284912 -0.13339999318122864
-0.03133133426308632 0.018473565578460693 -0.13359999656677246
-0.030678512528538704 0.018501220270991325 -0.13379999995231628
-0.003783412976190448 0.017118467018008232 -0.12379999458789825
0.031077347695827484 0.018197014927864075 -0.13159999251365662
-0.03198206052184105 0.017748277634382248 -0.13339999318122864
-0.0313078835606575 0.017761582508683205 -0.13349999487400055
-0.03065558336675167 0.017788192257285118 -0.13369999825954437
0.031100962311029434 0.01752210035920143 -0.13169999420642853
-0.031284429132938385 0.017050646245479584 -0.13339999318122864
-0.030609725043177605 0.017063427716493607 -0.13349999487400055
-0.029956383630633354 0.0170889925211668 -0.13369999825954437
0.02981375902891159 0.016884487122297287 -0.13210000097751617
0.031077347695827484 0.016820577904582024 -0.13159999251365662
-0.03058679588139057 0.01635301299393177 -0.13339999318122864
-0.029933977872133255 0.016377530992031097 -0.13359999656677246
-0.029279066249728203 0.016402048990130424 -0.13379999995231628
0.001388111850246787 0.01509037520736456 -0.12309999763965607
0.029746050015091896 0.01615687645971775 -0.13179999589920044
0.030389130115509033 0.016132358461618423 -0.13159999251365662
0.031053733080625534 0.016120100393891335 -0.1314999908208847
-0.03058679588139057 0.015655381605029106 -0.13339999318122864
-0.029911570250988007 0.01566711813211441 -0.13349999487400055
-0.029279066249728203 0.015702325850725174 -0.13379999995231628
-0.0024744875263422728 0.01444660872220993 -0.12309999763965607
0.0007443452486768365 0.01444660872220993 -0.12309999763965607
0.001388111850246787 0.01444660872220993 -0.12309999763965607
0.029723480343818665 0.015455876477062702 -0.13169999420642853
0.030342947691679 0.015420670621097088 -0.131400004029274
0.031030120328068733 0.015420670621097088 -0.131400004029274
-0.029911570250988007 0.014968963339924812 -0.13349999487400055
-0.029279066249728203 0.015002602711319923 -0.13379999995231628
-0.028622062876820564 0.01502502802759409 -0.1340000033378601
0.001388111850246787 0.013802842237055302 -0.12309999763965607
0.029723480343818665 0.014767134562134743 -0.13169999420642853
0.030342947691679 0.014733497984707355 -0.131400004029274
-0.029235299676656723 0.014281499199569225 -0.13359999656677246
-0.028579343110322952 0.014302878640592098 -0.13379999995231628
-0.02796296402812004 0.01434563659131527 -0.13419999182224274
0.0013892394490540028 0.01316976547241211 -0.12319999933242798
0.02912292443215847 0.014121153391897678 -0.13210000097751617
0.029700910672545433 0.014067703858017921 -0.13159999251365662
0.030342947691679 0.014046325348317623 -0.131400004029274
-0.02853662148118019 0.013582821935415268 -0.13359999656677246
-0.027900455519557 0.013613322749733925 -0.1339000016450882
-0.02730177715420723 0.013664155267179012 -0.13439999520778656
-0.00246644695289433 0.012474642135202885 -0.12269999831914902
-0.0011830974835902452 0.012474642135202885 -0.12269999831914902
0.0013892394490540028 0.012525476515293121 -0.12319999933242798
0.02912292443215847 0.013430320657789707 -0.13210000097751617
0.0296783410012722 0.013369318097829819 -0.1314999908208847
0.03029676340520382 0.013338819146156311 -0.13120000064373016
-0.027858782559633255 0.012893788516521454 -0.13369999825954437
-0.027220522984862328 0.012922720052301884 -0.1340000033378601
-0.0011830974835902452 0.011832967400550842 -0.12269999831914902
-0.0005423052934929729 0.011852255091071129 -0.12289999425411224
0.0013903670478612185 0.011890830472111702 -0.1232999935746193
0.028990646824240685 0.012681622989475727 -0.1314999908208847
0.029588067904114723 0.012643048539757729 -0.13109999895095825
-0.02715958096086979 0.012194587849080563 -0.13369999825954437
-0.02651975490152836 0.01222195103764534 -0.1340000033378601
-0.02585751935839653 0.012240190990269184 -0.13419999182224274
-0.0005423052934929729 0.011209534481167793 -0.12289999425411224
0.0013903670478612185 0.01124601811170578 -0.1232999935746193
0.015942592173814774 0.011510522104799747 -0.12619999051094055
0.016655193641781807 0.011547006666660309 -0.1265999972820282
0.017371978610754013 0.011583490297198296 -0.12700000405311584
0.018078744411468506 0.011610852554440498 -0.12729999423027039
0.01877392642199993 0.011629094369709492 -0.1274999976158142
0.019303474575281143 0.011547006666660309 -0.1265999972820282
0.019918231293559074 0.011519643478095531 -0.12629999220371246
0.028902463614940643 0.011957445181906223 -0.13109999895095825
-0.02648017182946205 0.011503985151648521 -0.13379999995231628
-0.025799715891480446 0.011512583121657372 -0.1339000016450882
-0.025155702605843544 0.011538376100361347 -0.13419999182224274
-0.0005423052934929729 0.010566813871264458 -0.12289999425411224
0.00010057870531454682 0.010584009811282158 -0.12309999763965607
0.0007443452486768365 0.010584009811282158 -0.12309999763965607
0.0013892394490540028 0.010592607781291008 -0.12319999933242798
0.014564701355993748 0.010807555168867111 -0.1256999969482422
0.015246285125613213 0.010824751108884811 -0.125900000333786
0.01592995971441269 0.010841947048902512 -0.12610000371932983
0.01662888191640377 0.010867740027606487 -0.12639999389648438
0.017371978610754013 0.010919328778982162 -0.12700000405311584
0.018121350556612015 0.010970915667712688 -0.12759999930858612
0.018803374841809273 0.010979513637721539 -0.12770000100135803
0.020060166716575623 0.010936523787677288 -0.12719999253749847
0.021071068942546844 0.01077316328883171 -0.12529999017715454
0.02883632481098175 0.011246047914028168 -0.13079999387264252
-0.02574191242456436 0.010788111947476864 -0.13359999656677246
-0.02508072555065155 0.010804262012243271 -0.13379999995231628
0.00010057870531454682 0.00994024332612753 -0.12309999763965607
0.0007443452486768365 0.00994024332612753 -0.12309999763965607
0.001388111850246787 0.00994024332612753 -0.12309999763965607
0.012672754935920238 0.010214791633188725 -0.1264999955892563
0.013907337561249733 0.010150191374123096 -0.1256999969482422
0.014587875455617905 0.010166342370212078 -0.125900000333786
0.015270505100488663 0.010182492434978485 -0.12610000371932983
0.015980489552021027 0.010214791633188725 -0.1264999955892563
0.016773594543337822 0.010295541025698185 -0.1274999976158142
0.01896534487605095 0.010400514118373394 -0.12879998981952667
0.01962367445230484 0.010392440482974052 -0.12870000302791595
0.020806843414902687 0.010311691090464592 -0.12770000100135803
0.028001628816127777 0.010505489073693752 -0.13009999692440033
-0.0005423052934929729 0.009281371720135212 -0.12289999425411224
0.00010057870531454682 0.009296475909650326 -0.12309999763965607
0.0007443452486768365 0.009296475909650326 -0.12309999763965607
0.001388111850246787 0.009296475909650326 -0.12309999763965607
0.012001711875200272 0.009545691311359406 -0.12639999389648438
0.013249973766505718 0.009492827579379082 -0.1256999969482422
0.013907337561249733 0.009492827579379082 -0.1256999969482422
0.014599462039768696 0.009515483863651752 -0.12600000202655792
0.021491482853889465 0.009651419706642628 -0.12780000269412994
0.021813038736581802 0.009500379674136639 -0.1257999986410141
0.027048250660300255 0.009726937860250473 -0.12879998981952667
0.027807919308543205 0.0097571462392807 -0.12919999659061432
-0.024289891123771667 0.009369668550789356 -0.13329999148845673
0.00010057870531454682 0.008652709424495697 -0.12309999763965607
0.0007443452486768365 0.008652709424495697 -0.12309999763965607
0.001388111850246787 0.008652709424495697 -0.12309999763965607
0.012562556192278862 0.008814376778900623 -0.12539999186992645
0.01323943305760622 0.008828435093164444 -0.12559999525547028
0.013929465785622597 0.008849522098898888 -0.125900000333786
0.021592382341623306 0.00902524683624506 -0.12839999794960022
0.021865058690309525 0.008863580413162708 -0.12610000371932983
0.02227444015443325 0.008765174075961113 -0.12469999492168427
0.02456117421388626 0.008884666487574577 -0.12639999389648438
0.026292767375707626 0.00902524683624506 -0.12839999794960022
0.02681725099682808 0.00897604413330555 -0.12770000100135803
-0.023575082421302795 0.008666053414344788 -0.13319998979568481
-0.022912848740816116 0.008679065853357315 -0.13339999318122864
-0.022248525172472 0.008692078292369843 -0.13359999656677246
0.00010057870531454682 0.008008942939341068 -0.12309999763965607
0.0007443452486768365 0.008008942939341068 -0.12309999763965607
0.001388111850246787 0.008008942939341068 -0.12309999763965607
0.011906761676073074 0.008158582262694836 -0.12539999186992645
0.021083833649754524 0.008418824523687363 -0.12939999997615814
0.0223101656883955 0.008126052096486092 -0.12489999830722809
0.02346525900065899 0.008074004203081131 -0.12409999966621399
0.02496279403567314 0.008139064535498619 -0.1251000016927719
0.025719404220581055 0.008171594701707363 -0.12559999525547028
-0.022215217351913452 0.007981434464454651 -0.13339999318122864
-0.021533716470003128 0.007987418211996555 -0.13349999487400055
0.0007455545710399747 0.007377143017947674 -0.1232999935746193
0.0013903670478612185 0.007377143017947674 -0.1232999935746193
0.011906761676073074 0.007502787746489048 -0.12539999186992645
0.021083833649754524 0.007742111571133137 -0.12939999997615814
0.022021112963557243 0.007598517928272486 -0.12700000405311584
0.022542376071214676 0.007550652604550123 -0.12619999051094055
0.022816263139247894 0.007425008341670036 -0.12409999966621399
0.02340853214263916 0.007407058496028185 -0.12379999458789825
0.024055959656834602 0.007407058496028185 -0.12379999458789825
0.024703387171030045 0.007407058496028185 -0.12379999458789825
-0.021501455456018448 0.007278342265635729 -0.13329999148845673
-0.020152492448687553 0.0072947232984006405 -0.13359999656677246
0.0007467638934031129 0.006743250880390406 -0.12349999696016312
0.0013926223618909717 0.006743250880390406 -0.12349999696016312
0.0112240519374609 0.006830613128840923 -0.1251000016927719
0.02105124667286873 0.00705447793006897 -0.12919999659061432
0.022073131054639816 0.006950735114514828 -0.12729999423027039
0.022542376071214676 0.006890673656016588 -0.12619999051094055
0.022853033617138863 0.006786931771785021 -0.12429999560117722
0.02340853214263916 0.006759630981832743 -0.12379999458789825
0.024055959656834602 0.006759630981832743 -0.12379999458789825
-0.02055463381111622 0.006502239499241114 -0.13169999420642853
-0.02012232318520546 0.006586171220988035 -0.13339999318122864
-0.019439253956079483 0.006591108161956072 -0.13349999487400055
0.0013960051583126187 0.006112203933298588 -0.12379999458789825
0.011241994798183441 0.006186260841786861 -0.12529999017715454
0.011963732540607452 0.0062208217568695545 -0.12600000202655792
0.021132713183760643 0.0064034960232675076 -0.12969999015331268
0.022263865917921066 0.0063393134623765945 -0.12839999794960022
0.0226316899061203 0.006255381740629673 -0.1266999989748001
0.0229265745729208 0.006156638264656067 -0.12469999492168427
0.010552927851676941 0.005513332784175873 -0.12489999830722809
0.011250967159867287 0.005535403732210398 -0.12539999186992645
0.022575976327061653 0.005747285671532154 -0.13019999861717224
0.022774588316679 0.005628101993352175 -0.1274999976158142
-0.018029429018497467 0.0051909079775214195 -0.13339999318122864
-0.017331797629594803 0.0051909079775214195 -0.13339999318122864
0.010552927851676941 0.004860152956098318 -0.12489999830722809
0.011277883313596249 0.004891282878816128 -0.1256999969482422
-0.017240850254893303 0.004469698760658503 -0.13269999623298645
-0.01663416437804699 0.004493276588618755 -0.13339999318122864
0.010536029003560543 0.00420023687183857 -0.12469999492168427
0.011286855675280094 0.004237287677824497 -0.1257999986410141
-0.015888748690485954 0.003784263739362359 -0.13300000131130219
-0.015238901600241661 0.003795644734054804 -0.13339999318122864
0.009305792860686779 0.0035765557549893856 -0.1256999969482422
-0.014454065822064877 0.0030794343911111355 -0.13259999454021454
0.009268777444958687 0.0029075806960463524 -0.12520000338554382
0.009868043474853039 0.0028913242276757956 -0.12449999898672104
0.01051913108676672 0.0028913242276757956 -0.12449999898672104
-0.013116443529725075 0.002394983544945717 -0.1331000030040741
-0.01244837511330843 0.002400381490588188 -0.13339999318122864
0.009216954931616783 0.0022402361501008272 -0.12449999898672104
0.009844264015555382 0.0022348379716277122 -0.1241999939084053
0.01051913108676672 0.0022402361501008272 -0.12449999898672104
-0.012252411805093288 0.0016759451245889068 -0.13130000233650208
-0.011724318377673626 0.0016989207360893488 -0.1331000030040741
0.009202148765325546 0.0015865953173488379 -0.12429999560117722
0.009844264015555382 0.0015853188233450055 -0.1241999939084053
-0.010870827361941338 0.000988542102277279 -0.13120000064373016
-0.010301141999661922 0.0009998439345508814 -0.13269999623298645
0.011206107214093208 0.000941073929425329 -0.12489999830722809
-0.012288658879697323 0.0002874330966733396 -0.12469999492168427
-0.009491334669291973 0.00030218507163226604 -0.13109999895095825
-0.0089266337454319 0.00030633408459834754 -0.13289999961853027
-0.008268779143691063 0.0003077170695178211 -0.13349999487400055
0.011206107214093208 0.00028789410134777427 -0.12489999830722809
0.011973228305578232 0.0002906601002905518 -0.12610000371932983
0.012722845189273357 0.0002927345922216773 -0.12700000405311584
0.013502956368029118 0.0002952700888272375 -0.12809999287128448
0.014206063002347946 0.0002959615958388895 -0.12839999794960022
0.014877546578645706 0.0002959615958388895 -0.12839999794960022
0.015561140142381191 0.0002961920981761068 -0.12849999964237213
-0.01705632545053959 -0.00036908776382915676 -0.12619999051094055
-0.016292408108711243 -0.0003667480777949095 -0.12539999186992645
-0.01548698078840971 -0.00036323853419162333 -0.1241999939084053
-0.014789676293730736 -0.00036206867662258446 -0.12379999458789825
-0.014130826108157635 -0.0003617762413341552 -0.12370000034570694
-0.013462120667099953 -0.00036119131254963577 -0.12349999696016312
-0.012816262431442738 -0.00036119131254963577 -0.12349999696016312
-0.012199967168271542 -0.00036206867662258446 -0.12379999458789825
-0.0110020088031888 -0.00036528578493744135 -0.12489999830722809
-0.009944056160748005 -0.0003746445581782609 -0.12809999287128448
-0.008144902065396309 -0.0003845882893074304 -0.1314999908208847
-0.007564953528344631 -0.00039014508365653455 -0.13339999318122864
0.01049378328025341 -0.00036323853419162333 -0.1241999939084053
0.011170219630002975 -0.0003641159273684025 -0.12449999898672104
0.011906761676073074 -0.0003667480777949095 -0.12539999186992645
0.012612647376954556 -0.00036821039975620806 -0.125900000333786
0.01395159400999546 -0.00036879535764455795 -0.12610000371932983
0.014611049555242062 -0.00036879535764455795 -0.12610000371932983
0.015270505100488663 -0.00036879535764455795 -0.12610000371932983
0.015942592173814774 -0.00036908776382915676 -0.12619999051094055
-0.009136585518717766 -0.001029066159389913 -0.12619999051094055
-0.007440194953233004 -0.0010698374826461077 -0.13120000064373016
-0.006872470024973154 -0.0010885922238230705 -0.13349999487400055
0.010485335253179073 -0.0010119422804564238 -0.12409999966621399
0.011143302544951439 -0.0010127576533704996 -0.1241999939084053
0.011802316643297672 -0.0010135731426998973 -0.12429999560117722
0.012462376616895199 -0.0010143885156139731 -0.12439999729394913
0.013123483397066593 -0.0010152040049433708 -0.12449999898672104
0.013774571008980274 -0.0010152040049433708 -0.12449999898672104
0.014390897937119007 -0.0010127576533704996 -0.1241999939084053
0.01502830721437931 -0.0010119422804564238 -0.12409999966621399
0.015677303075790405 -0.0010119422804564238 -0.12409999966621399
0.016339454799890518 -0.0010127576533704996 -0.1241999939084053
-0.009027989581227303 -0.0016689685871824622 -0.12469999492168427
-0.008456457406282425 -0.001685029361397028 -0.125900000333786
-0.007921923883259296 -0.0017117969691753387 -0.12789998948574066
-0.0062066903337836266 -0.0017961154226213694 -0.13419999182224274
-0.0055335890501737595 -0.0018054842948913574 -0.13490000367164612
0.011125358752906322 -0.0016595999477431178 -0.12399999797344208
0.011764336377382278 -0.0016582615207880735 -0.12389999628067017
0.016920581459999084 -0.0016555847832933068 -0.12370000034570694
0.011116386391222477 -0.0023062119726091623 -0.12389999628067017
0.011754841543734074 -0.0023043504916131496 -0.12379999458789825
0.017553282901644707 -0.0023006279952824116 -0.12359999865293503
0.02836752124130726 -0.0024532584939152002 -0.13179999589920044
0.01758168637752533 -0.002951777772977948 -0.12379999458789825
0.02767825685441494 -0.0031425226479768753 -0.13179999589920044
0.028238384053111076 -0.0031282170675694942 -0.13120000064373016
0.017666896805167198 -0.0036166487261652946 -0.12439999729394913
0.02698899246752262 -0.0038317868020385504 -0.13179999589920044
0.027531256899237633 -0.0038114360067993402 -0.13109999895095825
-0.026559334248304367 -0.004603376612067223 -0.13419999182224274
-0.025953859090805054 -0.004620527848601341 -0.1347000002861023
0.017851518467068672 -0.00431180652230978 -0.1256999969482422
0.026927560567855835 -0.004510760307312012 -0.1314999908208847
0.027468254789710045 -0.004486748483031988 -0.13079999387264252
0.02733718976378441 -0.0042534926906228065 -0.12399999797344208
0.027940522879362106 -0.004246632102876902 -0.12379999458789825
-0.027322091162204742 -0.0053170514293015 -0.13449999690055847
-0.026757242158055305 -0.00534472381696105 -0.13519999384880066
0.017549801617860794 -0.005071953404694796 -0.1282999962568283
0.025824209675192833 -0.00525380065664649 -0.13289999961853027
0.02639949880540371 -0.0052300808019936085 -0.1322999894618988
0.026845652610063553 -0.0051826429553329945 -0.13109999895095825
0.02858795039355755 -0.0048940591514110565 -0.12379999458789825
-0.02817133255302906 -0.006051769480109215 -0.13519999384880066
0.018092947080731392 -0.005702628754079342 -0.1273999959230423
0.025223733857274055 -0.005971198435872793 -0.13339999318122864
0.026379548013210297 -0.005917484872043133 -0.13220000267028809
0.026825176551938057 -0.005863770842552185 -0.13099999725818634
0.027940522879362106 -0.005541487131267786 -0.12379999458789825
0.028611043468117714 -0.005545963067561388 -0.12389999628067017
0.02928260900080204 -0.005550439469516277 -0.12399999797344208
-0.028985178098082542 -0.006783810444176197 -0.13570000231266022
-0.028358863666653633 -0.006803806405514479 -0.13609999418258667
0.01710248924791813 -0.006498859729617834 -0.12999999523162842
0.01842053420841694 -0.006253903266042471 -0.1251000016927719
0.02452610246837139 -0.006668829824775457 -0.13339999318122864
0.025785347446799278 -0.006633836310356855 -0.13269999623298645
0.026180004701018333 -0.006558849476277828 -0.13120000064373016
0.028143644332885742 -0.006233906373381615 -0.12469999492168427
0.02968406304717064 -0.006283897440880537 -0.1256999969482422
-0.030292468145489693 -0.007465858943760395 -0.13519999384880066
-0.02973860129714012 -0.0075045134872198105 -0.13589999079704285
0.017536122351884842 -0.007079313043504953 -0.1281999945640564
0.01789412461221218 -0.006957827601581812 -0.12600000202655792
0.01842053420841694 -0.006908128969371319 -0.1251000016927719
0.019013769924640656 -0.006886040326207876 -0.12469999492168427
0.023739159107208252 -0.007338851224631071 -0.13289999961853027
0.024996835738420486 -0.007300197146832943 -0.13220000267028809
0.029650185257196426 -0.007090357597917318 -0.12839999794960022
0.030274437740445137 -0.007079313043504953 -0.1281999945640564
-0.030471712350845337 -0.008221263997256756 -0.13599999248981476
-0.029848016798496246 -0.008245444856584072 -0.1363999992609024
0.0173035841435194 -0.00764698488637805 -0.1264999955892563
0.017851518467068672 -0.007598624564707279 -0.1256999969482422
0.018361635506153107 -0.00753817381337285 -0.12469999492168427
0.019013769924640656 -0.00753817381337285 -0.12469999492168427
0.022818727418780327 -0.007955281995236874 -0.13159999251365662
0.02414001151919365 -0.007937147282063961 -0.13130000233650208
0.03018130175769329 -0.007900876924395561 -0.1306999921798706
0.03162074089050293 -0.007919012568891048 -0.13099999725818634
-0.03120587021112442 -0.008939061313867569 -0.13609999418258667
-0.03060614876449108 -0.00897190161049366 -0.13660000264644623
0.017194155603647232 -0.008255988359451294 -0.1256999969482422
0.017709501087665558 -0.008190308697521687 -0.12469999492168427
0.018288012593984604 -0.008157468400895596 -0.1241999939084053
0.019013769924640656 -0.008190308697521687 -0.12469999492168427
0.019902460277080536 -0.00828882772475481 -0.12619999051094055
0.020920898765325546 -0.008433325216174126 -0.12839999794960022
0.023203285411000252 -0.008531845174729824 -0.1298999935388565
0.0318138413131237 -0.00865663681179285 -0.13179999589920044
-0.03191762417554855 -0.009650813415646553 -0.13609999418258667
-0.03134344145655632 -0.009693358093500137 -0.13669998943805695
0.017638493329286575 -0.008806987665593624 -0.1241999939084053
0.018288012593984604 -0.008806987665593624 -0.1241999939084053
0.021541930735111237 -0.009083535522222519 -0.12809999287128448
0.022263865917921066 -0.009104808792471886 -0.12839999794960022
0.022899625822901726 -0.009090626612305641 -0.1281999945640564
0.03210350126028061 -0.009430993348360062 -0.13300000131130219
-0.03262937441468239 -0.010362564586102962 -0.13609999418258667
-0.03194107487797737 -0.010370178148150444 -0.13619999587535858
-0.03143515810370445 -0.010438703931868076 -0.1370999962091446
0.03220004960894585 -0.01015698816627264 -0.13339999318122864
-0.03331662714481354 -0.011066178791224957 -0.13599999248981476
-0.03265335038304329 -0.011082452721893787 -0.13619999587535858
-0.03201143071055412 -0.011106864549219608 -0.13650000095367432
-0.03150394558906555 -0.011180096305906773 -0.13740000128746033
-0.0012881974689662457 -0.010870893485844135 -0.13359999656677246
-0.0005895198555663228 -0.010870893485844135 -0.13359999656677246
0.03222418949007988 -0.01086275652050972 -0.13349999487400055
-0.03334112837910652 -0.011786067858338356 -0.13609999418258667
-0.03265335038304329 -0.01179472729563713 -0.13619999587535858
-0.03205833211541176 -0.011838026344776154 -0.13669998943805695
-0.03150394558906555 -0.011898646131157875 -0.13740000128746033
-0.004788743332028389 -0.011586891487240791 -0.13379999995231628
-0.004089019726961851 -0.011586891487240791 -0.13379999995231628
-0.002683542435988784 -0.011560911312699318 -0.13349999487400055
-0.0019839005544781685 -0.011552250944077969 -0.13339999318122864
-0.0005886373110115528 -0.011552250944077969 -0.13339999318122864
0.0008078352548182011 -0.011569571681320667 -0.13359999656677246
0.0015087681822478771 -0.011586891487240791 -0.13379999995231628
0.03089715540409088 -0.011586891487240791 -0.13379999995231628
0.032248325645923615 -0.011569571681320667 -0.13359999656677246
-0.03334112837910652 -0.012497819028794765 -0.13609999418258667
-0.03267732635140419 -0.012516184709966183 -0.1362999975681305
-0.03210523724555969 -0.012571281753480434 -0.13689999282360077
-0.03154980018734932 -0.01263556070625782 -0.13759998977184296
-0.0005877547664567828 -0.012231516651809216 -0.13319998979568481
0.00010891259444179013 -0.012240699492394924 -0.13329999148845673
0.0008066259324550629 -0.012249883264303207 -0.13339999318122864
0.03089715540409088 -0.012286614626646042 -0.13379999995231628
0.03159688040614128 -0.012286614626646042 -0.13379999995231628
-0.03336562588810921 -0.013219276443123817 -0.13619999587535858
-0.03270129859447479 -0.013238688930869102 -0.1363999992609024
-0.03222249448299408 -0.013335746712982655 -0.13740000128746033
0.000807230593636632 -0.01295721996575594 -0.13349999487400055
0.03019743226468563 -0.012986337766051292 -0.13379999995231628
0.03159688040614128 -0.012986337766051292 -0.13379999995231628
-0.03405287489295006 -0.013921322301030159 -0.13609999418258667
-0.03336562588810921 -0.01393155101686716 -0.13619999587535858
-0.032749250531196594 -0.013972466811537743 -0.13660000264644623
-0.032269395887851715 -0.014074753038585186 -0.13759998977184296
0.030220001935958862 -0.01369629055261612 -0.1339000016450882
0.03089715540409088 -0.013686061836779118 -0.13379999995231628
0.03159688040614128 -0.013686061836779118 -0.13379999995231628
-0.03407789766788483 -0.014643825590610504 -0.13619999587535858
-0.03336562588810921 -0.014643825590610504 -0.13619999587535858
-0.0327971950173378 -0.014708335511386395 -0.13679999113082886
-0.03229284659028053 -0.014805100858211517 -0.13769999146461487
0.00010115063196280971 -0.013310614041984081 -0.12379999458789825
0.03019743226468563 -0.014385784976184368 -0.13379999995231628
0.03089715540409088 -0.014385784976184368 -0.13379999995231628
-0.03407789766788483 -0.015356100164353848 -0.13619999587535858
-0.03336562588810921 -0.015356100164353848 -0.13619999587535858
-0.0327971950173378 -0.015423747710883617 -0.13679999113082886
-0.032269395887851715 -0.015513944439589977 -0.13759998977184296
0.03019743226468563 -0.015085508115589619 -0.13379999995231628
-0.03405287489295006 -0.016056576743721962 -0.13609999418258667
-0.03336562588810921 -0.01606837473809719 -0.13619999587535858
-0.032749250531196594 -0.016115566715598106 -0.13660000264644623
-0.03219904378056526 -0.01619814895093441 -0.13729999959468842
0.00010131404269486666 -0.014629064127802849 -0.12399999797344208
0.0007491825381293893 -0.01461726613342762 -0.12389999628067017
0.02816126123070717 -0.01582062430679798 -0.13409999012947083
0.029519755393266678 -0.015797030180692673 -0.1339000016450882
-0.03453473746776581 -0.016657443717122078 -0.13519999384880066
-0.03400283306837082 -0.01674368605017662 -0.13589999079704285
-0.03334112837910652 -0.016768328845500946 -0.13609999418258667
-0.03270129859447479 -0.016805291175842285 -0.1363999992609024
-0.032081782817840576 -0.016854573041200638 -0.13679999113082886
-0.03148101642727852 -0.016916176304221153 -0.13729999959468842
0.00010164086415898055 -0.015326819382607937 -0.12439999729394913
0.0008175099501386285 -0.016657443717122078 -0.13519999384880066
0.0015245549147948623 -0.016657443717122078 -0.13519999384880066
0.028754938393831253 -0.016460314393043518 -0.13359999656677246
0.029453616589307785 -0.016460314393043518 -0.13359999656677246
-0.03440701961517334 -0.01730027049779892 -0.1347000002861023
-0.03395279496908188 -0.01742870733141899 -0.13570000231266022
-0.03334112837910652 -0.01748007908463478 -0.13609999418258667
-0.03265335038304329 -0.017492923885583878 -0.13619999587535858
-0.03203488513827324 -0.017544299364089966 -0.13660000264644623
-0.031389299780130386 -0.017582828179001808 -0.13689999282360077
-0.011442440561950207 -0.016683779656887054 -0.1298999935388565
0.00010335666593164206 -0.0162470992654562 -0.1264999955892563
0.0007957419147714972 -0.016902118921279907 -0.13159999251365662
0.0015132785774767399 -0.017236052080988884 -0.13419999182224274
0.002231599995866418 -0.017364487051963806 -0.13519999384880066
0.002938644727692008 -0.017364487051963806 -0.13519999384880066
0.003648386336863041 -0.017377331852912903 -0.13529999554157257
0.004355954471975565 -0.017377331852912903 -0.13529999554157257
0.028014259412884712 -0.017133302986621857 -0.13339999318122864
0.028647324070334435 -0.017094774171710014 -0.1331000030040741
-0.03390275314450264 -0.018111633136868477 -0.1354999989271164
-0.03334112837910652 -0.018191831186413765 -0.13609999418258667
-0.03265335038304329 -0.018205197528004646 -0.13619999587535858
-0.031987980008125305 -0.018231932073831558 -0.1363999992609024
-0.03136637061834335 -0.018285397440195084 -0.13679999113082886
-0.012271074578166008 -0.017576972022652626 -0.1314999908208847
-0.011574571020901203 -0.017563605681061745 -0.131400004029274
-0.010870827361941338 -0.017536872997879982 -0.13120000064373016
0.00010311154619557783 -0.01686854474246502 -0.12619999051094055
0.00079453265061602 -0.017563605681061745 -0.131400004029274
0.0015053852694109082 -0.01784430257976055 -0.13349999487400055
0.0022183952387422323 -0.017964601516723633 -0.13439999520778656
0.00292777712456882 -0.018004700541496277 -0.1347000002861023
0.003632207401096821 -0.018004700541496277 -0.1347000002861023
0.004330198746174574 -0.017977967858314514 -0.13449999690055847
0.006449928041547537 -0.018004700541496277 -0.1347000002861023
0.007170291617512703 -0.01804479956626892 -0.13499999046325684
0.00789379421621561 -0.018084898591041565 -0.13529999554157257
0.027909260243177414 -0.017764102667570114 -0.13289999961853027
-0.0338527113199234 -0.018792467191815376 -0.13529999554157257
-0.03334112837910652 -0.01890358328819275 -0.13609999418258667
-0.03265335038304329 -0.018917473033070564 -0.13619999587535858
-0.031987980008125305 -0.018945252522826195 -0.1363999992609024
-0.03136637061834335 -0.019000809639692307 -0.13679999113082886
-0.01244837511330843 -0.018528567627072334 -0.13339999318122864
-0.011750743724405766 -0.018528567627072334 -0.13339999318122864
-0.011053112335503101 -0.018528567627072334 -0.13339999318122864
0.0007909045671112835 -0.018167439848184586 -0.13079999387264252
0.001496364246122539 -0.018431341275572777 -0.13269999623298645
0.0022051904816180468 -0.018556347116827965 -0.13359999656677246
0.002908215159550309 -0.018584126606583595 -0.13379999995231628
0.0036079385317862034 -0.018584126606583595 -0.13379999995231628
0.004307662136852741 -0.018584126606583595 -0.13379999995231628
0.005007385741919279 -0.018584126606583595 -0.13379999995231628
0.006421197205781937 -0.018625792115926743 -0.13409999012947083
0.00714373541995883 -0.018681351095438004 -0.13449999690055847
0.007876290939748287 -0.01875079795718193 -0.13499999046325684
0.02767825685441494 -0.01830633543431759 -0.13179999589920044
-0.0338527113199234 -0.019500035792589188 -0.13529999554157257
-0.03334112837910652 -0.019615335389971733 -0.13609999418258667
-0.03265335038304329 -0.019629746675491333 -0.13619999587535858
-0.031987980008125305 -0.01965857297182083 -0.1363999992609024
-0.03136637061834335 -0.01971622183918953 -0.13679999113082886
-0.03065095655620098 -0.01971622183918953 -0.13679999113082886
-0.012504366226494312 -0.019312674179673195 -0.1340000033378601
-0.011803596280515194 -0.019312674179673195 -0.1340000033378601
-0.011111111380159855 -0.019327085465192795 -0.13409999012947083
-0.010402057319879532 -0.019312674179673195 -0.1340000033378601
-0.009701288305222988 -0.019312674179673195 -0.1340000033378601
0.0007794158882461488 -0.018577639013528824 -0.12889999151229858
0.001477194600738585 -0.018880300223827362 -0.13099999725818634
0.0021853833459317684 -0.019082073122262955 -0.13239999115467072
0.0028886531945317984 -0.01915413700044155 -0.13289999961853027
0.003589063184335828 -0.01918296329677105 -0.1331000030040741
0.005668720696121454 -0.01915413700044155 -0.13289999961853027
0.0063541606068611145 -0.019125312566757202 -0.13269999623298645
0.007064065430313349 -0.0191685501486063 -0.13300000131130219
0.007794611155986786 -0.019255023449659348 -0.13359999656677246
0.008595003746449947 -0.01948562264442444 -0.13519999384880066
0.028109243139624596 -0.018822649493813515 -0.1305999904870987
-0.03382769227027893 -0.020192667841911316 -0.13519999384880066
-0.03331662714481354 -0.020312150940299034 -0.13599999248981476
-0.03265335038304329 -0.02034202218055725 -0.13619999587535858
-0.031987980008125305 -0.020371893420815468 -0.1363999992609024
-0.03134344145655632 -0.02041669748723507 -0.13669998943805695
-0.03065095655620098 -0.020431634038686752 -0.13679999113082886
-0.012541691772639751 -0.020073184743523598 -0.13439999520778656
-0.011838830076158047 -0.020073184743523598 -0.13439999520778656
-0.011119397357106209 -0.02004331350326538 -0.13419999182224274
-0.010417582467198372 -0.02004331350326538 -0.13419999182224274
-0.00971576664596796 -0.02004331350326538 -0.13419999182224274
-0.009013951756060123 -0.02004331350326538 -0.13419999182224274
-0.008305941708385944 -0.020028376951813698 -0.13409999012947083
0.002152371685951948 -0.019475769251585007 -0.13040000200271606
0.002843008376657963 -0.01953550986945629 -0.13079999387264252
0.0035297395661473274 -0.019550444558262825 -0.13089999556541443
0.004214297514408827 -0.019550444558262825 -0.13089999556541443
0.004891369957476854 -0.019520573318004608 -0.1306999921798706
0.00628233514726162 -0.019595252349972725 -0.13120000064373016
0.008563218638300896 -0.02011799067258835 -0.1347000002861023
0.02789401449263096 -0.01935628615319729 -0.12960000336170197
-0.03324313834309578 -0.02097700536251068 -0.13570000231266022
-0.03262937441468239 -0.021038837730884552 -0.13609999418258667
-0.03194107487797737 -0.02105429582297802 -0.13619999587535858
-0.03127465769648552 -0.021085213869810104 -0.1363999992609024
-0.03060614876449108 -0.02111613005399704 -0.13660000264644623
-0.029913662001490593 -0.02113158628344536 -0.13669998943805695
-0.012523028068244457 -0.020745128393173218 -0.13419999182224274
-0.011821212247014046 -0.020745128393173218 -0.13419999182224274
-0.011119397357106209 -0.020745128393173218 -0.13419999182224274
-0.010433107614517212 -0.020776046440005302 -0.13439999520778656
-0.00971576664596796 -0.020745128393173218 -0.13419999182224274
-0.009013951756060123 -0.020745128393173218 -0.13419999182224274
-0.008312135934829712 -0.020745128393173218 -0.13419999182224274
-0.0068827662616968155 -0.02066783793270588 -0.13369999825954437
0.0027908431366086006 -0.019848544150590897 -0.12839999794960022
0.0034623267129063606 -0.019848544150590897 -0.12839999794960022
0.007357039954513311 -0.01949300244450569 -0.12610000371932983
0.008582289330661297 -0.02086879499256611 -0.13499999046325684
0.02778639644384384 -0.01995675265789032 -0.1290999948978424
0.028307218104600906 -0.019848544150590897 -0.12839999794960022
-0.03314514830708504 -0.021622737869620323 -0.13529999554157257
-0.032581426203250885 -0.021718626841902733 -0.13589999079704285
-0.03191762417554855 -0.021750589832663536 -0.13609999418258667
-0.031228799372911453 -0.021766571328043938 -0.13619999587535858
-0.030538929626345634 -0.02178255282342434 -0.1362999975681305
-0.029848016798496246 -0.02179853431880474 -0.1363999992609024
-0.011803596280515194 -0.0214149821549654 -0.1340000033378601
-0.011111111380159855 -0.021430961787700653 -0.13409999012947083
-0.010417582467198372 -0.021446943283081055 -0.13419999182224274
-0.00971576664596796 -0.021446943283081055 -0.13419999182224274
-0.009013951756060123 -0.021446943283081055 -0.13419999182224274
-0.008312135934829712 -0.021446943283081055 -0.13419999182224274
-0.007604649756103754 -0.021430961787700653 -0.13409999012947083
-0.0068879141472280025 -0.021383019164204597 -0.13379999995231628
-0.006178940646350384 -0.021351056173443794 -0.13359999656677246
0.007228685077279806 -0.01980086788535118 -0.12389999628067017
0.02826312556862831 -0.020488064736127853 -0.1281999945640564
-0.03248552978038788 -0.022363318130373955 -0.1354999989271164
-0.03187071904540062 -0.022429333999753 -0.13589999079704285
-0.03120587021112442 -0.02246234193444252 -0.13609999418258667
-0.030516523867845535 -0.022478846833109856 -0.13619999587535858
-0.029804250225424767 -0.022478846833109856 -0.13619999587535858
-0.02913469634950161 -0.022511856630444527 -0.1363999992609024
-0.028483884409070015 -0.022561367601156235 -0.13669998943805695
-0.011785978451371193 -0.022082744166254997 -0.13379999995231628
-0.011086255311965942 -0.022082744166254997 -0.13379999995231628
-0.010394294746220112 -0.022099249064922333 -0.1339000016450882
-0.009701288305222988 -0.02211575396358967 -0.1340000033378601
-0.009000519290566444 -0.02211575396358967 -0.1340000033378601
-0.008293555118143559 -0.022099249064922333 -0.1339000016450882
-0.007598979398608208 -0.02211575396358967 -0.1340000033378601
-0.00689306203275919 -0.022099249064922333 -0.1339000016450882
-0.0061928159557282925 -0.022099249064922333 -0.1339000016450882
0.007234519347548485 -0.020465323701500893 -0.12399999797344208
-0.032413605600595474 -0.023020848631858826 -0.13519999384880066
-0.031800366938114166 -0.023088959977030754 -0.1356000006198883
-0.03113708645105362 -0.023123014718294144 -0.13580000400543213
-0.030494118109345436 -0.023174094036221504 -0.13609999418258667
-0.029804250225424767 -0.023191122338175774 -0.13619999587535858
-0.02909197472035885 -0.023191122338175774 -0.13619999587535858
-0.028463048860430717 -0.023259231820702553 -0.13660000264644623
-0.011077969335019588 -0.022765440866351128 -0.13369999825954437
-0.010378768667578697 -0.022765440866351128 -0.13369999825954437
-0.008987084962427616 -0.022782469168305397 -0.13379999995231628
-0.008287360891699791 -0.022782469168305397 -0.13379999995231628
-0.007593308575451374 -0.022799495607614517 -0.1339000016450882
-0.006898210383951664 -0.022816523909568787 -0.1340000033378601
0.02778639644384384 -0.021982187405228615 -0.1290999948978424
0.028707871213555336 -0.02165866829454899 -0.12719999253749847
-0.0317065604031086 -0.023727893829345703 -0.13519999384880066
-0.031091228127479553 -0.02379809506237507 -0.1356000006198883
-0.030449306592345238 -0.02385074459016323 -0.13589999079704285
-0.029760483652353287 -0.023868294432759285 -0.13599999248981476
-0.02909197472035885 -0.023903395980596542 -0.13619999587535858
