ply
format ascii 1.0
element vertex 790
property float x
property float y
property float z
end_header
0.08029060810804367 0.09080686420202255 -0.17819999158382416
0.05329485610127449 0.0899253785610199 -0.17829999327659607
0.053831927478313446 0.0892697274684906 -0.1770000010728836
0.05423165112733841 0.0884123370051384 -0.1753000020980835
0.05499110370874405 0.08816015720367432 -0.17479999363422394
0.055969204753637314 0.08826103061437607 -0.17499999701976776
0.05707941949367523 0.08856363594532013 -0.17559999227523804
0.05819591507315636 0.08886624872684479 -0.1762000024318695
0.059285130351781845 0.08911842107772827 -0.17669999599456787
0.06044772267341614 0.08947146683931351 -0.17739999294281006
0.06147925183176994 0.08962277323007584 -0.1776999980211258
0.06258415430784225 0.08987494558095932 -0.17819999158382416
0.06362300366163254 0.09002625197172165 -0.1784999966621399
0.06459265947341919 0.09007668495178223 -0.1785999983549118
0.06578349322080612 0.09042973071336746 -0.179299995303154
0.06690721958875656 0.09068190306425095 -0.17979998886585236
0.06807392090559006 0.0909845158457756 -0.18039999902248383
0.06913211196660995 0.09113581478595734 -0.18069998919963837
0.07007710635662079 0.09113581478595734 -0.18069998919963837
0.0709041878581047 0.0909845158457756 -0.18039999902248383
0.07176795601844788 0.09088364243507385 -0.18019999563694
0.07246824353933334 0.09058103710412979 -0.17960000038146973
0.07336660474538803 0.09053060412406921 -0.17949999868869781
0.07418113201856613 0.09037929028272629 -0.17919999361038208
0.07503444701433182 0.09027842432260513 -0.17899999022483826
0.07592810690402985 0.09022798389196396 -0.17889998853206635
0.07677775621414185 0.0901271253824234 -0.17870000004768372
0.07766880095005035 0.09007668495178223 -0.1785999983549118
0.07855880260467529 0.09002625197172165 -0.1784999966621399
0.07940322160720825 0.0899253785610199 -0.17829999327659607
0.08029060810804367 0.08987494558095932 -0.17819999158382416
0.05321407690644264 0.09044039249420166 -0.18119999766349792
0.0535040907561779 0.08934232592582703 -0.17899999022483826
0.05352779105305672 0.08784497529268265 -0.17599999904632568
0.05395321920514107 0.08704638481140137 -0.17440000176429749
0.05477088689804077 0.08689664304256439 -0.17409999668598175
0.05568136274814606 0.08689664304256439 -0.17409999668598175
0.05763442814350128 0.08709628880023956 -0.1744999885559082
0.05858055129647255 0.08714620023965836 -0.17459999024868011
0.05959586799144745 0.08729594200849533 -0.17489999532699585
0.06054512411355972 0.08734585344791412 -0.17499999701976776
0.07409834116697311 0.08934232592582703 -0.17899999022483826
0.07499252259731293 0.08929241448640823 -0.17889998853206635
0.07584322243928909 0.08919259160757065 -0.17870000004768372
0.07673479616641998 0.08914268016815186 -0.1785999983549118
0.0776253193616867 0.08909276872873306 -0.1784999966621399
0.07855880260467529 0.08909276872873306 -0.1784999966621399
0.07949229329824448 0.08909276872873306 -0.1784999966621399
0.08033566176891327 0.08899294584989548 -0.17829999327659607
0.053016431629657745 0.09077689796686172 -0.18379999697208405
0.05339028313755989 0.08978911489248276 -0.1817999929189682
0.05359376221895218 0.08855438977479935 -0.179299995303154
0.053193241357803345 0.08638127893209457 -0.17489999532699585
0.05379853770136833 0.08588738739490509 -0.17389999330043793
0.05455067381262779 0.08564044535160065 -0.17339999973773956
0.05545748770236969 0.08564044535160065 -0.17339999973773956
0.056396812200546265 0.08568983525037766 -0.17350000143051147
0.057370204478502274 0.08578860759735107 -0.1736999899148941
0.07409834116697311 0.08840622007846832 -0.17899999022483826
0.07499252259731293 0.08835683017969131 -0.17889998853206635
0.07580078393220901 0.08820866793394089 -0.1785999983549118
0.07669182866811752 0.08815927803516388 -0.1784999966621399
0.0776253193616867 0.08815927803516388 -0.1784999966621399
0.07855880260467529 0.08815927803516388 -0.1784999966621399
0.07949229329824448 0.08815927803516388 -0.1784999966621399
0.08042577654123306 0.08815927803516388 -0.1784999966621399
0.08126810193061829 0.08806049823760986 -0.17829999327659607
0.053016431629657745 0.08981569111347198 -0.18379999697208405
0.05356648564338684 0.08913156390190125 -0.18239998817443848
0.053743213415145874 0.08786104619503021 -0.17979998886585236
0.0531628280878067 0.0854177474975586 -0.17479999363422394
0.053643856197595596 0.08473362773656845 -0.17339999973773956
0.05445629358291626 0.08458703011274338 -0.17309999465942383
0.055361539125442505 0.08458703011274338 -0.17309999465942383
0.07490868866443634 0.08732352405786514 -0.17870000004768372
0.07575833797454834 0.08722579479217529 -0.1784999966621399
0.0766059011220932 0.08712805807590485 -0.17829999327659607
0.07753834128379822 0.08712805807590485 -0.17829999327659607
0.07847078144550323 0.08712805807590485 -0.17829999327659607
0.07949229329824448 0.08722579479217529 -0.1784999966621399
0.08047083765268326 0.08727466315031052 -0.1785999983549118
0.08135926723480225 0.08722579479217529 -0.1784999966621399
0.05211187154054642 0.08895117789506912 -0.18400000035762787
0.053016431629657745 0.08885448426008224 -0.18379999697208405
0.05368395894765854 0.08837105333805084 -0.18279999494552612
0.053193241357803345 0.08455196022987366 -0.17489999532699585
0.053674791008234024 0.0838751569390297 -0.17350000143051147
0.05445629358291626 0.08368178457021713 -0.17309999465942383
0.07575833797454834 0.08629230409860611 -0.1784999966621399
0.0766059011220932 0.08619561791419983 -0.17829999327659607
0.07753834128379822 0.08619561791419983 -0.17829999327659607
0.07847078144550323 0.08619561791419983 -0.17829999327659607
0.07949229329824448 0.08629230409860611 -0.1784999966621399
0.08047083765268326 0.08634065091609955 -0.1785999983549118
0.08135926723480225 0.08629230409860611 -0.1784999966621399
0.05211187154054642 0.08798892050981522 -0.18400000035762787
0.053016431629657745 0.0878932848572731 -0.18379999697208405
0.05356648564338684 0.08722379803657532 -0.18239998817443848
0.053922560065984726 0.08626740425825119 -0.18039999902248383
0.05343654751777649 0.08401985466480255 -0.17569999396800995
0.053891345858573914 0.0833025574684143 -0.17419999837875366
0.05467650666832924 0.08311127126216888 -0.17379999160766602
0.07669182866811752 0.08535882085561752 -0.1784999966621399
0.07753834128379822 0.08526317775249481 -0.17829999327659607
0.07855880260467529 0.08535882085561752 -0.1784999966621399
0.07949229329824448 0.08535882085561752 -0.1784999966621399
0.08047083765268326 0.08540663868188858 -0.1785999983549118
0.08135926723480225 0.08535882085561752 -0.1784999966621399
0.052055224776268005 0.08693207800388336 -0.18379999697208405
0.053537122905254364 0.08622262626886368 -0.18230000138282776
0.053922560065984726 0.08532397449016571 -0.18039999902248383
0.054105646908283234 0.0841415524482727 -0.17790000140666962
0.05420071259140968 0.08286453038454056 -0.17520000040531158
0.07669182866811752 0.08442533016204834 -0.1784999966621399
0.0776253193616867 0.08442533016204834 -0.1784999966621399
0.07949229329824448 0.08442533016204834 -0.1784999966621399
0.08047083765268326 0.08447262644767761 -0.1785999983549118
0.08126810193061829 0.0843307375907898 -0.17829999327659607
0.05194193869829178 0.08578377217054367 -0.1833999902009964
0.053478386253118515 0.08517571538686752 -0.18209999799728394
0.053743213415145874 0.0840999037027359 -0.17979998886585236
0.054318539798259735 0.08353862166404724 -0.1785999983549118
0.05488131195306778 0.08297732472419739 -0.17739999294281006
0.07766880095005035 0.08353862166404724 -0.1785999983549118
0.07949229329824448 0.08349184691905975 -0.1784999966621399
0.08042577654123306 0.08349184691905975 -0.1784999966621399
0.08113136142492294 0.08325796574354172 -0.17799998819828033
0.05185697600245476 0.08468591421842575 -0.18310000002384186
0.053478386253118515 0.08422339707612991 -0.18209999799728394
0.054012231528759 0.08357588201761246 -0.18069998919963837
0.054531436413526535 0.082928366959095 -0.179299995303154
0.07766880095005035 0.08260460942983627 -0.1785999983549118
0.07860281318426132 0.08260460942983627 -0.1785999983549118
0.07949229329824448 0.08255835622549057 -0.1784999966621399
0.08033566176891327 0.08246584981679916 -0.17829999327659607
0.08067557960748672 0.08186458796262741 -0.1770000010728836
0.05081603303551674 0.08359117805957794 -0.18279999494552612
0.05185697600245476 0.0837283656001091 -0.18310000002384186
0.05281451717019081 0.0837283656001091 -0.18310000002384186
0.05362522229552269 0.0834997221827507 -0.1825999915599823
0.05431113764643669 0.08308816701173782 -0.1816999912261963
0.05495722219347954 0.08263088762760162 -0.18069998919963837
0.07766880095005035 0.0816705971956253 -0.1785999983549118
0.07855880260467529 0.08162486553192139 -0.1784999966621399
0.07940322160720825 0.08153340965509415 -0.17829999327659607
0.08015543967485428 0.08135049790143967 -0.17790000140666962
0.08008304238319397 0.08034447580575943 -0.17569999396800995
0.05070483684539795 0.0824543833732605 -0.18239998817443848
0.05177200958132744 0.08263520896434784 -0.18279999494552612
0.05281451717019081 0.08277082443237305 -0.18310000002384186
0.053713325411081314 0.08268041163682938 -0.18289999663829803
0.054520368576049805 0.0824543833732605 -0.18239998817443848
0.05529177188873291 0.08218315243721008 -0.1817999929189682
0.0559331513941288 0.08173109591007233 -0.18079999089241028
0.05668991431593895 0.08145987242460251 -0.18019999563694
0.057504359632730484 0.08127904683351517 -0.17979998886585236
0.07766880095005035 0.08073658496141434 -0.1785999983549118
0.07847078144550323 0.08060096949338913 -0.17829999327659607
0.07913602143526077 0.08032973855733871 -0.1776999980211258
0.07916419953107834 0.0794256329536438 -0.17569999396800995
0.07935377210378647 0.07870235294103622 -0.17409999668598175
0.05070483684539795 0.08150049299001694 -0.18239998817443848
0.051800329238176346 0.0817239060997963 -0.18289999663829803
0.05281451717019081 0.0818132758140564 -0.18310000002384186
0.05377206206321716 0.0818132758140564 -0.18310000002384186
0.054729606956243515 0.0818132758140564 -0.18310000002384186
0.05553508177399635 0.08158986270427704 -0.1825999915599823
0.05624251812696457 0.08123239874839783 -0.1817999929189682
0.05700450763106346 0.08096431195735931 -0.18119999766349792
0.05779220163822174 0.08074089884757996 -0.18069998919963837
0.05847715213894844 0.08038343489170074 -0.17989999055862427
0.05921979248523712 0.08011534810066223 -0.179299995303154
0.07753834128379822 0.07966852188110352 -0.17829999327659607
0.07829473912715912 0.0794897973537445 -0.17790000140666962
0.07837895303964615 0.07864083349704742 -0.17599999904632568
0.05070483684539795 0.08054661005735397 -0.18239998817443848
0.05185697600245476 0.08085573464632034 -0.18310000002384186
0.0528433658182621 0.08089989423751831 -0.18320000171661377
0.05380143225193024 0.08089989423751831 -0.18320000171661377
0.054729606956243515 0.08085573464632034 -0.18310000002384186
0.05559590831398964 0.08072324842214584 -0.18279999494552612
0.05779220163822174 0.07979590445756912 -0.18069998919963837
0.05847715213894844 0.07944262772798538 -0.17989999055862427
0.05921979248523712 0.07917767763137817 -0.179299995303154
0.06002325564622879 0.0790010318160057 -0.17889998853206635
0.07740787416696548 0.0786036029458046 -0.17799998819828033
0.07767859101295471 0.07794120907783508 -0.17649999260902405
0.07766641676425934 0.07701387256383896 -0.17440000176429749
0.07766733318567276 0.07524749636650085 -0.1703999936580658
0.05062144249677658 0.07946182042360306 -0.18209999799728394
0.051715362817049026 0.07968000322580338 -0.1825999915599823
0.05267029255628586 0.07968000322580338 -0.1825999915599823
0.05368395894765854 0.07976727932691574 -0.18279999494552612
0.054520368576049805 0.07959272712469101 -0.18239998817443848
0.05668991431593895 0.07863272726535797 -0.18019999563694
0.0574084147810936 0.07832727581262589 -0.17949999868869781
0.05818460136651993 0.07810909301042557 -0.17899999022483826
0.05898859351873398 0.07793454825878143 -0.1785999983549118
0.05978839844465256 0.0777600035071373 -0.17819999158382416
0.07679837942123413 0.07614545524120331 -0.1744999885559082
0.07704294472932816 0.07549091428518295 -0.17299999296665192
0.07673114538192749 0.0743127316236496 -0.17029999196529388
0.07748501747846603 0.07418182492256165 -0.17000000178813934
0.050343457609415054 0.07807837426662445 -0.181099995970726
0.051290541887283325 0.07807837426662445 -0.181099995970726
0.052237626165151596 0.07807837426662445 -0.181099995970726
0.05618656426668167 0.07700054347515106 -0.1785999983549118
0.057024624198675156 0.07687119394540787 -0.17829999327659607
0.057859547436237335 0.07674185186624527 -0.17799998819828033
0.05852619558572769 0.07639694958925247 -0.17719998955726624
0.05921802669763565 0.07609515637159348 -0.17649999260902405
0.05959586799144745 0.07540534436702728 -0.17489999532699585
0.07601627707481384 0.07536222785711288 -0.17479999363422394
0.07601867616176605 0.0735945776104927 -0.17069999873638153
0.0765959843993187 0.0732927918434143 -0.17000000178813934
0.05069578438997269 0.07623688876628876 -0.17899999022483826
0.05163188651204109 0.07623688876628876 -0.17899999022483826
0.05253862217068672 0.07619429379701614 -0.17889998853206635
0.053384531289339066 0.0760665312409401 -0.1785999983549118
0.054227299988269806 0.07593875378370285 -0.17829999327659607
0.055035997182130814 0.07576839625835419 -0.17790000140666962
0.05574612691998482 0.07547026127576828 -0.17719998955726624
0.05644894018769264 0.07517212629318237 -0.17649999260902405
0.05711192637681961 0.07483140379190445 -0.17569999396800995
0.0577995739877224 0.07453327625989914 -0.17499999701976776
0.0585469976067543 0.07432031631469727 -0.1744999885559082
0.0593232735991478 0.0741499587893486 -0.17409999668598175
0.06002616882324219 0.07389441877603531 -0.17350000143051147
0.07553791254758835 0.07397959381341934 -0.1736999899148941
0.07534603029489517 0.07291483134031296 -0.1711999922990799
0.07566241174936295 0.07236116379499435 -0.16990000009536743
0.07637069374322891 0.0721907988190651 -0.16949999332427979
0.05049753189086914 0.07500631362199783 -0.17829999327659607
0.051343441009521484 0.07488010823726654 -0.17799998819828033
0.05218621343374252 0.07475391030311584 -0.1776999980211258
0.05302584171295166 0.07462770491838455 -0.17739999294281006
0.05374068394303322 0.07433323562145233 -0.17669999599456787
0.054448202252388 0.07403876632452011 -0.17599999904632568
0.055148400366306305 0.07374429702758789 -0.1753000020980835
0.05590524151921272 0.07353395223617554 -0.17479999363422394
0.05668935924768448 0.07336568832397461 -0.17440000176429749
0.05750231817364693 0.07323948293924332 -0.17409999668598175
0.05831214040517807 0.07311327755451202 -0.17379999160766602
0.059084754437208176 0.0729450136423111 -0.17339999973773956
0.05985318124294281 0.07277673482894897 -0.17299999296665192
0.07467249035835266 0.07311327755451202 -0.17379999160766602
0.0742332860827446 0.07180918753147125 -0.17069999873638153
0.07481791079044342 0.07151471823453903 -0.17000000178813934
0.0754842758178711 0.07130437344312668 -0.16949999332427979
0.07628057897090912 0.07122024148702621 -0.16929998993873596
0.07716595381498337 0.07122024148702621 -0.16929998993873596
0.040322352200746536 0.07598492503166199 -0.18289999663829803
0.041211143136024475 0.07586028426885605 -0.1825999915599823
0.04198133572936058 0.07552792876958847 -0.1817999929189682
0.049370501190423965 0.07378306239843369 -0.17759999632835388
0.05004438757896423 0.07340916246175766 -0.17669999599456787
0.050910770893096924 0.07332607358694077 -0.17649999260902405
0.0517456978559494 0.07320144027471542 -0.1762000024318695
0.052607376128435135 0.07311835139989853 -0.17599999904632568
0.053406134247779846 0.07295217365026474 -0.17559999227523804
0.05492818355560303 0.07253672182559967 -0.17459999024868011
0.05571334809064865 0.07237055152654648 -0.17419999837875366
0.056526828557252884 0.07224591076374054 -0.17389999330043793
0.05727112293243408 0.0720381960272789 -0.17339999973773956
0.05807728320360184 0.07191355526447296 -0.17309999465942383
0.05894845351576805 0.07187201082706451 -0.17299999296665192
0.05985318124294281 0.07187201082706451 -0.17299999296665192
0.07381319999694824 0.07137348502874374 -0.17180000245571136
0.07401584088802338 0.07070876657962799 -0.17019999027252197
0.0746418684720993 0.07045949995517731 -0.1695999950170517
0.07539520412683487 0.07033486664295197 -0.16929998993873596
0.07619047164916992 0.07025177776813507 -0.16910000145435333
0.0770748034119606 0.07025177776813507 -0.16910000145435333
0.037493813782930374 0.07511046528816223 -0.18310000002384186
0.0385773591697216 0.07535659521818161 -0.18369999527931213
0.03953804075717926 0.07535659521818161 -0.18369999527931213
0.04049872234463692 0.07535659521818161 -0.18369999527931213
0.04139169678092003 0.07523352652788162 -0.1833999902009964
0.042281534522771835 0.07511046528816223 -0.18310000002384186
0.04898132011294365 0.07227998226881027 -0.1762000024318695
0.04976116865873337 0.07207486778497696 -0.17569999396800995
0.05076655000448227 0.07219793647527695 -0.17599999904632568
0.0517456978559494 0.07227998226881027 -0.1762000024318695
0.052607376128435135 0.07219793647527695 -0.17599999904632568
0.056396812200546265 0.07117240130901337 -0.17350000143051147
0.05703992396593094 0.07084422558546066 -0.17270000278949738
0.0579095296561718 0.070803202688694 -0.17260000109672546
0.058846235275268555 0.07084422558546066 -0.17270000278949738
0.05995697155594826 0.07109035551548004 -0.17329999804496765
0.07282986491918564 0.07039298862218857 -0.17159999907016754
0.07312576472759247 0.06981868296861649 -0.17019999027252197
0.07459785044193268 0.06953153759241104 -0.16949999332427979
0.07539520412683487 0.06944949179887772 -0.16929998993873596
0.07628057897090912 0.06944949179887772 -0.16929998993873596
0.036436498165130615 0.07395042479038239 -0.1825999915599823
0.03755524381995201 0.07427441328763962 -0.1833999902009964
0.03870335966348648 0.07463890314102173 -0.1842999905347824
0.03966717794537544 0.07463890314102173 -0.1842999905347824
0.041481971740722656 0.07443641126155853 -0.18379999697208405
0.042350806295871735 0.07427441328763962 -0.1833999902009964
0.04973284900188446 0.07111552357673645 -0.17559999227523804
0.05076655000448227 0.07127752155065536 -0.17599999904632568
0.056396812200546265 0.07026506215333939 -0.17350000143051147
0.05703992396593094 0.06994107365608215 -0.17270000278949738
0.0579095296561718 0.06990057229995728 -0.17260000109672546
0.05898252874612808 0.07010306417942047 -0.17309999465942383
0.06016455590724945 0.0704270526766777 -0.17389999330043793
0.07201630622148514 0.06957658380270004 -0.17180000245571136
0.07240545004606247 0.0690905973315239 -0.17059999704360962
0.07303983718156815 0.06884761154651642 -0.17000000178813934
0.07384189963340759 0.06876660883426666 -0.16979999840259552
0.0746418684720993 0.0686856135725975 -0.1695999950170517
0.07552880793809891 0.0686856135725975 -0.1695999950170517
0.07641575485467911 0.0686856135725975 -0.1695999950170517
0.08895836770534515 0.07018405944108963 -0.17329999804496765
0.08986465632915497 0.07018405944108963 -0.17329999804496765
0.09077095985412598 0.07018405944108963 -0.17329999804496765
0.09151854366064072 0.0700625628232956 -0.17299999296665192
0.0922095775604248 0.06990057229995728 -0.17260000109672546
0.09278851747512817 0.0696575790643692 -0.171999990940094
0.09357908368110657 0.06957658380270004 -0.17180000245571136
0.09458751231431961 0.0696575790643692 -0.171999990940094
0.09565356373786926 0.06977907568216324 -0.17229999601840973
0.09672273695468903 0.06990057229995728 -0.17260000109672546
0.09790817648172379 0.07010306417942047 -0.17309999465942383
0.09898468106985092 0.07022456079721451 -0.17339999973773956
0.10006431490182877 0.07034604996442795 -0.1736999899148941
0.10085644572973251 0.07026506215333939 -0.17350000143051147
0.10170513391494751 0.07022456079721451 -0.17339999973773956
0.10243441164493561 0.07010306417942047 -0.17309999465942383
0.10310087352991104 0.06994107365608215 -0.17270000278949738
0.0353844128549099 0.07279562205076218 -0.18209999799728394
0.03653627261519432 0.07319538295269012 -0.18310000002384186
0.0387873612344265 0.07383499294519424 -0.18469999730587006
0.039753273129463196 0.07383499294519424 -0.18469999730587006
0.040697138756513596 0.07379501312971115 -0.18459999561309814
0.0415496826171875 0.07359513640403748 -0.18410000205039978
0.04242008551955223 0.0734352320432663 -0.18369999527931213
0.04976116865873337 0.0702371820807457 -0.17569999396800995
0.05727112293243408 0.06931774318218231 -0.17339999973773956
0.05817793682217598 0.06931774318218231 -0.17339999973773956
0.059255123138427734 0.06951761990785599 -0.17389999330043793
0.06051052734255791 0.06991738080978394 -0.17489999532699585
0.07120063900947571 0.06875808537006378 -0.171999990940094
0.071680948138237 0.06835832446813583 -0.17099998891353607
0.07240545004606247 0.06819842755794525 -0.17059999704360962
0.07312576472759247 0.06803852319717407 -0.17019999027252197
0.07392887771129608 0.06795857101678848 -0.17000000178813934
0.07481791079044342 0.06795857101678848 -0.17000000178813934
0.07579600811004639 0.06803852319717407 -0.17019999027252197
0.08250851929187775 0.06843827664852142 -0.1711999922990799
0.0836961418390274 0.06867813318967819 -0.17180000245571136
0.084840789437294 0.06887800991535187 -0.17229999601840973
0.08623948693275452 0.06927777081727982 -0.17329999804496765
0.08734692633152008 0.0694376677274704 -0.1736999899148941
0.08835692703723907 0.06951761990785599 -0.17389999330043793
0.08942035585641861 0.06963755190372467 -0.17419999837875366
0.09043506532907486 0.06971750408411026 -0.17440000176429749
0.0913471132516861 0.06971750408411026 -0.17440000176429749
0.09215335547924042 0.06963755190372467 -0.17419999837875366
0.09301093220710754 0.06959757208824158 -0.17409999668598175
0.09375956654548645 0.0694776400923729 -0.17379999160766602
0.09466847777366638 0.0694776400923729 -0.17379999160766602
0.09552238881587982 0.0694376677274704 -0.1736999899148941
0.09648629277944565 0.0694776400923729 -0.17379999160766602
0.09739519655704498 0.0694776400923729 -0.17379999160766602
0.09836067259311676 0.06951761990785599 -0.17389999330043793
0.09938427060842514 0.06959757208824158 -0.17409999668598175
0.10029475390911102 0.06959757208824158 -0.17409999668598175
0.10120522230863571 0.06959757208824158 -0.17409999668598175
0.1021157056093216 0.06959757208824158 -0.17409999668598175
0.10290782153606415 0.06951761990785599 -0.17389999330043793
0.10375756025314331 0.0694776400923729 -0.17379999160766602
0.10460624098777771 0.0694376677274704 -0.1736999899148941
0.10539314895868301 0.0693577229976654 -0.17350000143051147
0.10617794096469879 0.06927777081727982 -0.17329999804496765
0.03342462703585625 0.07172495126724243 -0.1817999929189682
0.034375373274087906 0.07172495126724243 -0.1817999929189682
0.035481568425893784 0.07204057276248932 -0.1825999915599823
0.03659613057971001 0.0723561942577362 -0.1833999902009964
0.03899736329913139 0.07326360791921616 -0.18569999933242798
0.039925456047058105 0.07318469882011414 -0.18549999594688416
0.040807366371154785 0.07302688807249069 -0.1850999891757965
0.041594818234443665 0.0727112665772438 -0.1842999905347824
0.042443178594112396 0.07251400500535965 -0.18379999697208405
0.04333353787660599 0.07239564508199692 -0.1834999918937683
0.05753534659743309 0.068726547062397 -0.17419999837875366
0.05851345136761665 0.06880545616149902 -0.17440000176429749
0.05959586799144745 0.06900271773338318 -0.17489999532699585
0.061237070709466934 0.06983122229576111 -0.1770000010728836
0.07070987671613693 0.06825311481952667 -0.17299999296665192
0.07128343731164932 0.06793749332427979 -0.17219999432563782
0.07193246483802795 0.06770078092813492 -0.17159999907016754
0.07257521152496338 0.06746406108140945 -0.17099998891353607
0.07338355481624603 0.06738515943288803 -0.17080000042915344
0.07427677512168884 0.06738515943288803 -0.17080000042915344
0.07525800913572311 0.06746406108140945 -0.17099998891353607
0.07624134421348572 0.06754296272993088 -0.1711999922990799
0.07929609715938568 0.06785858422517776 -0.171999990940094
0.0802888423204422 0.06793749332427979 -0.17219999432563782
0.08137798309326172 0.06809530407190323 -0.17260000109672546
0.08247129619121552 0.06825311481952667 -0.17299999296665192
0.08342421054840088 0.06829256564378738 -0.17309999465942383
0.08447561413049698 0.06841092556715012 -0.17339999973773956
0.08553014695644379 0.06852928549051285 -0.1736999899148941
0.08653806149959564 0.06860818713903427 -0.17389999330043793
0.08759836107492447 0.068726547062397 -0.17419999837875366
0.08866177499294281 0.06884489953517914 -0.1744999885559082
0.08977968245744705 0.06900271773338318 -0.17489999532699585
0.0907461941242218 0.06904216855764389 -0.17499999701976776
0.09176614135503769 0.06912107765674591 -0.17520000040531158
0.0926823616027832 0.06912107765674591 -0.17520000040531158
0.09343832731246948 0.06900271773338318 -0.17489999532699585
0.09429903328418732 0.06896325945854187 -0.17479999363422394
0.09504976123571396 0.06884489953517914 -0.1744999885559082
0.09596233069896698 0.06884489953517914 -0.1744999885559082
0.09681939333677292 0.06880545616149902 -0.17440000176429749
0.09773143380880356 0.06880545616149902 -0.17440000176429749
0.09870003908872604 0.06884489953517914 -0.1744999885559082
0.09961260110139847 0.06884489953517914 -0.1744999885559082
0.10052517801523209 0.06884489953517914 -0.1744999885559082
0.10137961804866791 0.06880545616149902 -0.17440000176429749
0.10217436403036118 0.068726547062397 -0.17419999837875366
0.10302618145942688 0.06868709623813629 -0.17409999668598175
0.10381726175546646 0.06860818713903427 -0.17389999330043793
0.10466646403074265 0.06856873631477356 -0.17379999160766602
0.10557537525892258 0.06856873631477356 -0.17379999160766602
0.10648427903652191 0.06856873631477356 -0.17379999160766602
0.10733140259981155 0.06852928549051285 -0.1736999899148941
0.10823977738618851 0.06852928549051285 -0.1736999899148941
0.10902250558137894 0.06845038384199142 -0.17350000143051147
0.03360848128795624 0.07116350531578064 -0.18279999494552612
0.03456445783376694 0.07116350531578064 -0.18279999494552612
0.03665599599480629 0.07151386886835098 -0.18369999527931213
0.0378214493393898 0.07190316915512085 -0.18469999730587006
0.03912336379289627 0.07252604514360428 -0.18629999458789825
0.0400761179625988 0.07248710840940475 -0.18619999289512634
0.04168509691953659 0.07190316915512085 -0.18469999730587006
0.042512454092502594 0.07166959345340729 -0.18410000205039978
0.04338076710700989 0.07151386886835098 -0.18369999527931213
0.05789865925908089 0.06824377924203873 -0.1753000020980835
0.059050269424915314 0.06851628422737122 -0.17599999904632568
0.060379572212696075 0.06898343563079834 -0.17719998955726624
0.07091423869132996 0.06754304468631744 -0.17350000143051147
0.0716559961438179 0.06738732010126114 -0.17309999465942383
0.07239357382059097 0.06723160296678543 -0.17270000278949738
0.0732542872428894 0.0671926736831665 -0.17260000109672546
0.07402802258729935 0.06707588583230972 -0.17229999601840973
0.07505954802036285 0.0671926736831665 -0.17260000109672546
0.0760061964392662 0.06723160296678543 -0.17270000278949738
0.07704294472932816 0.06734839081764221 -0.17299999296665192
0.07799272984266281 0.06738732010126114 -0.17309999465942383
0.07898913323879242 0.06746517866849899 -0.17329999804496765
0.08007983863353729 0.0676208958029747 -0.1736999899148941
0.08103484660387039 0.06765982508659363 -0.17379999160766602
0.08199090510606766 0.06769875437021255 -0.17389999330043793
0.08299568295478821 0.067776620388031 -0.17409999668598175
0.0839061588048935 0.067776620388031 -0.17409999668598175
0.08486535400152206 0.06781554967164993 -0.17419999837875366
0.08587483316659927 0.06789340823888779 -0.17440000176429749
0.08683663606643677 0.06793233752250671 -0.1744999885559082
0.08779949694871902 0.06797126680612564 -0.17459999024868011
0.08891582489013672 0.06812698394060135 -0.17499999701976776
0.0901390016078949 0.06836055964231491 -0.17559999227523804
0.09110917896032333 0.06839948892593384 -0.17569999396800995
0.09218516200780869 0.06851628422737122 -0.17599999904632568
0.09310556948184967 0.06851628422737122 -0.17599999904632568
0.09381228685379028 0.06836055964231491 -0.17559999227523804
0.09456877410411835 0.06824377924203873 -0.1753000020980835
0.09532211720943451 0.06812698394060135 -0.17499999701976776
0.09618230164051056 0.06808805465698242 -0.17489999532699585
0.09704145044088364 0.0680491253733635 -0.17479999363422394
0.09795558452606201 0.0680491253733635 -0.17479999363422394
0.09886972606182098 0.0680491253733635 -0.17479999363422394
0.09978386014699936 0.0680491253733635 -0.17479999363422394
0.1005827859044075 0.06797126680612564 -0.17459999024868011
0.10143774002790451 0.06793233752250671 -0.1744999885559082
0.10217436403036118 0.06781554967164993 -0.17419999837875366
0.10302618145942688 0.067776620388031 -0.17409999668598175
0.10381726175546646 0.06769875437021255 -0.17389999330043793
0.10466646403074265 0.06765982508659363 -0.17379999160766602
0.10557537525892258 0.06765982508659363 -0.17379999160766602
0.10642301291227341 0.0676208958029747 -0.1736999899148941
0.10733140259981155 0.0676208958029747 -0.1736999899148941
0.10823977738618851 0.0676208958029747 -0.1736999899148941
0.10902250558137894 0.06754304468631744 -0.17350000143051147
0.10992983728647232 0.06754304468631744 -0.17350000143051147
0.11077329516410828 0.06750410795211792 -0.17339999973773956
0.11148688942193985 0.06738732010126114 -0.17309999465942383
0.11213243007659912 0.06723160296678543 -0.17270000278949738
0.03368202596902847 0.07036115974187851 -0.18320000171661377
0.034677907824516296 0.0704379677772522 -0.1833999902009964
0.03569531440734863 0.07055319100618362 -0.18369999527931213
0.03677571937441826 0.07078363001346588 -0.1842999905347824
0.037985268980264664 0.0712445080280304 -0.18549999594688416
0.03922836482524872 0.07174379378557205 -0.18679998815059662
0.040162213146686554 0.07166698575019836 -0.186599999666214
0.04104987531900406 0.0715133547782898 -0.18619999289512634
0.0417979396879673 0.07112928479909897 -0.18519999086856842
0.04258172959089279 0.07082203775644302 -0.18439999222755432
0.04340438172221184 0.07059159874916077 -0.18379999697208405
0.048468995839357376 0.06824878603219986 -0.1776999980211258
0.049565091729164124 0.06847922503948212 -0.17829999327659607
0.05058249831199646 0.06859444826841354 -0.1785999983549118
0.057859547436237335 0.06836400181055069 -0.17799998819828033
0.058658309280872345 0.06821037828922272 -0.17759999632835388
0.059687744826078415 0.06832560151815414 -0.17790000140666962
0.060822539031505585 0.0685560405254364 -0.1784999966621399
0.07045074552297592 0.06705817580223083 -0.17459999024868011
0.07128209620714188 0.06698136031627655 -0.17440000176429749
0.07289659231901169 0.06678932905197144 -0.17389999330043793
0.07376357913017273 0.0667509213089943 -0.17379999160766602
0.07467249035835266 0.0667509213089943 -0.17379999160766602
0.07553791254758835 0.06671251356601715 -0.1736999899148941
0.07649030536413193 0.0667509213089943 -0.17379999160766602
0.07739921659231186 0.0667509213089943 -0.17379999160766602
0.0783081203699112 0.0667509213089943 -0.17379999160766602
0.0792626142501831 0.06678932905197144 -0.17389999330043793
0.08026424795389175 0.06686614453792572 -0.17409999668598175
0.08131460100412369 0.06698136031627655 -0.17440000176429749
0.08227378875017166 0.06701976805925369 -0.1744999885559082
0.0832340344786644 0.06705817580223083 -0.17459999024868011
0.0841471254825592 0.06705817580223083 -0.17459999024868011
0.08501149713993073 0.06701976805925369 -0.1744999885559082
0.08592406660318375 0.06701976805925369 -0.1744999885559082
0.08688639849424362 0.06705817580223083 -0.17459999024868011
0.08779949694871902 0.06705817580223083 -0.17459999024868011
0.08891582489013672 0.06721179932355881 -0.17499999701976776
0.08998501300811768 0.06732702255249023 -0.1753000020980835
0.09110917896032333 0.0674806460738182 -0.17569999396800995
0.09218516200780869 0.06759586930274963 -0.17599999904632568
0.09321137517690659 0.06767268478870392 -0.1762000024318695
0.09402599185705185 0.06759586930274963 -0.17599999904632568
0.09478455036878586 0.0674806460738182 -0.17569999396800995
0.09564892947673798 0.06744223833084106 -0.17559999227523804
0.09640228003263474 0.06732702255249023 -0.1753000020980835
0.09726351499557495 0.06728861480951309 -0.17520000040531158
0.09817974269390106 0.06728861480951309 -0.17520000040531158
0.09909597784280777 0.06728861480951309 -0.17520000040531158
0.09984094649553299 0.06717339158058167 -0.17489999532699585
0.1005827859044075 0.06705817580223083 -0.17459999024868011
0.10143774002790451 0.06701976805925369 -0.1744999885559082
0.10217436403036118 0.06690454483032227 -0.17419999837875366
0.10302618145942688 0.06686614453792572 -0.17409999668598175
0.10381726175546646 0.06678932905197144 -0.17389999330043793
0.10466646403074265 0.0667509213089943 -0.17379999160766602
0.10557537525892258 0.0667509213089943 -0.17379999160766602
0.10642301291227341 0.06671251356601715 -0.1736999899148941
0.10733140259981155 0.06671251356601715 -0.1736999899148941
0.10823977738618851 0.06671251356601715 -0.1736999899148941
0.10902250558137894 0.06663570553064346 -0.17350000143051147
0.10992983728647232 0.06663570553064346 -0.17350000143051147
0.1108371838927269 0.06663570553064346 -0.17350000143051147
0.11168011277914047 0.06659729778766632 -0.17339999973773956
0.11252199858427048 0.06655889004468918 -0.17329999804496765
0.11303558945655823 0.06632845103740692 -0.17270000278949738
0.11360885947942734 0.06613641232252121 -0.17219999432563782
0.03283113241195679 0.06963039189577103 -0.18379999697208405
0.0358119010925293 0.06981980800628662 -0.1842999905347824
0.03693535551428795 0.07012287527322769 -0.1850999891757965
0.03808765113353729 0.07046382874250412 -0.18599998950958252
0.03922836482524872 0.07076690346002579 -0.18679998815059662
0.04026982933282852 0.07088055461645126 -0.18709999322891235
0.04113806039094925 0.07069113850593567 -0.186599999666214
0.041978489607572556 0.07046382874250412 -0.18599998950958252
0.04352245479822159 0.06981980800628662 -0.1842999905347824
0.04700383543968201 0.06788773834705353 -0.17919999361038208
0.04778046905994415 0.06766043603420258 -0.1785999983549118
0.04973188415169716 0.06777407974004745 -0.17889998853206635
0.0507524274289608 0.06788773834705353 -0.17919999361038208
0.051804956048727036 0.06803927570581436 -0.17960000038146973
0.052920401096343994 0.06826657056808472 -0.18019999563694
0.05724849924445152 0.06781196594238281 -0.17899999022483826
0.05815209820866585 0.06777407974004745 -0.17889998853206635
0.05902162194252014 0.06769832223653793 -0.17870000004768372
0.06002325564622879 0.06777407974004745 -0.17889998853206635
0.06099290773272514 0.06781196594238281 -0.17899999022483826
0.062032803893089294 0.06792561709880829 -0.179299995303154
0.06314607709646225 0.06811503320932388 -0.17979998886585236
0.0703740194439888 0.06694064289331436 -0.17669999599456787
0.07109634578227997 0.06675122678279877 -0.1762000024318695
0.07327385991811752 0.06622084975242615 -0.17479999363422394
0.07406067103147507 0.06610719859600067 -0.1744999885559082
0.07493028044700623 0.06606931984424591 -0.17440000176429749
0.07571186125278473 0.06595566123723984 -0.17409999668598175
0.07662233710289001 0.06595566123723984 -0.17409999668598175
0.0775328204035759 0.06595566123723984 -0.17409999668598175
0.07844329625368118 0.06595566123723984 -0.17409999668598175
0.07939935475587845 0.0659935474395752 -0.17419999837875366
0.08040256053209305 0.06606931984424591 -0.17440000176429749
0.08140785247087479 0.06614507734775543 -0.17459999024868011
0.0824623852968216 0.0662587359547615 -0.17489999532699585
0.08342472463846207 0.06629661470651627 -0.17499999701976776
0.08429171144962311 0.0662587359547615 -0.17489999532699585
0.08515765517950058 0.06622084975242615 -0.17479999363422394
0.08597330749034882 0.06614507734775543 -0.17459999024868011
0.08683663606643677 0.06610719859600067 -0.1744999885559082
0.08779949694871902 0.06614507734775543 -0.17459999024868011
0.08891582489013672 0.06629661470651627 -0.17499999701976776
0.08998501300811768 0.06641027331352234 -0.1753000020980835
0.09105732291936874 0.06652391701936722 -0.17559999227523804
0.09202802926301956 0.06656180322170258 -0.17569999396800995
0.09310556948184967 0.06667545437812805 -0.17599999904632568
0.09386571496725082 0.06656180322170258 -0.17569999396800995
0.09478455036878586 0.06656180322170258 -0.17569999396800995
0.09586681425571442 0.06667545437812805 -0.17599999904632568
0.0967872217297554 0.06667545437812805 -0.17599999904632568
0.09770764410495758 0.06667545437812805 -0.17599999904632568
0.09845992922782898 0.06656180322170258 -0.17569999396800995
0.09932222217321396 0.06652391701936722 -0.17559999227523804
0.10006928443908691 0.06641027331352234 -0.1753000020980835
0.10075560957193375 0.0662587359547615 -0.17489999532699585
0.10143774002790451 0.06610719859600067 -0.1744999885559082
0.10229167342185974 0.06606931984424591 -0.17440000176429749
0.10290782153606415 0.06587989628314972 -0.17389999330043793
0.10375756025314331 0.06584201008081436 -0.17379999160766602
0.10466646403074265 0.06584201008081436 -0.17379999160766602
0.10557537525892258 0.06584201008081436 -0.17379999160766602
0.10642301291227341 0.065804123878479 -0.1736999899148941
0.10733140259981155 0.065804123878479 -0.1736999899148941
0.10811515897512436 0.06572836637496948 -0.17350000143051147
0.10902250558137894 0.06572836637496948 -0.17350000143051147
0.10992983728647232 0.06572836637496948 -0.17350000143051147
0.11096493899822235 0.065804123878479 -0.1736999899148941
0.11174451559782028 0.06572836637496948 -0.17350000143051147
0.11258693039417267 0.06569048017263412 -0.17339999973773956
0.11323194205760956 0.06553894281387329 -0.17299999296665192
0.11360885947942734 0.06523586809635162 -0.17219999432563782
0.11411042511463165 0.06500857323408127 -0.17159999907016754
0.11447165161371231 0.0647054985165596 -0.17080000042915344
0.03286685794591904 0.06874390691518784 -0.18400000035762787
0.03486699238419533 0.06889335066080093 -0.18439999222755432
0.035967350006103516 0.06915487349033356 -0.1850999891757965
0.037015173584222794 0.06930431723594666 -0.18549999594688416
0.03812860697507858 0.06956584751605988 -0.18619999289512634
0.042113907635211945 0.06971529126167297 -0.186599999666214
0.042951200157403946 0.06949111819267273 -0.18599998950958252
0.04371137544512749 0.06915487349033356 -0.1850999891757965
0.04686360061168671 0.06810877472162247 -0.18230000138282776
0.04750220105051994 0.06766044348478317 -0.181099995970726
0.048208512365818024 0.067324198782444 -0.18019999563694
0.04906906187534332 0.06721211224794388 -0.17989999055862427
0.050009869039058685 0.06721211224794388 -0.17989999055862427
0.051035646349191666 0.067324198782444 -0.18019999563694
0.052122242748737335 0.06751099973917007 -0.18069998919963837
0.05318471044301987 0.06766044348478317 -0.181099995970726
0.05413179472088814 0.06766044348478317 -0.181099995970726
0.05684720724821091 0.06751099973917007 -0.18069998919963837
0.057632289826869965 0.067324198782444 -0.18019999563694
0.05844464525580406 0.0671747475862503 -0.17979998886585236
0.06015746295452118 0.06698794662952423 -0.179299995303154
0.0611632838845253 0.06706266850233078 -0.17949999868869781
0.06213659793138504 0.06710003316402435 -0.17960000038146973
0.06314607709646225 0.0671747475862503 -0.17979998886585236
0.07015741616487503 0.06668905913829803 -0.1784999966621399
0.0710112452507019 0.06661433726549149 -0.17829999327659607
0.07259002327919006 0.06635281443595886 -0.17759999632835388
0.07327043265104294 0.06612864881753922 -0.1770000010728836
0.0739864781498909 0.06594184786081314 -0.17649999260902405
0.07452753186225891 0.06560559570789337 -0.17559999227523804
0.07514510303735733 0.06534407287836075 -0.17489999532699585
0.07588580995798111 0.06519462913274765 -0.1744999885559082
0.0767543762922287 0.06515727192163467 -0.17440000176429749
0.07766641676425934 0.06515727192163467 -0.17440000176429749
0.07857846468687057 0.06515727192163467 -0.17440000176429749
0.0795360878109932 0.06519462913274765 -0.1744999885559082
0.08049475401639938 0.06523198634386063 -0.17459999024868011
0.08150110393762589 0.06530670821666718 -0.17479999363422394
0.08250954002141953 0.06538143754005432 -0.17499999701976776
0.08342472463846207 0.06538143754005432 -0.17499999701976776
0.08429171144962311 0.06534407287836075 -0.17489999532699585
0.08506021648645401 0.06523198634386063 -0.17459999024868011
0.08592406660318375 0.06519462913274765 -0.1744999885559082
0.08678688108921051 0.06515727192163467 -0.17440000176429749
0.08774921298027039 0.06519462913274765 -0.1744999885559082
0.08871258795261383 0.06523198634386063 -0.17459999024868011
0.08972834795713425 0.06530670821666718 -0.17479999363422394
0.09069433808326721 0.06534407287836075 -0.17489999532699585
0.09166137874126434 0.06538143754005432 -0.17499999701976776
0.0926823616027832 0.06545615941286087 -0.17520000040531158
0.09365202486515045 0.06549351662397385 -0.1753000020980835
0.09473060816526413 0.06560559570789337 -0.17559999227523804
0.09570340067148209 0.06564296036958694 -0.17569999396800995
0.0967872217297554 0.06575503945350647 -0.17599999904632568
0.09798521548509598 0.06594184786081314 -0.17649999260902405
0.09890823811292648 0.06594184786081314 -0.17649999260902405
0.09966159611940384 0.06582976877689362 -0.1762000024318695
0.10029762238264084 0.06564296036958694 -0.17569999396800995
0.10092844069004059 0.06545615941286087 -0.17520000040531158
0.10143774002790451 0.06519462913274765 -0.1744999885559082
0.10229167342185974 0.06515727192163467 -0.17440000176429749
0.10302618145942688 0.06504518538713455 -0.17409999668598175
0.10375756025314331 0.06493309885263443 -0.17379999160766602
0.10466646403074265 0.06493309885263443 -0.17379999160766602
0.10551463067531586 0.06489574164152145 -0.1736999899148941
0.1063004806637764 0.0648210272192955 -0.17350000143051147
0.10714603215456009 0.06478366255760193 -0.17339999973773956
0.10805284231901169 0.06478366255760193 -0.17339999973773956
0.10889682918787003 0.06474629789590836 -0.17329999804496765
0.10986647754907608 0.06478366255760193 -0.17339999973773956
0.11077329516410828 0.06478366255760193 -0.17339999973773956
0.11161570250988007 0.06474629789590836 -0.17329999804496765
0.1123272106051445 0.06463421881198883 -0.17299999296665192
0.11277377605438232 0.06437268853187561 -0.17229999601840973
0.11334496736526489 0.06418588757514954 -0.17180000245571136
0.11384442448616028 0.06396172195672989 -0.1711999922990799
0.11440463364124298 0.06377492100000381 -0.17069999873638153
0.11502715200185776 0.06362547725439072 -0.17029999196529388
0.11571355909109116 0.06351339817047119 -0.17000000178813934
0.03292044252157211 0.0678921714425087 -0.1842999905347824
0.03390264883637428 0.06792900711297989 -0.18439999222755432
0.03492371737957001 0.06803952157497406 -0.18469999730587006
0.03598678484559059 0.06822370737791061 -0.18519999086856842
0.037055082619190216 0.06840790063142776 -0.18569999933242798
0.04215904325246811 0.06881311535835266 -0.18679998815059662
0.04302047938108444 0.06862892955541611 -0.18629999458789825
0.043853066861629486 0.06840790063142776 -0.18569999933242798
0.047069255262613297 0.06745012104511261 -0.18310000002384186
0.04784318804740906 0.06719224900007248 -0.18239998817443848
0.04860980063676834 0.06693438440561295 -0.1816999912261963
0.0494781993329525 0.06682387739419937 -0.18140000104904175
0.05042685195803642 0.06682387739419937 -0.18140000104904175
0.051460471004247665 0.06693438440561295 -0.1816999912261963
0.05241069197654724 0.06693438440561295 -0.1816999912261963
0.05339028313755989 0.06697122007608414 -0.1817999929189682
0.054430700838565826 0.0670817419886589 -0.18209999799728394
0.05529177188873291 0.06697122007608414 -0.1817999929189682
0.05624251812696457 0.06697122007608414 -0.1817999929189682
0.05716180428862572 0.06693438440561295 -0.1816999912261963
0.05795211344957352 0.06675019860267639 -0.18119999766349792
0.058769699186086655 0.06660284101963043 -0.18079999089241028
0.060358770191669464 0.06627130508422852 -0.17989999055862427
0.061265502125024796 0.06623446196317673 -0.17979998886585236
0.06220578774809837 0.06623446196317673 -0.17979998886585236
0.0685965046286583 0.06605027616024017 -0.179299995303154
0.06941782683134079 0.065939761698246 -0.17899999022483826
0.07031463086605072 0.06590292602777481 -0.17889998853206635
0.07117056101560593 0.06582925468683243 -0.17870000004768372
0.07206474244594574 0.06579241156578064 -0.1785999983549118
0.07295788079500198 0.06575557589530945 -0.1784999966621399
0.07444758713245392 0.06542403250932693 -0.17759999632835388
0.07499439269304276 0.06509249657392502 -0.17669999599456787
0.07548882067203522 0.06472411751747131 -0.17569999396800995
0.07605976611375809 0.06442940980195999 -0.17489999532699585
0.07684239000082016 0.06431889533996582 -0.17459999024868011
0.07771094888448715 0.06428205966949463 -0.1744999885559082
0.07862351834774017 0.06428205966949463 -0.1744999885559082
0.0795360878109932 0.06428205966949463 -0.1744999885559082
0.08044865727424622 0.06428205966949463 -0.1744999885559082
0.08140785247087479 0.06431889533996582 -0.17459999024868011
0.08241523802280426 0.0643925741314888 -0.17479999363422394
0.08332937955856323 0.0643925741314888 -0.17479999363422394
0.0840989276766777 0.06428205966949463 -0.1744999885559082
0.09966159611940384 0.06490830332040787 -0.1762000024318695
0.10029762238264084 0.06472411751747131 -0.17569999396800995
0.100986048579216 0.06457676738500595 -0.1753000020980835
0.10149586945772171 0.06431889533996582 -0.17459999024868011
0.10229167342185974 0.06424522399902344 -0.17440000176429749
0.10302618145942688 0.06413470953702927 -0.17409999668598175
0.10381726175546646 0.06406103074550629 -0.17389999330043793
0.10466646403074265 0.0640241950750351 -0.17379999160766602
0.10551463067531586 0.0639873519539833 -0.1736999899148941
0.1063004806637764 0.06391368061304092 -0.17350000143051147
0.10714603215456009 0.06387684494256973 -0.17339999973773956
0.10805284231901169 0.06387684494256973 -0.17339999973773956
0.10889682918787003 0.06384000927209854 -0.17329999804496765
0.10980311781167984 0.06384000927209854 -0.17329999804496765
0.11070941388607025 0.06384000927209854 -0.17329999804496765
0.11142247915267944 0.06372949481010437 -0.17299999296665192
0.11180777847766876 0.06343478709459305 -0.17219999432563782
0.11218471080064774 0.06314008682966232 -0.17139999568462372
0.11268521845340729 0.06291905790567398 -0.17080000042915344
0.11324594914913177 0.06273487210273743 -0.17029999196529388
0.11406952142715454 0.06269802898168564 -0.17019999027252197
0.11482453346252441 0.06262435764074326 -0.17000000178813934
0.11557742208242416 0.06255067884922028 -0.16979999840259552
0.11625964939594269 0.0624401681125164 -0.16949999332427979
0.11700783669948578 0.06236648932099342 -0.16929998993873596
0.03297403082251549 0.06703729927539825 -0.18459999561309814
0.03492371737957001 0.06707361340522766 -0.18469999730587006
0.03598678484559059 0.0672551840543747 -0.18519999086856842
0.042226750403642654 0.06794516742229462 -0.18709999322891235
0.04308975487947464 0.06776359677314758 -0.186599999666214
0.043971139937639236 0.06761833280324936 -0.18619999289512634
0.044775933027267456 0.06736412644386292 -0.18549999594688416
0.04633836820721626 0.06681940704584122 -0.18400000035762787
0.047223497182130814 0.066710464656353 -0.18369999527931213
0.048984345048666 0.06649257242679596 -0.18310000002384186
0.049887336790561676 0.06641994416713715 -0.18289999663829803
0.05081603303551674 0.06638363003730774 -0.18279999494552612
