ply
format ascii 1.0
element vertex 741
property float x
property float y
property float z
end_header
-0.005005521533216372 -0.017912784140786557 0.010854887056259572
0.003714057561909476 -0.02063786312038725 0.0016347068969062423
0.009654763449697115 0.02384644013475289 0.010854887056259572
-0.04107913958385574 -0.00958869953205177 0.013012918089725297
-0.01932006910785479 -0.002363061948327667 0.008265252934056918
0.02770233622631082 -0.03429078553339902 0.0033017875331684938
-0.03310565489163393 -0.010901171379026246 0.0033017875331684938
-0.023572245229092643 0.03781436817655144 -5.683774345987832e-09
-0.000138323116018803 -0.03063335098747207 0.013012918089725297
0.004665832085020723 0.018820329758201897 6.474143767185626e-05
-0.006432894514989406 -0.016471144198967953 0.006538829666262444
-0.02483712856085486 -0.010531878254356659 6.474143767185626e-05
0.0068170660120465305 -0.020655731196279215 0.006538829666262444
0.005348347757205051 -0.02936737665372432 0.0016347068969062423
-0.030242435999239196 -0.009907974878543857 0.000817350655284014
-0.007070916985917418 -0.021054211984293327 0.0007265328404018188
-0.036788506257735686 0.028144506797834038 0.009775872578845449
0.03570870824529636 0.013468595294938171 0.0021796061212237244
-0.010257516810930633 0.03021894380723424 0.013012918089725297
-0.023408888905963005 -0.0025371933237169097 0.0022227722762653166
0.0006755820510929896 -0.029783945736073986 0.0016347068969062423
0.003930479300985198 -0.005415800812197607 0.0016347068969062423
-0.004883303493467629 -0.01869970736363875 0.002070624847296964
-0.012448354453000774 -0.03706118731167774 0.0004359159367106676
0.010566573451029794 -0.005702273748164907 0.0010898002674427552
-0.03770028896291065 0.019949356517607403 6.474143767185626e-05
-0.02210471391535251 -0.03987883813241419 0.0007265328404018188
0.03595014134820388 0.03618053454495726 6.474143767185626e-05
0.00160601558607846 -0.0072787467418184305 0.006538829666262444
-0.012872253810367875 -0.03725328880298802 0.0018526621695286005
0.0010315715110828596 -0.008033649297847719 0.0003632617107878798
0.019825521421006007 -0.00715735510888584 0.0021796061212237244
-0.015014036822801908 -0.026017776058228977 0.0004359159367106676
-0.028010013012937904 -0.0032120924908023572 0.0005448935405431361
-0.03901737961662987 -0.03404164559508292 0.0010898002674427552
-0.005651738232077791 0.004366104663234408 0.013012918089725297
-0.038002452552020366 -0.005049355597250562 0.0008562698941342839
-0.03765016007402174 -0.003929411655797258 0.006538829666262444
-0.02225006708778959 0.011078008982496456 6.474143767185626e-05
-0.03959382392476557 -0.015458099628966345 0.0021796061212237244
-0.03715142204386481 -0.019859590250464573 0.013012918089725297
-0.011937888939261822 0.035044793295947875 0.0010898002674427552
-0.011534542289553501 -0.03650316856232532 0.001271432129676722
0.007544108830748287 -0.03832750112593837 0.0022227722762653166
-0.005849512966204214 -0.024712268841258458 0.013012918089725297
0.0020170415955248037 -0.006302755784027517 -5.683774345987832e-09
0.004708526753344395 -0.03238833567331165 -5.683774345987832e-09
-0.02950784084885141 -0.01302508516998372 0.0010898002674427552
0.0007744369862784843 -0.032979479802654706 0.006538829666262444
-0.027889449370963944 -0.010216222215499412 0.0019071565090649834
-0.023264115234906287 -0.002525340631077508 0.008696857062112586
-0.008072885246043753 -0.027063487102050865 0.0010898002674427552
-0.022263887602113463 -0.03901760788272251 6.474143767185626e-05
-0.014932207287863755 -0.03854038151602706 0.006538829666262444
0.004859891176937116 -0.008188315081167187 0.006538829666262444
-0.037812052554812424 -0.03474915784824355 0.013012918089725297
-0.021847327675802882 -0.0033347590538905375 0.0014530676295262702
0.005510312386338755 -0.03559672391485444 0.0021796061212237244
0.033264373115258976 -0.022092456003501827 6.474143767185626e-05
-0.02590257705401262 -0.012101422496808956 -5.683774345987832e-09
-0.038650585929490465 -0.005835744744705295 0.0006227395208258126
0.00434305464885063 -0.01764075178440237 0.0005448935405431361
-0.01984117421602382 -0.004306229596511846 0.0022227722762653166
-0.00665101419082783 0.028460299001934225 0.013012918089725297
-0.02894637383540655 0.0071397570313077455 0.0010898002674427552
-0.03425792199882015 -0.009901603933935431 0.009775872578845449
-0.016799576566825965 0.03690204221916179 0.006538829666262444
-0.04074966011889431 -0.01026329872099912 -5.683774345987832e-09
0.007590083875115727 -0.0062867710620550625 0.006538829666262444
0.04028414409931421 0.024424174854636972 0.006538829666262444
-0.011979141232380718 -0.03613113462565925 0.0007265328404018188
0.009393140990681796 -0.023530166100949143 -5.683774345987832e-09
-0.007624397329895613 -0.018921610342425198 0.01042327981024769
0.008992768087917758 -0.003798608207011839 0.006538829666262444
0.00625872545517827 -0.004992282327798072 6.474143767185626e-05
-0.01471520099235764 -0.04081234168177511 0.0010898002674427552
-0.0054481642747640216 -0.01796761292007313 0.004380802790071671
0.030896829748266685 -0.02195510414574113 -5.683774345987832e-09
0.02046211082462318 0.0020321052212787473 0.013012918089725297
-0.03221580446187924 -0.008779825215344022 0.0016347068969062423
-0.0022235837758705556 -0.015548524853282217 0.0014530676295262702
0.00048005421432095036 -0.03027217216062904 6.474143767185626e-05
0.035757111913213624 0.03616606505208787 0.013012918089725297
-0.00569472664334968 -0.018014324552890752 0.013012918089725297
-0.04073352480111767 -0.029995589556251097 6.474143767185626e-05
-0.027788223200200458 -0.002953262357680073 -5.683774345987832e-09
-0.016159084898381804 -0.0016421471450375606 0.0016347068969062423
-0.006683190024896031 0.008786721852297225 0.013012918089725297
-0.03793583442278445 -0.005011536190273634 0.0013233306407512263
0.005245361243669601 -0.02988719050343416 0.0022227722762653166
-0.03822780924058084 -0.002143258476310544 6.474143767185626e-05
-0.004509996236910445 -0.016169747480732785 0.0033017875331684938
-0.031127413030812925 -0.036777846326988634 0.0005448935405431361
0.011636855696995543 0.028294239518556055 -5.683774345987832e-09
-0.04190392700699577 -0.0348297414976416 0.009775872578845449
-0.03828003390874146 -0.004448186352367099 0.0022227722762653166
0.0034364335781481244 -0.03274578040518257 0.0010898002674427552
0.005674027600377788 -0.022730312368732644 0.0021796061212237244
0.0004550808699037561 -0.03349701181462508 -5.683774345987832e-09
-0.030291066637666546 -0.01288481074200525 0.0005448935405431361
0.00620304269468788 0.020615721797578687 6.474143767185626e-05
-0.00577684343090765 0.018771285125171074 0.013012918089725297
-0.0245592235496498 -0.011018077606884821 0.000817350655284014
-0.007856055862673912 -0.019592395885000828 0.0010898002674427552
-0.014293088482447956 -0.03782041705161801 0.001198777773839092
-0.0407086712834694 -0.009992021916693069 0.0007265328404018188
0.001654875744828508 -0.016284259562976123 0.0021796061212237244
-0.027798010636684363 -0.010184295372421241 0.0002724439283843951
-0.017534434587069728 -0.04055333542543643 0.006538829666262444
-0.0012390785395734673 -0.017879307344222495 0.004380802790071671
-0.01751662042429033 -0.0038024929998001634 0.013012918089725297
-0.027696438865552123 0.03404693607878227 0.006538829666262444
-0.026684112139565782 -0.03262846123240282 0.001362249879601496
0.027788363101079832 0.007515501795858337 6.474143767185626e-05
-0.005166809200819224 -0.023687702617082137 0.010854887056259572
0.03392822317253291 0.03369252945310338 0.0021796061212237244
0.009622504294616986 -0.028430345140308212 -5.683774345987832e-09
-0.037647699355123236 0.018416503369993203 6.474143767185626e-05
-0.004419041637942952 -0.023365278909958053 0.0014530676295262702
-0.03852641066347872 -0.005663443978613827 0.001790391387368169
0.0379169054929074 0.017447188748091542 -5.683774345987832e-09
-0.03383681231797607 0.007154594013285255 0.0018163387591402093
0.007557587149476248 -0.006314935853896793 0.013012918089725297
-0.04019770830421278 -0.008390710061620354 0.0021796061212237244
0.015142053762153378 -0.003320237819933607 0.0010898002674427552
-0.019563193352598398 -0.0021744705775151546 0.005675618292194893
0.03398979204481618 -0.0230790488008919 0.0010898002674427552
-0.015186914792626412 -0.029416804917177478 0.0033017875331684938
-0.026031677788081006 -0.00191984208803759 0.008696857062112586
-0.007696183958882112 0.003414565002948445 0.006538829666262444
-0.013372776267370585 -0.025289831618261486 0.013012918089725297
-0.010945603250779928 0.03342861491753862 0.009775872578845449
0.029584716537206096 -0.030991283769291902 -5.683774345987832e-09
3.933872246374605e-05 0.012717292685013154 0.013012918089725297
0.03172035170585356 -0.016550059733229542 0.0021796061212237244
-0.008120777528827021 0.03148262705793269 0.0010898002674427552
-0.005915819785236999 -0.018139131225485165 0.0015034272992949867
0.012880644263907275 -0.0014312095809709943 -5.683774345987832e-09
0.0071000389426123115 -0.027061437600483983 0.0010898002674427552
-0.02557517869550255 -0.01128783358642657 0.013012918089725297
-0.04047567116079392 -0.03587424137599242 6.474143767185626e-05
0.0034364335781481244 -0.03274578040518257 0.000934112074407826
-0.032102689813623235 0.006212945813398939 0.013012918089725297
-0.014585685170682877 -0.02547599176378358 0.00021795325894230426
-0.014407906851965278 -0.04015573351674559 0.013012918089725297
-0.02767679628180467 -0.00907710326793408 -5.683774345987832e-09
-0.02583219704238959 0.011676214239934486 0.0010898002674427552
0.012786960453300805 -0.042251915742881285 6.474143767185626e-05
-0.029670353043802663 -0.010665155746765806 0.010854887056259572
-0.02689680569034665 -0.009226842101744997 0.013012918089725297
-0.010117124433260622 -0.038882833468624825 0.0007265328404018188
-0.025450792948000116 -0.004301750619437545 0.0021796061212237244
-0.03829766272925329 -0.022470871087854564 0.013012918089725297
-0.027401140524652843 -0.003356413122214841 6.474143767185626e-05
-0.008137947591731042 0.0029648162560582075 0.0016347068969062423
-0.00336268610776588 -0.016075804404299017 0.009775872578845449
0.02205308799176019 -0.011029944894109273 0.0016347068969062423
-0.015043325463256407 -0.02611995463160329 0.0008718375896743918
-0.015968706320493253 -0.03827296336887441 0.0016347068969062423
0.024738023535146536 0.00301297165257815 0.013012918089725297
-0.02817638605449563 -0.005020300094495804 0.0022227722762653166
0.02923694223722944 -0.01694080817055253 0.0033017875331684938
-0.028267451483091476 0.01293505175425471 0.0033017875331684938
-0.026651562777871583 -0.00246867550018505 0.0022227722762653166
-0.038785669002580535 0.01518154928348414 6.474143767185626e-05
-0.016132635805217312 0.0013449013679765278 0.013012918089725297
0.012837577170473917 0.0264912962365898 0.009775872578845449
-0.0401908661223018 -0.008376874512731461 0.0013233306407512263
-0.015513182084042143 -0.025671893539884454 6.474143767185626e-05
-0.035619703686200134 0.030432852799592548 0.0005448935405431361
-0.025553090161817678 -0.004448827087932695 0.0018163387591402093
0.04161179616333156 0.035157484291388756 0.01042327981024769
-0.04129763577047091 -0.024917624313658283 0.006538829666262444
-0.0073342276503102965 0.0022296925766354717 0.0010898002674427552
-0.03749803642230076 -0.00423124169793119 0.005244014164139223
-0.009515509590373557 0.03295746755505996 0.0021796061212237244
-0.03972976851353963 -0.007526244051007616 0.00038920911503863075
0.03994719151951581 0.03418693491112837 6.474143767185626e-05
-0.04126414913938074 -0.011795700348961621 0.008696857062112586
-0.023391862993232516 -0.034928637549710234 0.0021796061212237244
-0.007765881115774337 0.0310639562813545 0.0021796061212237244
-0.01621577602833187 0.03732013779355405 -5.683774345987832e-09
-0.02475355690971497 -0.011202830054722149 -5.683774345987832e-09
-0.03610106322276743 0.024902876554832212 -5.683774345987832e-09
-0.019989067373254128 0.012094358720323023 -5.683774345987832e-09
-0.024276873216647576 -0.009378907569841511 -5.683774345987832e-09
0.03587095929305486 0.01940674222788265 -5.683774345987832e-09
-0.017194993386426518 -0.004424705276057513 0.0021796061212237244
0.024716953132619266 -0.03643787490096234 -5.683774345987832e-09
-0.03508841598144188 -0.0056851041495259705 0.0033017875331684938
-0.011038413407789854 -0.02724851123476028 0.0003632617107878798
-0.03980991874903717 -0.02763969375950441 0.0016347068969062423
-0.004710830184973143 -0.019203110595498236 0.00010897565510983567
-0.023489661260206705 -0.0389174936632901 -5.683774345987832e-09
-0.00885196200560969 -0.0172249952998097 -5.683774345987832e-09
0.0023282095978863593 -0.016555166987846114 -5.683774345987832e-09
-0.038436328448543944 -0.02273207446113521 0.006538829666262444
-0.004820566727204624 -0.01891425614036828 0.00021795325894230426
-0.03897738467423142 0.01412042243205045 0.0010898002674427552
-0.020801093453520155 0.008717821769097939 -5.683774345987832e-09
-0.00010166184910660911 -0.031401707722144775 0.006538829666262444
-0.02844773748065543 -0.007448774033882931 0.0016347068969062423
0.033570073696679165 -0.0208039781216913 0.0016347068969062423
-0.005142052736504371 0.005094264972287932 0.013012918089725297
-0.006517670129698333 -0.022328738098612057 0.013012918089725297
-0.03902041418374827 -0.020260232300569635 0.010854887056259572
0.005031725903699145 -0.03895777722309098 0.0021796061212237244
0.035902329654214436 0.03437306860513293 0.013012918089725297
0.012546328285151198 -0.005958641902958538 0.0007265328404018188
-0.0245592235496498 -0.011018077606884821 0.0002724439283843951
-0.01562879989555001 -0.027454615440793126 6.474143767185626e-05
-0.038110333489620576 0.027093289180870957 0.0010898002674427552
-0.02250278640786633 -0.0007895997443158843 0.013012918089725297
-0.029999272176864107 -0.010560842777253738 6.474143767185626e-05
0.0024120842199755526 -0.03518712532935389 0.009775872578845449
-0.025913336085407912 -0.005639551812975926 0.0007265328404018188
-0.025469434908891603 -0.011204993597487074 0.006538829666262444
-0.009309923658809555 -0.02672072762854476 6.474143767185626e-05
-0.03747290534799156 -0.0018308982005383393 0.013012918089725297
-0.012584983657203036 -0.03215293669112756 -5.683774345987832e-09
-0.034604172945278164 0.028350123861984895 0.009775872578845449
0.003539705657538561 -0.032687675957137154 0.0006227395208258126
0.020662933519352302 -0.010425797964191989 0.0010898002674427552
0.04178473863538473 0.03496960509604335 0.013012918089725297
-0.013600304722623403 -0.025077641849224314 6.474143767185626e-05
-0.02793833728991301 -0.010791979149489291 6.474143767185626e-05
-0.043044405436936176 -0.010480760792966583 6.474143767185626e-05
-0.023808013359646222 -0.03450548784247453 0.0021796061212237244
-0.010777244107720577 -0.02486042909354425 0.009775872578845449
-0.028010013012937904 -0.0032120924908023572 0.0002724439283843951
0.03092147628670317 -0.027677994908840892 0.0010898002674427552
-0.010053418122061982 -0.026763285842407877 6.474143767185626e-05
-0.005076211857778872 -0.019768176378956122 0.013012918089725297
0.0062457766144352785 -0.0044098647643452905 0.0016347068969062423
-0.014735831223380588 -0.02467386856162423 6.474143767185626e-05
-0.028725578443346392 0.03341640726055138 0.009775872578845449
-0.028295140207314894 -0.007949897591751118 0.0021796061212237244
-0.0076027592924790615 0.002917929534539381 0.006538829666262444
-0.031862118462909955 0.005986211366665779 0.013012918089725297
-0.014601289589815849 -0.037928037531795265 0.0021796061212237244
-0.038275103020167796 -0.034688411446537136 0.004380802790071671
-0.028756912734849028 0.008451013601414935 0.0018163387591402093
0.010561293781749437 -0.0057012810498898005 0.0021796061212237244
0.017746910620288436 -0.007201825767238195 0.013012918089725297
0.026846945617017073 -0.037321992462028705 6.474143767185626e-05
-0.017385601325344238 -0.026373280918683288 6.474143767185626e-05
-0.02867861274479282 -0.0057712025958808685 0.0019071565090649834
-0.025829438517000602 -0.005053686634940853 0.0014530676295262702
0.010570840182171914 -0.03993480388055171 0.013012918089725297
0.0185540407447103 -0.0009817366270895164 6.474143767185626e-05
0.012473817264499788 0.026201863247325995 0.006538829666262444
-0.01827315483558204 -0.005630692337218391 0.0010898002674427552
-0.037680390531761886 -0.0014423558188393967 0.0010898002674427552
0.01233652287458074 -0.004107639022751833 6.474143767185626e-05
0.042940642318022054 0.03299647345490389 -5.683774345987832e-09
-0.01758379563370074 -0.03836990545145016 -5.683774345987832e-09
0.003432975628583228 -0.03710566308382243 0.0010898002674427552
-0.009868957052957057 -0.0340549840065787 0.0016347068969062423
-0.034432632719768146 0.007785175427746351 0.0021796061212237244
0.00037370502434942525 -0.03030362370128115 0.004920304832185045
-0.04077283586643582 -0.008440468597694565 0.006538829666262444
-0.023070280252017572 -0.0007689434649105404 0.013012918089725297
0.028433394984653595 -0.013214863132929886 0.0033017875331684938
-0.022615362835095926 -0.0031001170414453705 0.0007265328404018188
-0.04185690478096746 -0.034888639071131745 0.013012918089725297
-0.01623983809575317 0.00042417616511822954 6.474143767185626e-05
0.010456157728952316 -0.005622516534262709 0.0021796061212237244
-0.03974245056218846 -0.006576068061042751 0.011933902572992434
-0.013335754678573926 -0.022916234877387493 0.010854887056259572
0.03402592432609163 0.03655182348914916 -5.683774345987832e-09
0.03162118906273308 -0.026693082546576586 6.474143767185626e-05
-0.034611574927230264 0.02738007256542801 -5.683774345987832e-09
0.00952146996185317 -0.028699975340569898 0.0010898002674427552
-0.019737440905538674 -0.0020283121864370754 0.00999167568219202
-0.02653802004572924 -0.009805411643905273 6.474143767185626e-05
-0.017978561377000445 0.004404147369155636 0.008696857062112586
0.02400209981214065 -0.012085951374689008 0.0005448935405431361
0.0002752761669088345 -0.030338024118485758 0.013012918089725297
0.011234027098336336 -0.008121597994723711 0.013012918089725297
0.006247185982658974 -0.008121751773617732 0.006538829666262444
-0.030113579404103183 0.005375981066782667 0.013012918089725297
-0.04031665435239353 -0.03398734927119859 0.006538829666262444
-0.041259109613605044 -0.012048308263062666 0.008696857062112586
-0.00481888868256512 0.004544294858668369 0.0005448935405431361
-0.01663002388486232 -0.02431734811664252 0.009775872578845449
-0.03860860162686733 0.026156491356885827 0.0016347068969062423
-0.012161114353876287 -0.036001893399468986 0.0021796061212237244
0.028524265966639643 -0.03340817698024079 6.474143767185626e-05
-0.02739317270554011 -0.009915625122212756 0.0005448935405431361
0.027887608971940234 0.007606502857612235 0.006538829666262444
0.00032204743078831794 -0.01639918380014255 6.474143767185626e-05
-0.020406355593360032 -0.004554764057496225 0.0021796061212237244
-0.007871895969588498 -0.026980592176421875 0.0007265328404018188
-0.04087082278852718 -0.03222734577997765 0.009775872578845449
-0.02945321648796649 -0.03633462691824088 0.0005448935405431361
-0.04019567229177722 -0.018437385277574138 0.009775872578845449
-0.009610142028131426 -0.026751768484851113 6.474143767185626e-05
0.021084463992587503 0.03115360128306857 6.474143767185626e-05
0.033374421945234926 -0.022781994595618773 0.009775872578845449
-0.013288470495162779 -0.02536984962968161 6.474143767185626e-05
-0.028978755078102353 0.009334373960032113 6.474143767185626e-05
-0.011977043006529386 -0.036826784255107686 0.0015257218554490582
0.024716953132619266 -0.03643787490096234 0.0021796061212237244
-0.005449767077332893 0.003628101099652915 0.0021796061212237244
0.027647377344387287 0.03472813878507399 0.006538829666262444
-0.04297107529356599 -0.029122347803242736 -5.683774345987832e-09
0.007155685993392354 -0.02671740230116652 0.0003632617107878798
-0.024573692320408964 -0.008758853903118641 0.0021796061212237244
-0.022973900349237537 -0.002521493960799541 0.004380802790071671
0.0355361396100454 0.01426616027990846 0.013012918089725297
0.03948924656252786 0.029068735949780315 0.0005448935405431361
-0.015658022609650043 0.001008546719184393 -5.683774345987832e-09
-0.01982204868906627 0.03525050484570439 -5.683774345987832e-09
0.04232171652874589 0.03235034352371005 0.013012918089725297
-0.02038854778204932 0.009000271022276926 6.474143767185626e-05
-0.0401908661223018 -0.008376874512731461 0.000934112074407826
-0.03546984167160161 -0.0033412187343277297 0.0010898002674427552
-0.027885901761208833 -0.01021505937116253 0.0021796061212237244
0.02596891668488032 -0.010724865372888881 0.013012918089725297
-0.006517670129698333 -0.022328738098612057 6.474143767185626e-05
-0.02691891359515086 0.01121280572227669 0.0014530676295262702
-0.0036020056805385944 0.020537075054376356 0.0010898002674427552
-0.036942010033621075 -0.0020060106675343884 0.0033017875331684938
-0.021745340854046936 -0.036545382076860033 0.0021796061212237244
1.8312908663753768e-05 -0.031699835414340106 0.006538829666262444
-0.007901477630676081 -0.0360222225166089 0.0016347068969062423
-0.03718309618566553 -0.00501036922758989 0.005244014164139223
-0.0030060158351840117 -0.016063158399641876 6.474143767185626e-05
-0.03053003775244603 0.034860900230928936 0.0010898002674427552
-0.03834642383499045 -0.004535136991442296 0.0033017875331684938
0.02421542599871135 0.03217379696104915 0.006538829666262444
-0.033344263753064055 -0.008421940942969686 0.006538829666262444
0.013300308036994883 -0.00603914513290627 0.0010898002674427552
0.010570840182171914 -0.03993480388055171 6.474143767185626e-05
-0.011569096363306107 0.033997436777354825 0.006538829666262444
-0.019299222849924764 -0.005431206860082753 0.0005448935405431361
-0.008965990180797268 -0.024396833706883645 0.0021796061212237244
-0.036670695937580475 -0.01993598830324091 0.0003632617107878798
-0.03682416588504457 0.022803127586879496 0.0010898002674427552
-0.01911676684558634 -0.005526693693079539 0.0016347068969062423
0.025290180832758996 0.002783070052955303 -5.683774345987832e-09
-0.014156555245372028 -0.02256155556991609 6.474143767185626e-05
0.008488368898521333 -0.03020171214909956 0.0014530676295262702
-0.006302142634035958 0.015868167042994225 0.0021796061212237244
-0.025029570170636704 -0.03332844546446668 -5.683774345987832e-09
-0.02156115211454983 0.00962678543462826 0.0018163387591402093
0.0033446140828897767 -0.019666921353907286 0.013012918089725297
0.026210095112098174 0.03270450838613962 0.0033017875331684938
0.002896340794714687 -0.03310913997200878 0.004380802790071671
-0.028683595213358837 0.00880285644314778 0.0010898002674427552
-0.006345559403970883 0.019608268258539913 0.0021796061212237244
-0.03785228417741068 -0.02163994416215714 0.004920304832185045
-0.01741038845969851 -0.027687133014146922 0.009775872578845449
0.026628945841260222 -0.010477895878275759 0.0016347068969062423
-0.029427517055890234 0.005094945884219404 0.0002724439283843951
-0.009852963705785998 -0.034710013395425295 0.013012918089725297
-0.04158311212942535 -0.02566861553362852 0.0033017875331684938
-0.0229878232645765 -0.00025348459508863543 0.0018163387591402093
-0.007516565811324324 0.0028030054528197647 0.013012918089725297
-0.030360157722467643 0.011564131037152692 0.0010898002674427552
0.023489303483033158 0.0014234149184009577 0.0021796061212237244
-0.03789587819868491 -0.0019433335903945004 6.474143767185626e-05
-0.00769391799359795 0.0035714963268061502 6.474143767185626e-05
-0.008780719426188346 -0.017840391766693203 0.0003632617107878798
0.0063241553703245 -0.040282784195754255 -5.683774345987832e-09
-0.007894976487483996 -0.03611227336096684 0.0005448935405431361
-0.024854135426097008 -0.037505045840171065 -5.683774345987832e-09
0.038435049756159155 0.033996518737514754 0.0005448935405431361
-0.013040427841030162 -0.02558512811341073 6.474143767185626e-05
-0.0391880850136165 -0.006637559950637961 0.0006227395208258126
-0.015667412456516053 -0.027012818966462158 0.010854887056259572
-0.005227092863093622 -0.024859049509604048 0.0021796061212237244
0.004111117853865964 -0.03252341155016268 0.0004670513277908835
0.03802067796515617 0.023242535665455286 0.006538829666262444
-0.010233200489799085 0.030191544448553514 0.009775872578845449
0.007123374180712202 -0.03731955858144598 0.0018163387591402093
-0.013732869683521512 -0.024958565992138092 6.474143767185626e-05
0.022071179141758133 -0.010446911634400239 0.013012918089725297
-0.015055418137991682 -0.029785675515844517 6.474143767185626e-05
-0.03736543440149172 -0.02067399203957659 0.008157350862724263
0.009679147688131672 -0.028257334051838022 0.0010898002674427552
-0.0401908661223018 -0.008376874512731461 0.0017125491421372057
-0.007500762241344265 -0.023384449818122443 0.0010898002674427552
-0.020039250642934187 0.03579770707943456 6.474143767185626e-05
-0.011671631325151813 -0.03636561399163744 0.0003632617107878798
0.0018067030540094306 -0.01940365257459019 -5.683774345987832e-09
0.03715903521975662 0.021147472307855894 0.009775872578845449
-0.04126367764244601 -0.011540146418011455 0.010854887056259572
-0.02680330857520174 0.013663982571163327 0.009775872578845449
-0.03951668983422703 -0.0034371843029916654 6.474143767185626e-05
-0.007405221166551194 -0.02326597665925334 0.000817350655284014
-0.028773624543739468 -0.01306699894554279 -5.683774345987832e-09
-0.015667412456516053 -0.027012818966462158 0.006538829666262444
-0.03720029917116355 -0.01975388171731382 0.0016832625691762526
-0.015157001804202529 -0.02702994400564503 0.0010898002674427552
-0.009180870850896167 -0.03829122015076277 -5.683774345987832e-09
-0.011567241687601587 -0.036563586111460586 0.0007628599533632127
0.006365170779663476 -0.02013838089584038 0.013012918089725297
-0.00862687807939625 -0.016721972251541505 0.0010898002674427552
0.036296899643039074 0.0339496959603505 0.0005448935405431361
-0.03897248963140532 -0.034565529885612144 0.006538829666262444
0.019073967512880357 -0.0006885216843594083 6.474143767185626e-05
-0.019672765125500896 0.035756120937080194 0.006538829666262444
0.017713259509234677 -0.007195191618265935 0.006538829666262444
-0.043205811654467054 -0.03183409757841842 0.0021796061212237244
0.011607600717213507 -0.005849439684822228 0.0021796061212237244
-0.019479273152641998 -0.0022418037544232727 0.0017911645105940653
-0.030504146912840795 0.00522827022879775 0.006538829666262444
0.00481733272863389 -0.0323650442808896 0.0014530676295262702
-0.006308182546811397 0.01903016171661211 0.0010898002674427552
0.008784238869824422 -0.03849613857517199 -5.683774345987832e-09
-0.03363279110755635 0.006946941802477613 0.0014530676295262702
-0.027429244403004566 -0.01288658316511336 0.0005448935405431361
-0.011328027696334165 0.033784380349128444 0.0033017875331684938
-0.03400116494946666 -0.037201868199026336 0.0010898002674427552
-0.018408021751793728 0.00179163288341741 0.0021796061212237244
-0.013493027573508206 -0.03510816989107622 0.0005448935405431361
-0.01529080868599034 -0.038137632589370994 0.0014167405815222976
-0.021784116261651006 -0.040032690335594104 0.0021796061212237244
-0.02270637865435764 -0.03869299361629476 0.006538829666262444
-0.005898799876491325 -0.018100587347635023 0.007977515462928153
-0.03288430452474293 0.006224603738029675 0.0021796061212237244
0.0069800073325782305 -0.027471475209736463 0.0003632617107878798
0.040065160223341806 0.034150376175241706 0.013012918089725297
0.029753791186993905 -0.018869799850500628 -5.683774345987832e-09
-0.042892513108321574 -0.034124977902430645 0.0005448935405431361
-0.03789896879968609 -0.005015747103694561 -5.683774345987832e-09
0.00862011890112815 -0.0300654940718507 0.0021796061212237244
0.014033821440535324 -0.0008672929527806398 -5.683774345987832e-09
0.02979192825443712 -0.030616436734986815 0.0016347068969062423
0.0075768213977935005 -0.00632563260681031 0.009128464308124468
-0.027350840487646216 -0.009643766493343335 -5.683774345987832e-09
-0.024831800714785402 0.014499769880435694 0.0010898002674427552
-0.007972994556211558 -0.02702392146228062 0.0010898002674427552
-0.028669347480725263 -0.005295491828079539 0.0002724439283843951
0.004317881592036281 -0.008215880863490751 6.474143767185626e-05
-0.03744259892166515 -0.03658056553868884 0.0033017875331684938
-0.023224606818386558 -0.003078353958018013 0.0007265328404018188
-0.03693456338896334 -0.03430000066013101 0.0021796061212237244
-0.02093113352988048 -0.040403778383028235 0.0021796061212237244
0.02925024050994116 -0.014183833824814538 0.006538829666262444
0.03501403632828591 0.01764879008158561 0.0010898002674427552
-0.02479148549119801 -0.01044047184409441 0.004920304832185045
-0.03691128991782995 -0.02080308082085478 0.0016347068969062423
-0.02659445635678093 -0.009643694582853387 0.0013595606423680803
-0.02951411899676725 -0.012461078321665972 0.0033017875331684938
-0.008638328170489285 -0.016734544483103846 -5.683774345987832e-09
0.02082642405886762 0.0003507707460126037 0.006538829666262444
-0.018034792658359493 0.00993680740957992 0.0005448935405431361
-0.03726477458075622 0.012233001859261705 0.004380802790071671
-0.005761573834724869 -0.01855705623311078 0.0051001438695967355
0.015697576287649506 -2.1612405930882504e-05 -5.683774345987832e-09
-0.039009611087113934 -0.020180995773716712 0.010854887056259572
-0.032591384642002966 0.005960955271306846 -5.683774345987832e-09
-0.016350328515999123 0.006780773243502225 0.0016347068969062423
-0.016871223995502883 0.008011025538123924 0.0016347068969062423
-0.007224258433597275 0.006312214053735151 6.474143767185626e-05
-0.032979026969114277 -0.00806558241693988 0.0005448935405431361
-0.028010013012937904 -0.0032120924908023572 0.0010898002674427552
-0.04006664191511773 -0.026723133092743354 0.013012918089725297
0.030001201407071024 -0.031216898558068182 0.006538829666262444
0.023045783210575443 -0.037653531455810796 0.0021796061212237244
-0.028143238102386656 -0.008329769728994246 0.000817350655284014
-0.0072570463751967865 -0.023021680803567864 0.0019071565090649834
-0.03852641066347872 -0.005663443978613827 0.00038920911503863075
-0.03841551009943197 -0.01791872725114585 0.0033017875331684938
-0.007959914341706665 0.0025501755419402652 0.0005448935405431361
-0.03034868274349183 -0.009861775959618938 0.0019071565090649834
-0.02035285185325125 -0.003832685033205477 0.010854887056259572
0.023347856592094943 -0.011695990537100725 0.0021796061212237244
-0.027112174882737664 -0.0023256280000579946 -5.683774345987832e-09
0.0406335669535107 0.03570233444057923 0.006538829666262444
-0.025359026538971895 -0.008516728078966479 6.474143767185626e-05
0.028980797245506135 -0.01385667990067495 0.006538829666262444
-0.03773270953188317 -0.0038563438846519913 0.009775872578845449
0.004235096530366413 -0.005871824075627995 0.006538829666262444
-0.025965049718490923 -0.004136216095749298 0.0022227722762653166
-0.0405721651485794 -0.023286648722159728 0.0033017875331684938
-0.018403642888983916 -0.005099762830401037 0.013012918089725297
-0.007042804791896287 -0.022038208531503792 0.0010898002674427552
-0.02334495450883771 0.011115993225358998 0.0018163387591402093
0.008391685052729428 -0.021648270674762805 0.0021796061212237244
-0.025206073470119043 -0.010978877977492118 0.008157350862724263
0.029449508428808665 -0.017272741559410332 0.006538829666262444
-0.032708319888414834 -0.034764915598721476 0.004380802790071671
-0.041400907924279785 -0.025177759443833103 0.0033017875331684938
-0.04306135923552836 -0.029754176127784197 0.0021796061212237244
0.006838410648671868 0.02126359647271911 0.008696857062112586
-0.01203956914324799 -0.023513611679062747 0.0021796061212237244
-0.036972275699973536 0.015346807137595574 0.006538829666262444
0.028380459681513055 -0.03670014055413012 -5.683774345987832e-09
-0.04019567229177722 -0.018437385277574138 0.0033017875331684938
-0.005780017698485927 -0.025475873140401516 0.0010898002674427552
-0.018234717963127724 -0.005617787002208071 0.0021796061212237244
0.011298493864756726 0.025238390038951373 6.474143767185626e-05
-0.03768242849626897 0.020388767692396316 6.474143767185626e-05
-0.02843282719523383 0.010503699930719437 0.013012918089725297
-0.014616450597993828 -0.030606185903840805 0.006538829666262444
-0.028233547041656877 -0.005495945840506269 0.004920304832185045
-0.0006752556031283619 -0.01620339232833269 0.013012918089725297
-0.031390958412452534 -0.00994027305374777 0.013012918089725297
-0.03293787395576415 -0.03479879913749305 0.010854887056259572
-0.016486095833832832 -0.0026780775165917486 0.0021796061212237244
0.004933806898165418 0.021528024580789323 0.006538829666262444
0.007634280079374097 -0.006334328623387762 0.0013595606423680803
-0.014186500735362277 -0.02462504443584948 0.013012918089725297
0.018195992414544657 -0.04037726069639131 0.006538829666262444
-0.02008548894430241 -0.004083005248230707 6.474143767185626e-05
-0.012081778281361094 -0.03330611535610169 0.013012918089725297
-0.030337954535908134 0.005259734284619125 6.474143767185626e-05
-0.005233718401225821 0.004961549937084495 0.013012918089725297
0.04221412202132202 0.033962482846570274 6.474143767185626e-05
-0.04030514761316852 -0.015277403606991312 0.0033017875331684938
-0.038353404634484035 -0.0054346835725159574 0.0010898002674427552
-0.01878327186065674 0.03736211037823519 0.006538829666262444
0.014510132063663935 -0.006167876094409823 0.0021796061212237244
-0.03741579310297154 -0.0018309521735648865 6.474143767185626e-05
0.03171145703231766 -0.03276528232251709 0.0016347068969062423
0.025003577244927955 -0.012822373307367713 0.0014530676295262702
-0.03770374398281893 0.019729738108569816 6.474143767185626e-05
0.008579583406179264 -0.029100210201436254 0.013012918089725297
-0.00915109194016813 -0.03755558070142962 0.006538829666262444
0.040093151214160495 0.03314388757145121 -5.683774345987832e-09
-0.030457936382115837 -0.009813105985855906 0.000817350655284014
-0.001070238635508428 -0.018450548852056815 0.001362249879601496
-0.0202664946914708 -0.03765247560202374 -5.683774345987832e-09
-0.014645821652651912 0.03342399034053644 -5.683774345987832e-09
-0.005612558990498985 -0.016327989021232 0.0022227722762653166
0.005999403197792818 -0.023201173650136988 -5.683774345987832e-09
-0.025463510361062695 -0.003535108038792133 0.010854887056259572
-0.005293540065966435 0.0038507584789380916 0.0021796061212237244
0.022453587615590513 -0.04116707605598595 0.0021796061212237244
-0.02739317270554011 -0.009915625122212756 0.0010898002674427552
-0.017152371138461818 -0.02538052738441393 0.013012918089725297
-0.024711601214216023 -0.009980727462688823 0.0033017875331684938
1.8312908663753768e-05 -0.031699835414340106 0.009775872578845449
0.009414295098987715 0.02645725746045048 -5.683774345987832e-09
0.009394985668496352 -0.025549330092866928 6.474143767185626e-05
0.00630007933389489 0.02071902797256203 0.010854887056259572
0.022083559011165575 -0.010452693249408724 0.006538829666262444
0.0032660970529067843 -0.017583900711508775 0.009775872578845449
0.03124664267071193 -0.02442508112277551 0.0005448935405431361
-0.023498777063420236 -0.00028256981600626086 0.0021796061212237244
-0.02427911207295655 0.03487084632439427 -5.683774345987832e-09
-0.036764749401155386 0.014803094283575579 0.013012918089725297
-0.03773270953188317 -0.0038563438846519913 0.005459814669188951
0.002594587742527356 -0.03610739413216423 0.0010898002674427552
-0.0006073911919707487 -0.03151653153366189 0.0021796061212237244
-0.040011325497451185 0.019311600381505187 0.0010898002674427552
0.04016319466161972 0.024106202316362988 0.006538829666262444
0.004111117853865964 -0.03252341155016268 0.0021796061212237244
0.0086448704131797 -0.022053389371213837 -5.683774345987832e-09
0.005619285356748955 -0.032108241949650444 0.0003632617107878798
-0.025705066138139217 -0.01138566634421809 0.006538829666262444
-0.03702147266235419 -0.021058970721453355 0.0010898002674427552
0.016473880895415943 0.029019562775350866 0.009775872578845449
0.01029155200203228 -0.005030754811342893 0.010854887056259572
0.001943412166651396 -0.00813828237768758 0.010854887056259572
-0.028598968943823657 0.012689404635745931 0.0033017875331684938
-0.025145249487997248 -0.0008006456270961449 0.0005448935405431361
-0.025391078743888965 0.03505239610768442 0.0033017875331684938
-0.01209443831374053 -0.0360487453133553 0.0010898002674427552
-0.01203956914324799 -0.023513611679062747 -5.683774345987832e-09
-0.027112174882737664 -0.0023256280000579946 0.0021796061212237244
-0.024312887657034512 0.011504331605287984 0.0014530676295262702
-0.03772037834336078 -0.0038535836468701 0.013012918089725297
0.019841920300078756 -0.0008922232970450439 -5.683774345987832e-09
-0.033469935587528477 -0.037164547152863055 -5.683774345987832e-09
-0.00989033267472469 -0.024511821325046007 0.0010898002674427552
-0.01778882114399714 -0.04054174686702939 0.006538829666262444
-0.02872118869462916 0.008632314342358121 0.0010898002674427552
0.028914797031409624 -0.017379547797942378 0.0016347068969062423
-0.04217602394674802 -0.03535606461874941 0.0021796061212237244
-0.006292944362134831 0.016084333960636566 0.0010898002674427552
-0.02616187021191586 -0.00202444511496992 0.008696857062112586
-0.010209872278271862 -0.027351562050279322 0.0021796061212237244
-0.0158284477237292 -0.023375525685233392 0.009775872578845449
-0.030061116962565235 -0.034154483579623376 0.004380802790071671
-0.01353671872079841 -0.025919692122171954 -5.683774345987832e-09
-0.02503932946293884 0.03744065328641662 -5.683774345987832e-09
-0.036803132287287904 -0.0021237104306900106 0.0033017875331684938
0.006283837142969168 -0.008661735197965542 0.0010898002674427552
-0.021162695228253703 -0.0005480326872175433 0.0014530676295262702
0.021579986083651057 -0.04094575534198187 0.009775872578845449
-0.040445494063773686 -0.015046180936212706 6.474143767185626e-05
0.00844498533381777 -0.02288123191981192 0.006538829666262444
-0.03436133239676874 -0.00593608982547769 0.0005448935405431361
-0.022541598438088305 -0.03881862226425224 0.009775872578845449
-0.04249460440473589 -0.02688907839573351 -5.683774345987832e-09
0.0010938329182419004 -0.008148663973136282 0.0003632617107878798
-0.032586409576817556 -0.034745040272170465 0.010854887056259572
-0.023799239487156957 0.011921660427355762 0.006538829666262444
-0.007978939454868026 -0.03687682104739623 0.0021796061212237244
-0.018318564404607475 0.0057165615649002995 0.008696857062112586
0.011057189223259527 -0.041899452277332064 0.013012918089725297
-0.03688986400179277 -0.034836838715858756 0.0022227722762653166
-0.04020899118824168 -0.027227900341146787 6.474143767185626e-05
0.03227218227458363 -0.03178282244746647 0.0016347068969062423
-0.025965049718490923 -0.004136216095749298 0.004380802790071671
-0.01911559931872497 -0.004893464326211521 0.008696857062112586
0.031503242192841396 0.03556284482935689 0.006538829666262444
0.025003577244927955 -0.012822373307367713 0.0010898002674427552
0.025702158328465462 0.03257620781278285 0.006538829666262444
-0.014448776322002147 -0.03787559852798836 0.0015257218554490582
-0.03978963468190399 0.022341558567934617 -5.683774345987832e-09
0.01042779811489284 -0.0056375757073520915 0.0016347068969062423
-0.03736543440149172 -0.02067399203957659 0.009775872578845449
-0.007119036171578219 -0.022596089289751257 0.0002724439283843951
-0.015097512271936958 -0.02638173097540911 -5.683774345987832e-09
-0.03829993648403877 -0.0053674296385060796 0.0014790187688287343
-0.02810890268708722 -0.006504474504767764 0.013012918089725297
-0.03887930157500638 0.025549385561461087 0.0005448935405431361
-0.036776559101901696 -0.020460320922762208 0.0021796061212237244
-0.024194689689133752 -0.00961119124946773 0.0014530676295262702
-0.0009916478022508636 -0.018462323834708003 0.0021796061212237244
-0.01387771499418314 -0.025663246302906142 -5.683774345987832e-09
-0.007155360491618544 -0.02274704023155606 0.0002724439283843951
-0.01865250317001302 0.03734116854866578 0.013012918089725297
-0.0229706423052279 -0.0007676395139419055 0.006538829666262444
0.00904450301390105 -0.02277670126244111 0.0016347068969062423
-0.025064902686986235 -0.003198764193216948 0.006538829666262444
-0.01786645316089405 0.0022804669555606576 0.008696857062112586
-0.020378794036565694 0.038074012136748256 0.0018163387591402093
0.0057195783363948195 -0.021929540987858286 0.009775872578845449
-0.014093781546478975 -0.03378488509930412 0.010854887056259572
-0.017900960087090693 0.008635855892665554 6.474143767185626e-05
-0.023799925072937357 -0.038617766516128194 -5.683774345987832e-09
-0.027889449370963944 -0.010216222215499412 0.001362249879601496
-0.043107979595100765 -0.03328168967115221 0.0005448935405431361
0.028157844430196 -0.01290297677889313 0.0033017875331684938
-0.011671631325151813 -0.03636561399163744 0.0010898002674427552
-0.028604195058125094 -0.0047395159304068546 0.0005448935405431361
-0.01882533383979843 -0.0026083228799185245 0.010854887056259572
-0.031076501915971708 -0.012650745957736196 0.0016347068969062423
-0.026934082704866975 -0.03320756063498382 6.474143767185626e-05
0.0025459920318403723 -0.029722967680077025 0.0010898002674427552
0.00016168122000550288 -0.016361516398343393 0.006538829666262444
-0.013808766515489857 -0.02570922660267424 0.0004359159367106676
-0.0403623922807104 -0.03219669245261561 0.0021796061212237244
-0.015449944085770205 -0.025509066687349757 0.0022227722762653166
-0.0004946124301924157 -0.018566870332636164 0.0010898002674427552
-0.0019005659980142918 -0.017826217307011748 0.008696857062112586
0.007447252230404092 -0.04035568712083828 0.013012918089725297
-0.0418305300695551 -0.02646630826587406 0.0033017875331684938
0.005366924011573054 -0.004788901849241612 -5.683774345987832e-09
-0.0008875274913106146 -0.017934635201105904 0.006538829666262444
-0.019955673281868445 0.008461264862056084 0.010854887056259572
0.028023444330695972 -0.016080012146972803 0.0021796061212237244
-0.04140794860940564 -0.004985914212777975 0.0021796061212237244
0.020515067380662153 -0.0396253387238693 0.0033017875331684938
-0.0010847801408029553 -0.01614828408923547 0.013012918089725297
-0.007644737385592076 0.0023139966503570425 0.0005448935405431361
0.003808632490645224 -0.03343297998826976 -5.683774345987832e-09
-0.02812453913311815 -0.0048168893057509285 0.006538829666262444
-0.024221382821183936 -0.003291079304624098 0.0018163387591402093
0.042780532678955055 0.03413973163811287 -5.683774345987832e-09
-0.04038663757030344 -0.008809703668102482 0.0003113706373380911
-0.03621902544054473 -0.001981521090955527 0.0021796061212237244
-0.014420828769714514 -0.040737096615128435 0.0010898002674427552
-0.03669117528050185 0.02918963216863529 0.0005448935405431361
0.04294498475129141 0.032836037818348 0.0021796061212237244
-0.04028018308343135 -0.032958833431304624 0.0010898002674427552
-0.025963041121587163 -0.03263091163474385 0.0010898002674427552
-0.039835527818847756 -0.018869615570593974 0.004380802790071671
-0.04092416371892132 -0.01410783624187829 6.474143767185626e-05
-0.028139861478647898 0.010918131434908468 0.006538829666262444
-0.02175560645770815 -0.0028008002305165373 0.004380802790071671
0.008439542463769751 -0.006355829139614409 0.009128464308124468
0.04024649544035946 0.030167633134677407 0.013012918089725297
-0.004616674923754726 -0.019417449890950293 0.0004359159367106676
-0.0015005190172677773 -0.016106386891229646 6.474143767185626e-05
0.029015087268243155 -0.016609239514605544 0.009775872578845449
-0.023513550025085 -0.003102565893982105 0.0010898002674427552
0.005266654406867388 -0.02140103862824328 0.009775872578845449
-0.03667345701966356 0.01606525006861427 0.0016347068969062423
0.006101536864393994 -0.036271337382014934 0.0010898002674427552
-0.004168148672281553 -0.02162325816282462 0.0003632617107878798
0.026259861783034997 0.003560881348181081 -5.683774345987832e-09
-0.004980003831168025 0.026496526589793457 -5.683774345987832e-09
-0.005878156058880743 -0.018350807696226254 0.013012918089725297
-0.032586409576817556 -0.034745040272170465 0.006538829666262444
-0.007273573229662956 -0.019369246857962322 6.474143767185626e-05
-0.017194993386426518 -0.004424705276057513 -5.683774345987832e-09
-0.01841417486799176 0.0032312371207560593 0.0010898002674427552
-0.012802147779846125 -0.03557319255747064 0.0010898002674427552
-0.030033412437902914 0.004469754321357739 0.0016347068969062423
-0.019737440905538674 -0.0020283121864370754 0.0013595606423680803
-0.02942392345283664 -0.035743346706599594 0.013012918089725297
-0.004905056584391486 -0.01853937073063202 0.0008718375896743918
-0.030300750462690172 -0.010448949265716895 0.013012918089725297
-0.03794606054601638 0.012275563929840375 0.0003632617107878798
-0.04008126296067498 -0.028887349693279447 -5.683774345987832e-09
0.02522221504368273 -0.038636759335198466 0.0033017875331684938
0.0078520454492891 -0.006348406939507057 0.009128464308124468
0.040044699227643504 0.033446660821682205 0.0010898002674427552
-0.005898799876491325 -0.018100587347635023 0.008696857062112586
-0.008549898259653866 -0.018425603485283003 0.0007265328404018188
0.04011752880941247 0.0341326889829228 0.009128464308124468
0.025519599287381598 -0.03577001339610309 -5.683774345987832e-09
0.016435102373571864 -0.008682913178012138 0.006538829666262444
-0.0383305841985057 0.01396975815608835 0.006538829666262444
0.020853101255151513 -0.04127528515134054 0.006538829666262444
0.04016574849691337 0.03411501149817653 0.003949191386784839
-0.029670353043802663 -0.010665155746765806 0.0022227722762653166
-0.03767692730201737 -0.0038884474139393448 0.006538829666262444
0.01528454126549437 -0.0032505067441849743 0.0021796061212237244
-0.03687005060130519 0.016757332069307285 0.0005448935405431361
0.04025030155174274 0.03018447897978574 0.006538829666262444
-0.01511186365993541 -0.02647800742279979 0.0006538786144790309
-0.026766027939864795 0.03635141892090125 0.0033017875331684938
0.0008514948597241443 -0.03309216201752959 0.0033017875331684938
-0.030213956763903357 0.034410088173985276 0.0033017875331684938
-0.01915706781606932 -0.03812743244748068 0.0005448935405431361
-0.02758672414505477 -0.01069314074354166 0.008696857062112586
0.014800236334646718 -0.04305629767129988 0.0021796061212237244
0.023532683715490506 0.004078159058449741 0.006538829666262444
-0.038466813895489504 -0.005582972241591835 0.0010119580222117917
-0.02210471391535251 -0.03987883813241419 0.0018163387591402093
-0.031566137947371446 -0.009233363374150212 0.0010898002674427552
-0.02885647973112057 0.007834780541061837 0.0018163387591402093
-0.004877672040764983 -0.02300855034546672 0.010854887056259572
0.028792073671243333 -0.03222287550006476 -5.683774345987832e-09
-0.025189709710513108 -0.007761185289083202 -5.683774345987832e-09
-0.015014036822801908 -0.026017776058228977 0.001961647210985785
-0.01830204212897583 -0.0410702950636146 -5.683774345987832e-09
0.03774366194751349 0.0340117257370466 0.0021796061212237244
0.007232233887829392 -0.028061718928351433 0.010854887056259572
-0.03641213983582198 0.025423890189485203 0.006538829666262444
-0.027750692935736367 -0.012409382851878502 0.006538829666262444
0.02421542599871135 0.03217379696104915 0.009775872578845449
-0.022897387920791615 -0.0025248903378780473 6.474143767185626e-05
-0.0383305841985057 0.01396975815608835 0.010854887056259572
0.008180003630836643 -0.03875904851402222 0.013012918089725297
0.01224610041250817 -0.04042272562872533 0.0033017875331684938
0.038665395934784394 0.03398115844941037 0.0021796061212237244
-0.0054481642747640216 -0.01796761292007313 0.010854887056259572
-0.019533352384254306 0.01165847814854066 0.0021796061212237244
-0.019920156869224468 -0.004234832016528902 0.0022227722762653166
-0.025159776349502325 0.01394699952529234 0.013012918089725297
-0.027513091870287186 -0.0035214796051483313 6.474143767185626e-05
0.020890090749505798 -0.010517730324950464 0.0021796061212237244
