ply
format ascii 1.0
element vertex 775
property float x
property float y
property float z
end_header
0.07430532574653625 -0.03807366266846657 -0.17949999868869781
0.0751602053642273 -0.038031239062547684 -0.179299995303154
0.07609787583351135 -0.038031239062547684 -0.179299995303154
0.07703554630279541 -0.038031239062547684 -0.179299995303154
0.03715266287326813 -0.041555244475603104 -0.19119998812675476
0.038072749972343445 -0.041468311101198196 -0.1907999962568283
0.039050083607435226 -0.04144657775759697 -0.1906999945640564
0.03994237259030342 -0.04133790731430054 -0.19020000100135803
0.040829431265592575 -0.041229236871004105 -0.18969999253749847
0.041755352169275284 -0.041164036840200424 -0.18940000236034393
0.04265556484460831 -0.04107709974050522 -0.1889999955892563
0.05515974014997482 -0.038751568645238876 -0.17829999327659607
0.05590342730283737 -0.038621168583631516 -0.1776999980211258
0.05667281523346901 -0.03851249814033508 -0.17719998955726624
0.05753449723124504 -0.03846903145313263 -0.1770000010728836
0.05852619558572769 -0.03851249814033508 -0.17719998955726624
0.059687744826078415 -0.03866463527083397 -0.17790000140666962
0.07509184628725052 -0.0394253246486187 -0.18140000104904175
0.07604049891233444 -0.0394253246486187 -0.18140000104904175
0.07698915153741837 -0.0394253246486187 -0.18140000104904175
0.07785187661647797 -0.039381854236125946 -0.18119999766349792
0.07862553000450134 -0.03929491713643074 -0.18079999089241028
0.036152757704257965 -0.042555149644613266 -0.19119998812675476
0.03707493841648102 -0.04246612265706062 -0.1907999962568283
0.03797297552227974 -0.04235483705997467 -0.19029998779296875
0.03886578977108002 -0.04224355146288872 -0.18979999423027039
0.039732370525598526 -0.04211001470685005 -0.1891999989748001
0.0575995072722435 -0.039439186453819275 -0.17719998955726624
0.05852619558572769 -0.039439186453819275 -0.17719998955726624
0.05951998755335808 -0.039483699947595596 -0.17739999294281006
0.07583696395158768 -0.04077460244297981 -0.18320000171661377
0.07679503411054611 -0.04077460244297981 -0.18320000171661377
0.07775309681892395 -0.04077460244297981 -0.18320000171661377
0.07866819947957993 -0.0407523438334465 -0.18310000002384186
0.07940830290317535 -0.04064105823636055 -0.1825999915599823
0.07970307767391205 -0.04030720517039299 -0.181099995970726
0.03607712686061859 -0.04346393421292305 -0.1907999962568283
0.03697777912020683 -0.04335003346204758 -0.19029998779296875
0.03785325214266777 -0.04321335628628731 -0.18969999253749847
0.038701970130205154 -0.043053895235061646 -0.1889999955892563
0.07633370906114578 -0.04200602322816849 -0.18439999222755432
0.07729805260896683 -0.04200602322816849 -0.18439999222755432
0.0782199501991272 -0.04198324307799339 -0.1842999905347824
0.07896894961595535 -0.04186934605240822 -0.18379999697208405
0.07975620031356812 -0.04177822545170784 -0.1833999902009964
0.08014318346977234 -0.04148208722472191 -0.18209999799728394
0.0802493616938591 -0.04104927182197571 -0.18019999563694
0.08060599863529205 -0.04075312986969948 -0.17889998853206635
0.08135926723480225 -0.0406620129942894 -0.1784999966621399
0.035982582718133926 -0.04434522986412048 -0.19029998779296875
0.03686119243502617 -0.04420541599392891 -0.18969999253749847
0.03775348141789436 -0.044088903814554214 -0.1891999989748001
0.0780525878071785 -0.04338981583714485 -0.18619999289512634
0.07881414145231247 -0.04327330365777016 -0.18569999933242798
0.0795704573392868 -0.043156787753105164 -0.18519999086856842
0.07993015646934509 -0.04283054918050766 -0.18379999697208405
0.08045125752687454 -0.04259752109646797 -0.18279999494552612
0.08051656186580658 -0.042131464928388596 -0.18079999089241028
0.08065105974674225 -0.041712015867233276 -0.17899999022483826
0.08140484243631363 -0.04161880537867546 -0.1785999983549118
0.0822005495429039 -0.041548896580934525 -0.17829999327659607
0.03506092727184296 -0.04543573036789894 -0.1906999945640564
0.03588804230093956 -0.045221298933029175 -0.18979999423027039
0.03676403686404228 -0.045078344643116 -0.1891999989748001
0.07940831780433655 -0.044578004628419876 -0.18709999322891235
0.0799141675233841 -0.044315919280052185 -0.18599998950958252
0.08019108325242996 -0.04393470659852028 -0.18439999222755432
0.08075933158397675 -0.04372027516365051 -0.1834999918937683
0.08078376203775406 -0.04321993887424469 -0.18140000104904175
0.08087634295225143 -0.042767249047756195 -0.17949999868869781
0.08140484243631363 -0.04255281388759613 -0.1785999983549118
0.0822005495429039 -0.04248133674263954 -0.17829999327659607
0.08299311250448227 -0.04240985959768295 -0.17799998819828033
0.03317038342356682 -0.046579111367464066 -0.19129998981952667
0.03408150374889374 -0.04645736888051033 -0.1907999962568283
0.034895461052656174 -0.04621388390660286 -0.18979999423027039
0.0357745923101902 -0.04606778919696808 -0.1891999989748001
0.0808473527431488 -0.044728610664606094 -0.18369999527931213
0.08122909069061279 -0.044412076473236084 -0.18239998817443848
0.08105656504631042 -0.04380335658788681 -0.17989999055862427
0.08154158294200897 -0.04355986788868904 -0.17889998853206635
0.0822005495429039 -0.04341377690434456 -0.17829999327659607
0.08299311250448227 -0.04334073141217232 -0.17799998819828033
0.08977266401052475 -0.043925102800130844 -0.18039999902248383
0.03397432714700699 -0.04730595275759697 -0.19020000100135803
0.03478514775633812 -0.04705723375082016 -0.1891999989748001
0.08145176619291306 -0.0454903170466423 -0.18289999663829803
0.081417016685009 -0.04494313895702362 -0.18069998919963837
0.08154158294200897 -0.04449544847011566 -0.17889998853206635
0.0822005495429039 -0.044346220791339874 -0.17829999327659607
0.08294649422168732 -0.04424673691391945 -0.17790000140666962
0.083735391497612 -0.04417211934924126 -0.17759999632835388
0.08947408199310303 -0.04471929371356964 -0.17979998886585236
0.09142009913921356 -0.04521672800183296 -0.1817999929189682
0.09308216720819473 -0.045564934611320496 -0.18320000171661377
0.094296894967556 -0.04568929225206375 -0.18369999527931213
0.03299698978662491 -0.04832601919770241 -0.19029998779296875
0.03383142873644829 -0.04809746891260147 -0.18940000236034393
0.034656450152397156 -0.047868918627500534 -0.18850000202655792
0.056660380214452744 -0.0473102331161499 -0.18629999458789825
0.05744904279708862 -0.04715786874294281 -0.18569999933242798
0.05810558795928955 -0.04690391942858696 -0.18469999730587006
0.05897555127739906 -0.046827733516693115 -0.18439999222755432
0.05980987474322319 -0.04672615975141525 -0.18400000035762787
0.08154083043336868 -0.04649760574102402 -0.18310000002384186
0.08159724622964859 -0.045989710837602615 -0.181099995970726
0.08154158294200897 -0.04543102905154228 -0.17889998853206635
0.0822005495429039 -0.04527866095304489 -0.17829999327659607
0.08285323530435562 -0.0451262965798378 -0.1776999980211258
0.08364109694957733 -0.045050110667943954 -0.17739999294281006
0.08456882834434509 -0.045050110667943954 -0.17739999294281006
0.08564115315675735 -0.0451262965798378 -0.1776999980211258
0.08671659976243973 -0.04520247504115105 -0.17799998819828033
0.08789367973804474 -0.04532945156097412 -0.1784999966621399
0.08902621269226074 -0.04543102905154228 -0.17889998853206635
0.0904143750667572 -0.04565957933664322 -0.17979998886585236
0.09206598252058029 -0.04601510614156723 -0.18119999766349792
0.09362957626581192 -0.04631984233856201 -0.18239998817443848
0.094998300075531 -0.04652300104498863 -0.18320000171661377
0.09627064317464828 -0.04667536914348602 -0.18379999697208405
0.03285827487707138 -0.04911387339234352 -0.18949998915195465
0.033706389367580414 -0.048906534910202026 -0.18869999051094055
0.034509364515542984 -0.048647359013557434 -0.18769998848438263
0.05622413381934166 -0.04875103011727333 -0.18809999525547028
0.057207826524972916 -0.04875103011727333 -0.18809999525547028
0.058036837726831436 -0.048621442168951035 -0.1876000016927719
0.05886061489582062 -0.04849185422062874 -0.18709999322891235
0.05967916548252106 -0.04836226627230644 -0.186599999666214
0.060524988919496536 -0.048258595168590546 -0.18619999289512634
0.06133360415697098 -0.04812900722026825 -0.18569999933242798
0.06213698536157608 -0.04799941927194595 -0.18519999086856842
0.06307143718004227 -0.047973498702049255 -0.1850999891757965
0.0815853700041771 -0.04748106747865677 -0.18320000171661377
0.08164229989051819 -0.046962715685367584 -0.18119999766349792
0.08158715814352036 -0.0463925264775753 -0.17899999022483826
0.0822005495429039 -0.04621110484004021 -0.17829999327659607
0.08294649422168732 -0.04610743373632431 -0.17790000140666962
0.08378254622220993 -0.04605560004711151 -0.1776999980211258
0.08466417342424393 -0.04602967947721481 -0.17759999632835388
0.08573754131793976 -0.04610743373632431 -0.17790000140666962
0.0868140384554863 -0.04618518427014351 -0.17819999158382416
0.08789367973804474 -0.046262938529253006 -0.1784999966621399
0.08887693285942078 -0.046288859099149704 -0.1785999983549118
0.08996179699897766 -0.046366605907678604 -0.17889998853206635
0.09104980528354645 -0.0464443601667881 -0.17919999361038208
0.09234628081321716 -0.046625785529613495 -0.17989999055862427
0.09422047436237335 -0.04709229990839958 -0.1816999912261963
0.09590399265289307 -0.04745515063405037 -0.18310000002384186
0.09723183512687683 -0.047636572271585464 -0.18379999697208405
0.032754238694906235 -0.049946244806051254 -0.18889999389648438
0.03359921649098396 -0.04973472282290459 -0.18809999525547028
0.03419681265950203 -0.04917946830391884 -0.18599998950958252
0.056313805282115936 -0.049814045429229736 -0.188400000333786
0.057299066334962845 -0.049814045429229736 -0.188400000333786
0.0582224540412426 -0.04976116120815277 -0.1881999969482422
0.05917520821094513 -0.04973472282290459 -0.18809999525547028
0.060030966997146606 -0.049628958106040955 -0.18769998848438263
0.060915056616067886 -0.049549639225006104 -0.1873999983072281
0.06186205893754959 -0.04952319711446762 -0.18729999661445618
0.06277446448802948 -0.049470316618680954 -0.18709999322891235
0.06358255445957184 -0.04933811351656914 -0.186599999666214
0.06455840170383453 -0.04933811351656914 -0.186599999666214
0.06570985168218613 -0.049470316618680954 -0.18709999322891235
0.08191263675689697 -0.04806896299123764 -0.1817999929189682
0.08181506395339966 -0.047460831701755524 -0.17949999868869781
0.08238495886325836 -0.047249309718608856 -0.17870000004768372
0.08313298970460892 -0.047143545001745224 -0.17829999327659607
0.08392398059368134 -0.047064222395420074 -0.17799998819828033
0.084854856133461 -0.047064222395420074 -0.17799998819828033
0.08593031018972397 -0.047143545001745224 -0.17829999327659607
0.08696018904447556 -0.04719642549753189 -0.1784999966621399
0.08794292062520981 -0.047222867608070374 -0.1785999983549118
0.08887693285942078 -0.047222867608070374 -0.1785999983549118
0.08981094509363174 -0.047222867608070374 -0.1785999983549118
0.09074494987726212 -0.047222867608070374 -0.1785999983549118
0.09173029661178589 -0.047249309718608856 -0.17870000004768372
0.09313151985406876 -0.047487273812294006 -0.17960000038146973
0.0952230766415596 -0.04806896299123764 -0.1817999929189682
0.09691443294286728 -0.048439133912324905 -0.18320000171661377
0.03266754001379013 -0.050799306482076645 -0.188400000333786
0.03342059254646301 -0.05044877901673317 -0.18709999322891235
0.033847495913505554 -0.04963987320661545 -0.18410000205039978
0.05245615541934967 -0.05088019371032715 -0.18869999051094055
0.05344298481941223 -0.05088019371032715 -0.18869999051094055
0.054487504065036774 -0.05093412101268768 -0.18889999389648438
0.0554753802716732 -0.05093412101268768 -0.18889999389648438
0.056403473019599915 -0.05088019371032715 -0.18869999051094055
0.057390306144952774 -0.05088019371032715 -0.18869999051094055
0.05828432738780975 -0.050799306482076645 -0.188400000333786
0.05920666828751564 -0.05074537917971611 -0.1881999969482422
0.060158900916576385 -0.050718411803245544 -0.18809999525547028
0.061077579855918884 -0.05066448450088501 -0.18789999186992645
0.06196114420890808 -0.050583597272634506 -0.1876000016927719
0.06287511438131332 -0.05052966997027397 -0.1873999983072281
0.06385514885187149 -0.05052966997027397 -0.1873999983072281
0.06483518332242966 -0.05052966997027397 -0.1873999983072281
0.06588545441627502 -0.050583597272634506 -0.1876000016927719
0.06697345525026321 -0.05066448450088501 -0.18789999186992645
0.08254433423280716 -0.048830967396497726 -0.181099995970726
0.08266156911849976 -0.048345621675252914 -0.179299995303154
0.08341273665428162 -0.048237767070531845 -0.17889998853206635
0.08425402641296387 -0.04818384349346161 -0.17870000004768372
0.08518856018781662 -0.04818384349346161 -0.17870000004768372
0.08621947467327118 -0.048237767070531845 -0.17889998853206635
0.08720377087593079 -0.04826473072171211 -0.17899999022483826
0.08813987672328949 -0.04826473072171211 -0.17899999022483826
0.08902621269226074 -0.048237767070531845 -0.17889998853206635
0.0897606611251831 -0.048129912465810776 -0.1784999966621399
0.09059251844882965 -0.04807598516345024 -0.17829999327659607
0.09152496606111526 -0.04807598516345024 -0.17829999327659607
0.09266483038663864 -0.04818384349346161 -0.17870000004768372
0.09438503533601761 -0.04858829453587532 -0.18019999563694
0.09649122506380081 -0.0491814911365509 -0.18239998817443848
0.0979793518781662 -0.04945112764835358 -0.1833999902009964
0.032580841332674026 -0.0516471303999424 -0.18789999186992645
0.03322410583496094 -0.05112488567829132 -0.18599998950958252
0.03371879458427429 -0.05041023716330528 -0.1833999902009964
0.052511755377054214 -0.05192199721932411 -0.18889999389648438
0.05349963158369064 -0.05192199721932411 -0.18889999389648438
0.054516348987817764 -0.051949482411146164 -0.1889999955892563
0.0554753802716732 -0.05192199721932411 -0.18889999389648438
0.05646325647830963 -0.05192199721932411 -0.18889999389648438
0.057390306144952774 -0.05186702311038971 -0.18869999051094055
0.05828432738780975 -0.05178456753492355 -0.188400000333786
0.05920666828751564 -0.05172959342598915 -0.1881999969482422
0.060030966997146606 -0.051592156291007996 -0.18769998848438263
0.06088254973292351 -0.05148221552371979 -0.18729999661445618
0.061696913093328476 -0.05134477838873863 -0.18679998815059662
0.06267380714416504 -0.05134477838873863 -0.18679998815059662
0.06358255445957184 -0.05128980800509453 -0.186599999666214
0.06462759524583817 -0.05134477838873863 -0.18679998815059662
0.06578008830547333 -0.05148221552371979 -0.18729999661445618
0.06686653196811676 -0.05156467482447624 -0.1876000016927719
0.0679561048746109 -0.0516471303999424 -0.18789999186992645
0.0690121278166771 -0.0517021045088768 -0.18809999525547028
0.08331917971372604 -0.05024532228708267 -0.18279999494552612
0.0835375189781189 -0.04980553686618805 -0.18119999766349792
0.08477265387773514 -0.04942072555422783 -0.17979998886585236
0.08571293950080872 -0.04942072555422783 -0.17979998886585236
0.0867014229297638 -0.04944821074604988 -0.17989999055862427
0.08764223009347916 -0.04944821074604988 -0.17989999055862427
0.08858303725719452 -0.04944821074604988 -0.17989999055862427
0.0890759751200676 -0.04920083284378052 -0.17899999022483826
0.0897606611251831 -0.04906340315937996 -0.1784999966621399
0.09054171293973923 -0.048980940133333206 -0.17819999158382416
0.09131964296102524 -0.04889848455786705 -0.17790000140666962
0.09245740622282028 -0.04900842905044556 -0.17829999327659607
0.09375649690628052 -0.04920083284378052 -0.17899999022483826
0.09559191018342972 -0.04966810345649719 -0.18069998919963837
0.09728484600782394 -0.05005291476845741 -0.18209999799728394
0.03247680515050888 -0.05246172100305557 -0.18729999661445618
0.03293830528855324 -0.05164944753050804 -0.18439999222755432
0.03366364166140556 -0.05128532648086548 -0.18310000002384186
0.05253955349326134 -0.052937883883714676 -0.1889999955892563
0.05358459800481796 -0.05299390107393265 -0.1891999989748001
0.054631732404232025 -0.05304992198944092 -0.18940000236034393
0.055622220039367676 -0.05304992198944092 -0.18940000236034393
0.05649314820766449 -0.052937883883714676 -0.1889999955892563
0.057390306144952774 -0.05285385251045227 -0.18869999051094055
0.0582224540412426 -0.05271380767226219 -0.1881999969482422
0.06213698536157608 -0.05187352001667023 -0.18519999086856842
0.06320773810148239 -0.05195755138993263 -0.18549999594688416
0.06539376825094223 -0.05215361714363098 -0.18619999289512634
0.06651009619235992 -0.052265655249357224 -0.186599999666214
0.06755827367305756 -0.052321672439575195 -0.18679998815059662
0.06864523887634277 -0.0524057038128376 -0.18709999322891235
0.08372939378023148 -0.05145338177680969 -0.18369999527931213
0.0844595655798912 -0.051313336938619614 -0.18320000171661377
0.08513788133859634 -0.0511452741920948 -0.1825999915599823
0.08585707098245621 -0.051005229353904724 -0.18209999799728394
0.08661869168281555 -0.05089319124817848 -0.1816999912261963
0.08732794970273972 -0.0507531464099884 -0.18119999766349792
0.08822683990001678 -0.05072513595223427 -0.181099995970726
0.08873075991868973 -0.05047304928302765 -0.18019999563694
0.0890759751200676 -0.05013693496584892 -0.17899999022483826
0.0897606611251831 -0.049996890127658844 -0.1784999966621399
0.09044009447097778 -0.04985683783888817 -0.17799998819828033
0.09116564691066742 -0.049744803458452225 -0.17759999632835388
0.09214627742767334 -0.04977281391620636 -0.1776999980211258
0.09349460899829865 -0.049996890127658844 -0.1784999966621399
0.09479839354753494 -0.05019295588135719 -0.17919999361038208
0.09610951691865921 -0.05038902163505554 -0.17989999055862427
0.032199375331401825 -0.05298471078276634 -0.18569999933242798
0.03283113241195679 -0.05244259536266327 -0.18379999697208405
0.03360848128795624 -0.05215727165341377 -0.18279999494552612
0.05259515345096588 -0.05398334562778473 -0.1891999989748001
0.053669556975364685 -0.05406894162297249 -0.18949998915195465
0.0547182634472847 -0.05412600561976433 -0.18969999253749847
0.055622220039367676 -0.05404041334986687 -0.18940000236034393
0.05646325647830963 -0.05389774963259697 -0.18889999389648438
0.061633720993995667 -0.05241406336426735 -0.18369999527931213
0.06259439885616302 -0.05241406336426735 -0.18369999527931213
0.06355508416891098 -0.05241406336426735 -0.18369999527931213
0.06462112814188004 -0.05249966308474541 -0.18400000035762787
0.0656903013586998 -0.05258525535464287 -0.1842999905347824
0.06679879128932953 -0.052699387073516846 -0.18469999730587006
0.06791145354509354 -0.052813515067100525 -0.1850999891757965
0.08482838422060013 -0.05249966308474541 -0.18400000035762787
0.08555750548839569 -0.05235699564218521 -0.1834999918937683
0.08637569844722748 -0.05227140337228775 -0.18320000171661377
0.08719075471162796 -0.05218580365180969 -0.18289999663829803
0.08761711418628693 -0.05187194421887398 -0.1817999929189682
0.08822683990001678 -0.05167222023010254 -0.181099995970726
0.08853379637002945 -0.051301296800374985 -0.17979998886585236
0.08902621269226074 -0.05104450508952141 -0.17889998853206635
0.08966008573770523 -0.05087330937385559 -0.17829999327659607
0.09013523906469345 -0.050616517663002014 -0.17739999294281006
0.0909603163599968 -0.050559453666210175 -0.17719998955726624
0.09199070930480957 -0.050616517663002014 -0.17739999294281006
0.09333747625350952 -0.05084477737545967 -0.17819999158382416
0.09442809224128723 -0.05093037709593773 -0.1784999966621399
0.0954684317111969 -0.05098744109272957 -0.17870000004768372
0.03197396174073219 -0.05357813090085983 -0.18439999222755432
0.03275968134403229 -0.053287576884031296 -0.1833999902009964
0.03357171267271042 -0.053055133670568466 -0.1825999915599823
0.051742084324359894 -0.05511806532740593 -0.18969999253749847
0.052734144032001495 -0.05511806532740593 -0.18969999253749847
0.053754523396492004 -0.05514712259173393 -0.18979999423027039
0.05466057360172272 -0.05505995452404022 -0.18949998915195465
0.055504750460386276 -0.0549146793782711 -0.1889999955892563
0.06119754910469055 -0.05299702286720276 -0.18239998817443848
0.06211736425757408 -0.052967969328165054 -0.18230000138282776
0.06307072192430496 -0.052967969328165054 -0.18230000138282776
0.06412944197654724 -0.053055133670568466 -0.1825999915599823
0.06526258587837219 -0.053200412541627884 -0.18310000002384186
0.06625629961490631 -0.05322946980595589 -0.18320000171661377
0.06728774309158325 -0.053287576884031296 -0.1833999902009964
0.08646999299526215 -0.053287576884031296 -0.1833999902009964
0.0872860923409462 -0.053200412541627884 -0.18310000002384186
0.08761711418628693 -0.05282269045710564 -0.1817999929189682
0.08887693285942078 -0.05189292132854462 -0.1785999983549118
0.08945894241333008 -0.05168953165411949 -0.17790000140666962
0.08993200957775116 -0.05142803490161896 -0.1770000010728836
0.09070365875959396 -0.05134086683392525 -0.17669999599456787
0.09178329259157181 -0.05142803490161896 -0.1770000010728836
0.09291844815015793 -0.051544252783060074 -0.17739999294281006
0.09411069005727768 -0.05168953165411949 -0.17790000140666962
0.0950944572687149 -0.051718585193157196 -0.17799998819828033
0.03186992555856705 -0.05436500534415245 -0.18379999697208405
0.032723959535360336 -0.05418753623962402 -0.18320000171661377
0.033626869320869446 -0.05409879982471466 -0.18289999663829803
0.05290093645453453 -0.05628759413957596 -0.19029998779296875
0.05386781319975853 -0.05625801905989647 -0.19020000100135803
0.054631732404232025 -0.05602139234542847 -0.18940000236034393
0.06146995350718498 -0.053359340876340866 -0.18039999902248383
0.062344178557395935 -0.05330018326640129 -0.18019999563694
0.06335680186748505 -0.053359340876340866 -0.18039999902248383
0.06454972177743912 -0.05356638878583908 -0.181099995970726
0.0657138004899025 -0.05374385789036751 -0.1816999912261963
0.06692084670066833 -0.05395090579986572 -0.18239998817443848
0.08910693973302841 -0.05241283029317856 -0.17719998955726624
0.08972876518964767 -0.05223536118865013 -0.17659999430179596
0.09060098975896835 -0.052205782383680344 -0.17649999260902405
0.09157586842775345 -0.05223536118865013 -0.17659999430179596
0.0925518050789833 -0.05226493999361992 -0.17669999599456787
0.09374037384986877 -0.05241283029317856 -0.17719998955726624
0.09466706961393356 -0.05241283029317856 -0.17719998955726624
0.031817905604839325 -0.05523590371012688 -0.1834999918937683
0.03270609676837921 -0.05511550232768059 -0.18310000002384186
0.03366364166140556 -0.05511550232768059 -0.18310000002384186
0.03469681739807129 -0.05523590371012688 -0.1834999918937683
0.05290093645453453 -0.057282790541648865 -0.19029998779296875
0.0537262037396431 -0.05710218474268913 -0.18969999253749847
0.05442981421947479 -0.056801170110702515 -0.18869999051094055
0.06192900985479355 -0.05388134345412254 -0.17899999022483826
0.06293535232543945 -0.053941547870635986 -0.17919999361038208
0.06408636271953583 -0.05412215366959572 -0.17979998886585236
0.06535214185714722 -0.054393067955970764 -0.18069998919963837
0.06655396521091461 -0.05460377782583237 -0.18140000104904175
0.06776309758424759 -0.05481448769569397 -0.18209999799728394
0.08885551244020462 -0.05318901687860489 -0.17669999599456787
0.08952553570270538 -0.05303851142525673 -0.1762000024318695
0.09034433215856552 -0.052978307008743286 -0.17599999904632568
0.09136845171451569 -0.05303851142525673 -0.1762000024318695
0.09244704991579056 -0.053128812462091446 -0.17649999260902405
0.09337007254362106 -0.053128812462091446 -0.17649999260902405
0.09429310262203217 -0.053128812462091446 -0.17649999260902405
0.03270609676837921 -0.05607304349541664 -0.18310000002384186
0.03366364166140556 -0.05607304349541664 -0.18310000002384186
0.034734632819890976 -0.05625678971409798 -0.18369999527931213
0.05290093645453453 -0.05827798694372177 -0.19029998779296875
0.053641241043806076 -0.058002375066280365 -0.18940000236034393
0.05428559333086014 -0.057634882628917694 -0.1881999969482422
0.06189441308379173 -0.05478681996464729 -0.17889998853206635
0.06282999366521835 -0.05478681996464729 -0.17889998853206635
0.06397943198680878 -0.05497056990861893 -0.17949999868869781
0.06517131626605988 -0.05518493801355362 -0.18019999563694
0.0663338229060173 -0.055368684232234955 -0.18079999089241028
0.06761424988508224 -0.05564430356025696 -0.1816999912261963
0.06845127046108246 -0.05555243045091629 -0.18140000104904175
0.08808071911334991 -0.05420496314764023 -0.1770000010728836
0.08875493705272675 -0.05405183881521225 -0.17649999260902405
0.08942391723394394 -0.05389872193336487 -0.17599999904632568
0.0901903361082077 -0.0538068450987339 -0.17569999396800995
0.09110917896032333 -0.0538068450987339 -0.17569999396800995
0.09202802926301956 -0.0538068450987339 -0.17569999396800995
0.0929468646645546 -0.0538068450987339 -0.17569999396800995
0.09381228685379028 -0.053776223212480545 -0.17559999227523804
0.032723959535360336 -0.05706173554062843 -0.18320000171661377
0.03368202596902847 -0.05706173554062843 -0.18320000171661377
0.034734632819890976 -0.057217471301555634 -0.18369999527931213
0.05344298481941223 -0.05877482891082764 -0.18869999051094055
0.05411252751946449 -0.058432213962078094 -0.1876000016927719
0.054388780146837234 -0.057684678584337234 -0.18519999086856842
0.05484916642308235 -0.057155173271894455 -0.1834999918937683
0.06286511570215225 -0.055753547698259354 -0.17899999022483826
0.06412200629711151 -0.05603387579321861 -0.17989999055862427
0.06538830697536469 -0.05631420016288757 -0.18079999089241028
0.06648058444261551 -0.056438788771629333 -0.18119999766349792
0.06750261783599854 -0.05650108680129051 -0.18140000104904175
0.06818711757659912 -0.05628305301070213 -0.18069998919963837
0.06882604956626892 -0.05603387579321861 -0.17989999055862427
0.06953417509794235 -0.05584699288010597 -0.179299995303154
0.08793143182992935 -0.05503716319799423 -0.17669999599456787
0.08860408514738083 -0.05488143116235733 -0.1762000024318695
0.08927148580551147 -0.05472569167613983 -0.17569999396800995
0.0901390016078949 -0.05469454452395439 -0.17559999227523804
0.09105732291936874 -0.05469454452395439 -0.17559999227523804
0.09181851893663406 -0.05460110306739807 -0.1753000020980835
0.0926823616027832 -0.05456995591521263 -0.17520000040531158
0.09359859675168991 -0.05456995591521263 -0.17520000040531158
0.03368202596902847 -0.05801980197429657 -0.18320000171661377
0.03469681739807129 -0.05811481177806854 -0.1834999918937683
0.03587019816040993 -0.05846318230032921 -0.18459999561309814
0.05335802212357521 -0.059666652232408524 -0.188400000333786
0.05396830290555954 -0.05925493687391281 -0.18709999322891235
0.05415383726358414 -0.05839984118938446 -0.18439999222755432
0.054729606956243515 -0.057988133281469345 -0.18310000002384186
0.055170122534036636 -0.057449739426374435 -0.18140000104904175
0.06444279104471207 -0.05725971609354019 -0.18079999089241028
0.0657138004899025 -0.05754474550485611 -0.1816999912261963
0.06670071929693222 -0.05757641792297363 -0.1817999929189682
0.06750261783599854 -0.057449739426374435 -0.18140000104904175
0.06807392090559006 -0.057133037596940994 -0.18039999902248383
0.0685965046286583 -0.05678466334939003 -0.179299995303154
0.06941782683134079 -0.05668964982032776 -0.17899999022483826
0.07023602724075317 -0.056594643741846085 -0.17870000004768372
0.08735203742980957 -0.05618292838335037 -0.17739999294281006
0.08793143182992935 -0.0559612400829792 -0.17669999599456787
0.08875493705272675 -0.055897895246744156 -0.17649999260902405
0.08942391723394394 -0.055739548057317734 -0.17599999904632568
0.0901903361082077 -0.05564453452825546 -0.17569999396800995
0.09110917896032333 -0.05564453452825546 -0.17569999396800995
0.09197564423084259 -0.05561286583542824 -0.17559999227523804
0.09273526817560196 -0.055517856031656265 -0.1753000020980835
0.03464009240269661 -0.058977868407964706 -0.18320000171661377
0.03571474552154541 -0.059171028435230255 -0.18379999697208405
0.0371149443089962 -0.05987927317619324 -0.18599998950958252
0.05327305570244789 -0.06055533140897751 -0.18809999525547028
0.05373754724860191 -0.05997585505247116 -0.18629999458789825
0.054036371409893036 -0.05923541635274887 -0.18400000035762787
0.054520368576049805 -0.05872032046318054 -0.18239998817443848
0.05480515584349632 -0.05801207199692726 -0.18019999563694
0.05537629500031471 -0.057625751942396164 -0.17899999022483826
0.05618656426668167 -0.05749698355793953 -0.1785999983549118
0.06585846841335297 -0.05862374231219292 -0.18209999799728394
0.06670071929693222 -0.05852716416120529 -0.1817999929189682
0.06742819398641586 -0.05833400413393974 -0.18119999766349792
0.06784750521183014 -0.05788329988718033 -0.17979998886585236
0.06848172843456268 -0.057625751942396164 -0.17899999022483826
0.06930149346590042 -0.05752917751669884 -0.17870000004768372
0.0701967179775238 -0.05749698355793953 -0.1785999983549118
0.07117056101560593 -0.05752917751669884 -0.17870000004768372
0.0871550589799881 -0.057593557983636856 -0.17889998853206635
0.08774595707654953 -0.0573682077229023 -0.17819999158382416
0.08837930113077164 -0.05717505142092705 -0.17759999632835388
0.08885551244020462 -0.056885313242673874 -0.17669999599456787
0.08967795968055725 -0.05682092532515526 -0.17649999260902405
0.09060098975896835 -0.05682092532515526 -0.17649999260902405
0.09136845171451569 -0.05672434717416763 -0.1762000024318695
0.09218516200780869 -0.056659962981939316 -0.17599999904632568
0.03452663868665695 -0.05973963811993599 -0.1825999915599823
0.0356370210647583 -0.06000136584043503 -0.1833999902009964
0.03695530816912651 -0.06059025600552559 -0.18519999086856842
0.038476720452308655 -0.06147358939051628 -0.18789999186992645
0.053159769624471664 -0.061408158391714096 -0.18769998848438263
0.05356447771191597 -0.06075383722782135 -0.18569999933242798
0.05394826829433441 -0.060099516063928604 -0.18369999527931213
0.054221466183662415 -0.05934704467654228 -0.18140000104904175
0.05459226295351982 -0.05872543901205063 -0.17949999868869781
0.05528349056839943 -0.05846371129155159 -0.17870000004768372
0.05609218403697014 -0.05833284556865692 -0.17829999327659607
0.057024624198675156 -0.05833284556865692 -0.17829999327659607
0.06648058444261551 -0.0592816136777401 -0.18119999766349792
0.06724213063716888 -0.05911802873015404 -0.18069998919963837
0.06765883415937424 -0.058660004287958145 -0.179299995303154
0.06844346970319748 -0.05852913856506348 -0.17889998853206635
0.06926271319389343 -0.0584309920668602 -0.1785999983549118
0.0701967179775238 -0.0584309920668602 -0.1785999983549118
0.07125020772218704 -0.05852913856506348 -0.17889998853206635
0.0724278911948204 -0.05872543901205063 -0.17949999868869781
0.08823835849761963 -0.05862728878855705 -0.17919999361038208
0.08887693285942078 -0.0584309920668602 -0.1785999983549118
0.090033620595932 -0.05797296389937401 -0.17719998955726624
0.0909603163599968 -0.05797296389937401 -0.17719998955726624
0.09162772446870804 -0.057809386402368546 -0.17669999599456787
0.035539865493774414 -0.06079428270459175 -0.18289999663829803
0.036735814064741135 -0.061193156987428665 -0.18410000205039978
0.03835385665297508 -0.06225680559873581 -0.18729999661445618
0.03962736949324608 -0.06272214651107788 -0.18869999051094055
0.052289366722106934 -0.06252271682024002 -0.18809999525547028
0.052989840507507324 -0.06219032406806946 -0.18709999322891235
0.05327603220939636 -0.061392586678266525 -0.18469999730587006
0.05404211953282356 -0.06009626016020775 -0.18079999089241028
0.05444019287824631 -0.059497956186532974 -0.17899999022483826
0.0552525520324707 -0.05936500430107117 -0.1785999983549118
0.05609218403697014 -0.05926528573036194 -0.17829999327659607
0.057024624198675156 -0.05926528573036194 -0.17829999327659607
0.06690721958875656 -0.059763871133327484 -0.17979998886585236
0.06754562258720398 -0.059497956186532974 -0.17899999022483826
0.06832870095968246 -0.05936500430107117 -0.1785999983549118
0.06922392547130585 -0.05933176353573799 -0.1784999966621399
0.0701967179775238 -0.05936500430107117 -0.1785999983549118
0.07125020772218704 -0.0594647191464901 -0.17889998853206635
0.07254893332719803 -0.059763871133327484 -0.17979998886585236
0.08981403708457947 -0.06062808632850647 -0.18239998817443848
0.09016294777393341 -0.0595976784825325 -0.179299995303154
0.09089737385511398 -0.0594647191464901 -0.17889998853206635
0.09167896956205368 -0.05936500430107117 -0.1785999983549118
0.035326119512319565 -0.06137939915060997 -0.1817999929189682
0.03655622527003288 -0.061852071434259415 -0.18320000171661377
0.037985268980264664 -0.0626285970211029 -0.18549999594688416
0.03952236846089363 -0.06354016810655594 -0.1881999969482422
0.04065724462270737 -0.06377650052309036 -0.18889999389648438
0.04166716709733009 -0.06381026655435562 -0.1889999955892563
0.04265556484460831 -0.06381026655435562 -0.1889999955892563
0.04949566721916199 -0.06370897591114044 -0.18869999051094055
0.05048249661922455 -0.06370897591114044 -0.18869999051094055
0.05138750374317169 -0.06360769271850586 -0.188400000333786
0.05223376676440239 -0.06343888491392136 -0.18789999186992645
0.052734944969415665 -0.06286492943763733 -0.18619999289512634
0.05307412147521973 -0.0621221661567688 -0.18400000035762787
0.05362522229552269 -0.061649493873119354 -0.1825999915599823
0.05377310514450073 -0.06073791906237602 -0.17989999055862427
0.054409779608249664 -0.06040029600262642 -0.17889998853206635
0.0552525520324707 -0.060299016535282135 -0.1785999983549118
0.05615510419011116 -0.060265250504016876 -0.1784999966621399
0.06668394804000854 -0.0605015866458416 -0.17919999361038208
0.06743242591619492 -0.060332778841257095 -0.17870000004768372
0.06829044222831726 -0.060265250504016876 -0.1784999966621399
0.06910758465528488 -0.060163963586091995 -0.17819999158382416
0.07015741616487503 -0.060265250504016876 -0.1784999966621399
0.07117056101560593 -0.060332778841257095 -0.17870000004768372
0.09030644595623016 -0.06191958859562874 -0.1833999902009964
0.09157095849514008 -0.06148068606853485 -0.18209999799728394
0.09267568588256836 -0.061581969261169434 -0.18239998817443848
0.0364963635802269 -0.06270728260278702 -0.18289999663829803
0.037760019302368164 -0.06322155147790909 -0.18439999222755432
0.03918636590242386 -0.06397582590579987 -0.186599999666214
0.04048505797982216 -0.06449010223150253 -0.18809999525547028
0.04153488948941231 -0.06459295749664307 -0.188400000333786
0.0425427220761776 -0.06462724506855011 -0.18850000202655792
0.04357468709349632 -0.064695805311203 -0.18869999051094055
0.044561516493558884 -0.064695805311203 -0.18869999051094055
0.045548345893621445 -0.064695805311203 -0.18869999051094055
0.046535175293684006 -0.064695805311203 -0.18869999051094055
0.04747164249420166 -0.06462724506855011 -0.18850000202655792
0.048431720584630966 -0.06459295749664307 -0.188400000333786
0.049416981637477875 -0.06459295749664307 -0.188400000333786
0.05040224269032478 -0.06459295749664307 -0.188400000333786
0.051332950592041016 -0.06452438235282898 -0.1881999969482422
0.05201137810945511 -0.06414724886417389 -0.18709999322891235
0.052310120314359665 -0.06332441419363022 -0.18469999730587006
0.052901048213243484 -0.06287870556116104 -0.1833999902009964
0.05339028313755989 -0.06233014538884163 -0.1817999929189682
0.053683437407016754 -0.06157587468624115 -0.17960000038146973
0.054409779608249664 -0.06133587658405304 -0.17889998853206635
0.06363776326179504 -0.06212443485856056 -0.18119999766349792
0.06657230854034424 -0.06133587658405304 -0.17889998853206635
0.06735695153474808 -0.06119874119758606 -0.1784999966621399
0.06817566603422165 -0.06109588220715523 -0.17819999158382416
0.06899124383926392 -0.06099303066730499 -0.17790000140666962
0.06996089220046997 -0.06102731078863144 -0.17799998819828033
0.07109089940786362 -0.06119874119758606 -0.1784999966621399
0.09074960649013519 -0.06318727135658264 -0.1842999905347824
0.09146460890769958 -0.06301584839820862 -0.18379999697208405
0.09227496385574341 -0.06291298568248749 -0.1834999918937683
0.09308216720819473 -0.06281013786792755 -0.18320000171661377
0.03751429170370102 -0.06376820057630539 -0.18320000171661377
0.03870335966348648 -0.0641510859131813 -0.1842999905347824
0.0400761179625988 -0.06481243669986725 -0.18619999289512634
0.04124829173088074 -0.0651257112622261 -0.18709999322891235
0.042362164705991745 -0.06533455848693848 -0.18769998848438263
0.04343613609671593 -0.06547379493713379 -0.18809999525547028
0.04441982880234718 -0.06547379493713379 -0.18809999525547028
0.04540351778268814 -0.06547379493713379 -0.18809999525547028
0.0463872104883194 -0.06547379493713379 -0.18809999525547028
0.04737090691924095 -0.06547379493713379 -0.18809999525547028
0.04835459589958191 -0.06547379493713379 -0.18809999525547028
0.049338288605213165 -0.06547379493713379 -0.18809999525547028
0.05032198131084442 -0.06547379493713379 -0.18809999525547028
0.051169294863939285 -0.06529975682497025 -0.1876000016927719
0.051761187613010406 -0.06481243669986725 -0.18619999289512634
0.05219683423638344 -0.0641510859131813 -0.1842999905347824
0.05281451717019081 -0.06373339146375656 -0.18310000002384186
0.05321407690644264 -0.06307204067707062 -0.18119999766349792
0.053683437407016754 -0.06251511722803116 -0.17960000038146973
0.06025811657309532 -0.06251511722803116 -0.17960000038146973
0.06140180304646492 -0.06272396445274353 -0.18019999563694
0.062413375824689865 -0.06279358267784119 -0.18039999902248383
0.06335680186748505 -0.06279358267784119 -0.18039999902248383
0.06412200629711151 -0.06261953711509705 -0.17989999055862427
0.064918152987957 -0.06248030811548233 -0.17949999868869781
0.06567341834306717 -0.06230626627802849 -0.17899999022483826
0.06642346829175949 -0.062132228165864944 -0.1784999966621399
0.06728148460388184 -0.06206260994076729 -0.17829999327659607
0.06806089729070663 -0.06192338094115257 -0.17790000140666962
0.06887490302324295 -0.06181895360350609 -0.17759999632835388
0.06972507387399673 -0.06174933910369873 -0.17739999294281006
0.07077229022979736 -0.061853762716054916 -0.1776999980211258
0.09079884737730026 -0.06418589502573013 -0.18439999222755432
0.09156414121389389 -0.06404666602611542 -0.18400000035762787
0.09242582321166992 -0.06397704780101776 -0.18379999697208405
0.09333620965480804 -0.06394223868846893 -0.18369999527931213
0.094296894967556 -0.06394223868846893 -0.18369999527931213
0.038472358137369156 -0.06472627073526382 -0.18320000171661377
0.03955956548452377 -0.0649382546544075 -0.18379999697208405
0.04071918502449989 -0.06525623053312302 -0.18469999730587006
0.041978489607572556 -0.06571552902460098 -0.18599998950958252
0.04302047938108444 -0.06582152843475342 -0.18629999458789825
0.044112831354141235 -0.06599818170070648 -0.18679998815059662
0.0451621375977993 -0.06610417366027832 -0.18709999322891235
0.04614059999585152 -0.06610417366027832 -0.18709999322891235
0.04711906611919403 -0.06610417366027832 -0.18709999322891235
0.048097528517246246 -0.06610417366027832 -0.18709999322891235
0.0491284504532814 -0.06617483496665955 -0.18729999661445618
0.05013471096754074 -0.06621016561985016 -0.1873999983072281
0.05103291571140289 -0.06610417366027832 -0.18709999322891235
0.05170559138059616 -0.06571552902460098 -0.18599998950958252
0.05219683423638344 -0.06511490792036057 -0.1842999905347824
0.0528433658182621 -0.06472627073526382 -0.18320000171661377
0.053478386253118515 -0.06433762609958649 -0.18209999799728394
0.0611632838845253 -0.06341902166604996 -0.17949999868869781
0.06213659793138504 -0.06345435976982117 -0.17960000038146973
0.06307584047317505 -0.06345435976982117 -0.17960000038146973
0.06397943198680878 -0.06341902166604996 -0.17949999868869781
0.064809650182724 -0.06331302970647812 -0.17919999361038208
0.06563673168420792 -0.06320703774690628 -0.17889998853206635
0.06642346829175949 -0.06306571513414383 -0.1784999966621399
0.06728148460388184 -0.0629950538277626 -0.17829999327659607
0.06806089729070663 -0.06285373121500015 -0.17790000140666962
0.06879733502864838 -0.06267707049846649 -0.17739999294281006
0.06964646279811859 -0.06260640919208527 -0.17719998955726624
0.09060189127922058 -0.06500891596078873 -0.18400000035762787
0.09146460890769958 -0.0649382546544075 -0.18379999697208405
0.09242582321166992 -0.0649382546544075 -0.18379999697208405
0.09338702261447906 -0.0649382546544075 -0.18379999697208405
0.09445089846849442 -0.06500891596078873 -0.18400000035762787
0.0415496826171875 -0.06600702553987503 -0.18410000205039978
0.04265100508928299 -0.06622214615345001 -0.18469999730587006
0.043805837631225586 -0.06650897115468979 -0.18549999594688416
0.044775933027267456 -0.06650897115468979 -0.18549999594688416
0.04579535126686096 -0.06658068299293518 -0.18569999933242798
0.0467664934694767 -0.06658068299293518 -0.18569999933242798
0.0478147529065609 -0.06668823957443237 -0.18599998950958252
0.04883992299437523 -0.06675995141267776 -0.18619999289512634
0.049974191933870316 -0.06697507202625275 -0.18679998815059662
0.05095108598470688 -0.06697507202625275 -0.18679998815059662
0.051761187613010406 -0.06675995141267776 -0.18619999289512634
0.05242340639233589 -0.0663655549287796 -0.1850999891757965
0.06095883622765541 -0.0641426146030426 -0.17889998853206635
0.06189441308379173 -0.0641426146030426 -0.17889998853206635
0.06286511570215225 -0.064178466796875 -0.17899999022483826
0.06380121409893036 -0.064178466796875 -0.17899999022483826
0.06473731994628906 -0.064178466796875 -0.17899999022483826
0.06563673168420792 -0.0641426146030426 -0.17889998853206635
0.06642346829175949 -0.06399920582771301 -0.1784999966621399
0.06728148460388184 -0.06392749398946762 -0.17829999327659607
0.06809914857149124 -0.06381992995738983 -0.17799998819828033
0.06887490302324295 -0.06367651373147964 -0.17759999632835388
0.09030644595623016 -0.06575603783130646 -0.1833999902009964
0.09116603434085846 -0.06568434089422226 -0.18320000171661377
0.09222467243671417 -0.06575603783130646 -0.1833999902009964
0.0932345911860466 -0.06579189747571945 -0.1834999918937683
0.094296894967556 -0.06586360186338425 -0.18369999527931213
0.043475229293107986 -0.06696979701519012 -0.18410000205039978
0.04448627680540085 -0.06704254448413849 -0.1842999905347824
0.045524079352617264 -0.06715168058872223 -0.18459999561309814
0.046489469707012177 -0.06715168058872223 -0.18459999561309814
0.047480564564466476 -0.06718805432319641 -0.18469999730587006
0.048577625304460526 -0.06736993789672852 -0.18519999086856842
0.04976017028093338 -0.06766095012426376 -0.18599998950958252
0.050814710557460785 -0.0677700862288475 -0.18629999458789825
0.05178898945450783 -0.0677700862288475 -0.18629999458789825
0.061790626496076584 -0.06496907025575638 -0.1785999983549118
0.06272463500499725 -0.06496907025575638 -0.1785999983549118
0.0636942908167839 -0.06500544399023056 -0.17870000004768372
0.0647011548280716 -0.06507819145917892 -0.17889998853206635
0.06563673168420792 -0.06507819145917892 -0.17889998853206635
0.06646067649126053 -0.06496907025575638 -0.1785999983549118
0.06735695153474808 -0.0649326890707016 -0.1784999966621399
0.06821392476558685 -0.06485993415117264 -0.17829999327659607
0.07190334051847458 -0.06482356041669846 -0.17819999158382416
0.07287613302469254 -0.06485993415117264 -0.17829999327659607
0.07380857318639755 -0.06485993415117264 -0.17829999327659607
0.08824364095926285 -0.06660602986812592 -0.18310000002384186
0.0892011821269989 -0.06660602986812592 -0.18310000002384186
0.09006024897098541 -0.06653327494859695 -0.18289999663829803
0.0910167470574379 -0.06653327494859695 -0.18289999663829803
0.09207382053136826 -0.06660602986812592 -0.18310000002384186
0.0932345911860466 -0.06675153225660324 -0.1834999918937683
0.094296894967556 -0.0668242871761322 -0.18369999527931213
0.06175602599978447 -0.06586617976427078 -0.1784999966621399
0.06272463500499725 -0.06590308248996735 -0.1785999983549118
0.06376557052135468 -0.06601377576589584 -0.17889998853206635
0.06473731994628906 -0.06605067849159241 -0.17899999022483826
0.06574679911136627 -0.06612448394298553 -0.17919999361038208
0.06672116369009018 -0.0661613792181015 -0.179299995303154
0.06765883415937424 -0.0661613792181015 -0.179299995303154
0.0685965046286583 -0.0661613792181015 -0.179299995303154
0.0693790465593338 -0.06601377576589584 -0.17889998853206635
0.07023602724075317 -0.06593998521566391 -0.17870000004768372
0.07113073021173477 -0.06590308248996735 -0.1785999983549118
0.07206474244594574 -0.06590308248996735 -0.1785999983549118
0.07299875468015671 -0.06590308248996735 -0.1785999983549118
0.07393275946378708 -0.06590308248996735 -0.1785999983549118
0.07482485473155975 -0.06586617976427078 -0.1784999966621399
0.07554613053798676 -0.06568168103694916 -0.17799998819828033
0.09086745232343674 -0.06737907230854034 -0.1825999915599823
0.09207382053136826 -0.06756357848644257 -0.18310000002384186
0.09333620965480804 -0.06778497248888016 -0.18369999527931213
0.0943482294678688 -0.06782187521457672 -0.18379999697208405
0.06282999366521835 -0.06694936007261276 -0.17889998853206635
0.06390814483165741 -0.06709904968738556 -0.179299995303154
0.06535214185714722 -0.06762296706438065 -0.18069998919963837
0.06666402518749237 -0.06799719482660294 -0.1816999912261963
0.0678747296333313 -0.06825915724039078 -0.18239998817443848
0.06897955387830734 -0.06840884685516357 -0.18279999494552612
0.06985901296138763 -0.06833400577306747 -0.1825999915599823
0.07050369679927826 -0.06803461909294128 -0.1817999929189682
0.07117931544780731 -0.06777266412973404 -0.181099995970726
0.07184761017560959 -0.0675107017159462 -0.18039999902248383
0.07246824353933334 -0.0672113224864006 -0.17960000038146973
0.07324398308992386 -0.06706162542104721 -0.17919999361038208
0.0740569457411766 -0.06694936007261276 -0.17889998853206635
0.07482485473155975 -0.06679967045783997 -0.1784999966621399
0.07550369203090668 -0.06657513231039047 -0.17790000140666962
0.07613328844308853 -0.06631316989660263 -0.17719998955726624
0.07679904997348785 -0.06608863919973373 -0.17659999430179596
0.08785808831453323 -0.06822174042463303 -0.18230000138282776
0.08881144970655441 -0.06822174042463303 -0.18230000138282776
0.09001100808382034 -0.06840884685516357 -0.18279999494552612
0.09116603434085846 -0.06855854392051697 -0.18320000171661377
0.09222467243671417 -0.06863338500261307 -0.1833999902009964
0.09348864108324051 -0.06885792315006256 -0.18400000035762787
0.09450223296880722 -0.06889534741640091 -0.18410000205039978
0.06465665251016617 -0.06883358955383301 -0.18140000104904175
0.06611163169145584 -0.06936482340097427 -0.18279999494552612
0.06728774309158325 -0.06959249824285507 -0.1833999902009964
0.06835848838090897 -0.06970633566379547 -0.18369999527931213
0.06935691088438034 -0.0697442814707756 -0.18379999697208405
0.07031811028718948 -0.0697442814707756 -0.18379999697208405
0.07112418860197067 -0.06959249824285507 -0.1833999902009964
0.07196539640426636 -0.06947866082191467 -0.18310000002384186
0.07240518927574158 -0.06898536533117294 -0.1817999929189682
0.07258928567171097 -0.06826439499855042 -0.17989999055862427
0.07316224277019501 -0.06792288273572922 -0.17899999022483826
0.07393275946378708 -0.06777110695838928 -0.1785999983549118
0.07474101334810257 -0.06765726208686829 -0.17829999327659607
0.07537636905908585 -0.06739164888858795 -0.17759999632835388
0.07604736089706421 -0.06716397404670715 -0.1770000010728836
0.07679904997348785 -0.06701219081878662 -0.17659999430179596
0.07772260159254074 -0.06701219081878662 -0.17659999430179596
0.07869068533182144 -0.06705013662576675 -0.17669999599456787
0.08714307844638824 -0.06936482340097427 -0.18279999494552612
0.08824364095926285 -0.06947866082191467 -0.18310000002384186
0.08924990147352219 -0.0695166066288948 -0.18320000171661377
0.09045416861772537 -0.06970633566379547 -0.18369999527931213
0.09141484647989273 -0.06970633566379547 -0.18369999527931213
0.0925263985991478 -0.06982017308473587 -0.18400000035762787
0.0936918705701828 -0.0699719563126564 -0.18439999222755432
0.09475888311862946 -0.07004784792661667 -0.18459999561309814
0.06643712520599365 -0.07066702097654343 -0.18369999527931213
0.06750787794589996 -0.07078242301940918 -0.18400000035762787
0.06858175992965698 -0.07089782506227493 -0.1842999905347824
