ply
format ascii 1.0
element vertex 744
property float x
property float y
property float z
end_header
-0.010532305815827163 -0.02674290319656647 0.01086085264196898
-0.015685648541745884 0.034004316235586765 -5.68689801211519e-09
-0.031415601266342595 0.0050427781287511195 0.0021808039804977566
-0.020477150396285317 0.03810001613831083 0.0021808039804977566
0.001409027182197506 -0.006653750662058725 0.0005451930009706622
-0.005855780686855009 0.0030794957046922115 0.0021808039804977566
-0.015100522295691542 -0.0263645323377798 0.00021807304082857598
-0.00832188180318086 0.02687013545666827 0.0010903991955447123
-0.020379559251856912 -0.03819785201627766 0.009781245164064539
0.03129432665230935 -0.02128735917479005 0.0033036021164452507
-0.03791658385681288 -0.003990201435497052 0.0033036021164452507
-0.020720197587026333 -0.004264815922895275 0.0003634613507159067
-0.008296390702627833 -0.017847038621836807 0.005246896148612704
-0.03406092486314806 0.00737207918637155 0.0018173369753803979
-0.040080063976886494 -0.015672325681145006 0.0033036021164452507
-0.04037687860435337 -0.008736373372136837 0.0003115417591760988
-0.021775308092342197 -0.03730620335088244 0.0033036021164452507
-0.027957606611789657 -0.003128496371669044 0.0019082046365634195
-0.005038704345141503 0.004226956149092884 0.0021808039804977566
-0.037056791870559234 0.027798523481329426 0.01302006967755771
-0.027924584624281545 -0.008771939492748786 0.0013629985394790496
-0.02457272071017138 -0.011024132878208798 0.0005451930009706622
0.021288998103765062 -0.010096444445021096 0.006542423250296174
-0.02094263677910089 -0.04042598333105566 -5.68689801211519e-09
0.00976469863044475 -0.02799120344188948 -5.68689801211519e-09
0.03906775143966734 0.033957834167202876 0.0005451930009706622
-0.03767085169943713 -0.003931571166246215 0.01302006967755771
0.03261388503355502 0.00924786148842368 0.0021808039804977566
0.007432807116207584 -0.03111411186513878 -5.68689801211519e-09
-0.005919070977975102 -0.018149100057169826 0.003663470322514303
0.002934866617243935 -0.03318349209657212 6.477701801399894e-05
0.002400452299295635 -0.008736579508299707 0.0016356052926290825
-0.008313828509206887 -0.026491344062498635 0.004383210374267134
-0.030191266781870247 -0.00994230058635208 0.0021808039804977566
0.007158687388072194 -0.030554151068933187 0.01302006967755771
0.02361342564290993 -0.03781702070275382 0.0033036021164452507
-0.02869177325727851 -0.0054384285976366905 0.0021808039804977566
-0.037915224356035775 -0.0050229988077727244 0.0021808039804977566
-0.01458036173915492 -0.02460803743460907 0.002223993858623367
-0.014653277149864332 -0.025512898549538095 0.0004361555056595721
0.0001934876069370475 -0.029874840942568988 0.0016356052926290825
-0.0188760007414478 -0.002614982114377238 0.0026558349259887875
0.029753777804025657 -0.018847457585324953 0.0005451930009706622
-0.024811150137746284 -0.009592203347469788 0.008161833947207877
-0.007866797454963664 -0.016859531516467186 0.01086085264196898
-0.015323945474543365 -0.028985706084154725 0.009781245164064539
-0.011887421993594473 -0.03679441805043053 0.000327118010348482
-0.04260691470259867 -0.03147070690049643 0.009781245164064539
0.004059814949946689 -0.033799694566916574 0.001453866200662071
0.009942355857196068 -0.04220436353071592 0.0021808039804977566
-0.03907176626052944 -0.006427965714564456 0.0014019429370109753
-0.010098797143026845 0.030049631016801494 0.009781245164064539
-0.016448085316800178 0.007022407525117255 -5.68689801211519e-09
0.03179594608252614 -0.024634211934382186 0.0033036021164452507
0.009984624247645095 -0.026578036043689874 0.0018173369753803979
0.00900469016322942 -0.008074697536024905 0.006542423250296174
-0.03699762580181983 -0.020969651540200047 0.0010903991955447123
0.008784573331677927 -0.0057103909924372115 6.477701801399894e-05
-0.012080321508734872 -0.03542749426132347 0.004383210374267134
-0.029711749660491126 0.006031993450019791 6.477701801399894e-05
0.026254216228185665 -0.0378522431892035 6.477701801399894e-05
-0.04005678088926154 -0.028654562518375885 0.0021808039804977566
-0.02461345204519929 -0.003494147538846764 0.0003634613507159067
0.004848313825688169 -0.005017723034546195 0.0010903991955447123
-0.009612159407077499 -0.038597372536142135 -5.68689801211519e-09
-0.00941226517778935 -0.027346559288631302 0.0018173369753803979
-0.04166595953684314 -0.035136067996835975 0.01302006967755771
-0.012543468865207092 -0.035766342249953106 0.0021808039804977566
-0.008043279942041612 -0.037065494297988756 0.001453866200662071
-0.023928960054663464 -0.03522261809660762 0.006542423250296174
-0.003969317969435777 0.009893287278048188 0.01302006967755771
-0.0017478325332262632 -0.015568835641529227 0.0007269321254342334
0.005679629672740459 -0.00815054412700643 6.477701801399894e-05
-0.024553390165954092 -0.03380234154030082 0.0010903991955447123
-0.0386718273649735 -0.00583895193012071 0.0007009667240077176
-0.03813275029696839 -0.0051531097312780185 0.001869256599416766
-0.02861455238628319 0.009129296969119535 0.0018173369753803979
-0.02533771857494239 -0.03309187221670721 0.001453866200662071
-0.015364734248812944 -0.02300282089248152 0.01302006967755771
-0.021686274573718564 0.012788879988781608 6.477701801399894e-05
0.02206520784025701 -0.01103600668740982 0.0005451930009706622
-0.038237149717166255 -0.004368348518124849 0.01086085264196898
0.0001530908660826069 -0.029883000014309394 0.0021808039804977566
-0.028143565955477887 -0.0033836647569420284 0.000272593657036325
-0.030269755514472717 0.035079331185655024 0.0016356052926290825
0.0027098031282322458 -0.0065870159993347025 6.477701801399894e-05
-0.01732713836078204 -0.0283861458932177 0.009781245164064539
-0.0020607360822512233 -0.015558766136453673 0.0018173369753803979
0.031065320383019554 -0.022674426344476212 0.0005451930009706622
-0.03796153276529064 -0.004038006838524637 0.011940461159763344
-0.022551204897315456 0.013317738192007385 0.009781245164064539
0.0054567943345661465 -0.01845139783498174 -5.68689801211519e-09
0.009811807845365563 -0.02779874314818927 0.0010903991955447123
-0.022480488405849625 0.011269664872003851 6.477701801399894e-05
-0.010709424895734145 -0.038597135239853114 0.006542423250296174
-0.042426249451971085 -0.02924099095436671 0.009781245164064539
0.04226958807613421 0.03149490689223595 0.006542423250296174
-0.01918601293325058 -0.0024652656183918906 0.009133481093277843
0.0013026079682313338 -0.008408722994142732 0.0016356052926290825
0.005261942336934508 -0.03854060683077304 6.477701801399894e-05
-0.01629240454095343 -0.03222222323194834 0.0005451930009706622
-0.014902112247424068 -0.03804423321504475 0.0010903991955447123
-0.03160198193215558 0.005165899433919708 0.0010903991955447123
-0.02235904926380296 -0.0008076052925662678 0.002223993858623367
0.032147134515571475 0.012204091993795955 0.01302006967755771
-0.043724480051706954 -0.01195688897358298 -5.68689801211519e-09
0.004953048829131403 0.02238419337033301 0.0021808039804977566
-0.0379213935094626 -0.005017345367618807 0.002025030289957261
-0.013790851901474655 -0.024928409394421522 0.002223993858623367
-0.024686034481056038 -0.002944718975545351 0.004383210374267134
-0.04037687860435337 -0.008736373372136837 0.0012461728860852078
0.014082407244362754 -0.04071385093818542 0.009781245164064539
0.028451712084081406 -0.03352808458976163 0.01302006967755771
0.005367702323776751 0.022010724787182814 6.477701801399894e-05
0.0336585079070554 -0.028228240178243835 0.0010903991955447123
0.009945633331628321 -0.02537202033275776 0.0018173369753803979
-0.02018304029115667 -0.004004776705871088 0.002223993858623367
-0.03669680313187877 0.010478326314780167 0.001453866200662071
-0.011558964059425775 -0.027125856018367034 0.001453866200662071
-0.024964329454062205 0.013955072647590263 0.01302006967755771
0.026112451835311735 -0.010042306040465555 0.0005451930009706622
0.016700658585080463 -0.04066030536206767 0.009781245164064539
0.0406260658123225 0.03255795718664195 0.009781245164064539
0.0076939272238805674 0.022089062791261584 6.477701801399894e-05
0.00413112790858936 -0.018149054165066576 6.477701801399894e-05
-0.02648821352170499 -0.002298626036046144 0.01086085264196898
-5.862985861452925e-05 -0.030545649779552514 0.009781245164064539
0.006258380658100159 -0.022632545967475316 6.477701801399894e-05
0.011610831947693485 -0.008770830115766508 0.0005451930009706622
0.006932102405150487 0.021363311818679575 0.004383210374267134
-0.027356523010807342 -0.009719043472243038 0.0019082046365634195
-0.036994829953439376 -0.03714560895243019 0.0010903991955447123
0.007540541627656625 -0.025114278858601156 0.006542423250296174
-1.653709636928167e-05 0.016322959745689553 0.0021808039804977566
0.001191519914698332 -0.03017588363080886 0.008161833947207877
0.028559292066208677 -0.01595603084536646 0.009781245164064539
-0.04076814891574224 -0.03327792364435207 0.01302006967755771
0.025672450570904823 -0.012721159794259806 6.477701801399894e-05
-0.02154212157366884 0.01034257004531094 0.01086085264196898
-0.037936955930155614 -0.00501196106737086 0.0013240579115480916
0.02235614247799474 0.03388808177721309 0.0010903991955447123
0.008890800277712059 -0.006351168862688804 0.005246896148612704
0.009754537237784038 -0.03962248077923184 0.01302006967755771
-0.038525961978075604 -0.0023664697400966593 0.009781245164064539
-0.02032418991757587 -0.004644740072271003 -5.68689801211519e-09
0.0007027212196452441 0.017287904577844612 0.0021808039804977566
-0.010963587183838878 -0.02481186517298379 0.009781245164064539
0.03415055397503217 0.03373862895149039 0.0005451930009706622
0.009028129217746008 -0.02407935090459419 6.477701801399894e-05
0.026073231275992658 0.03435386124529067 6.477701801399894e-05
-0.004281990949862146 -0.018372902350126976 0.000272593657036325
-0.014758043168137914 -0.037998258788661185 0.0021808039804977566
-0.0038623318456713503 -0.017844576521403078 0.008701636646270175
0.03982404625678664 0.0303470048275559 0.0005451930009706622
0.019365628469542904 0.03281152186945047 0.0021808039804977566
-0.024662518408630846 -0.03774762807325084 0.0003634613507159067
-0.015505970855241294 -0.02253115791593134 0.0021808039804977566
0.002127034366667338 -0.0081836188270376 6.477701801399894e-05
-0.020374089468428943 0.00897400524198551 0.002223993858623367
0.005815382281179608 -0.03907633616767029 6.477701801399894e-05
-0.03850697407413833 -0.004724660716616147 0.011940461159763344
0.007856360745236365 -0.006351895871775034 0.007837950351979645
-0.027977765889084794 -0.010244640855870416 0.0021808039804977566
-0.013950558740240118 -0.03149878397095275 0.009781245164064539
-0.008066807718199486 -0.027074357144706955 -5.68689801211519e-09
-0.029999951161867877 0.004466799976405566 0.0005451930009706622
-0.008830038875634378 -0.027269226649782746 0.0021808039804977566
0.008405280211292145 -0.038916722687216874 0.009781245164064539
0.030285168878971917 -0.02002185552054115 0.0005451930009706622
0.003596669961608775 -0.032685466950411565 0.0010903991955447123
0.03017596727360176 -0.03401131130629278 0.0033036021164452507
0.016579955178548707 -0.006992263632274449 0.01302006967755771
-0.026680701794265405 -0.009531953337907356 0.009133481093277843
-0.024892316651201132 -0.00824741588930291 -5.68689801211519e-09
-0.0076519585557292685 -0.016267109698945393 0.001453866200662071
-0.00813677290380842 -0.019180811994387606 0.0021808039804977566
-0.03811260691619897 -0.002052561552049757 6.477701801399894e-05
-0.029005787282987396 0.013071404711967166 0.0010903991955447123
0.04168809747102049 0.02650655582195735 -5.68689801211519e-09
0.012168508790905168 -0.006450772064810706 6.477701801399894e-05
-0.011542775219314677 -0.03654136661369252 0.0007632792029060661
-0.020449590539760792 0.011760426132299379 0.01302006967755771
0.017016860880755644 0.028679014096400245 -5.68689801211519e-09
-0.011726245380337915 -0.03669869105313218 0.0019627252852677285
-0.043542672445416576 -0.009901294087869578 -5.68689801211519e-09
-0.007888282488668083 0.0024678102157107036 0.0016356052926290825
-0.03770820872605063 -0.005442081814914805 0.0021808039804977566
-0.03805644834254675 -0.005079346228772859 0.0006230817635379539
0.025673507347029827 0.034845583184828006 0.0021808039804977566
-0.038678780164204084 0.013480232456214996 0.001453866200662071
-0.0337522065632753 0.029313618661943996 0.01302006967755771
-0.04100554545488322 -0.013948850579231538 0.01086085264196898
-0.021227742124067323 -0.03964811924491512 0.0033036021164452507
-0.037968085707155826 -0.005018257415536214 0.00179137534355485
0.03261388503355502 0.00924786148842368 -5.68689801211519e-09
-0.005730788168858219 0.004262454146506074 6.477701801399894e-05
0.011177856032972581 -0.005796758102680601 0.001453866200662071
-0.007367172192175835 -0.023219165840695877 0.000272593657036325
-0.039949276991717596 0.017967837301204718 0.0005451930009706622
-0.035811258938477156 -0.0026692195600808146 0.0007269321254342334
-0.03732099239003592 -0.019576775679527963 0.01302006967755771
-0.04365315645043372 -0.010531897150069034 0.0005451930009706622
-0.005919070977975102 -0.018149100057169826 0.009421376698023006
-0.012809571692990528 -0.03273681808797284 0.01302006967755771
-0.026552604705368743 -0.009810800463086402 0.007837950351979645
-0.022204016630693452 -0.0008301348582854126 0.004383210374267134
-0.020162072282097245 0.03807977254536196 -5.68689801211519e-09
-0.03817697117420507 0.012614599311262631 -5.68689801211519e-09
-0.016931959528295952 -0.03115589482173859 0.0010903991955447123
0.007204368538942787 -0.03806915304512818 0.006542423250296174
0.04013240383603365 0.03282600517549227 0.0008177998516103752
0.024905987872506134 -0.012734647607101312 0.0010903991955447123
-0.0408176753021324 -0.017675132510509336 0.009781245164064539
0.0006868486467926767 -0.01833379609680848 0.006542423250296174
-0.007742680081961618 -0.016809008523698432 0.006542423250296174
-0.037488619951287376 -0.01929605114346244 0.008161833947207877
-0.0024616666861807194 -0.0183523218304696 0.0021808039804977566
-0.04000371637312795 0.020683787163899243 0.0010903991955447123
-0.029911887907782344 0.004469526580000904 0.0005451930009706622
-0.03232482539868258 0.0057201210773697485 -5.68689801211519e-09
-0.0430182836424745 -0.01281152098711071 6.477701801399894e-05
-0.02105384206995365 -0.003218757954705461 0.004383210374267134
0.03414629898650712 0.011112780525353853 -5.68689801211519e-09
-0.03792862800950555 -0.005013677273244737 0.0007788554540784493
-0.004021015359097287 0.017026742627029193 0.01302006967755771
-0.008383020827070332 -0.017490193427272125 0.01086085264196898
-0.007401448524400254 -0.01921277198724363 0.01302006967755771
-0.030443243633786497 0.004587867405828537 -5.68689801211519e-09
0.030255855934641657 -0.030791106194657195 0.006542423250296174
0.003484897609223799 -0.008248079985947239 0.004383210374267134
-0.024542376514040426 -0.003449943990633 -5.68689801211519e-09
-0.032628333031078274 -0.008445161569547345 0.0016356052926290825
-0.007090336150072161 -0.01661775299514513 0.002223993858623367
0.022070548474489568 -0.007890352204793033 -5.68689801211519e-09
9.103693368945461e-05 -0.03186886470068818 0.0033036021164452507
0.02885528749848162 -0.03304072997207254 6.477701801399894e-05
0.03717945693472551 0.021159094451682545 0.009781245164064539
0.003674314815864089 -0.03324811161901678 0.0003634613507159067
-0.04025896698755174 -0.008475918106341988 0.0014019429370109753
0.004055531116209783 -0.0174669431633098 -5.68689801211519e-09
-0.024970625161686966 -0.011388085251122167 -5.68689801211519e-09
-0.012975498711945987 -0.03257988735944546 6.477701801399894e-05
0.009451105841181142 -0.02647472091647498 0.0033036021164452507
0.033016919151329316 -0.019057558847214932 0.0010903991955447123
0.006338024134609493 -0.008122869653016554 6.477701801399894e-05
-0.03680152605913401 -0.0015073881550109653 0.0018173369753803979
-0.03864325449512963 -0.03465209793604682 6.477701801399894e-05
-0.03821537675438901 -0.005243868023723096 -5.68689801211519e-09
0.0009154919469306876 -0.007515775026375813 0.0010903991955447123
0.007638475696694397 -0.006337809818550691 0.011724539456204473
0.03103735171655255 -0.029009410686756682 0.006542423250296174
-0.024294604529836453 0.01206723807618362 0.01302006967755771
-0.013672425507296134 -0.034999597511144113 0.0016356052926290825
-0.03901082753875099 -0.017173333835646547 6.477701801399894e-05
0.033995659775846454 -0.02297623218277149 -5.68689801211519e-09
-0.013950470189080993 -0.022075625943544737 0.0018173369753803979
0.00411337722568546 -0.032541285637489356 -5.68689801211519e-09
-0.04006914605451621 -0.007071757073384021 0.008701636646270175
-0.008368109164544231 -0.018791952356583683 0.0021808039804977566
-0.03195274455431307 -0.03639252263370132 0.009781245164064539
-0.016639163347329358 -0.024330712348224433 0.006542423250296174
0.007853355273193677 0.022237435789838233 0.01302006967755771
0.03407013054327031 -0.023851300846364987 0.0010903991955447123
-0.007144989339027531 -0.023739950803345015 0.01302006967755771
-0.013803870821762711 -0.025732002722186825 0.0021808039804977566
-0.007128633157481105 0.025653981858220907 0.0033036021164452507
0.0048520292887524775 -0.032375375367923544 -5.68689801211519e-09
-0.02781328775694777 -0.010189892417016844 0.0016356052926290825
0.007610238300637284 -0.026929743087452766 0.006542423250296174
-0.037968085707155826 -0.005018257415536214 0.0010125141700818286
0.005026522818176553 -0.021923538054729724 0.0010903991955447123
0.013116294138287543 -0.008870984983908406 0.0005451930009706622
-0.01381635548253875 -0.025723355777305532 0.0010903991955447123
-0.01627181486641362 -0.023840836171120247 0.0033036021164452507
0.007612274457918662 -0.006334584151927691 6.477701801399894e-05
-0.008404431297472509 -0.02474275296627701 6.477701801399894e-05
0.033362357800893104 -0.029266499700258387 0.0010903991955447123
0.013480771459415732 0.02699953795888486 6.477701801399894e-05
-0.03469314823062461 -0.006522523600847566 0.01302006967755771
-0.03795309080476035 -0.0040288353884947985 6.477701801399894e-05
-0.024728941890201486 -0.009942241861902788 0.01302006967755771
-0.038801519001431126 -0.0060247370990144985 0.0009346254400110968
0.025252451916937937 -0.013036895973497938 0.0003634613507159067
-0.0303174030287655 -0.010454691757747887 0.01302006967755771
0.030746692063106224 -0.03421826948279251 -5.68689801211519e-09
0.03913414516073919 0.036739755846161175 0.0021808039804977566
-0.004057108416833125 0.01594134757043902 0.01302006967755771
0.017562376924198427 -0.04053192260936448 0.009781245164064539
0.0305146218002907 -0.02907006732747866 -5.68689801211519e-09
-0.030853958908024493 -0.036161436322684794 6.477701801399894e-05
-0.020476862320316064 -0.0008397300084043375 0.0021808039804977566
-0.03842707803939823 -0.0022823641253993986 0.0033036021164452507
-0.030649629595028174 0.00466680561595107 0.0019082046365634195
-0.015622549555855599 0.003166180179760198 0.0021808039804977566
-0.011559738429294584 -0.036568360747845134 0.0011994365933661222
-0.02465204955726471 0.011605790413877326 0.0021808039804977566
-0.03880710321390575 -0.005142600205775688 0.008701636646270175
-0.019330686954689792 -0.002364360630526415 0.002223993858623367
-0.04051646297153006 -0.013557604829166741 0.0021808039804977566
0.01743460092755377 0.03132974584063239 6.477701801399894e-05
0.011859925448868616 -0.03979934882863522 0.0010903991955447123
-0.00712102080777705 -0.020904449971666943 0.0021808039804977566
0.004441467857247308 -0.008214714239096768 0.006542423250296174
0.0032953224402216914 -0.03370164662843279 0.01302006967755771
0.03975613719094725 0.03426730012396309 0.01302006967755771
-0.018830664745397407 -0.0026070115912151404 0.01086085264196898
0.008558078458503322 -0.005814601159001335 0.004383210374267134
-0.03782661790238332 0.013003593344510359 0.008701636646270175
-0.007267154819171795 -0.016163868058246107 -5.68689801211519e-09
0.00728592641950142 -0.027972278196266836 0.006542423250296174
0.03408956329516572 -0.024357201053249598 0.0016356052926290825
-0.03855522198761458 -0.004790533111820246 0.01302006967755771
-0.04035044900630118 -0.00445393030572211 0.01302006967755771
-0.012933017693343448 0.03222045043007837 -5.68689801211519e-09
-0.02591601159893724 -0.004044192555264404 0.01302006967755771
-0.023151162376093437 -0.00025683256601759653 0.0003634613507159067
-0.018163252173058576 -0.04053458686014719 0.01302006967755771
-0.026029280829562573 -0.032626692607739385 0.0018173369753803979
0.012376057445721804 -0.005942171673503263 0.0007269321254342334
-0.03891348068090877 0.01394319346069479 0.0021808039804977566
0.0013527210967407641 -0.008453119441762134 0.0007269321254342334
-0.0379213935094626 -0.005017345367618807 0.001168284091021356
-0.03313247316796312 0.032805779203514664 0.0010903991955447123
-0.00797772113205676 -0.018438834203519598 0.005246896148612704
-0.007842663982528381 0.030040061559142878 0.01302006967755771
-0.027001934331462564 -0.0028295994975456604 0.004383210374267134
0.031115422964103738 -0.02682735650515693 -5.68689801211519e-09
-0.0115735987663396 -0.03658368058187385 0.000327118010348482
-0.008711676018235385 -0.018071787732757017 0.0007269321254342334
-0.014300943621239567 -0.03784120224618684 0.0014175191881833585
-0.026408873915263472 0.0370540305961003 0.0005451930009706622
0.0018048045993244552 -0.00868461581867847 0.0010903991955447123
0.007654079344941817 -0.006254545952868424 0.008701636646270175
-0.023310147582741404 -0.03911178734728868 0.0021808039804977566
-0.04278347416872701 -0.0344662880058068 0.0010903991955447123
-0.03976626979249772 -0.027405796409641157 0.0010903991955447123
-0.0356684392580558 -0.004317388570167065 0.01302006967755771
-0.029656908227978084 0.00619786548978256 0.008701636646270175
0.0017887610821678886 -0.007123765066523206 0.01302006967755771
-0.04077314510474557 -0.014500695026635065 0.01302006967755771
-0.017658189534035015 -0.005161698309369836 0.0021808039804977566
0.010741505136002381 -0.005483059120924244 0.0005451930009706622
-0.0379213935094626 -0.005017345367618807 0.00179137534355485
0.00523822980815255 -0.021378080192881305 0.01302006967755771
-0.027414598501087004 -0.009930714262741131 0.0021808039804977566
-0.006797805830961161 0.028679547195886383 6.477701801399894e-05
-0.007190543105765136 0.0022102486993320967 0.0021808039804977566
-0.011218491922411037 -0.02659924858873888 0.004383210374267134
-0.02558689267707384 -0.03289440517823661 0.0003634613507159067
-7.57926871729895e-05 -0.03149158094905076 0.0033036021164452507
-0.018293483756082616 0.005622024570906988 0.01302006967755771
-0.040823533114240675 -0.033040900405793 0.0033036021164452507
0.021920386954717888 -0.038953354544320355 0.009781245164064539
-0.03047712163871964 0.011423741042660075 0.0021808039804977566
-0.019559170091594774 -0.004564321555377524 0.004383210374267134
-0.030914719791355117 -0.03617616450598067 0.0033036021164452507
-0.040301761434731416 -0.008566777696913998 0.0007009667240077176
-0.01929137980231951 -0.03859493546706196 6.477701801399894e-05
0.040115815678409675 0.033155352845382485 0.0019082046365634195
-0.037774793372039865 0.026598105946699948 0.0033036021164452507
0.0013736288114697497 -0.03016703143453224 0.008161833947207877
-0.0180283495320707 0.004633707992250658 0.004383210374267134
-0.00461921213762046 -0.019428121255929243 0.0019627252852677285
-0.011628918107396071 -0.03642744899346419 0.001453866200662071
-0.005105860859427042 -0.017932860401988365 0.01086085264196898
0.004603119228087558 -0.005124531239492687 0.0016356052926290825
0.031292053210568216 0.03612093648275436 0.0021808039804977566
-0.020361445830547064 -0.0406384427607026 0.0021808039804977566
-0.02534447349429562 -0.011096268523001713 0.0033036021164452507
-0.01635700959864094 -0.038342015883383186 0.0005451930009706622
-0.018952699409724397 -0.005601410413753894 0.0005451930009706622
-0.039530617139499666 -0.019278287989293798 0.01302006967755771
0.03077750670616282 -0.021451617143096267 0.0021808039804977566
-0.008631619204782497 -0.016731162246626657 0.0010903991955447123
-0.03670520293693322 -0.020173347089715896 0.0008177998516103752
-0.03570401540288948 -0.03491816058227633 0.01086085264196898
-0.03684557418164511 -0.020601538650965336 0.000272593657036325
-0.004833269205514091 -0.020587445985097475 6.477701801399894e-05
-0.008489825525496635 -0.018565687048933237 0.0003634613507159067
-0.038244758454688096 -0.004378069692529409 6.477701801399894e-05
0.031242994874625507 -0.025749680265109688 0.0005451930009706622
-0.03841146594720974 -0.005485291338798699 -5.68689801211519e-09
0.03046948135623831 0.03595924746378431 -5.68689801211519e-09
0.004782196151683017 -0.005046507508488283 -5.68689801211519e-09
-0.03934740747534778 -0.006859370410918544 0.001168284091021356
-0.012357507304076738 -0.032377064528422414 0.0021808039804977566
-0.03211225157233753 0.005546364129557922 0.0003634613507159067
-0.028699359029676078 0.008807694282024138 0.0018173369753803979
0.00915364799133731 -0.024439820220758038 0.006542423250296174
-0.03792487297624533 -0.005015269460937695 0.0008567404795413331
-0.006498091983064123 -0.021302644616089966 6.477701801399894e-05
0.01066024097380303 -0.005720860888590157 0.001453866200662071
-0.029999951161867877 0.004466799976405566 0.0008177998516103752
0.033469631823384485 -0.02350853518650022 0.006542423250296174
-0.02553919548632095 0.011713476715546067 0.001453866200662071
-0.028634198046582644 0.00906168689539562 -5.68689801211519e-09
-0.000992192788110894 -0.01847247028530302 -5.68689801211519e-09
-0.03248766842390767 0.00897239550725811 0.01086085264196898
-0.025732379657822792 -0.006703272355097923 0.0021808039804977566
0.006973805901495496 -0.02516821234997103 -5.68689801211519e-09
0.03753339812224692 0.021996480787656335 0.009781245164064539
0.042964241465653676 0.03301460752571304 0.0021808039804977566
-0.016746537259359387 -0.024502025743480472 0.009781245164064539
-0.02330452754469823 -0.03822504902044458 6.477701801399894e-05
-0.042508683261762055 -0.02990439523826657 0.009781245164064539
-0.014954010030149048 -0.025853328910697294 0.0017446428204367325
-0.025695142042179563 -0.0011598136017314103 0.0008177998516103752
0.010372246310833704 0.024472002720491038 6.477701801399894e-05
-0.028872338560624333 0.007839086348629424 0.0003634613507159067
-0.028589092568532423 -0.006867299627026189 0.000272593657036325
-0.0411667788425976 -0.01327098385494515 0.002223993858623367
-0.008060347955908993 -0.024557983140917117 0.006542423250296174
0.03540024396834988 0.012954356139766768 0.0021808039804977566
0.0019201583598490333 -0.03456855876372648 0.009781245164064539
0.004008546137270722 -0.032567372717015916 0.0021808039804977566
-0.005826710272605874 -0.01847028527805599 0.011580593733611736
-0.03364905030050504 -0.03488677704271998 0.01086085264196898
-0.04080672170935595 -0.010586481492351222 0.0018173369753803979
-0.012880422810965422 -0.023374044795537948 0.01086085264196898
0.03890594229421978 0.01950712715134006 0.0021808039804977566
-0.004268530716077672 -0.020525411804198052 0.0003634613507159067
-0.024121283833898603 -0.010028775179359066 0.0021808039804977566
0.0007970246604493917 -0.0302209703201855 6.477701801399894e-05
-0.022978107566957007 -0.0030779303690898828 0.0021808039804977566
-0.007057041029613552 -0.022156314054986283 0.0019082046365634195
-0.012653311258653717 -0.035693949105295754 0.00018172970046115126
-0.012118475216489661 -0.03741670180131347 6.477701801399894e-05
-0.03578734440223498 -0.009104662047378862 -5.68689801211519e-09
0.0034973819719354097 -0.032724346434345304 0.00015576803613904337
0.02207503067831531 -0.038860375327838 0.0033036021164452507
-0.04097196407853295 -0.014047706783798897 6.477701801399894e-05
-0.024687710925044168 -0.011135393221201367 0.0008177998516103752
0.031226364127212674 -0.023851597552125195 0.0010903991955447123
-0.02457272071017138 -0.011024132878208798 0.0019082046365634195
-0.03914627337459669 -0.020522974084968358 6.477701801399894e-05
-0.014760442429703683 -0.022162815509836297 0.001453866200662071
-0.002724313029122263 -0.017819476629014966 0.01302006967755771
-0.007284773694467409 0.029335194155760795 6.477701801399894e-05
0.012714687683784883 -0.040537667813916184 0.01302006967755771
-0.02537849500019257 -0.03305817976887009 0.0021808039804977566
-0.0076519585557292685 -0.016267109698945393 0.0007269321254342334
-0.03982160012695319 -0.01513649664379625 -5.68689801211519e-09
-0.03773291078702177 -0.0038558680571755236 6.477701801399894e-05
-0.005919070977975102 -0.018149100057169826 0.01014111259021615
-0.04011199126990237 -0.008182780962150617 0.00015576803613904337
-0.04240416686440683 -0.014930340382094575 0.0033036021164452507
0.015582116528630164 -0.006307825584639382 0.0010903991955447123
-0.027390522204038453 -0.0025581700243934953 0.000272593657036325
-0.03792862800950555 -0.005013677273244737 0.0002336530291053671
-0.04025316392929186 -0.018404144466489244 6.477701801399894e-05
-0.025778978682367188 -0.007851516093887465 0.004383210374267134
0.04058672190370649 0.03339586294539726 0.011724539456204473
-0.013196098768781889 -0.03978015561354115 6.477701801399894e-05
-0.016744103195820426 -0.0033591128717527343 -5.68689801211519e-09
-0.028637879144056137 -0.00484896658927002 0.0019082046365634195
-0.035303448096582195 0.008750280422488444 0.0007269321254342334
0.008374714978892712 -0.038898224716604105 0.01302006967755771
-0.03783842004817746 -0.003915168867462869 0.011940461159763344
-0.0005818509857050602 -0.03163420054964501 -5.68689801211519e-09
0.004120173951339853 -0.008742966054247873 0.0005451930009706622
-0.0183215188270195 0.010306744217925799 0.0010903991955447123
-0.035787921590678125 -0.03439421572509545 0.0021808039804977566
0.033514097426015174 0.0102934762214763 -5.68689801211519e-09
0.004862298485220136 -0.029560500052712678 0.0010903991955447123
0.03351993707346365 -0.028748859301938108 0.0005451930009706622
-0.013047360142621266 -0.03473908636245542 0.01302006967755771
-0.04312265396842889 -0.011717050759963429 0.009781245164064539
-0.03633570884647563 0.013860027760516114 0.01086085264196898
-0.008003283318844888 -0.036959671777000984 0.0018173369753803979
-0.005923189584932764 -0.01819884197037291 0.005822683198543342
-0.005912211232894729 -0.0181282990980423 0.012300329625804877
-0.035075375945644374 0.027787747109674733 6.477701801399894e-05
0.039722568619589005 0.029908460544412447 -5.68689801211519e-09
-7.242946842916673e-05 -0.01631986325449058 0.01302006967755771
-0.022978107566957007 -0.0030779303690898828 -5.68689801211519e-09
-0.03677685372566486 -0.02041529891947181 0.0013629985394790496
-0.023365990752552853 -0.0007847320011088705 0.01302006967755771
0.02879546741992568 0.006321469965496502 0.006542423250296174
-0.01859986490968124 0.0002584389446876148 -5.68689801211519e-09
-0.04088998174479374 -0.03181776374998643 0.01302006967755771
-0.02683763027076314 -0.0026472012506786363 0.004383210374267134
-0.040301761434731416 -0.008566777696913998 0.0016356052926290825
-0.012299208089671079 0.03166184882300417 -5.68689801211519e-09
-0.005592871361187426 -0.01800185433499855 0.01086085264196898
0.03135892891282996 -0.015990816618889844 0.0021808039804977566
-0.043609484105515 -0.01024711523849604 0.0021808039804977566
-0.014084363944060414 -0.025565420033755 0.0019627252852677285
-0.008497472448200613 -0.018550736845570764 -5.68689801211519e-09
-0.019501096199907676 -0.005314992673582671 0.0016356052926290825
-0.042934448173656894 -0.007939711310291477 0.0010903991955447123
-0.01794644544099578 -0.004654518370503198 0.002223993858623367
0.008560891963982006 -0.003415695811368385 0.0021808039804977566
-0.016232479377007974 -0.03118460148958442 6.477701801399894e-05
0.00886945862508409 -0.008074463682235527 6.477701801399894e-05
0.02528750915751933 0.03189427906996371 0.0021808039804977566
-0.041079587001051805 -0.018237428632346005 0.0010903991955447123
-0.04071741698989662 -0.004954959948909554 0.01302006967755771
-0.01575585630935778 -0.02270783840854315 0.0018173369753803979
0.007564710731592494 -0.006313201925397603 6.477701801399894e-05
-0.02942250378498665 -0.010221970213726731 0.0016356052926290825
0.03728474844133645 0.017460386501008417 0.006542423250296174
-0.02577192156637957 0.012203384319336761 6.477701801399894e-05
0.027580435175887853 -0.011381596807055545 0.0021808039804977566
-0.03749349955845873 -0.0018319044182984977 0.01302006967755771
0.002341717507584651 -0.02973009519411333 -5.68689801211519e-09
-0.037536515196093835 0.012579629722874562 0.01302006967755771
-0.037936955930155614 -0.00501196106737086 0.0002336530291053671
0.0066435072519548475 -0.02434114010263971 0.0018173369753803979
0.03248672266104249 -0.02992289651413546 6.477701801399894e-05
-0.028722418089103252 -0.0355275492085167 0.009781245164064539
-0.012322341062002614 0.03233759797341798 0.009781245164064539
0.007110370963664525 -0.03798703740644586 0.008701636646270175
-0.020700915402362238 0.008588205309489744 0.0021808039804977566
-0.015621227235800278 0.0031430926590885772 0.0005451930009706622
-0.0015013436665487609 -0.016115238575357776 6.477701801399894e-05
-0.03830107169771689 -0.004450630968953062 0.002223993858623367
-0.022967238892479418 0.037961847105304716 0.0003634613507159067
-0.039209621845711085 -0.006641207794469189 0.0005451930009706622
-0.04011199126990237 -0.008182780962150617 0.0002336530291053671
0.026020924773330883 -0.03804216622934487 0.009781245164064539
0.017954618071868298 -0.009537072838443112 0.0005451930009706622
0.032971476486488537 0.03583765234007481 6.477701801399894e-05
0.006262165100652331 -0.0049950259664888925 6.477701801399894e-05
-0.03730914017965271 -0.019597857054408346 0.0016841876499325808
-0.027821237521282925 0.011290483763853493 0.009781245164064539
-0.03220503689335981 0.006299307409940233 6.477701801399894e-05
-0.02356539482866383 0.03559835735513004 0.0033036021164452507
-0.0032294144338065934 -0.016078878659370625 6.477701801399894e-05
-0.029517182448504008 0.0049385677227030906 0.0019082046365634195
0.033070414879935894 -0.02812011717491568 0.006542423250296174
-0.017161797670457567 -0.02539447591383455 6.477701801399894e-05
0.0034622080478540268 -0.03287314804844515 0.0010903991955447123
-0.006268118565140746 0.002586095759917405 0.0021808039804977566
-0.007144989339027531 -0.023739950803345015 6.477701801399894e-05
0.03477084267167119 0.017154372978630622 -5.68689801211519e-09
-0.02215958134444059 -0.036978682811300914 0.01302006967755771
0.0034492196757084557 -0.02974672052631294 0.0021808039804977566
-0.038980591441258025 -0.03693063587461981 0.0010903991955447123
0.0020450618438248884 -0.03546859420142018 -5.68689801211519e-09
-0.0276785107322234 -0.009098945860353966 0.0019082046365634195
-0.02087280277124151 0.03586597786135625 0.01302006967755771
0.0016342290101813294 -0.007998917384377935 6.477701801399894e-05
-0.03893529222807139 -0.006221774357739549 0.001479831602088587
-0.03946321072001252 -0.01936331786944262 0.008701636646270175
-0.0381756285724693 -0.00519909893310512 0.0007788554540784493
-0.03463897404275916 -0.0349265091121564 0.01086085264196898
-0.02830221571541388 0.009862616836536116 -5.68689801211519e-09
-0.015561128977824747 -0.02315106795736766 0.008701636646270175
-0.01300073778808425 -0.026376561360001573 0.0007269321254342334
-0.027804171451321504 -0.010762777345840857 0.002223993858623367
-0.04260656423255272 -0.03144656665081796 6.477701801399894e-05
-0.017505935147202268 -0.004953291793371635 0.0021808039804977566
-0.0324120448936163 0.033409356356648184 0.0016356052926290825
0.020635061645571495 -0.0004423068215716081 0.0021808039804977566
0.0014633934287123216 -0.006617752424601548 0.0016356052926290825
-0.02948233495016017 0.006944554163853013 0.01302006967755771
-0.038801519001431126 -0.0060247370990144985 0.001869256599416766
-0.011726245380337915 -0.03669869105313218 0.0020717628130753787
-0.008071846975392023 -0.01928330214329125 0.0003634613507159067
-0.03658709101874601 0.011355150259631004 0.002223993858623367
0.033767746277593026 -0.021573043601722908 0.0005451930009706622
-0.028968590770969728 0.013101679630361922 -5.68689801211519e-09
-0.018917286717039673 -0.005019709699582741 0.002223993858623367
-0.007648938749997186 0.0023152683674442344 0.0010903991955447123
-0.03854383596354619 -0.016995762291867354 0.0021808039804977566
-0.005780018245573001 0.018781601373484814 0.01302006967755771
-0.04045729558236595 -0.007739451251241664 0.005462815252446771
-0.02832790945474864 -0.003743827691836477 0.0013629985394790496
0.03666675729888111 0.01624754998930329 0.01302006967755771
-0.026815472867003514 0.011296478046127151 0.0021808039804977566
-0.03578734440223498 -0.009104662047378862 0.0021808039804977566
0.0015188821720618854 -0.008570143414616283 0.0005451930009706622
0.04026861394945203 0.030184212542660394 0.01302006967755771
0.03975613719094725 0.03426730012396309 0.011724539456204473
-0.04312603721184805 -0.011419397891021746 6.477701801399894e-05
-0.03444227740439435 -0.006963427782850253 6.477701801399894e-05
-0.01984825550713987 0.038055033424062114 0.0003634613507159067
0.0030309138922623947 -0.029750941658571135 -5.68689801211519e-09
6.887731978888528e-05 -0.030451888552136704 0.009781245164064539
0.004579491235334357 -0.017805888655630424 0.0005451930009706622
-0.007560612199427641 0.002282701514282258 -5.68689801211519e-09
-0.016370933995310543 -0.03887159742017222 0.006542423250296174
0.006827431107238171 -0.039932590794042454 0.006542423250296174
0.021395401337702374 -0.03867051219080408 0.0010903991955447123
-0.018362171444521347 0.005808836947084331 0.01302006967755771
0.04061152922612505 0.025264507071170738 0.01302006967755771
-0.027097820970228365 0.03438316293754304 0.0033036021164452507
-0.030629271488208105 -0.010324252040187686 0.01302006967755771
-0.03647729118415418 0.014121548497487093 0.01086085264196898
-0.022200734548331744 0.038071981706463184 0.0018173369753803979
-0.0133260463282148 -0.035251883094439794 0.0005451930009706622
-0.01568684931643945 -0.038245362682238083 0.0021808039804977566
-0.01918601293325058 -0.0024652656183918906 0.005678737475950605
-0.018860657499858758 -0.002615337604973759 0.009133481093277843
0.0021558691976369384 -0.008723117731810715 0.000272593657036325
0.000490528348177956 -0.01645040210405656 0.0033036021164452507
0.002982271477813042 -0.036587817635074134 -5.68689801211519e-09
-0.015410559162177338 -0.028641159440023062 0.009781245164064539
-0.030756103159263158 0.004708674978153465 0.0008177998516103752
-0.017422339443746743 -0.004822360756423189 0.0010903991955447123
-0.014342800805657842 -0.03356165487242373 0.01086085264196898
-0.007929559793908502 -0.027018690805394943 0.0021808039804977566
-0.041266855285328724 -0.012378605486437102 0.01302006967755771
-0.02556713352760403 -0.004451272056651564 0.0007269321254342334
0.04268620477238167 0.03452599448577062 -5.68689801211519e-09
0.019184785672250355 0.029797535838259486 0.0010903991955447123
-0.0392340187684453 0.01472633127939639 0.0010903991955447123
-0.028962282068555056 0.007143680870615687 0.000272593657036325
0.0039841470890195595 -0.005988250238091814 6.477701801399894e-05
-0.007151698398464062 0.006659473993541695 0.0033036021164452507
0.028964506923113514 -0.03289503457406276 0.009781245164064539
-0.03753120192545208 -0.022101840182439568 0.0019082046365634195
-0.02836688865231307 -0.0038431167955144266 0.0005451930009706622
-0.015571200740684698 -0.023159109210943614 0.01302006967755771
-0.00928387960068851 0.032741162494964456 -5.68689801211519e-09
-0.013513480770129769 -0.032011674900194666 0.009781245164064539
-0.03325150045448375 -0.03485286630042543 6.477701801399894e-05
-0.006274584383246778 0.016851815596344633 0.0021808039804977566
-0.03658709101874601 0.011355150259631004 0.01086085264196898
0.028228378347310283 -0.012971779430711719 6.477701801399894e-05
-0.021601167692145463 -0.037444358855330075 0.01302006967755771
-0.03814425114655675 -0.002072753063332792 0.009781245164064539
-0.0406741791029137 -0.017867725827052722 0.0033036021164452507
1.0686815685637333e-05 -0.030489397515390277 0.01302006967755771
0.01321827189429332 -0.008878983859938837 0.0021808039804977566
-0.012970247356636457 -0.03548997940145994 0.0010903991955447123
-0.00015976839564963485 -0.03121643598637114 0.006542423250296174
-0.013452462644311505 -0.026013865651491122 0.0010903991955447123
-0.006720110532694804 -0.020418103152101064 0.01302006967755771
-0.04102555572860994 -0.009226389772310214 6.477701801399894e-05
0.00712728901639819 -0.037340068516206325 0.0018173369753803979
0.028926490854075566 0.009226876794447452 0.0010903991955447123
-0.038701384687172075 -0.0018721327369941906 -5.68689801211519e-09
0.016810669582118156 -0.007031313448988691 0.0033036021164452507
-0.027158632175886564 -0.003016639465283861 0.004383210374267134
-0.0016141258808186067 -0.018401251152445394 0.0016356052926290825
-0.004049827737382015 -0.017853287357222785 0.01302006967755771
-0.01040773329550625 -0.02675703854481945 0.004383210374267134
0.02872391310772272 -0.013540659724758961 0.009781245164064539
-0.029954097141446995 0.004465876571859164 0.0010903991955447123
0.03516208431958914 0.0367034188999518 0.0021808039804977566
-0.040607945994479505 -0.009429266109614625 0.0018173369753803979
-0.01790435348077976 0.0036940586963496434 0.004383210374267134
-0.017094608174017055 -0.029335025709782896 0.006542423250296174
0.03306813400443458 -0.021137878499423564 0.009781245164064539
0.03992227232645462 0.028808651300263197 0.0033036021164452507
-0.007194371781113322 -0.02287220186480086 -5.68689801211519e-09
0.010738772308555706 0.024256448319000184 0.0010903991955447123
0.0060190413952722335 -0.018923203516432327 -5.68689801211519e-09
-0.02658538855439594 -0.009975842453218203 6.477701801399894e-05
-0.026544734840768597 0.011449774738849072 0.001453866200662071
-0.019394296350245806 -0.03807691143782412 0.0010903991955447123
-0.011578832302380524 -0.023888390249226708 0.0021808039804977566
0.025829449832578105 -0.012862636318141128 0.006542423250296174
-0.01296414964027266 -0.023281866619102247 0.01302006967755771
-0.004668275987262859 -0.019319229457709173 0.0017446428204367325
-0.027797154261940495 -0.007624771814727272 0.009781245164064539
-0.03865404673515578 -0.004927080091433266 0.01086085264196898
0.001094434062592065 -0.008153142283513624 0.00018172970046115126
-0.030019653063785946 0.005470506559653942 0.01086085264196898
0.006842671673347531 -0.03774321647877293 0.01302006967755771
0.040040944208829345 0.03151417617999129 0.0021808039804977566
-0.02505980598460065 -0.010822806709530591 0.0016841876499325808
-0.009671821941703167 -0.03795555499937752 0.01302006967755771
-0.03857541826828907 -0.0017907685457794157 0.0010903991955447123
0.0192060755307393 0.03274660375044269 0.0010903991955447123
0.0021222108783551107 -0.016476239518640533 0.0010903991955447123
-0.016518166336806032 0.007200461087255921 0.0010903991955447123
0.040089930967434316 0.031909143716827626 0.0019082046365634195
-0.03904185886797421 -0.02027136683855747 6.477701801399894e-05
0.03406253730368099 -0.02561865496627399 0.0010903991955447123
-0.038092972394707374 -0.005113096746486052 0.0006230817635379539
-0.004904965077566465 -0.01852353139739988 0.0017446428204367325
-0.005422877248920868 -0.02413911519110516 0.01086085264196898
-0.02158911156297987 -0.0028865899090451935 6.477701801399894e-05
-0.027019583775252435 0.01115887144447362 0.0021808039804977566
0.017439603880213463 -0.00941739190883801 0.0016356052926290825
-0.009303511440008514 0.02834417785722014 0.0021808039804977566
-0.02070460016263379 -0.0042798483256489 -5.68689801211519e-09
-0.04045729558236595 -0.007739451251241664 0.01086085264196898
-0.039831553850508586 -0.02178368834876907 0.0033036021164452507
-0.03780164642422542 0.012029560301553933 0.0010903991955447123
-0.039824169765242716 -0.0028619142557623173 0.0005451930009706622
-0.019660196542207735 -0.0021043406590257646 0.011724539456204473
-0.012732723719973674 -0.037208781622588886 0.0019627252852677285
0.03126608485853217 -0.025313760050591768 0.0010903991955447123
-0.004896181330773354 -0.018662045249459764 0.0004361555056595721
-0.042622618893045264 -0.00720431943086538 0.0016356052926290825
0.026020924773330883 -0.03804216622934487 0.006542423250296174
-0.021229100761658293 0.00922511390402127 0.001453866200662071
-0.008397684671497587 0.027000146653756756 0.0016356052926290825
0.006405912570292961 -0.004933455856489442 0.006542423250296174
-0.03247628978132321 0.005848559383229654 0.001453866200662071
-0.026976095009819193 -0.002197585273826077 0.0013629985394790496
-0.02506326342940386 -0.009044099665453562 0.009781245164064539
-0.008595411803880773 -0.016694243685500022 0.0021808039804977566
-0.004350138090131501 -0.017870155360047848 0.004383210374267134
-0.0073624791059314415 -0.01668730530095836 0.004383210374267134
-0.04273521989602567 -0.008899947699818828 0.009781245164064539
-0.039301852050414705 -0.006786662166631399 0.0021808039804977566
-9.06442082957347e-05 -0.030579031626968064 0.004923008913769744
0.04283627967747103 0.03402873041787484 0.0021808039804977566
-0.017746061672354933 -0.004283238383037133 0.01086085264196898
-0.007968510165326221 0.005277328410957157 0.0021808039804977566
-0.004950405230995906 0.004356583762763096 0.0010903991955447123
-0.027895848742816247 0.013187293845319024 6.477701801399894e-05
-0.012328947470768355 -0.023961825859081142 0.009781245164064539
-0.008247111895959135 -0.024664799806013524 6.477701801399894e-05
-0.01432616880435753 -0.022070556093356224 0.0021808039804977566
0.026952779602119 -0.01162162505996632 0.01302006967755771
-0.03162290627307822 -0.03633112846087418 0.01302006967755771
-0.010951618691935169 0.033446986482936196 0.0033036021164452507
0.005329212375205314 -0.031679513004242 0.0033036021164452507
-0.01753144777582556 -0.038393266153183225 0.0016356052926290825
0.007548254892111952 -0.03834856500175847 0.008701636646270175
-0.036697811770451845 -0.020136314081509215 0.0013629985394790496
-0.004826408088208069 -0.01891517321389311 0.0021808039804977566
-0.026195015032562555 -0.032588575054417535 0.0005451930009706622
-0.012647286936668731 -0.023642418053784146 6.477701801399894e-05
-1.384679646267486e-05 -0.03164496444689926 0.006542423250296174
0.031007133356298153 -0.02237968918811314 0.0010903991955447123
-0.0066588093653855325 0.012086321164252982 0.0021808039804977566
-0.025898162575333044 -0.006058609864126305 0.001453866200662071
-0.026853963418822697 -0.012669344941937225 0.0010903991955447123
-0.005922704387066281 -0.018172676660212512 0.01086085264196898
-0.039530617139499666 -0.019278287989293798 0.008701636646270175
-0.025404667215851606 -0.008471068135554542 0.008161833947207877
-0.021656164501989268 0.013389665225683516 0.0021808039804977566
-0.0156269134883607 -0.03823376687259225 0.0005451930009706622
-0.03684557418164511 -0.020601538650965336 0.0008177998516103752
0.003596669961608775 -0.032685466950411565 0.0006230817635379539
-0.014395249549036253 -0.025471894901644972 0.0017446428204367325
-0.030228830861462858 0.004514570361137439 0.0016356052926290825
0.0015792975996434982 -0.008603260338428002 0.001453866200662071
-0.03799383385886545 -0.005031666216596265 0.0009346254400110968
-0.022790698079518706 -0.039512746795397284 0.001453866200662071
-0.007082991143223119 -0.02103286445593227 -5.68689801211519e-09
-0.03946807510627419 -0.026415112054599742 0.0021808039804977566
0.033466357296457805 -0.02037633508518529 0.0021808039804977566
-0.03383293605944702 -0.006941945079351128 0.0016356052926290825
-0.005920633777787479 -0.01822735336177303 0.007262159662434278
0.016419099839591656 -0.009233611675145066 0.0010903991955447123
-0.012922008614156535 -0.02570020664765383 6.477701801399894e-05
-0.041283680028259453 -0.011987577820557531 6.477701801399894e-05
