ply
format ascii 1.0
element vertex 766
property float x
property float y
property float z
end_header
-0.03525951877236366 0.06622159481048584 -0.19349999725818634
-0.03422988951206207 0.06618737429380417 -0.19339999556541443
-0.033184126019477844 0.06611892580986023 -0.1931999921798706
-0.0321071520447731 0.06598203629255295 -0.19280000030994415
-0.037283383309841156 0.06520966440439224 -0.19349999725818634
-0.03630894050002098 0.06527706235647202 -0.19370000064373016
-0.035295963287353516 0.06527706235647202 -0.19370000064373016
-0.034247588366270065 0.06520966440439224 -0.19349999725818634
-0.03323565796017647 0.06520966440439224 -0.19349999725818634
-0.031195662915706635 0.06517596542835236 -0.19339999556541443
-0.03015303798019886 0.06510856002569199 -0.1931999921798706
-0.038275524973869324 0.06416455656290054 -0.19339999556541443
-0.037283383309841156 0.06419773399829865 -0.19349999725818634
-0.03630894050002098 0.06426408886909485 -0.19370000064373016
-0.03428298607468605 0.06426408886909485 -0.19370000064373016
-0.033270008862018585 0.06426408886909485 -0.19370000064373016
-0.03225703164935112 0.06426408886909485 -0.19370000064373016
-0.031244052574038506 0.06426408886909485 -0.19370000064373016
-0.03023107536137104 0.06426408886909485 -0.19370000064373016
-0.02918792888522148 0.06419773399829865 -0.19349999725818634
-0.028103189542889595 0.06403183937072754 -0.19299998879432678
-0.038275524973869324 0.06315314769744873 -0.19339999556541443
-0.037321921437978745 0.06325110793113708 -0.19370000064373016
-0.0363464318215847 0.06331641227006912 -0.1938999891281128
-0.03533240780234337 0.06331641227006912 -0.1938999891281128
-0.03433608263731003 0.06334906816482544 -0.1939999908208847
-0.03332153707742691 0.06334906816482544 -0.1939999908208847
-0.032306987792253494 0.06334906816482544 -0.1939999908208847
-0.03129244223237038 0.06334906816482544 -0.1939999908208847
-0.03027789480984211 0.06334906816482544 -0.1939999908208847
-0.029218098148703575 0.06325110793113708 -0.19370000064373016
-0.028175996616482735 0.06318579614162445 -0.19349999725818634
-0.02709387242794037 0.06302252411842346 -0.19299998879432678
-0.025881826877593994 0.06253271549940109 -0.1914999932050705
-0.038275524973869324 0.06214173510670662 -0.19339999556541443
-0.037321921437978745 0.06223813071846962 -0.19370000064373016
-0.03636517375707626 0.06233452260494232 -0.1939999908208847
-0.035387072712183 0.06239878386259079 -0.19419999420642853
-0.03437148034572601 0.06239878386259079 -0.19419999420642853
-0.03335588797926903 0.06239878386259079 -0.19419999420642853
-0.03237360343337059 0.062463048845529556 -0.19439999759197235
-0.03132470324635506 0.06239878386259079 -0.19419999420642853
-0.03030911087989807 0.06239878386259079 -0.19419999420642853
-0.029293518513441086 0.06239878386259079 -0.19419999420642853
-0.028248801827430725 0.06233452260494232 -0.1939999908208847
-0.027192141860723495 0.06223813071846962 -0.19370000064373016
-0.02613861672580242 0.06214173510670662 -0.19339999556541443
-0.024919331073760986 0.06162763759493828 -0.19179999828338623
-0.03829531371593475 0.061161935329437256 -0.19349999725818634
-0.03737972304224968 0.061319973319768906 -0.1939999908208847
-0.036402665078639984 0.061383191496133804 -0.19419999420642853
-0.03547818213701248 0.061541229486465454 -0.1946999877691269
-0.029338771477341652 0.06147801876068115 -0.19449999928474426
-0.02827792428433895 0.061383191496133804 -0.19419999420642853
-0.027234256267547607 0.061319973319768906 -0.1939999908208847
-0.02617916464805603 0.061225153505802155 -0.19370000064373016
-0.025075238198041916 0.06100388988852501 -0.19299998879432678
-0.02384147047996521 0.06043494492769241 -0.19119998812675476
-0.02257874608039856 0.05973956361413002 -0.1889999955892563
-0.03737972304224968 0.06030542775988579 -0.1939999908208847
-0.036458902060985565 0.060460858047008514 -0.19449999928474426
-0.03555107116699219 0.06064736843109131 -0.19509999454021454
-0.028379853814840317 0.06058519706130028 -0.19489999115467072
-0.027304448187351227 0.060460858047008514 -0.19449999928474426
-0.02621970884501934 0.06030542775988579 -0.1939999908208847
-0.025140201672911644 0.06015000492334366 -0.19349999725818634
-0.02397863380610943 0.05977698042988777 -0.1922999918460846
-0.022662371397018433 0.05896876007318497 -0.18969999253749847
-0.021556077525019646 0.05865790694952011 -0.18869999051094055
-0.03741825744509697 0.05935200676321983 -0.19419999420642853
-0.03649638965725899 0.05950481817126274 -0.1946999877691269
-0.035569291561841965 0.05965762957930565 -0.19519999623298645
-0.025192169472575188 0.05926031991839409 -0.1938999891281128
-0.02406591922044754 0.058985259383916855 -0.19299998879432678
-0.021590348333120346 0.05776276811957359 -0.1889999955892563
-0.020536547526717186 0.057579394429922104 -0.188400000333786
-0.03741825744509697 0.05833641439676285 -0.19419999420642853
-0.03649638965725899 0.058486610651016235 -0.1946999877691269
-0.035569291561841965 0.05863680690526962 -0.19519999623298645
-0.022913247346878052 0.05761547014117241 -0.19179999828338623
-0.02167031168937683 0.05698464438319206 -0.18969999253749847
-0.020569248124957085 0.05668424814939499 -0.18869999051094055
-0.019520152360200882 0.0565040148794651 -0.18809999525547028
-0.03741825744509697 0.05732082203030586 -0.19419999420642853
-0.036458902060985565 0.0574093721807003 -0.19449999928474426
-0.0217959713190794 0.05631726607680321 -0.1907999962568283
-0.02062375098466873 0.055845003575086594 -0.1891999989748001
-0.019551286473870277 0.05560887232422829 -0.188400000333786
-0.018516751006245613 0.05546128749847412 -0.18789999186992645
-0.03737972304224968 0.05624724179506302 -0.1939999908208847
-0.036402665078639984 0.05630522966384888 -0.19419999420642853
-0.020787257701158524 0.05529046058654785 -0.1906999945640564
-0.01961355097591877 0.054797571152448654 -0.1889999955892563
-0.01856602542102337 0.05462361127138138 -0.188400000333786
-0.017534105107188225 0.05447864159941673 -0.18789999186992645
-0.016525033861398697 0.054391663521528244 -0.1876000016927719
-0.03737972304224968 0.0552326962351799 -0.1939999908208847
-0.036402665078639984 0.05528963729739189 -0.19419999420642853
-0.018615297973155975 0.053780701011419296 -0.18889999389648438
-0.017562100663781166 0.05358140915632248 -0.1881999969482422
-0.016525033861398697 0.05341058969497681 -0.1876000016927719
-0.03737972304224968 0.054218146950006485 -0.1939999908208847
-0.036440156400203705 0.05432993918657303 -0.19439999759197235
-0.017608758062124252 0.052736930549144745 -0.18869999051094055
-0.01653384231030941 0.052457455545663834 -0.18769998848438263
-0.015519100241363049 0.05234566703438759 -0.18729999661445618
-0.03741825744509697 0.05325845256447792 -0.19419999420642853
-0.036440156400203705 0.053313300013542175 -0.19439999759197235
-0.017674081027507782 0.05194207653403282 -0.18940000236034393
-0.016577886417508125 0.0516129806637764 -0.1881999969482422
-0.015519100241363049 0.051366157829761505 -0.18729999661445618
-0.014524065889418125 0.05131131038069725 -0.18709999322891235
-0.03745679557323456 0.05229666456580162 -0.19439999759197235
-0.036458902060985565 0.052323564887046814 -0.19449999928474426
-0.01450077723711729 0.05025213956832886 -0.18679998815059662
-0.01350940577685833 0.05019833892583847 -0.186599999666214
-0.0374760627746582 0.051306404173374176 -0.19449999928474426
-0.036458902060985565 0.051306404173374176 -0.19449999928474426
-0.03542351722717285 0.05128002539277077 -0.19439999759197235
-0.01559367123991251 0.04964454844594002 -0.1881999969482422
-0.014524065889418125 0.04935438558459282 -0.18709999322891235
-0.013487685471773148 0.04914335533976555 -0.18629999458789825
-0.0374760627746582 0.05028924345970154 -0.19449999928474426
-0.036458902060985565 0.05028924345970154 -0.19449999928474426
-0.01458616741001606 0.0485827662050724 -0.18789999186992645
-0.013523884117603302 0.04829835519194603 -0.18679998815059662
0.00625222735106945 0.050211675465106964 -0.19419999420642853
0.007267819717526436 0.050211675465106964 -0.19419999420642853
0.008274881169199944 0.050159960985183716 -0.1939999908208847
0.009284639731049538 0.05013410374522209 -0.1938999891281128
0.010288041085004807 0.05008239671587944 -0.19370000064373016
0.011289350688457489 0.05003068596124649 -0.19349999725818634
0.012294924817979336 0.050004828721284866 -0.19339999556541443
0.013278812170028687 0.04990140348672867 -0.19299998879432678
0.014265921898186207 0.04982383921742439 -0.19269999861717224
-0.035350628197193146 0.0491454154253006 -0.1939999908208847
-0.013567323796451092 0.04747346043586731 -0.1873999983072281
-0.01251340750604868 0.04719479754567146 -0.18629999458789825
0.004255818668752909 0.04960140213370323 -0.19579999148845673
0.005287867970764637 0.04967740178108215 -0.19609999656677246
0.0063037388026714325 0.04960140213370323 -0.19579999148845673
0.007327698636800051 0.04960140213370323 -0.19579999148845673
0.008343127556145191 0.04955073818564415 -0.1955999881029129
0.009346888400614262 0.049449410289525986 -0.19519999623298645
0.010367711074650288 0.049449410289525986 -0.19519999623298645
0.011382699944078922 0.049424074590206146 -0.19509999454021454
0.012377568520605564 0.049322742968797684 -0.1946999877691269
0.013375136069953442 0.04924674704670906 -0.19439999759197235
0.014362162910401821 0.0491454154253006 -0.1939999908208847
0.015352931804955006 0.049069419503211975 -0.19370000064373016
0.01634056121110916 0.048993419855833054 -0.19339999556541443
0.017334027215838432 0.04894275218248367 -0.1931999921798706
-0.03489508107304573 0.047510623931884766 -0.1914999932050705
-0.013618001714348793 0.04666709527373314 -0.18809999525547028
-0.01253355760127306 0.04629494994878769 -0.186599999666214
-0.011539127677679062 0.04622051864862442 -0.18629999458789825
0.002211281331256032 0.04865187406539917 -0.19609999656677246
0.003240111516788602 0.04870149493217468 -0.19629999995231628
0.004273206926882267 0.04877592250704765 -0.19659999012947083
0.005306743551045656 0.04882553964853287 -0.19679999351501465
0.006342372857034206 0.04887516051530838 -0.19699999690055847
0.007383835967630148 0.04894959181547165 -0.1973000019788742
0.008415640331804752 0.04894959181547165 -0.1973000019788742
0.00945702102035284 0.04899920895695686 -0.19749999046325684
0.01048987079411745 0.04899920895695686 -0.19749999046325684
0.01152272243052721 0.04899920895695686 -0.19749999046325684
0.01255557220429182 0.04899920895695686 -0.19749999046325684
0.013554021716117859 0.04887516051530838 -0.19699999690055847
0.01455464493483305 0.04877592250704765 -0.19659999012947083
0.015503527596592903 0.04852782189846039 -0.1955999881029129
0.01645039953291416 0.04830453544855118 -0.1946999877691269
0.01742374710738659 0.048180487006902695 -0.19419999420642853
-0.012580575421452522 0.0454891063272953 -0.18729999661445618
-0.011539127677679062 0.04524623975157738 -0.18629999458789825
0.0011797056067734957 0.047383472323417664 -0.19509999454021454
0.002211281331256032 0.04762634262442589 -0.19609999656677246
0.0032450631260871887 0.04774777591228485 -0.19659999012947083
0.004277553874999285 0.047796349972486496 -0.19679999351501465
0.0053202263079583645 0.04791778326034546 -0.1973000019788742
0.00635846983641386 0.047966353595256805 -0.19749999046325684
0.007406290154904127 0.048063505440950394 -0.19789999723434448
0.008449763059616089 0.04811207950115204 -0.1981000006198883
0.009490540251135826 0.04813636466860771 -0.19820000231266022
0.01052705105394125 0.04813636466860771 -0.19820000231266022
0.011575230397284031 0.04818493500351906 -0.19839999079704285
0.012612787075340748 0.04818493500351906 -0.19839999079704285
0.013650343753397465 0.04818493500351906 -0.19839999079704285
0.014673097059130669 0.04813636466860771 -0.19820000231266022
0.015685828402638435 0.048063505440950394 -0.19789999723434448
0.016627831384539604 0.047796349972486496 -0.19679999351501465
0.01756729930639267 0.04755347967147827 -0.19579999148845673
0.01852479577064514 0.047383472323417664 -0.19509999454021454
0.019525058567523956 0.04733489826321602 -0.19489999115467072
-0.034378211945295334 0.04358280822634697 -0.1833999902009964
-0.03383820503950119 0.044129379093647 -0.18569999933242798
-0.012600726447999477 0.044580891728401184 -0.1876000016927719
-0.011539127677679062 0.044271960854530334 -0.18629999458789825
-0.010564849711954594 0.044271960854530334 -0.18629999458789825
0.00015883428568486124 0.0461968295276165 -0.19439999759197235
0.0011803102679550648 0.04638693854212761 -0.19519999623298645
0.0022078983020037413 0.04652952030301094 -0.19579999148845673
0.0032450631260871887 0.04671962931752205 -0.19659999012947083
0.004277553874999285 0.046767160296440125 -0.19679999351501465
0.0053121368400752544 0.0468146875500679 -0.19699999690055847
0.006352031137794256 0.04688597843050957 -0.1973000019788742
0.007406290154904127 0.0470285601913929 -0.19789999723434448
0.017657021060585976 0.046767160296440125 -0.19679999351501465
0.01863873563706875 0.04664834216237068 -0.19629999995231628
0.01961521990597248 0.04652952030301094 -0.19579999148845673
0.020618097856640816 0.04648199304938316 -0.1955999881029129
-0.034378211945295334 0.042623694986104965 -0.1833999902009964
-0.033491987735033035 0.04271665960550308 -0.18379999697208405
-0.012634309940040112 0.04371601715683937 -0.18809999525547028
-0.011539127677679062 0.04329768195748329 -0.18629999458789825
-0.01055917888879776 0.04327443987131119 -0.18619999289512634
-0.000853832985740155 0.04497102275490761 -0.19349999725818634
0.00015883428568486124 0.04518019035458565 -0.19439999759197235
0.0011797056067734957 0.04534287378191948 -0.19509999454021454
0.0022078983020037413 0.04550556093454361 -0.19579999148845673
0.0032368104439228773 0.04557528346776962 -0.19609999656677246
0.004266686271876097 0.04562176764011383 -0.19629999995231628
0.017701881006360054 0.045854177325963974 -0.1973000019788742
0.018686210736632347 0.04573797062039375 -0.19679999351501465
0.0196653101593256 0.04562176764011383 -0.19629999995231628
0.02063917927443981 0.04550556093454361 -0.19579999148845673
0.02159675769507885 0.04536611586809158 -0.19519999623298645
-0.033491987735033035 0.04175545647740364 -0.18379999697208405
-0.0327608697116375 0.042050786316394806 -0.1850999891757965
-0.01155770942568779 0.04239155724644661 -0.186599999666214
-0.010547836311161518 0.04225524887442589 -0.18599998950958252
-0.009575126692652702 0.04225524887442589 -0.18599998950958252
-0.0018464806489646435 0.043504733592271805 -0.1914999932050705
-0.000853832985740155 0.04395909234881401 -0.19349999725818634
0.00015867086767684668 0.044118113815784454 -0.19419999420642853
0.0011784961679950356 0.0442771390080452 -0.19489999115467072
0.002201132709160447 0.04434529319405556 -0.19519999623298645
0.018705200403928757 0.04475421831011772 -0.19699999690055847
0.01969536393880844 0.04466334357857704 -0.19659999012947083
0.020670803263783455 0.04454975575208664 -0.19609999656677246
0.02159675769507885 0.04434529319405556 -0.19519999623298645
-0.033546656370162964 0.04086083918809891 -0.18410000205039978
-0.032672375440597534 0.04097181186079979 -0.18459999561309814
-0.03205050900578499 0.041415710002183914 -0.186599999666214
-0.01157009694725275 0.04146009683609009 -0.18679998815059662
-0.010530824773013592 0.04121595621109009 -0.18569999933242798
-0.009549387730658054 0.041171565651893616 -0.18549999594688416
-0.0028137480840086937 0.041992779821157455 -0.1891999989748001
-0.0018464806489646435 0.04250326007604599 -0.1914999932050705
-0.0008533917716704309 0.04292496293783188 -0.19339999556541443
0.00015850744966883212 0.043058130890131 -0.1939999908208847
0.001176077639684081 0.04316910728812218 -0.19449999928474426
0.01971540041267872 0.04367959126830101 -0.19679999351501465
0.02069188468158245 0.04356861859560013 -0.19629999995231628
0.021585693582892418 0.043302275240421295 -0.19509999454021454
0.022501710802316666 0.04310252144932747 -0.19419999420642853
-0.03269007429480553 0.04002809524536133 -0.18469999730587006
-0.03194745257496834 0.04030982777476311 -0.18599998950958252
-0.010530824773013592 0.04024481400847435 -0.18569999933242798
-0.009533943608403206 0.04013645276427269 -0.18519999086856842
-0.00854229275137186 0.04002809524536133 -0.18469999730587006
-0.0028092865832149982 0.04093831777572632 -0.18889999389648438
-0.0018435879610478878 0.04143676906824112 -0.19119998812675476
-0.0008516266825608909 0.04182686656713486 -0.19299998879432678
0.00015826235176064074 0.04197857156395912 -0.19370000064373016
0.019735436886548996 0.04269374534487724 -0.19699999690055847
0.02069188468158245 0.04254204407334328 -0.19629999995231628
0.021585693582892418 0.04228197783231735 -0.19509999454021454
0.022478535771369934 0.04204358533024788 -0.1939999908208847
0.02342042326927185 0.041913554072380066 -0.19339999556541443
-0.0327608697116375 0.039146777242422104 -0.1850999891757965
-0.03181004151701927 0.03916792944073677 -0.18519999086856842
-0.031107965856790543 0.03950631245970726 -0.18679998815059662
-0.010530824773013592 0.03927367553114891 -0.18569999933242798
-0.009508204646408558 0.03906218335032463 -0.18469999730587006
-0.008528417907655239 0.038998737931251526 -0.18439999222755432
-0.0037670102901756763 0.03963320702314377 -0.1873999983072281
-0.00280631217174232 0.039908140897750854 -0.18869999051094055
-0.001838766853325069 0.040331121534109116 -0.1906999945640564
-0.0008494204375892878 0.04071180522441864 -0.19249999523162842
0.02159675769507885 0.04128282889723778 -0.19519999623298645
0.022478535771369934 0.04102903977036476 -0.1939999908208847
0.0233962032943964 0.04085984826087952 -0.1931999921798706
-0.03179286792874336 0.03817877545952797 -0.1850999891757965
-0.030974742025136948 0.038364410400390625 -0.18599998950958252
-0.009503056295216084 0.03807564824819565 -0.18459999561309814
-0.008514543995261192 0.03797251731157303 -0.18410000205039978
-0.007547667250037193 0.037951890379190445 -0.18400000035762787
-0.0037650002632290125 0.03863254934549332 -0.18729999661445618
-0.0028033379931002855 0.038880061358213425 -0.18850000202655792
-0.0018349098972976208 0.03925132751464844 -0.19029998779296875
0.021641012281179428 0.04034450650215149 -0.1955999881029129
0.0233962032943964 0.03984948247671127 -0.1931999921798706
0.02415391057729721 0.03943696245551109 -0.19119998812675476
-0.030841516330838203 0.037230875343084335 -0.18519999086856842
-0.030034292489290237 0.037431906908750534 -0.18619999289512634
-0.009503056295216084 0.037110257893800735 -0.18459999561309814
-0.008509918116033077 0.036989640444517136 -0.18400000035762787
-0.0075394632294774055 0.036949433386325836 -0.18379999697208405
-0.004691313020884991 0.037230875343084335 -0.18519999086856842
-0.0037609797436743975 0.037612833082675934 -0.18709999322891235
-0.00280631217174232 0.03793448209762573 -0.18869999051094055
0.022501710802316666 0.03904015198349953 -0.19419999420642853
0.0233962032943964 0.03883912041783333 -0.1931999921798706
0.02409074641764164 0.03833654522895813 -0.1906999945640564
-0.029872991144657135 0.03626234829425812 -0.18519999086856842
-0.02906053699553013 0.036458149552345276 -0.18619999289512634
-0.008500668220221996 0.035988230258226395 -0.18379999697208405
-0.0075394632294774055 0.035988230258226395 -0.18379999697208405
-0.0046786474995315075 0.03616445139050484 -0.18469999730587006
-0.0037650002632290125 0.03667353466153145 -0.18729999661445618
-0.0028092865832149982 0.0369868129491806 -0.18889999389648438
0.022501710802316666 0.03802455961704254 -0.19419999420642853
0.0233962032943964 0.03782875835895538 -0.1931999921798706
0.024040214717388153 0.037260934710502625 -0.19029998779296875
0.024890700355172157 0.03704555705189705 -0.1891999989748001
-0.029872991144657135 0.0352938249707222 -0.18519999086856842
-0.028951287269592285 0.035350997000932693 -0.18549999594688416
-0.009503056295216084 0.03517948091030121 -0.18459999561309814
-0.008500668220221996 0.035027023404836655 -0.18379999697208405
-0.0075394632294774055 0.035027023404836655 -0.18379999697208405
-0.006578258704394102 0.035027023404836655 -0.18379999697208405
-0.004676114302128553 0.03517948091030121 -0.18459999561309814
-0.0037710308097302914 0.03575119748711586 -0.1876000016927719
-0.0028137480840086937 0.03605611249804497 -0.1891999989748001
0.022478535771369934 0.03697085380554199 -0.1939999908208847
0.02334776520729065 0.03674216940999031 -0.19280000030994415
0.02397705242037773 0.03617045283317566 -0.18979999423027039
0.024851232767105103 0.03599894046783447 -0.18889999389648438
-0.028904464095830917 0.03432529792189598 -0.18519999086856842
-0.027981191873550415 0.03438090160489082 -0.18549999594688416
-0.008500668220221996 0.03406582027673721 -0.18379999697208405
-0.007535361219197512 0.034047286957502365 -0.18369999527931213
-0.005617054179310799 0.03406582027673721 -0.18379999697208405
-0.0046710483729839325 0.0341770239174366 -0.18439999222755432
-0.0037710308097302914 0.034770119935274124 -0.1876000016927719
0.0232872162014246 0.035641223192214966 -0.1922999918460846
0.023926522582769394 0.03510373458266258 -0.18940000236034393
0.02478545531630516 0.034918393939733505 -0.188400000333786
-0.027920855209231377 0.0333387590944767 -0.1850999891757965
-0.007535361219197512 0.03308660537004471 -0.18369999527931213
-0.006574679631739855 0.03308660537004471 -0.18369999527931213
-0.005617054179310799 0.03310461714863777 -0.18379999697208405
-0.0046710483729839325 0.03321268409490585 -0.18439999222755432
-0.0037730406038463116 0.03380705043673515 -0.18769998848438263
0.023045018315315247 0.03427534177899361 -0.19029998779296875
0.023838091641664505 0.03398716449737549 -0.18869999051094055
0.024759141728281975 0.03389710932970047 -0.1881999969482422
-0.02689460851252079 0.032300807535648346 -0.18469999730587006
-0.007535361219197512 0.03212592378258705 -0.18369999527931213
-0.006574679631739855 0.03212592378258705 -0.18369999527931213
-0.005617054179310799 0.03214341029524803 -0.18379999697208405
-0.004676114302128553 0.03228331729769707 -0.18459999561309814
0.022875480353832245 0.033035311847925186 -0.18889999389648438
0.023774927482008934 0.03291289508342743 -0.1881999969482422
0.024745985865592957 0.03289540484547615 -0.18809999525547028
-0.026880046352744102 0.03131793066859245 -0.18459999561309814
-0.02588658034801483 0.03128399699926376 -0.18439999222755432
-0.007535361219197512 0.031165242195129395 -0.18369999527931213
-0.006574679631739855 0.031165242195129395 -0.18369999527931213
-0.005617054179310799 0.03118220716714859 -0.18379999697208405
-0.004691313020884991 0.031419720500707626 -0.18519999086856842
0.023737028241157532 0.0318777821958065 -0.18789999186992645
0.02471967414021492 0.0318777821958065 -0.18789999186992645
-0.025872543454170227 0.030303213745355606 -0.1842999905347824
-0.024881694465875626 0.030270330607891083 -0.18410000205039978
-0.006578258704394102 0.030221002176404 -0.18379999697208405
-0.005632334388792515 0.030303213745355606 -0.1842999905347824
-0.004716644063591957 0.03061561845242977 -0.18619999289512634
0.022754382342100143 0.030895136296749115 -0.18789999186992645
0.023711763322353363 0.030862251296639442 -0.18769998848438263
0.024745985865592957 0.030928023159503937 -0.18809999525547028
-0.024841148406267166 0.02925979718565941 -0.18379999697208405
-0.023879943415522575 0.02925979718565941 -0.18379999697208405
-0.022981083020567894 0.029339393600821495 -0.1842999905347824
-0.00661046989262104 0.029403071850538254 -0.18469999730587006
-0.005675119813531637 0.029562266543507576 -0.18569999933242798
0.022754382342100143 0.029912490397691727 -0.18789999186992645
0.02376229502260685 0.02994433045387268 -0.18809999525547028
0.024824921041727066 0.030039845034480095 -0.18869999051094055
-0.02384096570312977 0.028252404183149338 -0.1834999918937683
-0.022906268015503883 0.028283197432756424 -0.18369999527931213
-0.021993372589349747 0.028344783931970596 -0.18410000205039978
-0.006703524850308895 0.02883746661245823 -0.18729999661445618
-0.005742352921515703 0.02892984449863434 -0.18789999186992645
0.009050009772181511 0.029099205508828163 -0.1889999955892563
0.010033097118139267 0.02908380888402462 -0.18889999389648438
0.011009304784238338 0.029053015634417534 -0.18869999051094055
0.011964348144829273 0.028976034373044968 -0.1881999969482422
0.022814933210611343 0.029006827622652054 -0.188400000333786
0.023863356560468674 0.02908380888402462 -0.18889999389648438
0.025153813883662224 0.029437925666570663 -0.19119998812675476
-0.02380198985338211 0.02724814973771572 -0.18320000171661377
-0.02286885865032673 0.02727789431810379 -0.1833999902009964
-0.021945586428046227 0.027322515845298767 -0.18369999527931213
-0.02105344459414482 0.027411755174398422 -0.1842999905347824
-0.0067536309361457825 0.028066186234354973 -0.18869999051094055
-0.0057759699411690235 0.02811080776154995 -0.1889999955892563
-0.00481796870008111 0.02828929014503956 -0.19020000100135803
0.006123448256403208 0.02828929014503956 -0.19020000100135803
0.007136834319680929 0.028363656252622604 -0.1906999945640564
0.008155450224876404 0.02843802236020565 -0.19119998812675476
0.009155353531241417 0.02843802236020565 -0.19119998812675476
0.010155257768929005 0.02843802236020565 -0.19119998812675476
0.011096819303929806 0.02828929014503956 -0.19020000100135803
0.01200884860008955 0.02809593454003334 -0.18889999389648438
0.01294168271124363 0.027976946905255318 -0.18809999525547028
0.013851343654096127 0.027828210964798927 -0.18709999322891235
0.021864430978894234 0.028066186234354973 -0.18869999051094055
0.022936031222343445 0.028170302510261536 -0.18940000236034393
0.02415391057729721 0.02843802236020565 -0.19119998812675476
-0.021909745410084724 0.026318781077861786 -0.1833999902009964
-0.02098490484058857 0.02636183425784111 -0.18369999527931213
-0.02008962444961071 0.02644793502986431 -0.1842999905347824
-0.00584625918418169 0.027452468872070312 -0.19129998981952667
0.004105843137949705 0.02710805833339691 -0.18889999389648438
0.005142256151884794 0.027366366237401962 -0.1906999945640564
0.006191057153046131 0.027595974504947662 -0.1922999918460846
0.007215425837785006 0.027667727321386337 -0.19280000030994415
0.008240758441388607 0.027725128456950188 -0.1931999921798706
0.009251121431589127 0.027725128456950188 -0.1931999921798706
0.010250861756503582 0.027696426957845688 -0.19299998879432678
0.011172665283083916 0.027481170371174812 -0.1914999932050705
0.012040635570883751 0.027179811149835587 -0.18940000236034393
0.012948562391102314 0.027007605880498886 -0.1881999969482422
0.013866150751709938 0.02687845192849636 -0.18729999661445618
0.020877601578831673 0.027079356834292412 -0.18869999051094055
0.021980300545692444 0.02722286246716976 -0.18969999253749847
0.023166116327047348 0.027452468872070312 -0.19129998981952667
-0.022831451147794724 0.025318186730146408 -0.18310000002384186
-0.021885855123400688 0.0253320150077343 -0.18320000171661377
-0.02095063403248787 0.02535966783761978 -0.1833999902009964
-0.020024223253130913 0.025401152670383453 -0.18369999527931213
0.003111365484073758 0.026064874604344368 -0.18850000202655792
0.004123231861740351 0.02623080275952816 -0.18969999253749847
0.005185400601476431 0.026590317487716675 -0.1922999918460846
0.006229690741747618 0.026756249368190765 -0.19349999725818634
0.007249108050018549 0.026783904060721397 -0.19370000064373016
0.008270615711808205 0.02681155875325203 -0.1938999891281128
0.010277418419718742 0.026756249368190765 -0.19349999725818634
0.011201837100088596 0.0265488363802433 -0.19200000166893005
0.012046991847455502 0.026203148066997528 -0.18949998915195465
0.012962323613464832 0.026051046326756477 -0.188400000333786
0.013873553834855556 0.025912771001458168 -0.1873999983072281
0.01480602752417326 0.025829803198575974 -0.18679998815059662
0.019869690760970116 0.026064874604344368 -0.18850000202655792
0.020955050364136696 0.026189321652054787 -0.18940000236034393
0.022188864648342133 0.026479698717594147 -0.1914999932050705
0.0233962032943964 0.026714766398072243 -0.1931999921798706
-0.030891476199030876 0.02467995323240757 -0.18549999594688416
-0.029695561155676842 0.024493688717484474 -0.18410000205039978
-0.028639143332839012 0.024413861334323883 -0.1834999918937683
-0.027619171887636185 0.024360643699765205 -0.18310000002384186
-0.026588821783661842 0.024294119328260422 -0.1825999915599823
-0.025605814531445503 0.02426750957965851 -0.18239998817443848
-0.024705994874238968 0.024320729076862335 -0.18279999494552612
-0.022831451147794724 0.024360643699765205 -0.18310000002384186
-0.021885855123400688 0.024373948574066162 -0.18320000171661377
-0.02092778868973255 0.024373948574066162 -0.18320000171661377
-0.019969720393419266 0.024373948574066162 -0.18320000171661377
-0.019042786210775375 0.024413861334323883 -0.1834999918937683
-0.005910436622798443 0.025731012225151062 -0.19339999556541443
0.0031146665569394827 0.02510569803416729 -0.18869999051094055
0.004144967067986727 0.025371789932250977 -0.1906999945640564
0.005209669005125761 0.02570440247654915 -0.1931999921798706
0.006245788186788559 0.025810839608311653 -0.1939999908208847
0.012066063471138477 0.025252047926187515 -0.18979999423027039
0.01298296358436346 0.02510569803416729 -0.18869999051094055
0.013925375416874886 0.0250258706510067 -0.18809999525547028
0.014845658093690872 0.024919435381889343 -0.18729999661445618
0.018883908167481422 0.025079090148210526 -0.18850000202655792
0.019975099712610245 0.025212133303284645 -0.18949998915195465
0.021187391132116318 0.025478225201368332 -0.1914999932050705
0.022385841235518456 0.02570440247654915 -0.1931999921798706
-0.0363970585167408 0.024144431576132774 -0.18889999389648438
-0.03537169471383095 0.02411886863410473 -0.18869999051094055
-0.03438486531376839 0.02411886863410473 -0.18869999051094055
-0.03334493935108185 0.02408052422106266 -0.188400000333786
-0.032325323671102524 0.024054961279034615 -0.1881999969482422
-0.03129114955663681 0.024016615003347397 -0.18789999186992645
-0.030179463326931 0.023914363235235214 -0.18709999322891235
-0.028982501477003098 0.023735420778393745 -0.18569999933242798
-0.027815265581011772 0.0235692597925663 -0.18439999222755432
-0.02674899436533451 0.02347978949546814 -0.18369999527931213
-0.025746198371052742 0.023441443219780922 -0.1833999902009964
-0.024760056287050247 0.023415882140398026 -0.18320000171661377
-0.02380198985338211 0.023415882140398026 -0.18320000171661377
-0.022843921557068825 0.023415882140398026 -0.18320000171661377
-0.021909745410084724 0.023441443219780922 -0.1833999902009964
-0.02092778868973255 0.023415882140398026 -0.18320000171661377
-0.019969720393419266 0.023415882140398026 -0.18320000171661377
-0.01903240755200386 0.023441443219780922 -0.1833999902009964
-0.0181028600782156 0.02347978949546814 -0.18369999527931213
0.0031179676298052073 0.024144431576132774 -0.18889999389648438
0.004158008377999067 0.02445118874311447 -0.19129998981952667
0.005217758938670158 0.024732384830713272 -0.19349999725818634
0.01212327927350998 0.024374499917030334 -0.1906999945640564
0.013017364777624607 0.024182777851819992 -0.1891999989748001
0.013947585597634315 0.02408052422106266 -0.188400000333786
0.014909067191183567 0.024042179808020592 -0.18809999525547028
0.01590120792388916 0.024054961279034615 -0.1881999969482422
0.016912339255213737 0.024093305692076683 -0.18850000202655792
0.0179361030459404 0.024144431576132774 -0.18889999389648438
0.019014140591025352 0.02425946667790413 -0.18979999423027039
0.020185919478535652 0.024476753547787666 -0.1914999932050705
-0.03863689303398132 0.0233159177005291 -0.19020000100135803
-0.0376422181725502 0.0233159177005291 -0.19020000100135803
-0.0365704707801342 0.023266881704330444 -0.18979999423027039
-0.035559143871068954 0.023254623636603355 -0.18969999253749847
-0.0345306396484375 0.02323010563850403 -0.18949998915195465
-0.033521927893161774 0.02321784943342209 -0.18940000236034393
-0.03246273472905159 0.023168813437223434 -0.1889999955892563
-0.031424373388290405 0.02313203737139702 -0.18869999051094055
-0.024922238662838936 0.022604916244745255 -0.18439999222755432
-0.023879943415522575 0.022531364113092422 -0.18379999697208405
-0.021945586428046227 0.022519106045365334 -0.18369999527931213
-0.02098490484058857 0.022519106045365334 -0.18369999527931213
-0.020024223253130913 0.022519106045365334 -0.18369999527931213
-0.019063541665673256 0.022519106045365334 -0.18369999527931213
-0.018142279237508774 0.022568142041563988 -0.18410000205039978
-0.01728215254843235 0.022702984511852264 -0.18519999086856842
-0.016436947509646416 0.022874606773257256 -0.186599999666214
-0.015585385262966156 0.023058485239744186 -0.18809999525547028
0.002115432871505618 0.022997193038463593 -0.1876000016927719
0.0031179676298052073 0.023156555369496346 -0.18889999389648438
0.012205923907458782 0.023536572232842445 -0.19200000166893005
0.013120567426085472 0.023377209901809692 -0.1906999945640564
0.014021617360413074 0.02321784943342209 -0.18940000236034393
0.014980402775108814 0.023168813437223434 -0.1889999955892563
0.016002599149942398 0.02321784943342209 -0.18940000236034393
0.01702897623181343 0.023266881704330444 -0.18979999423027039
0.018154488876461983 0.023438502103090286 -0.19119998812675476
0.019264589995145798 0.02357334829866886 -0.1922999918460846
-0.04073303937911987 0.0223799217492342 -0.1906999945640564
-0.03986077010631561 0.022450335323810577 -0.19129998981952667
-0.038860343396663666 0.022450335323810577 -0.19129998981952667
-0.03784012421965599 0.022438598796725273 -0.19119998812675476
-0.03685948997735977 0.022450335323810577 -0.19129998981952667
-0.035840317606925964 0.022438598796725273 -0.19119998812675476
-0.034767527133226395 0.022391656413674355 -0.1907999962568283
-0.02105344459414482 0.021628838032484055 -0.1842999905347824
-0.019219204783439636 0.021734459325671196 -0.18519999086856842
-0.01834922470152378 0.021851815283298492 -0.18619999289512634
-0.01748744770884514 0.021992644295096397 -0.1873999983072281
-0.016569077968597412 0.02207479439675808 -0.18809999525547028
-0.015651671215891838 0.022168679162859917 -0.18889999389648438
-0.014764711260795593 0.022321242839097977 -0.19020000100135803
0.002109794644638896 0.021957436576485634 -0.18709999322891235
0.0031146665569394827 0.022145207971334457 -0.18869999051094055
0.01226949505507946 0.022649841383099556 -0.19299998879432678
0.013278812170028687 0.022649841383099556 -0.19299998879432678
0.014177083037793636 0.022473806515336037 -0.1914999932050705
0.015162703581154346 0.022450335323810577 -0.19129998981952667
0.016205376014113426 0.0225090142339468 -0.19179999828338623
0.017271222546696663 0.022591162472963333 -0.19249999523162842
-0.04164279252290726 0.021337781101465225 -0.19029998779296875
-0.04086119681596756 0.02144990861415863 -0.19129998981952667
-0.0399649553000927 0.021505972370505333 -0.19179999828338623
-0.039063479751348495 0.021562036126852036 -0.1922999918460846
-0.03799845278263092 0.021528398618102074 -0.19200000166893005
-0.036994367837905884 0.021528398618102074 -0.19200000166893005
-0.019520152360200882 0.021091101691126823 -0.18809999525547028
-0.01856602542102337 0.021124741062521935 -0.188400000333786
-0.017627421766519547 0.021180802956223488 -0.18889999389648438
-0.016683589667081833 0.02123686857521534 -0.18940000236034393
-0.015767669305205345 0.021337781101465225 -0.19029998779296875
-0.014888915233314037 0.021505972370505333 -0.19179999828338623
0.002097390592098236 0.020855633541941643 -0.18599998950958252
0.003098160494118929 0.02104625105857849 -0.18769998848438263
0.012313996441662312 0.021719014272093773 -0.19370000064373016
0.013313214294612408 0.021696588024497032 -0.19349999725818634
0.01431774441152811 0.021685374900698662 -0.19339999556541443
0.015329153276979923 0.021685374900698662 -0.19339999556541443
0.016349010169506073 0.021696588024497032 -0.19349999725818634
-0.04261558875441551 0.020331894978880882 -0.19020000100135803
-0.04173032566905022 0.020385343581438065 -0.1906999945640564
-0.04090391471982002 0.020470861345529556 -0.1914999932050705
-0.04000663012266159 0.02052430994808674 -0.19200000166893005
-0.03910410776734352 0.02057775855064392 -0.19249999523162842
-0.038097407668828964 0.02057775855064392 -0.19249999523162842
-0.016912614926695824 0.02052430994808674 -0.19200000166893005
-0.01597481407225132 0.02060982771217823 -0.19280000030994415
-0.014997592195868492 0.020652586594223976 -0.1931999921798706
0.0020793485455214977 0.019711889326572418 -0.18439999222755432
-0.043610263615846634 0.01933722198009491 -0.19020000100135803
-0.04263799265027046 0.019347386434674263 -0.19029998779296875
-0.04173032566905022 0.019388053566217422 -0.1906999945640564
-0.04090391471982002 0.01946938782930374 -0.1914999932050705
-0.04000663012266159 0.019520223140716553 -0.19200000166893005
0.0011113781947642565 0.01868654601275921 -0.18379999697208405
0.002074838150292635 0.018706880509853363 -0.18400000035762787
0.003043691162019968 0.018747547641396523 -0.18439999222755432
0.004031942691653967 0.0188593827188015 -0.18549999594688416
-0.0437249056994915 0.01839076541364193 -0.1906999945640564
-0.04272761568427086 0.01839076541364193 -0.1906999945640564
-0.04173032566905022 0.01839076541364193 -0.1906999945640564
-0.04086119681596756 0.01844862848520279 -0.19129998981952667
0.001115006161853671 0.017783204093575478 -0.18439999222755432
0.0020793485455214977 0.017783204093575478 -0.18439999222755432
0.003043691162019968 0.017783204093575478 -0.18439999222755432
0.004014553967863321 0.017812136560678482 -0.18469999730587006
0.004991251043975353 0.017850711941719055 -0.1850999891757965
0.005962473805993795 0.017860354855656624 -0.18519999086856842
0.006942227482795715 0.01788928732275963 -0.18549999594688416
-0.04474564641714096 0.01740259677171707 -0.1907999962568283
-0.043747834861278534 0.01740259677171707 -0.1907999962568283
-0.04275002330541611 0.01740259677171707 -0.1907999962568283
-0.04183973744511604 0.01743908040225506 -0.19119998812675476
0.0011295181466266513 0.017037762328982353 -0.18679998815059662
0.0021041566506028175 0.017019521445035934 -0.186599999666214
0.0030734017491340637 0.016983037814497948 -0.18619999289512634
0.004047157242894173 0.016983037814497948 -0.18619999289512634
0.005015519913285971 0.01696479506790638 -0.18599998950958252
0.0059721325524151325 0.016919191926717758 -0.18549999594688416
0.006927257403731346 0.01688270829617977 -0.1850999891757965
0.007895260117948055 0.01688270829617977 -0.1850999891757965
-0.04486290365457535 0.016447775065898895 -0.19129998981952667
-0.0438624732196331 0.016447775065898895 -0.19129998981952667
-0.042839642614126205 0.016439177095890045 -0.19119998812675476
-0.04190538823604584 0.016464971005916595 -0.1914999932050705
0.003101461799815297 0.01615544594824314 -0.18789999186992645
0.004079760517925024 0.01613825000822544 -0.18769998848438263
0.005045181605964899 0.01608666405081749 -0.18709999322891235
0.005994668696075678 0.01600928232073784 -0.18619999289512634
0.006942227482795715 0.015949096530675888 -0.18549999594688416
0.007895260117948055 0.015914704650640488 -0.1850999891757965
0.008868051692843437 0.015923302620649338 -0.18519999086856842
-0.045863330364227295 0.015447348356246948 -0.19129998981952667
-0.044980164617300034 0.015487723052501678 -0.19179999828338623
-0.04397711902856827 0.015487723052501678 -0.19179999828338623
-0.04290686175227165 0.015463498421013355 -0.1914999932050705
0.006942227482795715 0.014979002065956593 -0.18549999594688416
0.007895260117948055 0.014946701936423779 -0.1850999891757965
0.008868051692843437 0.01495477743446827 -0.18519999086856842
-0.0459832064807415 0.014484680257737637 -0.19179999828338623
-0.04502706974744797 0.01449978444725275 -0.19200000166893005
-0.044022977352142334 0.01449978444725275 -0.19200000166893005
0.006930999923497438 0.013986249454319477 -0.18519999086856842
0.007895260117948055 0.01397869735956192 -0.1850999891757965
0.008882417343556881 0.014008905738592148 -0.18549999594688416
-0.0459832064807415 0.013481639325618744 -0.19179999828338623
-0.04502706974744797 0.01349569670855999 -0.19200000166893005
-0.044022977352142334 0.01349569670855999 -0.19200000166893005
0.007895260117948055 0.013010694645345211 -0.1850999891757965
0.008906358852982521 0.013073955662548542 -0.18599998950958252
0.0167867299169302 0.013151274994015694 -0.18709999322891235
-0.0459832064807415 0.012478597462177277 -0.19179999828338623
-0.044980164617300034 0.012478597462177277 -0.19179999828338623
-0.04390833154320717 0.012459078803658485 -0.1914999932050705
-0.015195957385003567 0.011932088993489742 -0.1833999902009964
-0.014260133728384972 0.011951607652008533 -0.18369999527931213
-0.013350130058825016 0.01199714932590723 -0.18439999222755432
-0.012493256479501724 0.012101246044039726 -0.18599998950958252
0.006901060696691275 0.01199714932590723 -0.18439999222755432
0.007895260117948055 0.012042691931128502 -0.1850999891757965
0.008906358852982521 0.012101246044039726 -0.18599998950958252
0.015715327113866806 0.012101246044039726 -0.18599998950958252
0.016643177717924118 0.012068715877830982 -0.18549999594688416
0.017632262781262398 0.01208172831684351 -0.18569999933242798
-0.0459112823009491 0.01145760715007782 -0.1914999932050705
-0.04490980878472328 0.01145760715007782 -0.1914999932050705
-0.0438624732196331 0.011445640586316586 -0.19129998981952667
-0.02242344245314598 0.011230249889194965 -0.18769998848438263
-0.021396148949861526 0.011206317692995071 -0.18729999661445618
-0.020362136885523796 0.011176401749253273 -0.18679998815059662
-0.018201405182480812 0.011050757952034473 -0.18469999730587006
-0.01715151034295559 0.010996909812092781 -0.18379999697208405
-0.016155069693922997 0.010972976684570312 -0.1833999902009964
-0.013299452140927315 0.010990926064550877 -0.18369999527931213
-0.012385787442326546 0.011032807640731335 -0.18439999222755432
-0.01157009694725275 0.011176401749253273 -0.18679998815059662
-0.010672596283257008 0.011260165832936764 -0.1881999969482422
0.005933498498052359 0.011026824824512005 -0.1842999905347824
0.006889833603054285 0.011014859192073345 -0.18410000205039978
0.007873933762311935 0.011044774204492569 -0.18459999561309814
0.014639578759670258 0.011050757952034473 -0.18469999730587006
0.0156392864882946 0.011074689216911793 -0.1850999891757965
0.01661626063287258 0.011080672964453697 -0.18519999086856842
0.0175847876816988 0.011080672964453697 -0.18519999086856842
-0.045863330364227295 0.010445212945342064 -0.19129998981952667
-0.04483945295214653 0.010439752601087093 -0.19119998812675476
-0.043747834861278534 0.01041791308671236 -0.1907999962568283
-0.02346738986670971 0.010275949724018574 -0.1881999969482422
-0.02248317562043667 0.010275949724018574 -0.1881999969482422
-0.021498961374163628 0.010275949724018574 -0.1881999969482422
-0.020503845065832138 0.010270489379763603 -0.18809999525547028
-0.01947864145040512 0.010248648934066296 -0.18769998848438263
-0.011532934382557869 0.010166747495532036 -0.18619999289512634
-0.010666925460100174 0.010270489379763603 -0.18809999525547028
-0.009724416770040989 0.010314170271158218 -0.18889999389648438
0.005927060265094042 0.010052084922790527 -0.18410000205039978
0.006886091083288193 0.010046624578535557 -0.18400000035762787
0.007852607406675816 0.010052084922790527 -0.18410000205039978
0.013651457615196705 0.010068465024232864 -0.18439999222755432
0.014631652273237705 0.010079385712742805 -0.18459999561309814
0.0156392864882946 0.010106685571372509 -0.1850999891757965
0.017632262781262398 0.010139446705579758 -0.18569999933242798
0.018633456900715828 0.010155826807022095 -0.18599998950958252
-0.045863330364227295 0.009444786235690117 -0.19129998981952667
-0.04483945295214653 0.00943984929472208 -0.19119998812675476
-0.0437249056994915 0.009415163658559322 -0.1906999945640564
-0.0245425533503294 0.009326294995844364 -0.18889999389648438
-0.023592084646224976 0.009341106750071049 -0.1891999989748001
-0.02262653224170208 0.009350981563329697 -0.18940000236034393
-0.021613195538520813 0.009341106750071049 -0.1891999989748001
-0.01157009694725275 0.009222614578902721 -0.18679998815059662
-0.010683937929570675 0.009301609359681606 -0.188400000333786
-0.009750156663358212 0.009350981563329697 -0.18940000236034393
0.0059463768266141415 0.009118934161961079 -0.18469999730587006
0.006889833603054285 0.009089311584830284 -0.18410000205039978
0.007852607406675816 0.009089311584830284 -0.18410000205039978
0.008824956603348255 0.009099185466766357 -0.1842999905347824
0.009794087149202824 0.009104122407734394 -0.18439999222755432
0.011716414242982864 0.009099185466766357 -0.1842999905347824
0.0126802334561944 0.009099185466766357 -0.1842999905347824
0.013651457615196705 0.009104122407734394 -0.18439999222755432
0.014671282842755318 0.0091386828571558 -0.1850999891757965
0.01568998210132122 0.009168306365609169 -0.18569999933242798
0.016714954748749733 0.009197928942739964 -0.18629999458789825
0.017689231783151627 0.009197928942739964 -0.18629999458789825
0.01869356632232666 0.009212740696966648 -0.186599999666214
-0.045863330364227295 0.00844435952603817 -0.19129998981952667
-0.04483945295214653 0.008439945988357067 -0.19119998812675476
-0.043747834861278534 0.008422289043664932 -0.1907999962568283
-0.02550339698791504 0.008329590782523155 -0.18869999051094055
-0.024620506912469864 0.008364904671907425 -0.18949998915195465
-0.023654431104660034 0.008373732678592205 -0.18969999253749847
-0.022638477385044098 0.008364904671907425 -0.18949998915195465
-0.01162584125995636 0.008285448886454105 -0.18769998848438263
-0.010712292045354843 0.00833841972053051 -0.18889999389648438
0.006930999923497438 0.008175093680620193 -0.18519999086856842
0.007895260117948055 0.008170679211616516 -0.1850999891757965
0.008863263763487339 0.008170679211616516 -0.1850999891757965
0.00983657781034708 0.008175093680620193 -0.18519999086856842
0.010799270123243332 0.008170679211616516 -0.1850999891757965
0.011767272837460041 0.008170679211616516 -0.1850999891757965
0.01274215616285801 0.008175093680620193 -0.18519999086856842
0.017765192314982414 0.00825896393507719 -0.18709999322891235
0.01874365471303463 0.00825896393507719 -0.18709999322891235
-0.04483945295214653 0.007440042216330767 -0.19119998812675476
-0.04383954778313637 0.007440042216330767 -0.19119998812675476
-0.02553042769432068 0.007350543979555368 -0.18889999389648438
-0.024711454287171364 0.00740113016217947 -0.19020000100135803
-0.023716779425740242 0.00740113016217947 -0.19020000100135803
-0.01245967298746109 0.0072182416915893555 -0.18549999594688416
-0.011650617234408855 0.007319414056837559 -0.18809999525547028
-0.010729305446147919 0.007362217642366886 -0.1891999989748001
0.007942180149257183 0.007245480548590422 -0.18619999289512634
0.008906358852982521 0.007237697951495647 -0.18599998950958252
0.009879068471491337 0.007237697951495647 -0.18599998950958252
0.010851779021322727 0.007237697951495647 -0.18599998950958252
0.017784183844923973 0.007288284134119749 -0.18729999661445618
0.01874365471303463 0.007280501537024975 -0.18709999322891235
-0.04486290365457535 0.006443506572395563 -0.19129998981952667
-0.0438624732196331 0.006443506572395563 -0.19129998981952667
-0.024711454287171364 0.0064064557664096355 -0.19020000100135803
-0.023729246109724045 0.006409823894500732 -0.19029998779296875
-0.012439521960914135 0.006238041911274195 -0.18519999086856842
-0.011650617234408855 0.006335722282528877 -0.18809999525547028
0.017784183844923973 0.00630877586081624 -0.18729999661445618
0.01871360093355179 0.006291934289038181 -0.18679998815059662
0.01974320039153099 0.00630877586081624 -0.18729999661445618
-0.04483945295214653 0.0054402342066168785 -0.19119998812675476
-0.04383954778313637 0.0054402342066168785 -0.19119998812675476
-0.042862050235271454 0.005443079397082329 -0.19129998981952667
-0.02546285279095173 0.005360566079616547 -0.188400000333786
-0.024555545300245285 0.005377637688070536 -0.1889999955892563
