ply
format ascii 1.0
element vertex 802
property float x
property float y
property float z
end_header
0.11194037646055222 0.022778937593102455 0.2807999849319458
0.11279468238353729 0.022803276777267456 0.28110000491142273
0.11369092017412186 0.02283572219312191 0.281499981880188
0.11442666500806808 0.02283572219312191 0.281499981880188
0.11532605439424515 0.022868171334266663 0.28189998865127563
0.11606284230947495 0.022868171334266663 0.28189998865127563
0.049363430589437485 0.02342074364423752 0.27969998121261597
0.050166115164756775 0.02345423772931099 0.2800999879837036
0.050898198038339615 0.02345423772931099 0.2800999879837036
0.05163028463721275 0.02345423772931099 0.2800999879837036
0.05236237123608589 0.02345423772931099 0.2800999879837036
0.05309445410966873 0.02345423772931099 0.2800999879837036
0.05388418957591057 0.023479357361793518 0.28039997816085815
0.05461706221103668 0.023479357361793518 0.28039997816085815
0.0554288886487484 0.02351285330951214 0.2807999849319458
0.06634297966957092 0.023479357361793518 0.28039997816085815
0.06717153638601303 0.02351285330951214 0.2807999849319458
0.06790544837713242 0.02351285330951214 0.2807999849319458
0.06871270388364792 0.023537974804639816 0.28110000491142273
0.08896666020154953 0.02345423772931099 0.2800999879837036
0.08947458118200302 0.02339562401175499 0.2793999910354614
0.09007570147514343 0.02336212992668152 0.2789999842643738
0.09057708829641342 0.02330351434648037 0.2782999873161316
0.09117322415113449 0.0232700202614069 0.27789998054504395
0.09156887233257294 0.02318628691136837 0.2768999934196472
0.09229259938001633 0.02318628691136837 0.2768999934196472
0.0927811786532402 0.02312767133116722 0.27619999647140503
0.09350307285785675 0.02312767133116722 0.27619999647140503
0.0944637656211853 0.02318628691136837 0.2768999934196472
0.09553124010562897 0.0232700202614069 0.27789998054504395
0.09639613330364227 0.02330351434648037 0.2782999873161316
0.0973678007721901 0.02336212992668152 0.2789999842643738
0.0983431339263916 0.02342074364423752 0.27969998121261597
0.09921586513519287 0.02345423772931099 0.2800999879837036
0.10005500167608261 0.023479357361793518 0.28039997816085815
0.10078787058591843 0.023479357361793518 0.28039997816085815
0.10166555643081665 0.02351285330951214 0.2807999849319458
0.10239947587251663 0.02351285330951214 0.2807999849319458
0.10298647731542587 0.023479357361793518 0.28039997816085815
0.10371934622526169 0.023479357361793518 0.28039997816085815
0.1044522151350975 0.023479357361793518 0.28039997816085815
0.10518509149551392 0.023479357361793518 0.28039997816085815
0.10591795295476913 0.023479357361793518 0.28039997816085815
0.10653672367334366 0.02345423772931099 0.2800999879837036
0.1072688102722168 0.02345423772931099 0.2800999879837036
0.10800089687108994 0.02345423772931099 0.2800999879837036
0.10873298346996307 0.02345423772931099 0.2800999879837036
0.10958230495452881 0.023479357361793518 0.28039997816085815
0.11031517386436462 0.023479357361793518 0.28039997816085815
0.11104804277420044 0.023479357361793518 0.28039997816085815
0.11194037646055222 0.02351285330951214 0.2807999849319458
0.11279468238353729 0.023537974804639816 0.28110000491142273
0.11442666500806808 0.023571467027068138 0.281499981880188
0.0487019382417202 0.024186326190829277 0.2800999879837036
0.049434028565883636 0.024186326190829277 0.2800999879837036
0.050166115164756775 0.024186326190829277 0.2800999879837036
0.050825510174036026 0.024151785299181938 0.27969998121261597
0.05163028463721275 0.024186326190829277 0.2800999879837036
0.05236237123608589 0.024186326190829277 0.2800999879837036
0.05309445410966873 0.024186326190829277 0.2800999879837036
0.05382654070854187 0.024186326190829277 0.2800999879837036
0.05461706221103668 0.024212229996919632 0.28039997816085815
0.0553499273955822 0.024212229996919632 0.28039997816085815
0.06643762439489365 0.02424676902592182 0.2807999849319458
0.06717153638601303 0.02424676902592182 0.2807999849319458
0.06797800213098526 0.024272676557302475 0.28110000491142273
0.06881047785282135 0.024307213723659515 0.281499981880188
0.08947458118200302 0.024125881493091583 0.2793999910354614
0.09007570147514343 0.024091340601444244 0.2789999842643738
0.09057708829641342 0.0240308977663517 0.2782999873161316
0.09117322415113449 0.02399635687470436 0.27789998054504395
0.09166807681322098 0.023935914039611816 0.27719998359680176
0.09229259938001633 0.02391001023352146 0.2768999934196472
0.09301631897687912 0.02391001023352146 0.2768999934196472
0.09374004602432251 0.02391001023352146 0.2768999934196472
0.09456610679626465 0.023935914039611816 0.27719998359680176
0.09553124010562897 0.02399635687470436 0.27789998054504395
0.09639613330364227 0.0240308977663517 0.2782999873161316
0.0973678007721901 0.024091340601444244 0.2789999842643738
0.0983431339263916 0.024151785299181938 0.27969998121261597
0.09921586513519287 0.024186326190829277 0.2800999879837036
0.10005500167608261 0.024212229996919632 0.28039997816085815
0.10078787058591843 0.024212229996919632 0.28039997816085815
0.10152073204517365 0.024212229996919632 0.28039997816085815
0.10225360095500946 0.024212229996919632 0.28039997816085815
0.10298647731542587 0.024212229996919632 0.28039997816085815
0.10371934622526169 0.024212229996919632 0.28039997816085815
0.1044522151350975 0.024212229996919632 0.28039997816085815
0.10507255792617798 0.024186326190829277 0.2800999879837036
0.10580463707447052 0.024186326190829277 0.2800999879837036
0.10653672367334366 0.024186326190829277 0.2800999879837036
0.1072688102722168 0.024186326190829277 0.2800999879837036
0.10800089687108994 0.024186326190829277 0.2800999879837036
0.10873298346996307 0.024186326190829277 0.2800999879837036
0.10958230495452881 0.024212229996919632 0.28039997816085815
0.11031517386436462 0.024212229996919632 0.28039997816085815
0.11104804277420044 0.024212229996919632 0.28039997816085815
0.11194037646055222 0.02424676902592182 0.2807999849319458
0.11279468238353729 0.024272676557302475 0.28110000491142273
0.04728836193680763 0.024945098906755447 0.28039997816085815
0.04796985164284706 0.024918410927057266 0.2800999879837036
0.0487019382417202 0.024918410927057266 0.2800999879837036
0.049434028565883636 0.024918410927057266 0.2800999879837036
0.050166115164756775 0.024918410927057266 0.2800999879837036
0.050825510174036026 0.02488282509148121 0.27969998121261597
0.051556553691625595 0.02488282509148121 0.27969998121261597
0.05236237123608589 0.024918410927057266 0.2800999879837036
0.05309445410966873 0.024918410927057266 0.2800999879837036
0.05382654070854187 0.024918410927057266 0.2800999879837036
0.05455862730741501 0.024918410927057266 0.2800999879837036
0.06570370495319366 0.024980684742331505 0.2807999849319458
0.06643762439489365 0.024980684742331505 0.2807999849319458
0.06717153638601303 0.024980684742331505 0.2807999849319458
0.06797800213098526 0.025007374584674835 0.28110000491142273
0.0702819675207138 0.025042956694960594 0.281499981880188
0.09007570147514343 0.02482055127620697 0.2789999842643738
0.0906747356057167 0.02478496916592121 0.2786000072956085
0.09130445867776871 0.02475827746093273 0.2782999873161316
0.0918995663523674 0.024722691625356674 0.27789998054504395
0.09239258617162704 0.024660419672727585 0.27719998359680176
0.09311709553003311 0.024660419672727585 0.27719998359680176
0.0956687480211258 0.02475827746093273 0.2782999873161316
0.09650004655122757 0.02478496916592121 0.2786000072956085
0.0973678007721901 0.02482055127620697 0.2789999842643738
0.09823765605688095 0.024856137111783028 0.2793999910354614
0.09921586513519287 0.024918410927057266 0.2800999879837036
0.09994795173406601 0.024918410927057266 0.2800999879837036
0.10078787058591843 0.024945098906755447 0.28039997816085815
0.10152073204517365 0.024945098906755447 0.28039997816085815
0.10225360095500946 0.024945098906755447 0.28039997816085815
0.10298647731542587 0.024945098906755447 0.28039997816085815
0.10371934622526169 0.024945098906755447 0.28039997816085815
0.10434047132730484 0.024918410927057266 0.2800999879837036
0.10507255792617798 0.024918410927057266 0.2800999879837036
0.10580463707447052 0.024918410927057266 0.2800999879837036
0.10653672367334366 0.024918410927057266 0.2800999879837036
0.1072688102722168 0.024918410927057266 0.2800999879837036
0.10800089687108994 0.024918410927057266 0.2800999879837036
0.10873298346996307 0.024918410927057266 0.2800999879837036
0.10958230495452881 0.024945098906755447 0.28039997816085815
0.11031517386436462 0.024945098906755447 0.28039997816085815
0.11120645701885223 0.024980684742331505 0.2807999849319458
0.04655548930168152 0.025677967816591263 0.28039997816085815
0.04728836193680763 0.025677967816591263 0.28039997816085815
0.04802123084664345 0.025677967816591263 0.28039997816085815
0.04875409975647926 0.025677967816591263 0.28039997816085815
0.049434028565883636 0.025650495663285255 0.2800999879837036
0.050166115164756775 0.025650495663285255 0.2800999879837036
0.050898198038339615 0.025650495663285255 0.2800999879837036
0.05301862955093384 0.02561386488378048 0.27969998121261597
0.05382654070854187 0.025650495663285255 0.2800999879837036
0.05455862730741501 0.025650495663285255 0.2800999879837036
0.06496979296207428 0.02571459859609604 0.2807999849319458
0.06570370495319366 0.02571459859609604 0.2807999849319458
0.06650860607624054 0.025742072612047195 0.28110000491142273
0.0672433078289032 0.025742072612047195 0.28110000491142273
0.06797800213098526 0.025742072612047195 0.28110000491142273
0.09080491214990616 0.025549761950969696 0.2789999842643738
0.09140288829803467 0.02551313303411007 0.2786000072956085
0.09203184396028519 0.025485659018158913 0.2782999873161316
0.09262590110301971 0.025449026376008987 0.27789998054504395
0.09335223585367203 0.025449026376008987 0.27789998054504395
0.10152073204517365 0.025677967816591263 0.28039997816085815
0.10225360095500946 0.025677967816591263 0.28039997816085815
0.10298647731542587 0.025677967816591263 0.28039997816085815
0.10371934622526169 0.025677967816591263 0.28039997816085815
0.10434047132730484 0.025650495663285255 0.2800999879837036
0.10507255792617798 0.025650495663285255 0.2800999879837036
0.10580463707447052 0.025650495663285255 0.2800999879837036
0.10653672367334366 0.025650495663285255 0.2800999879837036
0.1072688102722168 0.025650495663285255 0.2800999879837036
0.10800089687108994 0.025650495663285255 0.2800999879837036
0.108849436044693 0.025677967816591263 0.28039997816085815
0.10958230495452881 0.025677967816591263 0.28039997816085815
0.045887988060712814 0.02644851617515087 0.2807999849319458
0.04655548930168152 0.026410838589072227 0.28039997816085815
0.04728836193680763 0.026410838589072227 0.28039997816085815
0.04802123084664345 0.026410838589072227 0.28039997816085815
0.04875409975647926 0.026410838589072227 0.28039997816085815
0.049434028565883636 0.026382582262158394 0.2800999879837036
0.050898198038339615 0.026382582262158394 0.2800999879837036
0.05301862955093384 0.0263449065387249 0.27969998121261597
0.05374967306852341 0.0263449065387249 0.27969998121261597
0.05455862730741501 0.026382582262158394 0.2800999879837036
0.05529071018099785 0.026382582262158394 0.2800999879837036
0.06496979296207428 0.02644851617515087 0.2807999849319458
0.06570370495319366 0.02644851617515087 0.2807999849319458
0.06650860607624054 0.026476774364709854 0.28110000491142273
0.0672433078289032 0.026476774364709854 0.28110000491142273
0.06871270388364792 0.026476774364709854 0.28110000491142273
0.07701295614242554 0.026552123948931694 0.28189998865127563
0.07783248275518417 0.026580380275845528 0.2821999788284302
0.09203184396028519 0.026213040575385094 0.2782999873161316
0.09275922179222107 0.026213040575385094 0.2782999873161316
0.09348660707473755 0.026213040575385094 0.2782999873161316
0.09421399235725403 0.026213040575385094 0.2782999873161316
0.04446762055158615 0.027211472392082214 0.28110000491142273
0.04515407606959343 0.027182430028915405 0.2807999849319458
0.045887988060712814 0.027182430028915405 0.2807999849319458
0.0466219037771225 0.027182430028915405 0.2807999849319458
0.04735582321882248 0.027182430028915405 0.2807999849319458
0.048089735209941864 0.027182430028915405 0.2807999849319458
0.05163028463721275 0.027114666998386383 0.2800999879837036
0.05301862955093384 0.02707594633102417 0.27969998121261597
0.05374967306852341 0.02707594633102417 0.27969998121261597
0.05448071286082268 0.02707594633102417 0.27969998121261597
0.05521175265312195 0.02707594633102417 0.27969998121261597
0.06350196152925491 0.027182430028915405 0.2807999849319458
0.0642358735203743 0.027182430028915405 0.2807999849319458
0.06496979296207428 0.027182430028915405 0.2807999849319458
0.06570370495319366 0.027182430028915405 0.2807999849319458
0.06660324335098267 0.027250193059444427 0.281499981880188
0.0673389881849289 0.027250193059444427 0.281499981880188
0.07616792619228363 0.027250193059444427 0.281499981880188
0.07690367102622986 0.027250193059444427 0.281499981880188
0.07774974405765533 0.02728891372680664 0.28189998865127563
0.09285922348499298 0.026969464495778084 0.2786000072956085
0.09358739107847214 0.026969464495778084 0.2786000072956085
0.0943155586719513 0.026969464495778084 0.2786000072956085
0.09504372626543045 0.026969464495778084 0.2786000072956085
0.09577188640832901 0.026969464495778084 0.2786000072956085
0.04446762055158615 0.027946174144744873 0.28110000491142273
0.04520231857895851 0.027946174144744873 0.28110000491142273
0.045887988060712814 0.027916347607970238 0.2807999849319458
0.0466219037771225 0.027916347607970238 0.2807999849319458
0.04735582321882248 0.027916347607970238 0.2807999849319458
0.05301862955093384 0.02780698798596859 0.27969998121261597
0.05374967306852341 0.02780698798596859 0.27969998121261597
0.05448071286082268 0.02780698798596859 0.27969998121261597
0.05521175265312195 0.02780698798596859 0.27969998121261597
0.06267862766981125 0.027876580134034157 0.28039997816085815
0.06350196152925491 0.027916347607970238 0.2807999849319458
0.0642358735203743 0.027916347607970238 0.2807999849319458
0.06496979296207428 0.027916347607970238 0.2807999849319458
0.06586749851703644 0.027985937893390656 0.281499981880188
0.06660324335098267 0.027985937893390656 0.281499981880188
0.0673389881849289 0.027985937893390656 0.281499981880188
0.07597852498292923 0.027916347607970238 0.2807999849319458
0.07671243697404861 0.027916347607970238 0.2807999849319458
0.07752910256385803 0.027946174144744873 0.28110000491142273
0.07837516069412231 0.027985937893390656 0.281499981880188
0.09372175484895706 0.027737395837903023 0.2789999842643738
0.0943155586719513 0.02769763208925724 0.2786000072956085
0.09504372626543045 0.02769763208925724 0.2786000072956085
0.09590937942266464 0.027737395837903023 0.2789999842643738
0.04453089088201523 0.028721682727336884 0.281499981880188
0.04520231857895851 0.028680872172117233 0.28110000491142273
0.04593701660633087 0.028680872172117233 0.28110000491142273
0.04667171835899353 0.028680872172117233 0.28110000491142273
0.05382654070854187 0.02857884019613266 0.2800999879837036
0.05448071286082268 0.02853802777826786 0.27969998121261597
0.05521175265312195 0.02853802777826786 0.27969998121261597
0.05594279244542122 0.02853802777826786 0.27969998121261597
0.06114739924669266 0.02857884019613266 0.2800999879837036
0.06194576248526573 0.028609449043869972 0.28039997816085815
0.06267862766981125 0.028609449043869972 0.28039997816085815
0.06350196152925491 0.02865026146173477 0.2807999849319458
0.0642358735203743 0.02865026146173477 0.2807999849319458
0.06503920257091522 0.028680872172117233 0.28110000491142273
0.06586749851703644 0.028721682727336884 0.281499981880188
0.07587029039859772 0.028609449043869972 0.28039997816085815
0.07660315930843353 0.028609449043869972 0.28039997816085815
0.0774463564157486 0.02865026146173477 0.2807999849319458
0.07818026840686798 0.02865026146173477 0.2807999849319458
0.07911090552806854 0.028721682727336884 0.281499981880188
0.09518017619848251 0.02846660651266575 0.2789999842643738
0.09590937942266464 0.02846660651266575 0.2789999842643738
0.09663859009742737 0.02846660651266575 0.2789999842643738
0.09750740230083466 0.028507418930530548 0.2793999910354614
0.04305940493941307 0.02945742756128311 0.281499981880188
0.043795146048069 0.02945742756128311 0.281499981880188
0.04453089088201523 0.02945742756128311 0.281499981880188
0.045266639441251755 0.02945742756128311 0.281499981880188
0.046002380549907684 0.02945742756128311 0.281499981880188
0.05455862730741501 0.02931092493236065 0.2800999879837036
0.05529071018099785 0.02931092493236065 0.2800999879837036
0.05594279244542122 0.02926906757056713 0.27969998121261597
0.05667383596301079 0.02926906757056713 0.27969998121261597
0.05740487203001976 0.02926906757056713 0.27969998121261597
0.05813591554760933 0.02926906757056713 0.27969998121261597
0.05895114317536354 0.02931092493236065 0.2800999879837036
0.05968322604894638 0.02931092493236065 0.2800999879837036
0.06041531264781952 0.02931092493236065 0.2800999879837036
0.06114739924669266 0.02931092493236065 0.2800999879837036
0.06194576248526573 0.029342317953705788 0.28039997816085815
0.06267862766981125 0.029342317953705788 0.28039997816085815
0.06350196152925491 0.029384175315499306 0.2807999849319458
0.0642358735203743 0.029384175315499306 0.2807999849319458
0.06503920257091522 0.029415572062134743 0.28110000491142273
0.06586749851703644 0.02945742756128311 0.281499981880188
0.07578911632299423 0.02931092493236065 0.2800999879837036
0.07660315930843353 0.029342317953705788 0.28039997816085815
0.07733603566884995 0.029342317953705788 0.28039997816085815
0.07818026840686798 0.029384175315499306 0.2807999849319458
0.07891418039798737 0.029384175315499306 0.2807999849319458
0.09518017619848251 0.029195815324783325 0.2789999842643738
0.09604688733816147 0.029237674549221992 0.2793999910354614
0.09677714109420776 0.029237674549221992 0.2793999910354614
0.09750740230083466 0.029237674549221992 0.2793999910354614
0.09823765605688095 0.029237674549221992 0.2793999910354614
0.04305940493941307 0.03019317239522934 0.281499981880188
0.043795146048069 0.03019317239522934 0.281499981880188
0.04453089088201523 0.03019317239522934 0.281499981880188
0.045266639441251755 0.03019317239522934 0.281499981880188
0.046002380549907684 0.03019317239522934 0.281499981880188
0.05455862730741501 0.030043011531233788 0.2800999879837036
0.05529071018099785 0.030043011531233788 0.2800999879837036
0.056022800505161285 0.030043011531233788 0.2800999879837036
0.056754887104034424 0.030043011531233788 0.2800999879837036
0.05740487203001976 0.03000010922551155 0.27969998121261597
0.05813591554760933 0.03000010922551155 0.27969998121261597
0.05895114317536354 0.030043011531233788 0.2800999879837036
0.05968322604894638 0.030043011531233788 0.2800999879837036
0.06041531264781952 0.030043011531233788 0.2800999879837036
0.06121288985013962 0.030075188726186752 0.28039997816085815
0.06194576248526573 0.030075188726186752 0.28039997816085815
0.06267862766981125 0.030075188726186752 0.28039997816085815
0.06350196152925491 0.030118092894554138 0.2807999849319458
0.0642358735203743 0.030118092894554138 0.2807999849319458
0.07486945390701294 0.029967932030558586 0.2793999910354614
0.07568088918924332 0.03000010922551155 0.27969998121261597
0.07652120292186737 0.030043011531233788 0.2800999879837036
0.0772532969713211 0.030043011531233788 0.2800999879837036
0.07806889712810516 0.030075188726186752 0.28039997816085815
0.07880176603794098 0.030075188726186752 0.28039997816085815
0.09604688733816147 0.029967932030558586 0.2793999910354614
0.09677714109420776 0.029967932030558586 0.2793999910354614
0.09761209785938263 0.03000010922551155 0.27969998121261597
0.0983431339263916 0.03000010922551155 0.27969998121261597
0.09907417744398117 0.03000010922551155 0.27969998121261597
0.04305940493941307 0.030928917229175568 0.281499981880188
0.043795146048069 0.030928917229175568 0.281499981880188
0.0445941686630249 0.030972866341471672 0.28189998865127563
0.045330960303545 0.030972866341471672 0.28189998865127563
0.056022800505161285 0.030775098130106926 0.2800999879837036
0.056754887104034424 0.030775098130106926 0.2800999879837036
0.057486969977617264 0.030775098130106926 0.2800999879837036
0.0582190565764904 0.030775098130106926 0.2800999879837036
0.05895114317536354 0.030775098130106926 0.2800999879837036
0.05968322604894638 0.030775098130106926 0.2800999879837036
0.06041531264781952 0.030775098130106926 0.2800999879837036
0.06121288985013962 0.030808057636022568 0.28039997816085815
0.06194576248526573 0.030808057636022568 0.28039997816085815
0.06267862766981125 0.030808057636022568 0.28039997816085815
0.0747622698545456 0.030654238536953926 0.2789999842643738
0.07559971511363983 0.03069818764925003 0.2793999910354614
0.07632996886968613 0.03069818764925003 0.2793999910354614
0.07714296877384186 0.030731147155165672 0.27969998121261597
0.07798536866903305 0.030775098130106926 0.2800999879837036
0.07880176603794098 0.030808057636022568 0.28039997816085815
0.09688105434179306 0.030731147155165672 0.27969998121261597
0.09761209785938263 0.030731147155165672 0.27969998121261597
0.0983431339263916 0.030731147155165672 0.27969998121261597
0.09907417744398117 0.030731147155165672 0.27969998121261597
0.09994795173406601 0.030775098130106926 0.2800999879837036
0.04312058910727501 0.03170965611934662 0.28189998865127563
0.043857377022504807 0.03170965611934662 0.28189998865127563
0.0445941686630249 0.03170965611934662 0.28189998865127563
0.057486969977617264 0.031507182866334915 0.2800999879837036
0.05828141048550606 0.03154092654585838 0.28039997816085815
0.05901427939534187 0.03154092654585838 0.28039997816085815
0.05974714830517769 0.03154092654585838 0.28039997816085815
0.0604800209403038 0.03154092654585838 0.28039997816085815
0.061300214380025864 0.031585920602083206 0.2807999849319458
0.06203413009643555 0.031585920602083206 0.2807999849319458
0.06276804208755493 0.031585920602083206 0.2807999849319458
0.07465508580207825 0.03133845701813698 0.2786000072956085
0.07549148052930832 0.0313834473490715 0.2789999842643738
0.07622069120407104 0.0313834473490715 0.2789999842643738
0.07706023007631302 0.031428441405296326 0.2793999910354614
0.07787400484085083 0.03146218881011009 0.27969998121261597
0.07871746271848679 0.031507182866334915 0.2800999879837036
0.0983431339263916 0.03146218881011009 0.27969998121261597
0.09907417744398117 0.03146218881011009 0.27969998121261597
0.09994795173406601 0.031507182866334915 0.2800999879837036
0.10068003833293915 0.031507182866334915 0.2800999879837036
0.04164700582623482 0.032446447759866714 0.28189998865127563
0.04238379746675491 0.032446447759866714 0.28189998865127563
0.04312058910727501 0.032446447759866714 0.28189998865127563
0.043857377022504807 0.032446447759866714 0.28189998865127563
0.0445941686630249 0.032446447759866714 0.28189998865127563
0.07457469403743744 0.03203209117054939 0.2782999873161316
0.07530207931995392 0.03203209117054939 0.2782999873161316
0.07611142098903656 0.032066624611616135 0.2786000072956085
0.07694990932941437 0.03211266174912453 0.2789999842643738
0.07779047638177872 0.03215869888663292 0.2793999910354614
0.0786050409078598 0.03219322860240936 0.27969998121261597
0.09921586513519287 0.032239269465208054 0.2800999879837036
0.09994795173406601 0.032239269465208054 0.2800999879837036
0.10068003833293915 0.032239269465208054 0.2800999879837036
0.10141211748123169 0.032239269465208054 0.2800999879837036
0.10225360095500946 0.0322737991809845 0.28039997816085815
0.04164700582623482 0.03318323940038681 0.28189998865127563
0.04238379746675491 0.03318323940038681 0.28189998865127563
0.04312058910727501 0.03318323940038681 0.28189998865127563
0.043904051184654236 0.03321855142712593 0.2821999788284302
0.04464162513613701 0.03321855142712593 0.2821999788284302
0.07457469403743744 0.032759472727775574 0.2782999873161316
0.07530207931995392 0.032759472727775574 0.2782999873161316
0.0760294571518898 0.032759472727775574 0.2782999873161316
0.07683958858251572 0.03279478847980499 0.2786000072956085
0.0776791125535965 0.032841868698596954 0.2789999842643738
0.07852073758840561 0.03288895636796951 0.2793999910354614
0.07933608442544937 0.03292426839470863 0.27969998121261597
0.09994795173406601 0.03297135606408119 0.2800999879837036
0.10068003833293915 0.03297135606408119 0.2800999879837036
0.10141211748123169 0.03297135606408119 0.2800999879837036
0.10225360095500946 0.03300666809082031 0.28039997816085815
0.04169132560491562 0.033956125378608704 0.2821999788284302
0.04238379746675491 0.033920031040906906 0.28189998865127563
0.04316647723317146 0.033956125378608704 0.2821999788284302
0.04396628215909004 0.03400425612926483 0.2825999855995178
0.07446750998497009 0.03343872353434563 0.27789998054504395
0.0751938447356224 0.03343872353434563 0.27789998054504395
0.07592017948627472 0.03343872353434563 0.27789998054504395
0.07675684243440628 0.033486854285001755 0.2782999873161316
0.07756774872541428 0.03352295607328415 0.2786000072956085
0.07840832322835922 0.03357108309864998 0.2789999842643738
0.07933608442544937 0.0336553119122982 0.27969998121261597
0.09994795173406601 0.03370344266295433 0.2800999879837036
0.10068003833293915 0.03370344266295433 0.2800999879837036
0.10141211748123169 0.03370344266295433 0.2800999879837036
0.10214420408010483 0.03370344266295433 0.2800999879837036
0.10298647731542587 0.03373953700065613 0.28039997816085815
0.10371934622526169 0.03373953700065613 0.28039997816085815
0.04169132560491562 0.034693699330091476 0.2821999788284302
0.04238379746675491 0.034656818956136703 0.28189998865127563
0.04316647723317146 0.034693699330091476 0.2821999788284302
0.04396628215909004 0.03474287688732147 0.2825999855995178
0.07446750998497009 0.03416505828499794 0.27789998054504395
0.07500443607568741 0.03407900035381317 0.27719998359680176
0.07592017948627472 0.03416505828499794 0.27789998054504395
0.07664651423692703 0.03416505828499794 0.27789998054504395
0.07748421281576157 0.034214235842227936 0.2782999873161316
0.07829591631889343 0.03425111994147301 0.2786000072956085
0.0792509913444519 0.0343494676053524 0.2793999910354614
0.10141211748123169 0.03443552553653717 0.2800999879837036
0.10214420408010483 0.03443552553653717 0.2800999879837036
0.10298647731542587 0.03447240963578224 0.28039997816085815
0.10371934622526169 0.03447240963578224 0.28039997816085815
0.04164700582623482 0.0353936105966568 0.28189998865127563
0.04242890328168869 0.03543127700686455 0.2821999788284302
0.04316647723317146 0.03543127700686455 0.2821999788284302
0.04396628215909004 0.03548149764537811 0.2825999855995178
0.07427993416786194 0.03480350598692894 0.27719998359680176
0.07500443607568741 0.03480350598692894 0.27719998359680176
0.07592017948627472 0.03489139303565025 0.27789998054504395
0.07664651423692703 0.03489139303565025 0.27789998054504395
0.07748421281576157 0.03494161739945412 0.2782999873161316
0.07829591631889343 0.034979287534952164 0.2786000072956085
0.07913753390312195 0.03502950444817543 0.2789999842643738
0.08006712794303894 0.035117391496896744 0.27969998121261597
0.10141211748123169 0.03516761586070061 0.2800999879837036
0.10287629067897797 0.03516761586070061 0.2800999879837036
0.1036083847284317 0.03516761586070061 0.2800999879837036
0.10518509149551392 0.03520527854561806 0.28039997816085815
0.10680297017097473 0.03525550290942192 0.2807999849319458
0.04164700582623482 0.0361303985118866 0.28189998865127563
0.04238379746675491 0.0361303985118866 0.28189998865127563
0.04312058910727501 0.0361303985118866 0.28189998865127563
0.04396628215909004 0.036220114678144455 0.2825999855995178
0.07427993416786194 0.03552801162004471 0.27719998359680176
0.07500443607568741 0.03552801162004471 0.27719998359680176
0.07572894543409348 0.03552801162004471 0.27719998359680176
0.07748421281576157 0.03566899523139 0.2782999873161316
0.07829591631889343 0.03570744767785072 0.2786000072956085
0.07913753390312195 0.03575871139764786 0.2789999842643738
0.0799812525510788 0.03580997884273529 0.2793999910354614
0.10287629067897797 0.03589969873428345 0.2800999879837036
0.1036083847284317 0.03589969873428345 0.2800999879837036
0.10434047132730484 0.03589969873428345 0.2800999879837036
0.10518509149551392 0.03593814745545387 0.28039997816085815
0.10665082186460495 0.03593814745545387 0.28039997816085815
0.04164700582623482 0.03686719015240669 0.28189998865127563
0.04238379746675491 0.03686719015240669 0.28189998865127563
0.04312058910727501 0.03686719015240669 0.28189998865127563
0.043904051184654236 0.03690642490983009 0.2821999788284302
0.07355542480945587 0.03625251725316048 0.27719998359680176
0.07427993416786194 0.03625251725316048 0.27719998359680176
0.07500443607568741 0.03625251725316048 0.27719998359680176
0.07572894543409348 0.03625251725316048 0.27719998359680176
0.07748421281576157 0.03639637678861618 0.2782999873161316
0.07829591631889343 0.03643561527132988 0.2786000072956085
0.07913753390312195 0.03648792579770088 0.2789999842643738
0.0799812525510788 0.036540236324071884 0.2793999910354614
0.10287629067897797 0.036631785333156586 0.2800999879837036
0.10434047132730484 0.036631785333156586 0.2800999879837036
0.10507255792617798 0.036631785333156586 0.2800999879837036
0.04164700582623482 0.03760398179292679 0.28189998865127563
0.042323656380176544 0.03755062445998192 0.281499981880188
0.04312058910727501 0.03760398179292679 0.28189998865127563
0.043857377022504807 0.03760398179292679 0.28189998865127563
0.07355542480945587 0.036977026611566544 0.27719998359680176
0.07427993416786194 0.036977026611566544 0.27719998359680176
0.07500443607568741 0.036977026611566544 0.27719998359680176
0.07572894543409348 0.036977026611566544 0.27719998359680176
0.07821159809827805 0.03712376207113266 0.2782999873161316
0.07913753390312195 0.03721713647246361 0.2789999842643738
0.0799812525510788 0.03727049380540848 0.2793999910354614
0.10507255792617798 0.037363871932029724 0.2800999879837036
0.10653672367334366 0.037363871932029724 0.2800999879837036
0.041587911546230316 0.03828636556863785 0.281499981880188
0.042323656380176544 0.03828636556863785 0.281499981880188
0.04305940493941307 0.03828636556863785 0.281499981880188
0.043857377022504807 0.038340769708156586 0.28189998865127563
0.07374116778373718 0.037796735763549805 0.27789998054504395
0.07427993416786194 0.037701528519392014 0.27719998359680176
0.07500443607568741 0.037701528519392014 0.27719998359680176
0.07821159809827805 0.03785113990306854 0.2782999873161316
0.07902408391237259 0.037891943007707596 0.2786000072956085
0.07986674457788467 0.037946343421936035 0.2789999842643738
0.08071150630712509 0.03800074756145477 0.2793999910354614
0.10653672367334366 0.038095954805612564 0.2800999879837036
0.041587911546230316 0.039022110402584076 0.281499981880188
0.04226352274417877 0.03896666690707207 0.28110000491142273
0.04299822077155113 0.03896666690707207 0.28110000491142273
0.043795146048069 0.039022110402584076 0.281499981880188
0.07301483303308487 0.03852307051420212 0.27789998054504395
0.07374116778373718 0.03852307051420212 0.27789998054504395
0.07446750998497009 0.03852307051420212 0.27789998054504395
0.0751938447356224 0.03852307051420212 0.27789998054504395
0.07821159809827805 0.038578521460294724 0.2782999873161316
0.07902408391237259 0.03862011060118675 0.2786000072956085
0.07986674457788467 0.03867555782198906 0.2789999842643738
0.08071150630712509 0.03873100504279137 0.2793999910354614
0.1056535392999649 0.0387725904583931 0.27969998121261597
0.10653672367334366 0.0388280414044857 0.2800999879837036
0.04148449748754501 0.03965899348258972 0.2807999849319458
0.0422184132039547 0.03965899348258972 0.2807999849319458
0.04295232892036438 0.03965899348258972 0.2807999849319458
0.04373291879892349 0.039701368659734726 0.28110000491142273
0.04446762055158615 0.039701368659734726 0.28110000491142273
0.07311993092298508 0.039305903017520905 0.2782999873161316
0.07374116778373718 0.03924940899014473 0.27789998054504395
0.07446750998497009 0.03924940899014473 0.27789998054504395
0.0751938447356224 0.03924940899014473 0.27789998054504395
0.07902408391237259 0.03934827819466591 0.2786000072956085
0.07986674457788467 0.039404768496751785 0.2789999842643738
0.0805959552526474 0.039404768496751785 0.2789999842643738
0.08144176751375198 0.03946126252412796 0.2793999910354614
0.10638457536697388 0.039503633975982666 0.27969998121261597
0.10800089687108994 0.03956012800335884 0.2800999879837036
0.108849436044693 0.03960249945521355 0.28039997816085815
0.10973863303661346 0.03965899348258972 0.2807999849319458
0.04289114475250244 0.040335364639759064 0.28039997816085815
0.043686240911483765 0.040392905473709106 0.2807999849319458
0.044420160353183746 0.040392905473709106 0.2807999849319458
0.07311993092298508 0.040033284574747086 0.2782999873161316
0.07384730875492096 0.040033284574747086 0.2782999873161316
0.07457469403743744 0.040033284574747086 0.2782999873161316
0.07902408391237259 0.04007644206285477 0.2786000072956085
0.07986674457788467 0.04013397544622421 0.2789999842643738
0.0805959552526474 0.04013397544622421 0.2789999842643738
0.08144176751375198 0.040191516280174255 0.2793999910354614
0.10800089687108994 0.04029221087694168 0.2800999879837036
0.10958230495452881 0.040335364639759064 0.28039997816085815
0.04289114475250244 0.04106823727488518 0.28039997816085815
0.04362400993704796 0.04106823727488518 0.28039997816085815
0.04435688257217407 0.04106823727488518 0.28039997816085815
0.07311993092298508 0.04076066613197327 0.2782999873161316
0.07384730875492096 0.04076066613197327 0.2782999873161316
0.07457469403743744 0.04076066613197327 0.2782999873161316
0.07893898338079453 0.04076066613197327 0.2782999873161316
0.07975225150585175 0.040804605931043625 0.2786000072956085
0.0805959552526474 0.04086318984627724 0.2789999842643738
0.08132517337799072 0.04086318984627724 0.2789999842643738
0.10784666240215302 0.04096571356058121 0.27969998121261597
0.10946507006883621 0.04102429747581482 0.2800999879837036
0.04284525662660599 0.041756387799978256 0.2800999879837036
0.04357733950018883 0.041756387799978256 0.2800999879837036
0.044309426099061966 0.041756387799978256 0.2800999879837036
0.07247059047222137 0.04153277352452278 0.2786000072956085
0.07319875806570053 0.04153277352452278 0.2786000072956085
0.07392692565917969 0.04153277352452278 0.2786000072956085
0.07465508580207825 0.04153277352452278 0.2786000072956085
0.07975225150585175 0.04153277352452278 0.2786000072956085
0.0805959552526474 0.04159240052103996 0.2789999842643738
0.08132517337799072 0.04159240052103996 0.2789999842643738
0.10946507006883621 0.041756387799978256 0.2800999879837036
0.04284525662660599 0.042488474398851395 0.2800999879837036
0.04357733950018883 0.042488474398851395 0.2800999879837036
0.044309426099061966 0.042488474398851395 0.2800999879837036
0.04508975148200989 0.04253397881984711 0.28039997816085815
0.07257463037967682 0.04232161492109299 0.2789999842643738
0.07319875806570053 0.04226094111800194 0.2786000072956085
0.07392692565917969 0.04226094111800194 0.2786000072956085
0.07975225150585175 0.04226094111800194 0.2786000072956085
0.0804804116487503 0.04226094111800194 0.2786000072956085
0.08132517337799072 0.04232161492109299 0.2789999842643738
0.10846124589443207 0.042382288724184036 0.2793999910354614
0.10919150710105896 0.042382288724184036 0.2793999910354614
0.11092923581600189 0.042488474398851395 0.2800999879837036
0.044309426099061966 0.043220557272434235 0.2800999879837036
0.045041512697935104 0.043220557272434235 0.2800999879837036
0.0458226203918457 0.04326684772968292 0.28039997816085815
0.07184542715549469 0.043050821870565414 0.2789999842643738
0.07257463037967682 0.043050821870565414 0.2789999842643738
0.07330384850502014 0.043050821870565414 0.2789999842643738
0.07403305917978287 0.043050821870565414 0.2789999842643738
0.0804804116487503 0.042989104986190796 0.2786000072956085
0.08132517337799072 0.043050821870565414 0.2789999842643738
0.08205437660217285 0.043050821870565414 0.2789999842643738
0.1090351790189743 0.043050821870565414 0.2789999842643738
0.11065201461315155 0.04311254248023033 0.2793999910354614
0.044309426099061966 0.04395264387130737 0.2800999879837036
0.045041512697935104 0.04395264387130737 0.2800999879837036
0.045773595571517944 0.04395264387130737 0.2800999879837036
0.07184542715549469 0.04378003254532814 0.2789999842643738
0.07257463037967682 0.04378003254532814 0.2789999842643738
0.07330384850502014 0.04378003254532814 0.2789999842643738
0.07403305917978287 0.04378003254532814 0.2789999842643738
0.0804804116487503 0.043717268854379654 0.2786000072956085
0.08120857924222946 0.043717268854379654 0.2786000072956085
0.08205437660217285 0.04378003254532814 0.2789999842643738
0.08290227502584457 0.043842799961566925 0.2793999910354614
0.10887886583805084 0.043717268854379654 0.2786000072956085
0.11049360036849976 0.04378003254532814 0.2789999842643738
0.044309426099061966 0.04468473047018051 0.2800999879837036
0.045041512697935104 0.04468473047018051 0.2800999879837036
0.045773595571517944 0.04468473047018051 0.2800999879837036
0.04650568217039108 0.04468473047018051 0.2800999879837036
0.07111621648073196 0.044509246945381165 0.2789999842643738
0.07184542715549469 0.044509246945381165 0.2789999842643738
0.07257463037967682 0.044509246945381165 0.2789999842643738
0.07330384850502014 0.044509246945381165 0.2789999842643738
0.0804804116487503 0.04444543644785881 0.2786000072956085
0.08120857924222946 0.04444543644785881 0.2786000072956085
0.08205437660217285 0.044509246945381165 0.2789999842643738
0.08278358727693558 0.044509246945381165 0.2789999842643738
0.10876161605119705 0.04439757391810417 0.2782999873161316
0.10948899388313293 0.04439757391810417 0.2782999873161316
0.11033519357442856 0.04444543644785881 0.2786000072956085
0.11179152876138687 0.04444543644785881 0.2786000072956085
0.044309426099061966 0.04541681334376335 0.2800999879837036
0.045041512697935104 0.04541681334376335 0.2800999879837036
0.045773595571517944 0.04541681334376335 0.2800999879837036
0.04650568217039108 0.04541681334376335 0.2800999879837036
0.07111621648073196 0.04523845389485359 0.2789999842643738
0.07184542715549469 0.04523845389485359 0.2789999842643738
0.07257463037967682 0.04523845389485359 0.2789999842643738
0.07330384850502014 0.04523845389485359 0.2789999842643738
0.08120857924222946 0.04517360031604767 0.2786000072956085
0.08193673938512802 0.04517360031604767 0.2786000072956085
0.08278358727693558 0.04523845389485359 0.2789999842643738
0.10948899388313293 0.045124951750040054 0.2782999873161316
0.11021637171506882 0.045124951750040054 0.2782999873161316
0.1109437569975853 0.045124951750040054 0.2782999873161316
0.11179152876138687 0.04517360031604767 0.2786000072956085
0.045773595571517944 0.04614889994263649 0.2800999879837036
0.04650568217039108 0.04614889994263649 0.2800999879837036
0.04723776876926422 0.04614889994263649 0.2800999879837036
0.07038700580596924 0.04596766456961632 0.2789999842643738
0.07111621648073196 0.04596766456961632 0.2789999842643738
0.07184542715549469 0.04596766456961632 0.2789999842643738
0.07257463037967682 0.04596766456961632 0.2789999842643738
0.08193673938512802 0.045901764184236526 0.2786000072956085
0.08278358727693558 0.04596766456961632 0.2789999842643738
0.08363252878189087 0.04603356868028641 0.2793999910354614
0.11021637171506882 0.045852333307266235 0.2782999873161316
0.045773595571517944 0.04688098654150963 0.2800999879837036
0.04650568217039108 0.04688098654150963 0.2800999879837036
0.04723776876926422 0.04688098654150963 0.2800999879837036
0.04796985164284706 0.04688098654150963 0.2800999879837036
0.0702860951423645 0.04662993177771568 0.2786000072956085
0.07111621648073196 0.04669687896966934 0.2789999842643738
0.07184542715549469 0.04669687896966934 0.2789999842643738
0.07257463037967682 0.04669687896966934 0.2789999842643738
0.08205437660217285 0.04669687896966934 0.2789999842643738
0.08278358727693558 0.04669687896966934 0.2789999842643738
0.0835127979516983 0.04669687896966934 0.2789999842643738
0.11005795747041702 0.04651276767253876 0.27789998054504395
0.11167114228010178 0.046579718589782715 0.2782999873161316
0.0458226203918457 0.04766406491398811 0.28039997816085815
0.04650568217039108 0.04761306941509247 0.2800999879837036
0.04723776876926422 0.04761306941509247 0.2800999879837036
0.04796985164284706 0.04761306941509247 0.2800999879837036
0.06892857700586319 0.04742608591914177 0.2789999842643738
0.06965779513120651 0.04742608591914177 0.2789999842643738
0.07038700580596924 0.04742608591914177 0.2789999842643738
0.07111621648073196 0.04742608591914177 0.2789999842643738
0.07184542715549469 0.04742608591914177 0.2789999842643738
0.07257463037967682 0.04742608591914177 0.2789999842643738
0.08205437660217285 0.04742608591914177 0.2789999842643738
0.08278358727693558 0.04742608591914177 0.2789999842643738
0.0835127979516983 0.04742608591914177 0.2789999842643738
0.08436278998851776 0.047494079917669296 0.2793999910354614
0.04723776876926422 0.048345159739255905 0.2800999879837036
0.04796985164284706 0.048345159739255905 0.2800999879837036
0.0487019382417202 0.048345159739255905 0.2800999879837036
0.06819937378168106 0.048155296593904495 0.2789999842643738
0.06892857700586319 0.048155296593904495 0.2789999842643738
0.06965779513120651 0.048155296593904495 0.2789999842643738
0.07038700580596924 0.048155296593904495 0.2789999842643738
0.07121817767620087 0.04822433739900589 0.2793999910354614
0.08278358727693558 0.048155296593904495 0.2789999842643738
0.0835127979516983 0.048155296593904495 0.2789999842643738
0.08436278998851776 0.04822433739900589 0.2793999910354614
0.11033519357442856 0.0480862632393837 0.2786000072956085
0.04728836193680763 0.04912980645895004 0.28039997816085815
0.04796985164284706 0.049077246338129044 0.2800999879837036
0.0487019382417202 0.049077246338129044 0.2800999879837036
0.049434028565883636 0.049077246338129044 0.2800999879837036
0.0675668939948082 0.048954594880342484 0.2793999910354614
0.06819937378168106 0.04888451099395752 0.2789999842643738
0.06902740150690079 0.048954594880342484 0.2793999910354614
0.06975766271352768 0.048954594880342484 0.2793999910354614
0.07056359946727753 0.04900715872645378 0.27969998121261597
0.07121817767620087 0.048954594880342484 0.2793999910354614
0.07275672256946564 0.04900715872645378 0.27969998121261597
0.0835127979516983 0.04888451099395752 0.2789999842643738
0.08424200862646103 0.04888451099395752 0.2789999842643738
0.11211252957582474 0.048954594880342484 0.2793999910354614
0.04728836193680763 0.04986267536878586 0.28039997816085815
0.04796985164284706 0.049809329211711884 0.2800999879837036
0.0487019382417202 0.049809329211711884 0.2800999879837036
0.049434028565883636 0.049809329211711884 0.2800999879837036
0.050166115164756775 0.049809329211711884 0.2800999879837036
0.050898198038339615 0.049809329211711884 0.2800999879837036
0.06610637903213501 0.04968484863638878 0.2793999910354614
0.0668366327881813 0.04968484863638878 0.2793999910354614
0.0675668939948082 0.04968484863638878 0.2793999910354614
0.06829714775085449 0.04968484863638878 0.2793999910354614
0.06902740150690079 0.04968484863638878 0.2793999910354614
0.06975766271352768 0.04968484863638878 0.2793999910354614
0.07048791646957397 0.04968484863638878 0.2793999910354614
0.07121817767620087 0.04968484863638878 0.2793999910354614
0.08509304374456406 0.04968484863638878 0.2793999910354614
0.11150186508893967 0.04973819479346275 0.27969998121261597
0.11239340901374817 0.049809329211711884 0.2800999879837036
0.1139795258641243 0.04986267536878586 0.28039997816085815
0.04875409975647926 0.050595544278621674 0.28039997816085815
0.049434028565883636 0.05054141581058502 0.2800999879837036
0.050166115164756775 0.05054141581058502 0.2800999879837036
0.050898198038339615 0.05054141581058502 0.2800999879837036
0.05163028463721275 0.05054141581058502 0.2800999879837036
0.06528253108263016 0.05034292861819267 0.2789999842643738
0.06610637903213501 0.05041510611772537 0.2793999910354614
0.0668366327881813 0.05041510611772537 0.2793999910354614
0.06763944029808044 0.05046923831105232 0.27969998121261597
0.06837048381567001 0.05046923831105232 0.27969998121261597
0.06910151988267899 0.05046923831105232 0.27969998121261597
0.06983256340026855 0.05046923831105232 0.27969998121261597
0.07056359946727753 0.05046923831105232 0.27969998121261597
0.0712946429848671 0.05046923831105232 0.27969998121261597
0.08509304374456406 0.05041510611772537 0.2793999910354614
0.11166132241487503 0.05054141581058502 0.2800999879837036
0.11251378804445267 0.050595544278621674 0.28039997816085815
0.11414212733507156 0.05066772177815437 0.2807999849319458
0.04875409975647926 0.05132841691374779 0.28039997816085815
0.04948697239160538 0.05132841691374779 0.28039997816085815
0.05021984130144119 0.05132841691374779 0.28039997816085815
0.05095271021127701 0.05132841691374779 0.28039997816085815
0.05163028463721275 0.05127350240945816 0.2800999879837036
0.05236237123608589 0.05127350240945816 0.2800999879837036
0.05309445410966873 0.05127350240945816 0.2800999879837036
0.06391561031341553 0.051145363599061966 0.2793999910354614
0.06464586406946182 0.051145363599061966 0.2793999910354614
0.06537612527608871 0.051145363599061966 0.2793999910354614
0.0661773607134819 0.05120027810335159 0.27969998121261597
0.06690839678049088 0.05120027810335159 0.27969998121261597
0.0677361711859703 0.05127350240945816 0.2800999879837036
0.06846825778484344 0.05127350240945816 0.2800999879837036
0.06920034438371658 0.05127350240945816 0.2800999879837036
0.06983256340026855 0.05120027810335159 0.27969998121261597
0.07066451758146286 0.05127350240945816 0.2800999879837036
0.071396604180336 0.05127350240945816 0.2800999879837036
0.08509304374456406 0.051145363599061966 0.2793999910354614
0.08582330495119095 0.051145363599061966 0.2793999910354614
0.11178091168403625 0.05132841691374779 0.28039997816085815
0.1126742959022522 0.051401641219854355 0.2807999849319458
0.11442666500806808 0.05152977630496025 0.281499981880188
0.11532605439424515 0.05160300061106682 0.28189998865127563
0.11618635058403015 0.051657915115356445 0.2821999788284302
0.05021984130144119 0.0520612858235836 0.28039997816085815
0.05095271021127701 0.0520612858235836 0.28039997816085815
0.05163028463721275 0.052005585283041 0.2800999879837036
0.05236237123608589 0.052005585283041 0.2800999879837036
0.05309445410966873 0.052005585283041 0.2800999879837036
0.05382654070854187 0.052005585283041 0.2800999879837036
0.05455862730741501 0.052005585283041 0.2800999879837036
0.05521175265312195 0.051931317895650864 0.27969998121261597
0.06163647770881653 0.051801349967718124 0.2789999842643738
0.062365684658288956 0.051801349967718124 0.2789999842643738
0.06309489905834198 0.051801349967718124 0.2789999842643738
0.06391561031341553 0.05187561735510826 0.2793999910354614
0.06464586406946182 0.05187561735510826 0.2793999910354614
0.06544631719589233 0.051931317895650864 0.27969998121261597
0.06627200543880463 0.052005585283041 0.2800999879837036
0.06700408458709717 0.052005585283041 0.2800999879837036
0.0677361711859703 0.052005585283041 0.2800999879837036
0.06846825778484344 0.052005585283041 0.2800999879837036
0.06920034438371658 0.052005585283041 0.2800999879837036
0.06993243098258972 0.052005585283041 0.2800999879837036
0.08509304374456406 0.05187561735510826 0.2793999910354614
0.08582330495119095 0.05187561735510826 0.2793999910354614
0.08655355125665665 0.05187561735510826 0.2793999910354614
0.11279468238353729 0.05219125747680664 0.28110000491142273
0.05168558284640312 0.05279415473341942 0.28039997816085815
0.05241845175623894 0.05279415473341942 0.28039997816085815
0.05315132066607475 0.05279415473341942 0.28039997816085815
0.05388418957591057 0.05279415473341942 0.28039997816085815
0.05455862730741501 0.05273767188191414 0.2800999879837036
