ply
format ascii 1.0
element vertex 771
property float x
property float y
property float z
end_header
0.01189222652465105 -0.023210374638438225 0.2019999921321869
0.012463225983083248 -0.023290805518627167 0.20269998908042908
0.013089165091514587 -0.023463161662220955 0.20419999957084656
0.01367624569684267 -0.023555083200335503 0.20499999821186066
0.01423284225165844 -0.02358955331146717 0.2052999883890152
0.01479820441454649 -0.023635514080524445 0.20569999516010284
0.03483854606747627 -0.022681821137666702 0.19739998877048492
0.03547985479235649 -0.022762253880500793 0.1981000006198883
0.036106646060943604 -0.02283119596540928 0.19869999587535858
0.03671814501285553 -0.02288864552974701 0.19919998943805695
0.037313565611839294 -0.022934608161449432 0.1995999962091446
0.011803918518126011 -0.0225139819085598 0.2004999965429306
0.012346403673291206 -0.02254766970872879 0.20080000162124634
0.012980194762349129 -0.022738561034202576 0.20250000059604645
0.01360953226685524 -0.022906994447112083 0.20399999618530273
0.014184313826262951 -0.022974368184804916 0.204599991440773
0.014762233942747116 -0.02304174192249775 0.20520000159740448
0.03483854606747627 -0.02216588519513607 0.19739998877048492
0.03547985479235649 -0.022244488820433617 0.1981000006198883
0.0361429899930954 -0.022334320470690727 0.1988999992609024
0.03671814501285553 -0.02236800640821457 0.19919998943805695
0.037313565611839294 -0.022412922233343124 0.1995999962091446
0.05238991603255272 -0.022390464320778847 0.19939999282360077
0.05447457730770111 -0.022390464320778847 0.19939999282360077
0.05494057759642601 -0.02236800640821457 0.19919998943805695
0.05546121299266815 -0.02236800640821457 0.19919998943805695
0.056038063019514084 -0.022390464320778847 0.19939999282360077
0.05655922740697861 -0.022390464320778847 0.19939999282360077
0.05708039179444313 -0.022390464320778847 0.19939999282360077
0.057601556181907654 -0.022390464320778847 0.19939999282360077
0.05812272056937218 -0.022390464320778847 0.19939999282360077
0.05870269984006882 -0.022412922233343124 0.1995999962091446
0.05928373336791992 -0.022435380145907402 0.19979999959468842
0.012884045019745827 -0.02204478159546852 0.20099999010562897
0.013522803783416748 -0.02223122864961624 0.20269998908042908
0.01412885170429945 -0.02235187217593193 0.2037999927997589
0.014719069004058838 -0.022439613938331604 0.204599991440773
0.0348738431930542 -0.021671883761882782 0.19759999215602875
0.0355156734585762 -0.021748656406998634 0.19829998910427094
0.0361429899930954 -0.021814463660120964 0.1988999992609024
0.03671814501285553 -0.02184736542403698 0.19919998943805695
0.050179123878479004 -0.021814463660120964 0.1988999992609024
0.050648003816604614 -0.02179252728819847 0.19869999587535858
0.05111583322286606 -0.021770592778921127 0.19849999248981476
0.051634639501571655 -0.021770592778921127 0.19849999248981476
0.05215345323085785 -0.021770592778921127 0.19849999248981476
0.05267226696014404 -0.021770592778921127 0.19849999248981476
0.05319107696413994 -0.021770592778921127 0.19849999248981476
0.053655773401260376 -0.021748656406998634 0.19829998910427094
0.05417406186461449 -0.021748656406998634 0.19829998910427094
0.054692354053258896 -0.021748656406998634 0.19829998910427094
0.05521063506603241 -0.021748656406998634 0.19829998910427094
0.05572892725467682 -0.021748656406998634 0.19829998910427094
0.05630394443869591 -0.021770592778921127 0.19849999248981476
0.05688001215457916 -0.02179252728819847 0.19869999587535858
0.05739934742450714 -0.02179252728819847 0.19869999587535858
0.05797697976231575 -0.021814463660120964 0.1988999992609024
0.05852624028921127 -0.021825430914759636 0.19900000095367432
0.05904636159539223 -0.021825430914759636 0.19900000095367432
0.05962634086608887 -0.02184736542403698 0.19919998943805695
0.06020737439393997 -0.021869299933314323 0.19939999282360077
0.060789451003074646 -0.021891236305236816 0.1995999962091446
0.06137257441878319 -0.02191317081451416 0.19979999959468842
0.013436077162623405 -0.021562259644269943 0.2013999968767166
0.01405259221792221 -0.02170144021511078 0.20269998908042908
0.014675904996693134 -0.021840620785951614 0.20399999618530273
0.03414873778820038 -0.02102695219218731 0.1964000016450882
0.0348738431930542 -0.021155424416065216 0.19759999215602875
0.0355156734585762 -0.021230367943644524 0.19829998910427094
0.0361429899930954 -0.0212946068495512 0.1988999992609024
0.03671814501285553 -0.02132672257721424 0.19919998943805695
0.04790623486042023 -0.021208956837654114 0.1981000006198883
0.04842400178313255 -0.021208956837654114 0.1981000006198883
0.04891705885529518 -0.021198250353336334 0.1979999989271164
0.04933469742536545 -0.021155424416065216 0.19759999215602875
0.049851156771183014 -0.021155424416065216 0.19759999215602875
0.05031663551926613 -0.021134011447429657 0.19739998877048492
0.050755321979522705 -0.021101893857121468 0.19709999859333038
0.05121844261884689 -0.02108048088848591 0.19689999520778656
0.051733072847127914 -0.02108048088848591 0.19689999520778656
0.052247703075408936 -0.02108048088848591 0.19689999520778656
0.05276233330368996 -0.02108048088848591 0.19689999520778656
0.05327696353197098 -0.02108048088848591 0.19689999520778656
0.053791593760252 -0.02108048088848591 0.19689999520778656
0.05430622398853302 -0.02108048088848591 0.19689999520778656
0.05482085049152374 -0.02108048088848591 0.19689999520778656
0.055335480719804764 -0.02108048088848591 0.19689999520778656
0.055850110948085785 -0.02108048088848591 0.19689999520778656
0.05642199516296387 -0.021101893857121468 0.19709999859333038
0.05702380836009979 -0.021134011447429657 0.19739998877048492
0.057539742439985275 -0.021134011447429657 0.19739998877048492
0.0582321397960186 -0.021198250353336334 0.1979999989271164
0.058749645948410034 -0.021198250353336334 0.1979999989271164
0.05929708480834961 -0.021208956837654114 0.1981000006198883
0.05993562564253807 -0.021251780912280083 0.19849999248981476
0.06057626008987427 -0.0212946068495512 0.1988999992609024
0.061188265681266785 -0.02132672257721424 0.19919998943805695
0.061770860105752945 -0.0213481355458498 0.19939999282360077
0.06235450506210327 -0.02136954851448536 0.1995999962091446
0.01280712615698576 -0.020868754014372826 0.19979999959468842
0.013376034796237946 -0.02094186656177044 0.2004999965429306
0.014004063792526722 -0.021098539233207703 0.2019999921321869
0.014625546522438526 -0.02123432233929634 0.20329999923706055
0.034113962203264236 -0.020492739975452423 0.19619999825954437
0.03483854606747627 -0.020618075504899025 0.19739998877048492
0.03547985479235649 -0.020691191777586937 0.1981000006198883
0.0361429899930954 -0.020774750038981438 0.1988999992609024
0.03671814501285553 -0.0208060834556818 0.19919998943805695
0.04663410410284996 -0.020586742088198662 0.19709999859333038
0.04710140824317932 -0.020565852522850037 0.19689999520778656
0.04761603847146034 -0.020565852522850037 0.19689999520778656
0.048008449375629425 -0.02051362954080105 0.1964000016450882
0.04847235977649689 -0.020492739975452423 0.19619999825954437
0.048985160887241364 -0.020492739975452423 0.19619999825954437
0.04939704388380051 -0.020450958982110023 0.19579999148845673
0.04988330975174904 -0.020440515130758286 0.19569998979568481
0.05029180273413658 -0.020398736000061035 0.19529999792575836
0.05077623203396797 -0.020388290286064148 0.19519999623298645
0.05128641799092293 -0.020388290286064148 0.19519999623298645
0.05179660767316818 -0.020388290286064148 0.19519999623298645
0.05230679363012314 -0.020388290286064148 0.19519999623298645
0.052816979587078094 -0.020388290286064148 0.19519999623298645
0.05332716926932335 -0.020388290286064148 0.19519999623298645
0.053837355226278305 -0.020388290286064148 0.19519999623298645
0.05437538027763367 -0.020398736000061035 0.19529999792575836
0.054885827004909515 -0.020398736000061035 0.19529999792575836
0.05539627745747566 -0.020398736000061035 0.19529999792575836
0.056021228432655334 -0.020440515130758286 0.19569998979568481
0.056561607867479324 -0.020450958982110023 0.19579999148845673
0.05707336217164993 -0.020450958982110023 0.19579999148845673
0.05770275741815567 -0.020492739975452423 0.19619999825954437
0.058274902403354645 -0.02051362954080105 0.1964000016450882
0.05887801945209503 -0.02054496295750141 0.19669999182224274
0.0595129057765007 -0.020586742088198662 0.19709999859333038
0.060180336236953735 -0.0206389669328928 0.19759999215602875
0.060911815613508224 -0.020712079480290413 0.19829998910427094
0.061554014682769775 -0.020753860473632812 0.19869999587535858
0.06216707080602646 -0.020785193890333176 0.19900000095367432
0.06281319260597229 -0.020826973021030426 0.19939999282360077
0.06346140801906586 -0.020868754014372826 0.19979999959468842
0.012781485915184021 -0.020305810496211052 0.19939999282360077
0.013336007483303547 -0.02035672776401043 0.19990000128746033
0.013920871540904045 -0.02044837921857834 0.20080000162124634
0.014539217576384544 -0.02058076299726963 0.2020999938249588
0.03404441103339195 -0.019939204677939415 0.19579999148845673
0.03478560224175453 -0.020071590319275856 0.19709999859333038
0.03547985479235649 -0.02017342671751976 0.1981000006198883
0.036106646060943604 -0.020234527066349983 0.19869999587535858
0.03668128326535225 -0.02026507630944252 0.19900000095367432
0.04551124572753906 -0.020030856132507324 0.19669999182224274
0.04595515877008438 -0.020000306889414787 0.1964000016450882
0.04646848142147064 -0.020000306889414787 0.1964000016450882
0.04693396016955376 -0.019979940727353096 0.19619999825954437
0.04744676128029823 -0.019979940727353096 0.19619999825954437
0.04786178097128868 -0.019939204677939415 0.19579999148845673
0.04834882915019989 -0.01992902159690857 0.19569998979568481
0.04876045882701874 -0.019888289272785187 0.19529999792575836
0.049270905554294586 -0.019888289272785187 0.19529999792575836
0.04975586384534836 -0.01987810619175434 0.19519999623298645
0.05016304552555084 -0.01983737014234066 0.1947999894618988
0.05062016099691391 -0.019817005842924118 0.19460000097751617
0.05110250413417816 -0.019806820899248123 0.19449999928474426
0.05161086097359657 -0.019806820899248123 0.19449999928474426
0.052119217813014984 -0.019806820899248123 0.19449999928474426
0.05672357976436615 -0.019817005842924118 0.19460000097751617
0.057349830865859985 -0.0198577381670475 0.19499999284744263
0.05785949528217316 -0.0198577381670475 0.19499999284744263
0.05842902883887291 -0.01987810619175434 0.19519999623298645
0.0589694082736969 -0.019888289272785187 0.19529999792575836
0.059632133692502975 -0.019939204677939415 0.19579999148845673
0.06042034178972244 -0.020030856132507324 0.19669999182224274
0.06115129217505455 -0.020102141425013542 0.19739998877048492
0.06194838881492615 -0.020193791016936302 0.19829998910427094
0.06268718838691711 -0.02026507630944252 0.19900000095367432
0.06327082961797714 -0.02028544247150421 0.19919998943805695
0.06398361921310425 -0.020346544682979584 0.19979999959468842
0.06453811377286911 -0.02035672776401043 0.19990000128746033
0.012755846604704857 -0.019744958728551865 0.19900000095367432
0.01331599336117506 -0.019804490730166435 0.1995999962091446
0.013872342184185982 -0.019854100421071053 0.20009998977184296
0.014488859102129936 -0.019983088597655296 0.2013999968767166
0.01511217001825571 -0.02011207491159439 0.20269998908042908
0.01574227772653103 -0.020241061225533485 0.20399999618530273
0.033957477658987045 -0.01937784068286419 0.19529999792575836
0.03471500426530838 -0.019516749307513237 0.19669999182224274
0.035390302538871765 -0.019606048241257668 0.19759999215602875
0.03603396192193031 -0.01967550255358219 0.19829998910427094
0.03662598133087158 -0.019715191796422005 0.19869999587535858
0.04427950084209442 -0.019427450373768806 0.19579999148845673
0.04479125514626503 -0.019427450373768806 0.19579999148845673
0.04530300945043564 -0.019427450373768806 0.19579999148845673
0.04581476375460625 -0.019427450373768806 0.19579999148845673
0.04642116278409958 -0.01946713961660862 0.19619999825954437
0.04693396016955376 -0.01946713961660862 0.19619999825954437
0.04735002666711807 -0.019427450373768806 0.19579999148845673
0.04786178097128868 -0.019427450373768806 0.19579999148845673
0.04837353527545929 -0.019427450373768806 0.19579999148845673
0.048860322684049606 -0.019417528063058853 0.19569998979568481
0.049270905554294586 -0.01937784068286419 0.19529999792575836
0.04975586384534836 -0.019367918372154236 0.19519999623298645
0.058758050203323364 -0.019308386370539665 0.19460000097751617
0.05932757630944252 -0.019328229129314423 0.1947999894618988
0.05989815294742584 -0.01934807375073433 0.19499999284744263
0.060624659061431885 -0.019417528063058853 0.19569998979568481
0.0622461698949337 -0.019606048241257668 0.19759999215602875
0.06304848939180374 -0.019695347175002098 0.19849999248981476
0.06372742354869843 -0.019744958728551865 0.19900000095367432
0.0644412562251091 -0.019804490730166435 0.1995999962091446
0.0650605857372284 -0.019834257662296295 0.19990000128746033
0.0657142773270607 -0.01987394504249096 0.20029999315738678
0.012736615724861622 -0.019195858389139175 0.19869999587535858
0.013289307244122028 -0.019244160503149033 0.19919998943805695
0.013858477585017681 -0.01931178756058216 0.19990000128746033
0.014438500627875328 -0.019389072433114052 0.20069999992847443
0.015067437663674355 -0.01952432282269001 0.2020999938249588
0.015695976093411446 -0.019649911671876907 0.20340000092983246
0.03390531241893768 -0.018838411197066307 0.19499999284744263
0.03462676331400871 -0.018954340368509293 0.19619999825954437
0.03530075401067734 -0.019041286781430244 0.19709999859333038
0.03590676188468933 -0.0190895888954401 0.19759999215602875
0.036515384912490845 -0.019137894734740257 0.1981000006198883
0.04312344267964363 -0.01885773241519928 0.19519999623298645
0.04365598037838936 -0.01886739395558834 0.19529999792575836
0.044166430830955505 -0.01886739395558834 0.19529999792575836
0.044676877558231354 -0.01886739395558834 0.19529999792575836
0.04527987167239189 -0.018906036391854286 0.19569998979568481
0.04579136520624161 -0.018906036391854286 0.19569998979568481
0.046326518058776855 -0.018915696069598198 0.19579999148845673
0.04693396016955376 -0.018954340368509293 0.19619999825954437
0.04744676128029823 -0.018954340368509293 0.19619999825954437
0.04795956239104271 -0.018954340368509293 0.19619999825954437
0.060252923518419266 -0.0187901072204113 0.19449999928474426
0.06091747805476189 -0.018838411197066307 0.19499999284744263
0.06340719014406204 -0.019128233194351196 0.1979999989271164
0.06415069103240967 -0.019195858389139175 0.19869999587535858
0.06489785015583038 -0.019263481721282005 0.19939999282360077
0.06555023789405823 -0.0193021260201931 0.19979999959468842
0.06610552221536636 -0.01931178756058216 0.19990000128746033
0.06669464707374573 -0.019331106916069984 0.20009998977184296
0.012710975483059883 -0.01863892562687397 0.19829998910427094
0.013275965116918087 -0.018704721704125404 0.19900000095367432
0.013851543888449669 -0.018779916688799858 0.19979999959468842
0.014409724622964859 -0.018826913088560104 0.20029999315738678
0.015015250071883202 -0.018930304795503616 0.2013999968767166
0.015657391399145126 -0.019071295857429504 0.2028999924659729
0.0338357649743557 -0.01829114928841591 0.19460000097751617
0.03453851863741875 -0.01839454099535942 0.19569998979568481
0.0351753868162632 -0.018460338935256004 0.1964000016450882
0.03581590577960014 -0.01852613314986229 0.19709999859333038
0.043079257011413574 -0.018328746780753136 0.19499999284744263
0.04363362863659859 -0.018347544595599174 0.19519999623298645
0.044166430830955505 -0.018356945365667343 0.19529999792575836
0.044768381863832474 -0.01839454099535942 0.19569998979568481
0.04530300945043564 -0.01840394176542759 0.19579999148845673
0.0459083616733551 -0.018441539257764816 0.19619999825954437
0.04646848142147064 -0.018460338935256004 0.1964000016450882
0.047053564339876175 -0.018488535657525063 0.19669999182224274
0.06373097747564316 -0.018554329872131348 0.19739998877048492
0.06460493057966232 -0.01865772344172001 0.19849999248981476
0.06528777629137039 -0.018704721704125404 0.19900000095367432
0.06594017148017883 -0.018742317333817482 0.19939999282360077
0.06659466028213501 -0.018779916688799858 0.19979999959468842
0.012698156759142876 -0.018102362751960754 0.1981000006198883
0.013269294053316116 -0.018175465986132622 0.1988999992609024
0.013823812827467918 -0.018221154808998108 0.19939999282360077
0.01438094861805439 -0.018266845494508743 0.19990000128746033
0.014963061548769474 -0.01833994872868061 0.20069999992847443
0.015595657750964165 -0.01846788078546524 0.2020999938249588
0.033783603459596634 -0.017755117267370224 0.19429999589920044
0.034414976835250854 -0.017819084227085114 0.19499999284744263
0.03506792336702347 -0.01789218746125698 0.19579999148845673
0.03565236181020737 -0.01792874000966549 0.19619999825954437
0.04197365418076515 -0.017782531678676605 0.19460000097751617
0.04252593219280243 -0.01780080795288086 0.1947999894618988
0.04312344267964363 -0.017837360501289368 0.19519999623298645
0.04374539107084274 -0.017883049324154854 0.19569998979568481
0.04436996206641197 -0.01792874000966549 0.19619999825954437
0.04492851346731186 -0.017947016283869743 0.1964000016450882
0.045557521283626556 -0.01799270510673523 0.19689999520778656
0.046118948608636856 -0.018010981380939484 0.19709999859333038
0.06414927542209625 -0.018010981380939484 0.19709999859333038
0.0649925097823143 -0.018102362751960754 0.1981000006198883
0.0657748281955719 -0.018175465986132622 0.1988999992609024
0.06639467179775238 -0.018202878534793854 0.19919998943805695
0.06704968214035034 -0.018239431083202362 0.1995999962091446
0.06767293810844421 -0.018266845494508743 0.19990000128746033
0.013809947296977043 -0.017682237550616264 0.19919998943805695
0.014373754151165485 -0.017735499888658524 0.19979999959468842
0.01494815107434988 -0.01779763586819172 0.2004999965429306
0.01555707398802042 -0.017895277589559555 0.20160000026226044
0.03374882787466049 -0.017229530960321426 0.19409999251365662
0.03432673588395119 -0.017265038564801216 0.19449999928474426
0.034924641251564026 -0.017309419810771942 0.19499999284744263
0.03547064587473869 -0.01732717454433441 0.19519999623298645
0.040893279016017914 -0.017247283831238747 0.19429999589920044
0.041443727910518646 -0.017265038564801216 0.19449999928474426
0.04205992817878723 -0.017309419810771942 0.19499999284744263
0.04263508692383766 -0.017336050048470497 0.19529999792575836
0.043255992233753204 -0.017380433157086372 0.19579999148845673
0.04390186816453934 -0.017433693632483482 0.1964000016450882
0.04457349330186844 -0.017495829612016678 0.19709999859333038
0.04520302638411522 -0.017540212720632553 0.19759999215602875
0.06279470771551132 -0.017265038564801216 0.19449999928474426
0.0653449222445488 -0.017540212720632553 0.19759999215602875
0.06622802466154099 -0.01763785630464554 0.19869999587535858
0.06691531836986542 -0.017682237550616264 0.19919998943805695
0.06757137179374695 -0.017717745155096054 0.1995999962091446
0.013796082697808743 -0.01714436709880829 0.19900000095367432
0.014344977214932442 -0.01717882789671421 0.19939999282360077
0.014918328262865543 -0.01723913475871086 0.20009998977184296
0.015510772354900837 -0.017316671088337898 0.20099999010562897
0.01617174781858921 -0.01746313087642193 0.20269998908042908
0.03369666635990143 -0.016696373000741005 0.19380000233650208
0.034256137907505035 -0.016722219064831734 0.19409999251365662
0.0348350927233696 -0.016756679862737656 0.19449999928474426
0.03536161780357361 -0.016765296459197998 0.19460000097751617
0.040935371071100235 -0.016756679862737656 0.19449999928474426
0.041507650166749954 -0.016782525926828384 0.1947999894618988
0.042124636471271515 -0.0168256014585495 0.19529999792575836
0.042875222861766815 -0.01692037098109722 0.1964000016450882
0.04349900409579277 -0.016963446512818336 0.19689999520778656
0.04417010396718979 -0.017023753374814987 0.19759999215602875
0.044844865798950195 -0.01708405837416649 0.19829998910427094
0.06323797255754471 -0.01673945039510727 0.19429999589920044
0.06407388299703598 -0.0168256014585495 0.19529999792575836
0.06579472124576569 -0.01700652204453945 0.19739998877048492
0.06674735993146896 -0.01711852103471756 0.19869999587535858
0.06743595749139786 -0.017161596566438675 0.19919998943805695
0.06809306144714355 -0.017196057364344597 0.1995999962091446
0.06871787458658218 -0.017221905291080475 0.19990000128746033
0.01377528440207243 -0.01659918762743473 0.19869999587535858
0.014330589212477207 -0.016640955582261086 0.19919998943805695
0.014895962551236153 -0.01669108122587204 0.19979999959468842
0.01548762246966362 -0.016766265034675598 0.20069999992847443
0.01611590012907982 -0.01687486656010151 0.2019999921321869
0.016750972718000412 -0.01698346622288227 0.20329999923706055
0.033661890774965286 -0.016173139214515686 0.19359999895095825
0.034203194081783295 -0.016189847141504288 0.19380000233650208
0.03476345166563988 -0.01621490716934204 0.19409999251365662
0.03527076169848442 -0.01621490716934204 0.19409999251365662
0.03983655944466591 -0.01621490716934204 0.19409999251365662
0.04038544371724129 -0.016231616958975792 0.19429999589920044
0.040998511016368866 -0.016273384913802147 0.1947999894618988
0.041614189743995667 -0.01631515473127365 0.19529999792575836
0.042361900210380554 -0.01640704832971096 0.1964000016450882
0.04302803799510002 -0.016465526074171066 0.19709999859333038
0.043742015957832336 -0.016540709882974625 0.1979999989271164
0.044371284544467926 -0.01658247970044613 0.19849999248981476
0.06381142139434814 -0.016248324885964394 0.19449999928474426
0.06448512524366379 -0.01629009284079075 0.19499999284744263
0.06637784093618393 -0.01650729402899742 0.19759999215602875
0.06726669520139694 -0.01659918762743473 0.19869999587535858
0.0679565966129303 -0.016640955582261086 0.19919998943805695
0.06868349760770798 -0.01669108122587204 0.19979999959468842
0.01374755334109068 -0.016047483310103416 0.19829998910427094
0.014316202141344547 -0.016104131937026978 0.19900000095367432
0.014881052076816559 -0.01615268737077713 0.1995999962091446
0.015441320836544037 -0.016193149611353874 0.20009998977184296
0.016068032011389732 -0.01629835180938244 0.2013999968767166
0.033627115190029144 -0.015650950372219086 0.19339999556541443
0.03416789695620537 -0.015667134895920753 0.19359999895095825
0.03470972180366516 -0.01568332128226757 0.19380000233650208
0.03521624952554703 -0.01568332128226757 0.19380000233650208
0.03987760841846466 -0.015723783522844315 0.19429999589920044
0.04044780135154724 -0.01574806123971939 0.19460000097751617
0.04110374301671982 -0.015804708003997803 0.19529999792575836
0.04184857755899429 -0.0158937256783247 0.1964000016450882
0.04251288250088692 -0.01595037430524826 0.19709999859333038
0.04324634373188019 -0.01603129878640175 0.1981000006198883
0.06425363570451736 -0.015723783522844315 0.19429999589920044
0.06499478965997696 -0.015780430287122726 0.19499999284744263
0.06597474217414856 -0.0158937256783247 0.1964000016450882
0.0668943002820015 -0.015990836545825005 0.19759999215602875
0.06785425543785095 -0.01609603874385357 0.1988999992609024
0.06854598969221115 -0.016136500984430313 0.19939999282360077
0.0013330451911315322 -0.015818947926163673 0.2019999921321869
0.001855476526543498 -0.015771960839629173 0.2013999968767166
0.0028981503564864397 -0.015717143192887306 0.20069999992847443
0.0034193010069429874 -0.015701480209827423 0.2004999965429306
0.00393547210842371 -0.015670154243707657 0.20009998977184296
0.013699023984372616 -0.015474376268684864 0.19759999215602875
0.014294619672000408 -0.015560518950223923 0.19869999587535858
0.014851229265332222 -0.015599674545228481 0.19919998943805695
0.01541817095130682 -0.015646662563085556 0.19979999959468842
0.01601218432188034 -0.015717143192887306 0.20069999992847443
0.016643859446048737 -0.015818947926163673 0.2019999921321869
0.03360972926020622 -0.015137636102735996 0.19329999387264252
0.03413259983062744 -0.015145467594265938 0.19339999556541443
0.03463808074593544 -0.015145467594265938 0.19339999556541443
0.03517990559339523 -0.015161129646003246 0.19359999895095825
0.03878193721175194 -0.015184622257947922 0.1938999891281128
0.039329253137111664 -0.015200285241007805 0.19409999251365662
0.03991865739226341 -0.015231610275804996 0.19449999928474426
0.04057250916957855 -0.015286427922546864 0.19519999623298645
0.04129316285252571 -0.015364740043878555 0.19619999825954437
0.04199773073196411 -0.015435220673680305 0.19709999859333038
0.04272857680916786 -0.015513532795011997 0.1981000006198883
0.06476147472858429 -0.015215948224067688 0.19429999589920044
0.06560523062944412 -0.015294259414076805 0.19529999792575836
0.06665732711553574 -0.015419557690620422 0.19689999520778656
0.06758134067058563 -0.015513532795011997 0.1981000006198883
0.06847723573446274 -0.015599674545228481 0.19919998943805695
0.06920570135116577 -0.015646662563085556 0.19979999959468842
0.06983260810375214 -0.015670154243707657 0.20009998977184296
-0.0029364200308918953 -0.015533222816884518 0.20520000159740448
-0.0023977577220648527 -0.015518083237111568 0.20499999821186066
-0.0018565079662948847 -0.015472663566470146 0.2043999880552292
-0.001318394555710256 -0.015427244827151299 0.2037999927997589
0.00027630385011434555 -0.015245569869875908 0.2013999968767166
0.000800303474534303 -0.015200152061879635 0.20080000162124634
0.0013218264793977141 -0.015162302181124687 0.20029999315738678
0.001843499718233943 -0.015147162601351738 0.20009998977184296
0.002362944884225726 -0.015124453231692314 0.19979999959468842
0.0028851539827883244 -0.015124453231692314 0.19979999959468842
0.0034005416091531515 -0.015094174072146416 0.19939999282360077
0.0039217048324644566 -0.015094174072146416 0.19939999282360077
0.0044384123757481575 -0.015079033561050892 0.19919998943805695
0.004954074509441853 -0.015063894912600517 0.19900000095367432
0.005471441894769669 -0.015056325122714043 0.1988999992609024
0.005979249253869057 -0.015026045963168144 0.19849999248981476
0.014836319722235203 -0.015063894912600517 0.19900000095367432
0.015402737073600292 -0.015109313651919365 0.1995999962091446
0.015948358923196793 -0.015132023021578789 0.19990000128746033
0.016561463475227356 -0.01521529071033001 0.20099999010562897
0.03354018181562424 -0.014602137729525566 0.19290000200271606
0.0340796522796154 -0.01461727637797594 0.1930999904870987
0.034620169550180435 -0.01463241595774889 0.19329999387264252
0.03512538969516754 -0.01463241595774889 0.19329999387264252
0.03825541213154793 -0.014670265838503838 0.19380000233650208
0.03882193937897682 -0.014692974276840687 0.19409999251365662
0.03936977684497833 -0.01470811478793621 0.19429999589920044
0.040021274238824844 -0.014761102385818958 0.19499999284744263
0.04069722071290016 -0.014821660704910755 0.19579999148845673
0.041440486907958984 -0.01490492932498455 0.19689999520778656
0.042189501225948334 -0.014988197013735771 0.1979999989271164
0.06537008285522461 -0.014730824157595634 0.19460000097751617
0.06625109165906906 -0.01481409091502428 0.19569998979568481
0.06734253466129303 -0.014942777343094349 0.19739998877048492
0.06837411224842072 -0.015056325122714043 0.1988999992609024
0.06906715035438538 -0.015094174072146416 0.19939999282360077
0.06976281106472015 -0.015132023021578789 0.19990000128746033
-0.005094093270599842 -0.015033440664410591 0.20569999516010284
-0.004552033729851246 -0.015018823556602001 0.20549999177455902
-0.0040149264968931675 -0.015018823556602001 0.20549999177455902
-0.0034744348376989365 -0.015004206448793411 0.2052999883890152
-0.0029335578437894583 -0.014982282184064388 0.20499999821186066
-0.002393079223111272 -0.014953047968447208 0.204599991440773
-0.001851058448664844 -0.014894580468535423 0.2037999927997589
-0.000777249108068645 -0.014733795076608658 0.20160000026226044
-0.00024934206157922745 -0.014675327576696873 0.20080000162124634
0.00027479472919367254 -0.014638785272836685 0.20029999315738678
0.0007967164274305105 -0.01460955198854208 0.19990000128746033
0.0013185269199311733 -0.014602243900299072 0.19979999959468842
0.0018370506586506963 -0.014573009684681892 0.19939999282360077
0.002355848904699087 -0.014558392576873302 0.19919998943805695
0.002873601857572794 -0.014543776400387287 0.19900000095367432
0.0033920148853212595 -0.014536467380821705 0.1988999992609024
0.0039040043484419584 -0.014507233165204525 0.19849999248981476
0.004413903690874577 -0.01447799988090992 0.1981000006198883
0.0049291797913610935 -0.014470691792666912 0.1979999989271164
0.005430178716778755 -0.014426840469241142 0.19739998877048492
0.00593105424195528 -0.01439029909670353 0.19689999520778656
0.006429316010326147 -0.014353756792843342 0.1964000016450882
0.006935568992048502 -0.014339139685034752 0.19619999825954437
0.014799041673541069 -0.014507233165204525 0.19849999248981476
0.015371869318187237 -0.014558392576873302 0.19919998943805695
0.015940381214022636 -0.014602243900299072 0.19979999959468842
0.01650378666818142 -0.014638785272836685 0.20029999315738678
0.03352279216051102 -0.014090653508901596 0.19280000030994415
0.03402670845389366 -0.014090653508901596 0.19280000030994415
0.03454853221774101 -0.014097961597144604 0.19290000200271606
0.03508904576301575 -0.014112577773630619 0.1930999904870987
0.037709929049015045 -0.014149121008813381 0.19359999895095825
0.03827514871954918 -0.014171045273542404 0.1938999891281128
0.038861941546201706 -0.014200279489159584 0.19429999589920044
0.039471086114645004 -0.014236820861697197 0.1947999894618988
0.04016494005918503 -0.014302597381174564 0.19569998979568481
0.04088428616523743 -0.01437568198889494 0.19669999182224274
0.04158781096339226 -0.014441457577049732 0.19759999215602875
0.06526930630207062 -0.014200279489159584 0.19429999589920044
0.0660141184926033 -0.014251437969505787 0.19499999284744263
0.06809910386800766 -0.01447799988090992 0.1981000006198883
0.06899787485599518 -0.014558392576873302 0.19919998943805695
0.06972791254520416 -0.014602243900299072 0.19979999959468842
-0.007230524439364672 -0.014467623084783554 0.2052999883890152
-0.00669394014403224 -0.014467623084783554 0.2052999883890152
-0.006157355383038521 -0.014467623084783554 0.2052999883890152
-0.005626247264444828 -0.01448171678930521 0.20549999177455902
-0.00508914003148675 -0.01448171678930521 0.20549999177455902
-0.004552033729851246 -0.01448171678930521 0.20549999177455902
-0.004011019133031368 -0.014467623084783554 0.2052999883890152
-0.0034744348376989365 -0.014467623084783554 0.2052999883890152
-0.0029335578437894583 -0.014446482062339783 0.20499999821186066
-0.0018465170869603753 -0.014326682314276695 0.20329999923706055
-0.0013073972659185529 -0.014242117293179035 0.2020999938249588
-0.000774935819208622 -0.01416459959000349 0.20099999010562897
-0.00024872118956409395 -0.014115270227193832 0.20029999315738678
0.0002742459764704108 -0.014087081886827946 0.19990000128746033
0.0007955207256600261 -0.014065940864384174 0.1995999962091446
0.0013158872025087476 -0.014051846228539944 0.19939999282360077
0.0018352080369368196 -0.014037751592695713 0.19919998943805695
0.0023523010313510895 -0.014016611501574516 0.1988999992609024
0.0028663817793130875 -0.01398842316120863 0.19849999248981476
0.0033817824441939592 -0.013974328525364399 0.19829998910427094
0.0038941707462072372 -0.013953187502920628 0.1979999989271164
0.0043916222639381886 -0.013889764435589314 0.19709999859333038
0.0049017951823771 -0.013875669799745083 0.19689999520778656
0.005402670707553625 -0.013840435072779655 0.1964000016450882
0.0059099686332046986 -0.013826340436935425 0.19619999825954437
0.006406400352716446 -0.013791104778647423 0.19569998979568481
0.006903754081577063 -0.01376291736960411 0.19529999792575836
0.007410404738038778 -0.013755870051681995 0.19519999623298645
0.007920591160655022 -0.013755870051681995 0.19519999623298645
0.01476176455616951 -0.013953187502920628 0.1979999989271164
0.015333286486566067 -0.014002516865730286 0.19869999587535858
0.0158925112336874 -0.014037751592695713 0.19919998943805695
0.01646259054541588 -0.014080035500228405 0.19979999959468842
0.017044303938746452 -0.014129363931715488 0.2004999965429306
0.032950375229120255 -0.013558551669120789 0.1923999935388565
0.033488016575574875 -0.01357264630496502 0.19259999692440033
0.033991411328315735 -0.01357264630496502 0.19259999692440033
0.03453062102198601 -0.01358674094080925 0.19280000030994415
0.03774888440966606 -0.01365721132606268 0.19380000233650208
0.03831462934613228 -0.013678351417183876 0.19409999251365662
0.03892194479703903 -0.013713588006794453 0.19460000097751617
0.03957240283489227 -0.01376291736960411 0.19529999792575836
0.04030860960483551 -0.013840435072779655 0.1964000016450882
0.04107135161757469 -0.013924999162554741 0.19759999215602875
0.06594640761613846 -0.013727680779993534 0.1947999894618988
0.0667966976761818 -0.013798152096569538 0.19579999148845673
0.06785846501588821 -0.01391090452671051 0.19739998877048492
0.06892860680818558 -0.014023658819496632 0.19900000095367432
0.06965811550617218 -0.014065940864384174 0.1995999962091446
0.0703556016087532 -0.014101175591349602 0.20009998977184296
0.07119739055633545 -0.01416459959000349 0.20099999010562897
-0.008299647830426693 -0.013924254104495049 0.20520000159740448
-0.007763325236737728 -0.013924254104495049 0.20520000159740448
-0.007230524439364672 -0.013931038789451122 0.2052999883890152
-0.00669394014403224 -0.013931038789451122 0.2052999883890152
-0.006157355383038521 -0.013931038789451122 0.2052999883890152
-0.005626247264444828 -0.013944610953330994 0.20549999177455902
-0.00508914003148675 -0.013944610953330994 0.20549999177455902
-0.004556464031338692 -0.01395818218588829 0.20569999516010284
-0.0040149264968931675 -0.013944610953330994 0.20549999177455902
-0.003472742857411504 -0.013924254104495049 0.20520000159740448
-0.0029335578437894583 -0.013910682871937752 0.20499999821186066
-0.0023907397408038378 -0.013869968242943287 0.2043999880552292
-0.0018465170869603753 -0.01379532553255558 0.20329999923706055
-0.0013073972659185529 -0.013713897205889225 0.2020999938249588
-0.0007741648005321622 -0.013625683262944221 0.20080000162124634
-0.00024872118956409395 -0.013591754250228405 0.20029999315738678
0.0002741087810136378 -0.013557826168835163 0.19979999959468842
0.000794723629951477 -0.01353068370372057 0.19939999282360077
0.0013145672855898738 -0.013517111539840698 0.19919998943805695
0.0018333656480535865 -0.013503541238605976 0.19900000095367432
0.00234993570484221 -0.013483183458447456 0.19869999587535858
0.002863493515178561 -0.013456040062010288 0.19829998910427094
0.0033817824441939592 -0.013456040062010288 0.19829998910427094
0.003886303398758173 -0.01340854074805975 0.19759999215602875
0.0043916222639381886 -0.013374612666666508 0.19709999859333038
0.004896816331893206 -0.01334746927022934 0.19669999182224274
0.005397168919444084 -0.013313541188836098 0.19619999825954437
0.005894907284528017 -0.013279612176120281 0.19569998979568481
0.00639330642297864 -0.013252469711005688 0.19529999792575836
0.0069002192467451096 -0.01324568409472704 0.19519999623298645
0.007402812130749226 -0.013232112862169743 0.19499999284744263
0.007904360070824623 -0.013218540698289871 0.1947999894618988
0.00841350108385086 -0.013218540698289871 0.1947999894618988
0.00891348160803318 -0.013204970397055149 0.19460000097751617
0.014679755084216595 -0.013361040502786636 0.19689999520778656
0.015279268845915794 -0.013435684144496918 0.1979999989271164
0.015868578106164932 -0.013496755622327328 0.1988999992609024
0.016429631039500237 -0.01353068370372057 0.19939999282360077
0.01698479801416397 -0.013557826168835163 0.19979999959468842
0.017568344250321388 -0.013605326414108276 0.2004999965429306
0.032396912574768066 -0.013035327196121216 0.19209998846054077
0.03289899602532387 -0.013035327196121216 0.19209998846054077
0.03345324471592903 -0.013055684044957161 0.1923999935388565
0.03395611047744751 -0.013055684044957161 0.1923999935388565
0.034494802355766296 -0.013069256208837032 0.19259999692440033
0.03720392286777496 -0.01313711330294609 0.19359999895095825
0.03776836022734642 -0.013157469220459461 0.1938999891281128
0.03835410624742508 -0.01318461261689663 0.19429999589920044
0.0390019491314888 -0.013232112862169743 0.19499999284744263
0.039673712104558945 -0.01328639779239893 0.19579999148845673
0.040452275425195694 -0.013374612666666508 0.19709999859333038
0.06662612408399582 -0.013252469711005688 0.19529999792575836
0.06768658757209778 -0.013361040502786636 0.19689999520778656
0.06875541806221008 -0.01346961222589016 0.19849999248981476
0.0695883184671402 -0.01353068370372057 0.19939999282360077
0.07028528302907944 -0.013564612716436386 0.19990000128746033
0.07109113037586212 -0.013618897646665573 0.20069999992847443
-0.009363159537315369 -0.013374881818890572 0.20499999821186066
-0.008835971355438232 -0.013387930579483509 0.20520000159740448
-0.008299647830426693 -0.013387930579483509 0.20520000159740448
-0.007763325236737728 -0.013387930579483509 0.20520000159740448
-0.007230524439364672 -0.01339445449411869 0.2052999883890152
-0.00669394014403224 -0.01339445449411869 0.2052999883890152
-0.006163354031741619 -0.013407503254711628 0.20549999177455902
-0.00563172297552228 -0.013420552015304565 0.20569999516010284
-0.005094093270599842 -0.013420552015304565 0.20569999516010284
-0.004556464031338692 -0.013420552015304565 0.20569999516010284
-0.004018833860754967 -0.013420552015304565 0.20569999516010284
0.004398306366056204 -0.012879031710326672 0.19739998877048492
0.0049017951823771 -0.012846410274505615 0.19689999520778656
0.005402670707553625 -0.012813789770007133 0.1964000016450882
0.005897919647395611 -0.012774642556905746 0.19579999148845673
0.00639330642297864 -0.01274202112108469 0.19529999792575836
0.0069002192467451096 -0.012735497206449509 0.19519999623298645
0.007402812130749226 -0.012722448445856571 0.19499999284744263
0.007904360070824623 -0.012709399685263634 0.1947999894618988
0.008404863998293877 -0.012696350924670696 0.19460000097751617
0.008908901363611221 -0.012689827010035515 0.19449999928474426
0.009417257271707058 -0.012689827010035515 0.19449999928474426
0.009915407747030258 -0.012676778249442577 0.19429999589920044
0.014627567492425442 -0.012800740078091621 0.19619999825954437
0.015194383449852467 -0.012846410274505615 0.19689999520778656
0.015796774998307228 -0.012918178923428059 0.1979999989271164
0.016388434916734695 -0.01297689788043499 0.1988999992609024
0.01695079356431961 -0.013009518384933472 0.19939999282360077
0.017515771090984344 -0.013042140752077103 0.19990000128746033
0.03236318752169609 -0.012520194053649902 0.19189999997615814
0.03289899602532387 -0.012533241882920265 0.19209998846054077
0.03340107947587967 -0.012533241882920265 0.19209998846054077
0.03395611047744751 -0.012552815489470959 0.1923999935388565
0.034494802355766296 -0.012565864250063896 0.19259999692440033
0.036660004407167435 -0.012618059292435646 0.19339999556541443
0.037242356687784195 -0.012644156813621521 0.19380000233650208
0.037807319313287735 -0.01266372948884964 0.19409999251365662
0.03845280408859253 -0.012709399685263634 0.1947999894618988
0.039141956716775894 -0.012768118642270565 0.19569998979568481
0.03985607251524925 -0.012833361513912678 0.19669999182224274
0.04063698649406433 -0.012918178923428059 0.1979999989271164
0.0665920078754425 -0.012735497206449509 0.19519999623298645
0.06751471012830734 -0.012813789770007133 0.1964000016450882
0.06861686706542969 -0.01292470283806324 0.1981000006198883
0.06951852142810822 -0.012996469624340534 0.19919998943805695
0.07025012373924255 -0.013035616837441921 0.19979999959468842
0.07102028280496597 -0.013081287033855915 0.2004999965429306
-0.010434758849442005 -0.01283908262848854 0.20499999821186066
-0.0098989587277174 -0.01283908262848854 0.20499999821186066
-0.009363159537315369 -0.01283908262848854 0.20499999821186066
-0.008827358484268188 -0.01283908262848854 0.20499999821186066
-0.008291558362543583 -0.01283908262848854 0.20499999821186066
-0.007763325236737728 -0.012851607985794544 0.20520000159740448
-0.007230524439364672 -0.012857870198786259 0.2052999883890152
-0.00669394014403224 -0.012857870198786259 0.2052999883890152
-0.006163354031741619 -0.012870396487414837 0.20549999177455902
-0.00563172297552228 -0.012882922776043415 0.20569999516010284
0.005915993358939886 -0.012300467118620872 0.1964000016450882
0.006409673951566219 -0.012262889184057713 0.19579999148845673
0.006903754081577063 -0.012231574393808842 0.19529999792575836
0.007410404738038778 -0.012225311249494553 0.19519999623298645
0.007904360070824623 -0.012200258672237396 0.1947999894618988
0.008404863998293877 -0.012187734246253967 0.19460000097751617
0.008908901363611221 -0.012181471101939678 0.19449999928474426
0.009407573379576206 -0.0121689448133111 0.19429999589920044
0.009915407747030258 -0.0121689448133111 0.19429999589920044
0.01042324211448431 -0.0121689448133111 0.19429999589920044
0.015709014609456062 -0.012331781908869743 0.19689999520778656
0.01632251776754856 -0.012406937777996063 0.1981000006198883
0.0169167909771204 -0.012463304214179516 0.19900000095367432
0.017471957951784134 -0.012488355860114098 0.19939999282360077
0.03236318752169609 -0.012018634006381035 0.19189999997615814
0.03289899602532387 -0.012031158432364464 0.19209998846054077
0.03340107947587967 -0.012031158432364464 0.19209998846054077
0.03395611047744751 -0.012049947865307331 0.1923999935388565
0.034494802355766296 -0.01206247415393591 0.19259999692440033
0.036154527217149734 -0.012112577445805073 0.19339999556541443
0.03669791668653488 -0.012125103734433651 0.19359999895095825
0.03726157173514366 -0.012143892236053944 0.1938999891281128
0.037885233759880066 -0.012181471101939678 0.19449999928474426
0.03853176534175873 -0.012225311249494553 0.19519999623298645
0.039241962134838104 -0.012287940829992294 0.19619999825954437
0.03999790921807289 -0.01236309576779604 0.19739998877048492
0.06744595617055893 -0.012287940829992294 0.19619999825954437
0.0684436783194542 -0.012375622056424618 0.19759999215602875
0.06944872438907623 -0.012463304214179516 0.19900000095367432
0.07017980515956879 -0.012500882148742676 0.1995999962091446
0.07087859511375427 -0.012532196007668972 0.20009998977184296
-0.010434758849442005 -0.01230328157544136 0.20499999821186066
-0.0098989587277174 -0.01230328157544136 0.20499999821186066
-0.009363159537315369 -0.01230328157544136 0.20499999821186066
-0.008827358484268188 -0.01230328157544136 0.20499999821186066
-0.008291558362543583 -0.01230328157544136 0.20499999821186066
-0.007763325236737728 -0.01231528539210558 0.20520000159740448
-0.007230524439364672 -0.012321285903453827 0.2052999883890152
0.006935568992048502 -0.011775140650570393 0.19619999825954437
0.007414201274514198 -0.011721126735210419 0.19529999792575836
0.007912475615739822 -0.011703121475875378 0.19499999284744263
0.008404863998293877 -0.011679115705192089 0.19460000097751617
0.008908901363611221 -0.011673114262521267 0.19449999928474426
0.009407573379576206 -0.011661110445857048 0.19429999589920044
0.009905201382935047 -0.011649106629192829 0.19409999251365662
0.01041251327842474 -0.011649106629192829 0.19409999251365662
0.010919824242591858 -0.011649106629192829 0.19409999251365662
0.011427135206758976 -0.011649106629192829 0.19409999251365662
0.015621254220604897 -0.01175113394856453 0.19579999148845673
0.01624012179672718 -0.011829155497252941 0.19709999859333038
0.016840282827615738 -0.011889171786606312 0.1981000006198883
0.017436910420656204 -0.011943185701966286 0.19900000095367432
0.018011169508099556 -0.011979195289313793 0.1995999962091446
0.03236318752169609 -0.011517072096467018 0.19189999997615814
0.03289899602532387 -0.011529074981808662 0.19209998846054077
0.03340107947587967 -0.011529074981808662 0.19209998846054077
0.03395611047744751 -0.011547080241143703 0.1923999935388565
0.034494802355766296 -0.011559083126485348 0.19259999692440033
0.03563060984015465 -0.011601094156503677 0.19329999387264252
0.036154527217149734 -0.0116070955991745 0.19339999556541443
0.03673582896590233 -0.011631103232502937 0.19380000233650208
0.03730000555515289 -0.011649106629192829 0.19409999251365662
0.03794366493821144 -0.011691117659211159 0.1947999894618988
0.03863046318292618 -0.011745132505893707 0.19569998979568481
0.039341967552900314 -0.011805148795247078 0.19669999182224274
0.068374402821064 -0.011847159825265408 0.19739998877048492
0.06941382586956024 -0.011937184259295464 0.1988999992609024
0.07010947912931442 -0.011967192403972149 0.19939999282360077
0.07080775499343872 -0.011997200548648834 0.19990000128746033
0.07140158861875534 -0.012009203433990479 0.20009998977184296
0.07199647277593613 -0.012021206319332123 0.20029999315738678
-0.011517585255205631 -0.01177896186709404 0.20520000159740448
-0.01097055897116661 -0.011767481453716755 0.20499999821186066
-0.010434758849442005 -0.011767481453716755 0.20499999821186066
-0.0098989587277174 -0.011767481453716755 0.20499999821186066
-0.009363159537315369 -0.011767481453716755 0.20499999821186066
-0.008827358484268188 -0.011767481453716755 0.20499999821186066
-0.008299647830426693 -0.01177896186709404 0.20520000159740448
0.007924648933112621 -0.011210679076611996 0.19529999792575836
0.00841350108385086 -0.011181977577507496 0.1947999894618988
0.008908901363611221 -0.011164757423102856 0.19449999928474426
0.009407573379576206 -0.011153276078402996 0.19429999589920044
0.009905201382935047 -0.011141795665025711 0.19409999251365662
0.01041251327842474 -0.011141795665025711 0.19409999251365662
0.010908572003245354 -0.011130315251648426 0.1938999891281128
0.011415360495448112 -0.011130315251648426 0.1938999891281128
0.011922148987650871 -0.011130315251648426 0.1938999891281128
0.015557428821921349 -0.011193457990884781 0.19499999284744263
0.016165966168045998 -0.011262341402471066 0.19619999825954437
0.016755273565649986 -0.01131400279700756 0.19709999859333038
0.017393099144101143 -0.011394365690648556 0.19849999248981476
0.01797507330775261 -0.01143454760313034 0.19919998943805695
0.032396912574768066 -0.011026990599930286 0.19209998846054077
0.03289899602532387 -0.011026990599930286 0.19209998846054077
0.03345324471592903 -0.011044211685657501 0.1923999935388565
0.033991411328315735 -0.011055692099034786 0.19259999692440033
0.03453062102198601 -0.011067173443734646 0.19280000030994415
0.03505270555615425 -0.011072913184762001 0.19290000200271606
0.03564904257655144 -0.0111016146838665 0.19339999556541443
0.0361919142305851 -0.011113095097243786 0.19359999895095825
0.0367547832429409 -0.011130315251648426 0.1938999891281128
0.037338439375162125 -0.011153276078402996 0.19429999589920044
0.037982624024152756 -0.011193457990884781 0.19499999284744263
0.03872916102409363 -0.011262341402471066 0.19619999825954437
0.068374402821064 -0.011331222951412201 0.19739998877048492
0.06934402883052826 -0.011405847035348415 0.19869999587535858
0.07003916054964066 -0.01143454760313034 0.19919998943805695
0.07080775499343872 -0.011474729515612125 0.19990000128746033
0.071330226957798 -0.011474729515612125 0.19990000128746033
0.07185269892215729 -0.011474729515612125 0.19990000128746033
-0.012059781700372696 -0.011248117312788963 0.2052999883890152
-0.011517585255205631 -0.011242639273405075 0.20520000159740448
-0.010981262661516666 -0.011242639273405075 0.20520000159740448
-0.010444939136505127 -0.011242639273405075 0.20520000159740448
-0.009908616542816162 -0.011242639273405075 0.20520000159740448
-0.009372293949127197 -0.011242639273405075 0.20520000159740448
-0.008835971355438232 -0.011242639273405075 0.20520000159740448
0.008922642096877098 -0.010672836564481258 0.1947999894618988
0.009417257271707058 -0.010656400583684444 0.19449999928474426
0.009905201382935047 -0.010634484700858593 0.19409999251365662
0.01041251327842474 -0.010634484700858593 0.19409999251365662
0.010902946814894676 -0.010618048720061779 0.19380000233650208
