ply
format ascii 1.0
element vertex 738
property float x
property float y
property float z
end_header
-0.027911908998864244 -0.011587745445067528 -0.0024479632265865803
-0.028211142245245183 -0.012184775741593191 -0.0024479632265865803
-0.02851037632622827 -0.0127818077033174 -0.0024479632265865803
-0.0392827923917915 -0.034274936677807843 -0.0024479632265865803
-0.03958202563817244 -0.03487196697433351 -0.0024479632265865803
-0.039881258884553385 -0.03546899727085917 -0.0024479632265865803
-0.04018049380013862 -0.03606603089778193 -0.0024479632265865803
-0.007399020216240549 0.023512835051751304 0.00995203759521246
-0.0076593773687199836 0.023170396495991917 0.009652039967477322
-0.007930259180147585 0.022629932994171854 0.009652039967477322
-0.00819553057468862 0.02221868498356947 0.009452036581933498
-0.008459169382812347 0.021869698867115876 0.00915203895419836
-0.008733554545376809 0.02126323676360045 0.009252040646970272
-0.009011677694909735 0.02053129504181177 0.00955203827470541
-0.009282789856530067 0.019990371945192216 0.00955203827470541
-0.009553908694967582 0.01944943552698427 0.00955203827470541
-0.009826421427613944 0.018846709296413265 0.009652039967477322
-0.010096136356616837 0.01836758267295096 0.00955203827470541
-0.020202439500524947 -0.0012064262280391288 0.008552043698728085
-0.020429456944014292 -0.002013423809245437 0.00915203895419836
-0.020661635462567638 -0.0027717142124908736 0.009652039967477322
-0.020916097532594245 -0.003397438624632268 0.009852043353021145
-0.021178067566906614 -0.003979125902134519 0.00995203759521246
-0.021430888809111075 -0.004601576533928807 0.010152040980756283
-0.0259427246226185 -0.007053551121737888 -0.0009479527361690998
-0.026273617328981386 -0.0075367097726599394 -0.0012479578144848347
-0.02659395577722559 -0.00805783174851695 -0.001447961200028658
-0.026927422404623112 -0.00854613420176225 -0.0017479662783443928
-0.027249867396699302 -0.009071467468755135 -0.0019479547627270222
-0.027560591332820007 -0.009632411123116174 -0.002047956455498934
-0.027884680475103948 -0.01016100817125338 -0.002247959841042757
-0.028196573696844907 -0.010724293098779895 -0.0023479615338146687
-0.028495573254624526 -0.011320857139711869 -0.0023479615338146687
-0.02879457281240414 -0.011917421180643843 -0.0023479615338146687
-0.02909357237018376 -0.012513985221575817 -0.0023479615338146687
-0.029378507317188975 -0.013141492102349167 -0.002247959841042757
-0.0401790559346981 -0.03457273372795257 -0.0024479632265865803
-0.040432816934914996 -0.035197055208313656 -0.002247959841042757
-0.040708607988802804 -0.03580632650378392 -0.0021479581482708454
-0.0076613501303519505 0.02445549010717517 0.009752041660249233
-0.00792895906712394 0.023981733479241093 0.009652039967477322
-0.008183006220623706 0.023835923649009043 0.009052037261426449
-0.008385868032730826 0.025055931541491834 0.006352044176310301
-0.008699533363745385 0.023527462162410025 0.0078520392999053
-0.00897253049198216 0.02304295501264435 0.007752038072794676
-0.009251600549747423 0.022365800652308112 0.007952040992677212
-0.00954116810966206 0.021246463840188246 0.008852041326463223
-0.009815322795745271 0.020639293464482195 0.008952043019235134
-0.01009017643544946 0.019970560017213406 0.00915203895419836
-0.010364085321545573 0.019303694914704975 0.009352042339742184
-0.010626618420049524 0.019562187597663656 0.008052042685449123
-0.02077196280351241 -0.0008001613642640817 0.00825203862041235
-0.020996877126460898 -0.0016099715122664699 0.008852041326463223
-0.021202095633990604 -0.002500834070267568 0.009652039967477322
-0.02145562352763129 -0.0031270266942137553 0.009852043353021145
-0.02171712564115142 -0.003708948494919477 0.00995203759521246
-0.02196901104177141 -0.004331868173120705 0.010152040980756283
-0.02223871940257951 -0.0048699904057810375 0.010152040980756283
-0.026828462335388683 -0.007347848030636027 -0.0009479527361690998
-0.0271490322210048 -0.00786709553251084 -0.001147956121712923
-0.02745788051909308 -0.008423132951142387 -0.0012479578144848347
-0.027792987931871477 -0.008911200586165912 -0.0015479628928005695
-0.02811636875752065 -0.009436056476753368 -0.0017479662783443928
-0.028467412514695156 -0.009895760107689007 -0.0021479581482708454
-0.028779539964621282 -0.01045834009141912 -0.002247959841042757
-0.029078305833799577 -0.011054437876757405 -0.002247959841042757
-0.029377070868375724 -0.011650533996897144 -0.002247959841042757
-0.029661536229390155 -0.012278276235476109 -0.0021479581482708454
-0.029960066740762833 -0.01287390443482361 -0.0021479581482708454
-0.030258598086737656 -0.013469534299369663 -0.0021479581482708454
-0.03055712859811033 -0.014065162498717164 -0.0021479581482708454
-0.030886133807632055 -0.014601240162325547 -0.0023479615338146687
-0.040799056586496706 -0.03425915411085676 -0.002547964919358492
-0.04100570567677763 -0.03491216779306374 -0.0021479581482708454
-0.041257359053994844 -0.03553462038106914 -0.0019479547627270222
-0.008198539092317854 0.024793077957886607 0.009652039967477322
-0.009186721287053884 0.025949978317730164 0.004552043508738279
-0.009788801170656605 0.023153772790228858 0.0071520428173244
-0.010072542904126498 0.0222195980827668 0.007752038072794676
-0.010347871475796412 0.02167026240307828 0.007752038072794676
-0.010619716315290644 0.021434589756166904 0.007252037059515715
-0.021335851494587357 -0.0004369988727113948 0.008052042685449123
-0.021593132333497186 -0.0010730072985136643 0.00825203862041235
-0.021760376514372275 -0.00214281575292748 0.009452036581933498
-0.022004292737155477 -0.002813516514130858 0.009752041660249233
-0.022256183715396224 -0.003438771087704435 0.00995203759521246
-0.02250713493963029 -0.004062158977710457 0.010152040980756283
-0.028009919619498492 -0.008232164750169024 -0.0009479527361690998
-0.028345724733253985 -0.008718132552607519 -0.0012479578144848347
-0.028669337830877217 -0.009241115634411327 -0.001447961200028658
-0.029007719361462295 -0.009732223904770226 -0.0017479662783443928
-0.029347508031268194 -0.010226139699882546 -0.002047956455498934
-0.029660102571390158 -0.010788487660209881 -0.0021479581482708454
-0.029944101676810903 -0.011416463587390173 -0.002047956455498934
-0.030242397664980106 -0.012011623865945436 -0.002047956455498934
-0.030525689870393342 -0.01263819769995331 -0.0019479547627270222
-0.030838990475920668 -0.013201946088254514 -0.002047956455498934
-0.031137287298692022 -0.013797108032008329 -0.002047956455498934
-0.03145128730883051 -0.014362260186691988 -0.0021479581482708454
-0.031781697406343644 -0.014898804645477904 -0.0023479615338146687
-0.03208069696412326 -0.015495368686409881 -0.0023479615338146687
-0.041419989749482675 -0.0339451071165583 -0.0026479517109692097
-0.04162500917519447 -0.03459952513916136 -0.002247959841042757
-0.04185205141175787 -0.0352365589161034 -0.0019479547627270222
-0.042101834184973826 -0.035857607198142495 -0.0017479662783443928
-0.009119899221181 0.029679919227054284 0.001052043866366148
-0.00942075079284843 0.028704598249601556 0.0016520391218364239
-0.009711776708767965 0.02806143015124957 0.0017520408146083355
-0.010008174851387393 0.0270949863432552 0.0023520435206592083
-0.010885602966544328 0.023531528860887243 0.005252040456980467
-0.011448158786611443 0.025034574782379682 0.001052043866366148
-0.011740859423203022 0.024888153220192968 0.00035203946754336357
-0.02158314010102232 0.00024995967334794653 0.008352040313184261
-0.021919425330964897 1.657811254139959e-05 0.007652043830603361
-0.02218585050597083 -0.0005774982633851834 0.007752038072794676
-0.022451806642581316 -0.0011706471277257845 0.0078520392999053
-0.022544286652984757 -0.0025428700605088753 0.009752041660249233
-0.02279524178964103 -0.003168593680489393 0.00995203759521246
-0.023035176994610045 -0.0038348517131849827 0.010252042673528194
-0.029219502709877464 -0.00904758026208581 -0.001147956121712923
-0.029529988749956333 -0.009604549066290026 -0.0012479578144848347
-0.02985547328618297 -0.010128938119258682 -0.001447961200028658
-0.03019666654896198 -0.010622147844959892 -0.0017479662783443928
-0.030494259802122923 -0.011215906026336996 -0.0017479662783443928
-0.030791853889886013 -0.011809665872912649 -0.0017479662783443928
-0.031089447143046955 -0.012403424054289753 -0.0017479662783443928
-0.031418447858121354 -0.012934828588744859 -0.0019479547627270222
-0.03173244591204873 -0.01349881287844127 -0.002047956455498934
-0.03203074190021794 -0.014093973156996537 -0.002047956455498934
-0.03236185415071423 -0.014629582313781824 -0.002247959841042757
-0.032660619185290375 -0.015225678433921563 -0.002247959841042757
-0.03295938421986652 -0.0158217745540613 -0.002247959841042757
-0.03325814925444267 -0.01641787067420104 -0.002247959841042757
-0.03353956973424569 -0.017041874002453914 -0.0021479581482708454
-0.04222110363013566 -0.03430076093918736 -0.002247959841042757
-0.042397999943786395 -0.034966253263803745 -0.0017479662783443928
-0.04269559403154948 -0.0355600131103794 -0.0017479662783443928
-0.009398075200942133 0.03102023153141984 0.00035203946754336357
-0.0096935502753913 0.03030333716126746 0.0005520428530871868
-0.009988093925832274 0.029588309482694128 0.0007520387880504131
-0.010281699483459366 0.028875153487289744 0.0009520421735942364
-0.010575065944334824 0.028098797504922682 0.0012520398013293743
-0.010868888173048942 0.02706681572876174 0.0019520442001521587
-0.011739458050541145 0.026348703504762584 0.00035203946754336357
-0.012032129654837801 0.02576476499922825 0.00035203946754336357
-0.012328333628905858 0.025492163872570393 -0.0001479540951550007
-0.02208397176165573 0.0002966945476056661 0.008852041326463223
-0.02257237510390803 0.0007868286965639482 0.006552040111273527
-0.023129219894690863 0.0015224706366025324 0.0036520431749522686
-0.02311881711387664 -0.0003671179738873676 0.006652041804045439
-0.023323987119212894 -0.002941517313751989 0.010052039287984371
-0.023583379404950956 -0.003522742256094254 0.010152040980756283
-0.030417828799117995 -0.009899548671760908 -0.0012479578144848347
-0.03074472238833529 -0.010424404515901346 -0.001447961200028658
-0.031057080988626518 -0.01098394549105911 -0.0015479628928005695
-0.03135420519538052 -0.011576767830851742 -0.0015479628928005695
-0.03168320698962261 -0.012105829966526663 -0.0017479662783443928
-0.031980800242783554 -0.012699588147903767 -0.0017479662783443928
-0.03231120251545226 -0.013231461146740701 -0.0019479547627270222
-0.03260926481502015 -0.013826155169702278 -0.0019479547627270222
-0.03292420066674311 -0.014390838277978994 -0.002047956455498934
-0.03322249748951446 -0.014986000221732809 -0.002047956455498934
-0.03352079347768367 -0.015581160500288072 -0.002047956455498934
-0.033801513178689534 -0.016204929596350035 -0.0019479547627270222
-0.03409957547825741 -0.016799623619311612 -0.0019479547627270222
-0.03441568311139558 -0.017366644666350965 -0.002047956455498934
-0.034732258121736394 -0.017934598224577693 -0.0021479581482708454
-0.03504930717808554 -0.018503489285581695 -0.002247959841042757
-0.035404318087601624 -0.019020776099886335 -0.002547964919358492
-0.04279259027482013 -0.034016576258945705 -0.0021479581482708454
-0.042991759790362044 -0.03466865917604066 -0.0017479662783443928
-0.04328935387812514 -0.035262419022616315 -0.0017479662783443928
-0.009689338763771222 0.031896848302045026 0.00035203946754336357
-0.009982013706476467 0.0313129031357165 0.00035203946754336357
-0.010274685310773123 0.030728964630182164 0.00035203946754336357
-0.01056876383524086 0.030012528733220318 0.0005520428530871868
-0.010861897590077533 0.02929797784101581 0.0007520387880504131
-0.011153634439968897 0.028715904357856224 0.0007520387880504131
-0.012034016550715081 0.02767266643507389 -0.00034795748069882393
-0.012328333990446767 0.027085444158001154 -0.00034795748069882393
-0.012622644753361272 0.026498235202516814 -0.00034795748069882393
-0.012914610073202826 0.025786007258282253 -0.0001479540951550007
-0.023658883379062818 0.003506054226378863 0.0011520381085574627
-0.023869055153437343 0.0025679498866094165 0.0019520442001521587
-0.024132517656876337 -0.003210163752596585 0.010052039287984371
-0.03128997070295518 -0.010228068326063626 -0.001147956121712923
-0.03160209531962679 -0.010785970181039061 -0.0012479578144848347
-0.03191468898270533 -0.011344807877598968 -0.0013479595072567463
-0.03222774836179372 -0.011904583084947646 -0.001447961200028658
-0.0325246388799464 -0.012496939169146591 -0.001447961200028658
-0.0328721508467252 -0.012995755575920628 -0.0017479662783443928
-0.03316974409988614 -0.013589513757297732 -0.0017479662783443928
-0.033467337353047084 -0.014183271938674837 -0.0017479662783443928
-0.03376493060620803 -0.01477703012005194 -0.0017479662783443928
-0.034062524693971113 -0.015370789966627593 -0.0017479662783443928
-0.034324027862016604 -0.016022231499027935 -0.0015479628928005695
-0.034621152903372754 -0.016615055504019115 -0.0015479628928005695
-0.03495530445345394 -0.017152064510758906 -0.0017479662783443928
-0.035252898541217034 -0.017745824357334558 -0.0017479662783443928
-0.03558845390012194 -0.01828564255803206 -0.0019479547627270222
-0.03594416583300073 -0.018800819540548883 -0.002247959841042757
-0.03630128657430463 -0.019318807378216226 -0.002547964919358492
-0.036640121919649535 -0.019865169809210843 -0.0027479534037411213
-0.03697989701900113 -0.020413398923773012 -0.0029479567892849445
-0.0373206135415637 -0.020963498052299835 -0.0031479601748287678
-0.03762148761576679 -0.021563802129172603 -0.0031479601748287678
-0.037922361689969875 -0.02216410620604537 -0.0031479601748287678
-0.03824409175076948 -0.022741181161118406 -0.0032479618676006794
-0.042815764132058544 -0.03251103529935849 -0.002247959841042757
-0.04304000721630828 -0.03315298480607874 -0.0019479547627270222
-0.04328792221877751 -0.033777306910906205 -0.0017479662783443928
-0.043534899136444344 -0.034399765662563225 -0.0015479628928005695
-0.04380647773514605 -0.035006468703507904 -0.001447961200028658
-0.010273280599702653 0.03218952157554598 0.00035203946754336357
-0.010564553047824589 0.03174040120863245 0.00015203608199954033
-0.010858627146704554 0.031021637903683112 0.00035203946754336357
-0.011151302089409799 0.030437692737354582 0.00035203946754336357
-0.011443973693706455 0.029853754231820247 0.00035203946754336357
-0.011737115650638971 0.029400903820157226 0.00015203608199954033
-0.01203401223632098 0.029336633482584373 -0.0006479625590145588
-0.012329030741856635 0.028748012438730576 -0.0006479625590145588
-0.012624983820309892 0.028223540005428472 -0.0007479642517864704
-0.01291906107611076 0.027570783672611378 -0.0006479625590145588
-0.013211262327771553 0.02685575707320573 -0.00044795917347073555
-0.013500889847896892 0.02607985231319841 -0.0001479540951550007
-0.013789105213177028 0.025306773399134286 0.00015203608199954033
-0.02405912795285469 0.004882033066363529 5.203438922762871e-05
-0.024321570811829007 0.0041603671534904615 0.00035203946754336357
-0.024593152174181118 0.0034864813657331894 0.0005520428530871868
-0.024939254100527497 0.003126005013731489 5.203438922762871e-05
-0.032752615899875645 -0.011737088318044509 -0.0010479544289410114
-0.03306567581854788 -0.012295692326003096 -0.001147956121712923
-0.033379204783627055 -0.012855232175546153 -0.0012479578144848347
-0.033693201960511024 -0.01341570620147514 -0.0013479595072567463
-0.03400766818380193 -0.013977116068988594 -0.001447961200028658
-0.03430455870195461 -0.014569472153187539 -0.001447961200028658
-0.034601449220107286 -0.01516182823738648 -0.001447961200028658
-0.03487982677491 -0.015783260520300515 -0.0013479595072567463
-0.03519523025641264 -0.016346540405784368 -0.001447961200028658
-0.03547313876480842 -0.01696703684711393 -0.0013479595072567463
-0.035789011292718005 -0.017531252574182258 -0.001447961200028658
-0.03610535036322808 -0.01809639914723941 -0.0015479628928005695
-0.03644184489411457 -0.018635746632325676 -0.0017479662783443928
-0.03679919262078433 -0.019150695465426415 -0.002047956455498934
-0.037117641565523496 -0.019720051660415145 -0.0021479581482708454
-0.037456947036443033 -0.020265007534214056 -0.0023479615338146687
-0.03779719060017645 -0.020811835091181907 -0.002547964919358492
-0.03811751240014628 -0.021384936321712823 -0.0026479517109692097
-0.03843830490771586 -0.021958968394226827 -0.0027479534037411213
-0.038759566461692374 -0.0225339363083253 -0.002847955096513033
-0.03908129706207583 -0.02310984006400824 -0.0029479567892849445
-0.03942528798945189 -0.02366414436246059 -0.0031479601748287678
-0.03972616206365498 -0.02426444843933336 -0.0031479601748287678
-0.04002703613785807 -0.024864752516206127 -0.0031479601748287678
-0.040350407566063666 -0.025443930052236177 -0.0032479618676006794
-0.04065151532886808 -0.026044700384702628 -0.0032479618676006794
-0.04095262309167248 -0.026645470717169085 -0.0032479618676006794
-0.041230532434670404 -0.0272659688236972 -0.0031479601748287678
-0.04153140650887349 -0.027866272900569967 -0.0031479601748287678
-0.04183228058307657 -0.028466576977442735 -0.0031479601748287678
-0.04213315465727966 -0.029066881054315503 -0.0031479601748287678
-0.042385755706242007 -0.029702897312973684 -0.0029479567892849445
-0.04263741866239048 -0.030337041888462923 -0.0027479534037411213
-0.04286354296629915 -0.030986236691284256 -0.0024479632265865803
-0.04311309771742283 -0.03161617497523901 -0.002247959841042757
-0.04328649555903128 -0.03229219646038891 -0.0017479662783443928
-0.043508164764687655 -0.03293251076335479 -0.001447961200028658
-0.043805054448238186 -0.03352486518235518 -0.001447961200028658
-0.044076168460550506 -0.03413180524229828 -0.0013479595072567463
-0.04439883548454354 -0.03470957735075307 -0.001447961200028658
-0.010857222435634084 0.03248219484904692 0.00035203946754336357
-0.01114895741154746 0.0321688340359537 -4.7952402383089066e-05
-0.01144256840374315 0.031515852344533773 5.203438922762871e-05
-0.011736176805768534 0.03099721365854714 -4.7952402383089066e-05
-0.01203025257698507 0.030477650791371623 -0.0001479540951550007
-0.012326208588430278 0.030088707561697084 -0.00044795917347073555
-0.012623566739494916 0.029696958468461928 -0.0007479642517864704
-0.012921156559871912 0.029237553287715157 -0.0009479527361690998
-0.01321547195628016 0.028583166168719972 -0.000847965944558382
-0.013509316645088665 0.027929709891707868 -0.0007479642517864704
-0.013800815743766306 0.027213747990301594 -0.0005479608662426472
-0.014087166292193858 0.026373695698910266 -0.0001479540951550007
-0.014376325150426698 0.025662419674232047 5.203438922762871e-05
-0.024320166100758538 0.005620924098854276 0.00035203946754336357
-0.024633925495131284 0.0051292656914199136 0.00015203608199954033
-0.02492706614583488 0.004544391344301107 0.00015203608199954033
-0.02522020846574277 0.003959513666785202 0.00015203608199954033
-0.025524598033637092 0.0034193810222407028 5.203438922762871e-05
-0.03391719771806054 -0.012653756685844 -0.0009479527361690998
-0.034230961745927026 -0.013212593256789204 -0.0010479544289410114
-0.03454519065520121 -0.013772365673324629 -0.001147956121712923
-0.03485989194127943 -0.01433307226224023 -0.0012479578144848347
-0.035137566221490044 -0.014954273647366194 -0.001147956121712923
-0.035433753170032306 -0.015545225969188428 -0.001147956121712923
-0.03572994095317673 -0.016136179956209213 -0.001147956121712923
-0.03602612873632114 -0.016727133943229996 -0.001147956121712923
-0.03632231485026126 -0.01731808459985368 -0.001147956121712923
-0.03663842244095816 -0.017881597048324153 -0.0012479578144848347
-0.0369549957476649 -0.018446047007583392 -0.0013479595072567463
-0.037272036431574285 -0.019011429478030008 -0.001447961200028658
-0.03758954949228771 -0.0195777461208568 -0.0015479628928005695
-0.037928385334775196 -0.020119428753892447 -0.0017479662783443928
-0.038225977753333994 -0.020713185270071 -0.0017479662783443928
-0.03852357184109708 -0.021306945116646655 -0.0017479662783443928
-0.03886427720841813 -0.021852374454428784 -0.0019479547627270222
-0.03916233867338387 -0.022447066812191812 -0.0019479547627270222
-0.03948242565513193 -0.023018527257341857 -0.002047956455498934
-0.039825245888271965 -0.023568159548249878 -0.002247959841042757
-0.04014650798183233 -0.024141956262958255 -0.0023479615338146687
-0.04049096404319312 -0.02469486067302058 -0.002547964919358492
-0.04079043264737968 -0.02529236055553703 -0.002547964919358492
-0.04113629417875699 -0.02584806915995567 -0.0027479534037411213
-0.04148309713334529 -0.026405647778338964 -0.0029479567892849445
-0.041783502161141434 -0.027005016013627262 -0.0029479567892849445
-0.04208390718893758 -0.027604384248915554 -0.0029479567892849445
-0.042408447607745134 -0.028184730193522443 -0.003047958482056856
-0.042709086324142595 -0.02878456468440443 -0.003047958482056856
-0.042985123941530305 -0.02940249228517754 -0.0029479567892849445
-0.04318617647325925 -0.030072349624477312 -0.002547964919358492
-0.04341042630318573 -0.030721312989926728 -0.002247959841042757
-0.04365857616631799 -0.03135078447870395 -0.002047956455498934
-0.043778088639109584 -0.03205948475712895 -0.0013479595072567463
-0.0439458685555154 -0.03273013379339694 -0.000847965944558382
-0.04418933129298685 -0.033350253527123626 -0.0006479625590145588
-0.04445810453328201 -0.033953687239727255 -0.0005479608662426472
-0.011441160941168418 0.03277486645334358 0.00035203946754336357
-0.011734536328343528 0.03239457228615258 5.203438922762871e-05
-0.012027912336852742 0.031809228353042986 5.203438922762871e-05
-0.012322692304375866 0.03135776562979055 -0.0001479540951550007
-0.012620275000077775 0.031037418233622813 -0.0005479608662426472
-0.012917401852816915 0.030581289632047898 -0.0007479642517864704
-0.013214050415447636 0.030057757492336315 -0.000847965944558382
-0.013511176370506773 0.029533272859054778 -0.0009479527361690998
-0.013806895941846396 0.02894325304841992 -0.0009479527361690998
-0.014100508063662535 0.0282890968272128 -0.000847965944558382
-0.014391308339754124 0.027572201293010197 -0.0006479625590145588
-0.014681170531043324 0.02685716911197805 -0.00044795917347073555
-0.014967286114191193 0.02608127097032365 -0.0001479540951550007
-0.02490410460629287 0.0059135957031509305 0.00035203946754336357
-0.02521880317264719 0.005422408011327804 0.00015203608199954033
-0.025511943823350786 0.0048375336642089975 0.00015203608199954033
-0.0258165678360923 0.004298097217162773 5.203438922762871e-05
-0.03535642004804487 -0.014189048720619176 -0.0007479642517864704
-0.03567088068970928 -0.014748119527761039 -0.000847965944558382
-0.03596636573784543 -0.015337671417603662 -0.000847965944558382
-0.03628153078372239 -0.015898147652320786 -0.0009479527361690998
-0.03657724952045986 -0.016488165797757096 -0.0009479527361690998
-0.036872967422595194 -0.017078182277994857 -0.0009479527361690998
-0.03718907222247884 -0.017640525196279535 -0.0010479544289410114
-0.03750564273837233 -0.018203805625352978 -0.001147956121712923
-0.03780182968691459 -0.018794757947175212 -0.001147956121712923
-0.038119106268213444 -0.01935943880422252 -0.0012479578144848347
-0.038436851895919236 -0.019925055502854304 -0.0013479595072567463
-0.03875506490082767 -0.02049160471267346 -0.001447961200028658
-0.039051956253582494 -0.021083962462070956 -0.001447961200028658
-0.03934884760633732 -0.021676320211468446 -0.001447961200028658
-0.03964573728988785 -0.02226867463046884 -0.001447961200028658
-0.039942628642642676 -0.022861032379866336 -0.001447961200028658
-0.040307703039123705 -0.023384388753993374 -0.0017479662783443928
-0.04060529712688679 -0.02397814860056903 -0.0017479662783443928
-0.04094928022941843 -0.024527781439072385 -0.0019479547627270222
-0.04127077322076686 -0.025100874879188658 -0.002047956455498934
-0.041569070043538214 -0.025696036822942473 -0.002047956455498934
-0.04191516801188884 -0.02624987261457172 -0.002247959841042757
-0.04231046760424536 -0.026765193117238413 -0.0026479517109692097
-0.04263453618583272 -0.027343433690075032 -0.0027479534037411213
-0.04298368212122631 -0.027903350786804806 -0.0029479567892849445
-0.041151884330004065 -0.03162996977650273 0.0078520392999053
-0.04422050080510304 -0.03262648595509284 0.00035203946754336357
-0.044460220091354065 -0.03324146467730954 0.0005520428530871868
-0.012025102777099849 0.03306753972684453 0.00035203946754336357
-0.012319179419578108 0.03261982482994753 0.00015203608199954033
-0.012613252939565237 0.0321026026923479 5.203438922762871e-05
-0.012908968748672834 0.03165160901550241 -0.0001479540951550007
-0.013208423127543688 0.031332199712148553 -0.0005479608662426472
-0.013506482491470203 0.030876538487776283 -0.0007479642517864704
-0.013805473279404913 0.030419010571824962 -0.0009479527361690998
-0.014101192850744534 0.029828990761190104 -0.0009479527361690998
-0.014396912422084157 0.029238970950555245 -0.0009479527361690998
-0.014690061618703705 0.028584582709951102 -0.000847965944558382
-0.014979922722813725 0.027867216460137262 -0.0006479625590145588
-0.015271896815632464 0.027215156159092965 -0.0005479608662426472
-0.015563400192839968 0.026564035030030242 -0.00044795917347073555
-0.015857947982764384 0.025976353158158015 -0.00044795917347073555
-0.025488046442224303 0.006206268976651881 0.00035203946754336357
-0.025803677519765995 0.0057155486620314 0.00015203608199954033
-0.02610853243029558 0.0051768154895772845 5.203438922762871e-05
-0.03681110184316247 -0.015690361119774517 -0.0006479625590145588
-0.0371265011172246 -0.016250132410695235 -0.0007479642517864704
-0.03744237276809076 -0.016810837873996134 -0.000847965944558382
-0.037758703474172574 -0.01737248418649439 -0.0009479527361690998
-0.03835014094764753 -0.01855252047736701 -0.0009479527361690998
-0.03866741806853022 -0.01911603013502423 -0.0010479544289410114
-0.038963371328471164 -0.019706516201252775 -0.0010479544289410114
-0.039281347853965025 -0.02027142962529245 -0.001147956121712923
-0.03957753647171159 -0.02086238527751178 -0.001147956121712923
-0.03987372342025386 -0.021453337599334016 -0.001147956121712923
-0.040192638038561594 -0.022020122706542633 -0.0012479578144848347
-0.04048906034490948 -0.022611544614355654 -0.0012479578144848347
-0.040831872745193606 -0.0231564971153162 -0.001447961200028658
-0.04112876409794843 -0.02374885486471369 -0.001447961200028658
-0.04142565378149896 -0.024341209283714083 -0.001447961200028658
-0.04172254513425379 -0.02493356703311158 -0.001447961200028658
-0.04204356795758632 -0.025504558431854677 -0.0015479628928005695
-0.04234069299894247 -0.026097382436845857 -0.0015479628928005695
-0.04147674108221726 -0.030768881148731674 0.007652043830603361
-0.04172653438249724 -0.031336782315115365 0.007752038072794676
-0.041975858636370274 -0.031903747639914576 0.0078520392999053
-0.04219847416823387 -0.03248693718224923 0.008052042685449123
-0.04247310334330411 -0.033034877425553784 0.008052042685449123
-0.012607174456887934 0.03322257284332114 0.0005520428530871868
-0.012901716225339428 0.032776266164812655 0.00035203946754336357
-0.013198596872674828 0.03239597870085712 5.203438922762871e-05
-0.0134952485233669 0.031945454070418565 -0.0001479540951550007
-0.01379470308372544 0.031560031134138265 -0.00044795917347073555
-0.014091356071943933 0.031038826402414187 -0.0005479608662426472
-0.014388476429353578 0.030516697489501216 -0.0006479625590145588
-0.014683494934889232 0.02992807644564742 -0.0006479625590145588
-0.014978506763607706 0.029339468723382015 -0.0006479625590145588
-0.015273525269143358 0.02875084767952822 -0.0006479625590145588
-0.015568540436270423 0.02816223329646862 -0.0006479625590145588
-0.015860044943098377 0.027509937637618706 -0.0005479608662426472
-0.016154826421624118 0.026921789510152793 -0.0005479608662426472
-0.01644960790014986 0.02633364138268688 -0.0005479608662426472
-0.025779313343461983 0.00708287908648287 0.00035203946754336357
-0.026071984947758635 0.006498940580948537 0.00035203946754336357
-0.0263885551972819 0.006008690981939292 0.00015203608199954033
-0.026706055217632047 0.0055165613617511175 -4.7952402383089066e-05
-0.04076086435982265 -0.021748106303011078 -0.001147956121712923
-0.04105705130836492 -0.022339058624833312 -0.001147956121712923
-0.04135323825690719 -0.022930010946655546 -0.001147956121712923
-0.04167332519621398 -0.023497962793236713 -0.0012479578144848347
-0.04196974750256186 -0.024089384701049727 -0.0012479578144848347
-0.04226616980890975 -0.024680806608862748 -0.0012479578144848347
-0.04256259211525763 -0.02527222851667577 -0.0012479578144848347
-0.04280934325405011 -0.025905909669825842 -0.0010479544289410114
-0.04137697610891734 -0.02870251081205098 0.006952039431780577
-0.04142434183535058 -0.029433145078881284 0.0078520392999053
-0.04172521456401575 -0.029962760724470034 0.007752038072794676
-0.013485658061270861 0.033068939438313606 0.00035203946754336357
-0.013782070425712119 0.03262123678383731 0.00015203608199954033
-0.014079420890978751 0.03217165411619358 -4.7952402383089066e-05
-0.014375365014967134 0.03165302767262765 -0.0001479540951550007
-0.014669211739087584 0.03106674456753649 -0.0001479540951550007
-0.014963055124799444 0.030480468123239523 -0.0001479540951550007
-0.015256901848919894 0.02989418501814836 -0.0001479540951550007
-0.015550741896223163 0.029307915234645588 -0.0001479540951550007
-0.015851611036132505 0.02885132041991825 -0.00034795748069882393
-0.01614592179904701 0.02826411146443391 -0.00034795748069882393
-0.016440235900370106 0.027676895848155372 -0.00034795748069882393
-0.01673876060618732 0.02715312894067478 -0.00044795917347073555
-0.017033308396111738 0.026565447068802556 -0.00044795917347073555
-0.017327852430326494 0.025977772690323798 -0.00044795917347073555
-0.0260471578886993 0.007862530387434098 0.0005520428530871868
-0.02633936211579331 0.007279524393087139 0.0005520428530871868
-0.026680288893697113 0.0068867059797616936 0.00015203608199954033
-0.026985844288005552 0.006348911439705304 5.203438922762871e-05
-0.027304513838541496 0.005856784610330384 -0.0001479540951550007
-0.027598358893457648 0.0052705048356363185 -0.0001479540951550007
-0.014069599897202292 0.03336161271181456 0.00035203946754336357
-0.014366944772830926 0.032914377434540905 0.00015203608199954033
-0.014662660747403225 0.032397386784765954 5.203438922762871e-05
-0.014953226074238117 0.031744628740303295 0.00015203608199954033
-0.015240292991206094 0.03102584536808883 0.00035203946754336357
-0.015532961257094158 0.030441913523348692 0.00035203946754336357
-0.015825636199799403 0.029857968357020162 0.00035203946754336357
-0.01611830780409606 0.02927402985148583 0.00035203946754336357
-0.016410982746801302 0.0286900846851573 0.00035203946754336357
-0.016712073316868283 0.02823537599679626 0.00015203608199954033
-0.017009665477068347 0.02771464198068341 5.203438922762871e-05
-0.01730772169208545 0.027192965454180405 -4.7952402383089066e-05
-0.017601331389195986 0.026607155265477127 -4.7952402383089066e-05
-0.01789494066900545 0.02602134590937312 -4.7952402383089066e-05
-0.018183169093804127 0.02537326708084432 5.203438922762871e-05
-0.026605807354665723 0.008057303428844307 0.0007520387880504131
-0.02692236811014027 0.007571728620181148 0.0005520428530871868
-0.0272398686196215 0.007084287127950437 0.00035203946754336357
-0.027571188221115144 0.006642287448214517 5.203438922762871e-05
-0.02789079361323556 0.006150629665246538 -0.0001479540951550007
-0.014648400005431411 0.03351617286946201 0.0005520428530871868
-0.014946210007033282 0.03307034581057688 0.00035203946754336357
-0.015238884949738527 0.03248640064424835 0.00035203946754336357
-0.015531556554035182 0.03190246213871401 0.00035203946754336357
-0.01581721691380745 0.03118414889207418 0.0005520428530871868
-0.016109417802492868 0.030601149558521418 0.0005520428530871868
-0.01639366935384002 0.0298856471670321 0.0007520387880504131
-0.01668540286532279 0.029303580344666715 0.0007520387880504131
-0.016977139715214154 0.02872150686150713 0.0007520387880504131
-0.01726887322669693 0.02813944003914174 0.0007520387880504131
-0.017570438937962916 0.027686119586786625 0.0005520428530871868
-0.017862643165056924 0.027103113592439665 0.0005520428530871868
-0.01815484697484986 0.026520108430691983 0.0005520428530871868
-0.01844704786353528 0.02593710909713922 0.0005520428530871868
-0.01873925542903788 0.025354096441998066 0.0005520428530871868
-0.02689614232674114 0.008931108762293862 0.0007520387880504131
-0.027175229657247155 0.008300087658883858 0.0008520404808223248
-0.027479612688115277 0.007766968456768891 0.0007520387880504131
-0.027823807125155833 0.007376958732247092 0.00035203946754336357
-0.028156528823827638 0.006935661787519436 5.203438922762871e-05
-0.01552360688846379 0.033225377763003265 0.0005520428530871868
-0.01581581445396639 0.03264236510786211 0.0005520428530871868
-0.01610801534265181 0.032059365774309345 0.0005520428530871868
-0.016392269145228365 0.03134152265324414 0.0007520387880504131
-0.01668400265671114 0.030759455830878753 0.0007520387880504131
-0.01696685098927117 0.03004441690416987 0.0009520421735942364
-0.017258117123551298 0.029463282592991857 0.0009520421735942364
-0.017544474960371707 0.028816591410432375 0.001052043866366148
-0.017835504067641922 0.028235930015642244 0.001052043866366148
-0.018126539851729316 0.027655255299263725 0.001052043866366148
-0.018423184999080404 0.02713873868748561 0.0009520421735942364
-0.018714450716059455 0.026557605208906872 0.0009520421735942364
-0.019005716850339586 0.025976470897728858 0.0009520421735942364
-0.019290665878734875 0.025332590570319894 0.001052043866366148
-0.019581698324413678 0.02475192251473557 0.001052043866366148
-0.027452453314361084 0.009123538822898777 0.0009520421735942364
-0.027756833554415952 0.008591589150969605 0.0008520404808223248
-0.02806168284087776 0.00805870363745596 0.0007520387880504131
-0.028407748961087265 0.007669632005748042 0.00035203946754336357
-0.0160953933538812 0.03331041727347716 0.0008520404808223248
-0.016390868936616714 0.03279739813945618 0.0007520387880504131
-0.01668260244809949 0.03221533131709079 0.0007520387880504131
-0.016974339297990852 0.03163325783393121 0.0007520387880504131
-0.017261395983815594 0.03098400834559616 0.0008520404808223248
-0.01754307812459842 0.03026895996727983 0.001052043866366148
-0.017834107231868634 0.0296882985724897 0.001052043866366148
-0.01812514301595603 0.02910762385611118 0.001052043866366148
-0.018410557204754336 0.028461651478520335 0.0011520381085574627
-0.01870135596183182 0.027881449678529697 0.0011520381085574627
-0.0189921547189093 0.02730124787853906 0.0011520381085574627
-0.019282953058685708 0.026721046911147697 0.0011520381085574627
-0.0195737484773546 0.026140851771951256 0.0011520381085574627
-0.01986454723443208 0.025560649971960617 0.0011520381085574627
-0.020155345991509567 0.02498044817196998 0.0011520381085574627
-0.02044614474858705 0.024400246371979344 0.0011520381085574627
-0.020729452401564853 0.02375847695552588 0.0012520398013293743
-0.027742319717729405 0.009995942806903834 0.0009520421735942364
-0.028033587625539095 0.009414804957178906 0.0009520421735942364
-0.02833843745158475 0.00888309064305535 0.0008520404808223248
-0.028643752993640248 0.008350438818143029 0.0007520387880504131
-0.028963590320275154 0.007865335307116219 0.0005520428530871868
-0.01666858061338013 0.033463339351674455 0.001052043866366148
-0.016959616397467524 0.03288266463529593 0.001052043866366148
-0.01725064550473774 0.032302003240505806 0.001052043866366148
-0.017541681288825137 0.03172132852412728 0.001052043866366148
-0.017832710396095353 0.031140667129337152 0.001052043866366148
-0.018123746180182747 0.030559992412958634 0.001052043866366148
-0.018409164828998598 0.029912847174784898 0.0011520381085574627
-0.01869996358607608 0.02933264537479426 0.0011520381085574627
-0.018984677838690865 0.02868689723419729 0.0012520398013293743
-0.019275242907167024 0.02810716168980034 0.0012520398013293743
-0.019565804637234594 0.027527432806197585 0.0012520398013293743
-0.01985636928840968 0.026947698094399907 0.0012520398013293743
-0.020146931018477247 0.026367969210797156 0.0012520398013293743
-0.02043749608695341 0.025788233666400203 0.0012520398013293743
-0.020728057817020976 0.02520850478279745 0.0012520398013293743
-0.021018622885497138 0.0246287692384005 0.0012520398013293743
-0.021309184615564705 0.024049040354797744 0.0012520398013293743
-0.021599749684040867 0.023469304810400795 0.0012520398013293743
-0.028323457359304513 0.010287210610388257 0.0009520421735942364
-0.028642352785028597 0.009806314304355069 0.0007520387880504131
-0.028934087965715664 0.009224244151592583 0.0007520387880504131
-0.029225823146402735 0.008642173998830098 0.0007520387880504131
-0.029546592984225014 0.008157537865005933 0.0005520428530871868
-0.017535372851613315 0.03310464660181708 0.0011520381085574627
-0.017826168270282206 0.03252445146262063 0.0011520381085574627
-0.01811697036576828 0.0319442430018358 0.0011520381085574627
-0.018413378451679677 0.03143169957501596 0.001052043866366148
-0.01870441423576707 0.03085102485863744 0.001052043866366148
-0.018989363298592136 0.030203644262658084 0.0011520381085574627
-0.019280162055669618 0.029623442462667446 0.0011520381085574627
-0.019564410052690717 0.028977460633469152 0.0012520398013293743
-0.019854975121166876 0.028397725089072203 0.0012520398013293743
-0.020138518713975415 0.02775314868744917 0.001352041494101286
-0.020428849676549177 0.027173880231245184 0.001352041494101286
-0.020719177718015423 0.026594617603236115 0.001352041494101286
-0.02100950909789026 0.026015348314432852 0.001352041494101286
-0.021299837139356508 0.025436085686423787 0.001352041494101286
-0.021590168519231345 0.024856816397620524 0.001352041494101286
-0.021880493222289 0.024277560430405652 0.001352041494101286
-0.02217948189804072 0.02375986820967266 0.0012520398013293743
-0.022470046966516877 0.02318013266527571 0.0012520398013293743
-0.028627139004147036 0.011210900527281664 0.0008520404808223248
-0.028918638827028487 0.010629299960509963 0.0008520404808223248
-0.029224426268188178 0.010098051154246432 0.0007520387880504131
-0.02951616144887525 0.009515981001483946 0.0007520387880504131
-0.01840075853265079 0.03274642397753433 0.0012520398013293743
-0.01869132360112695 0.03216668843313738 0.0012520398013293743
-0.01898796758442781 0.03165484661971684 0.0011520381085574627
-0.019278766341505292 0.031074644819726202 0.0011520381085574627
-0.019569565098582774 0.030494443019735567 0.0011520381085574627
-0.019860363855660257 0.029914241219744928 0.0011520381085574627
-0.02014414226669057 0.02926802403274102 0.0012520398013293743
-0.020427456630915334 0.02862274102612878 0.001352041494101286
-0.020710296949131762 0.027978395522293812 0.0014520431868731976
-0.021000394223104204 0.027399593321683513 0.0014520431868731976
-0.021290488575969126 0.026820796949268134 0.0014520431868731976
-0.021580582928834052 0.026242000576852755 0.0014520431868731976
-0.021870677281698975 0.025663204204437375 0.0014520431868731976
-0.02216077497297249 0.025084401171227802 0.0014520431868731976
-0.022450865987428823 0.024505611459606617 0.0014520431868731976
-0.022740963678702337 0.023926808426397043 0.0014520431868731976
-0.02304041860203625 0.023409358224263866 0.001352041494101286
-0.023330749981911085 0.022830088935460603 0.001352041494101286
-0.023621079692581627 0.022250822977054437 0.001352041494101286
-0.02713399365614489 0.007000015586617983 0.01165203657001257
-0.02888914767816328 0.011980022085674264 0.001052043866366148
-0.029180180123842086 0.01139935403008994 0.001052043866366148
-0.02948572598166054 0.010869742878948515 0.0009520421735942364
-0.02979174598580685 0.01033919818187924 0.0008520404808223248
-0.019258431178282635 0.032320071977462735 0.0014520431868731976
-0.01956161921039292 0.031877523783408634 0.0012520398013293743
-0.01985218427886908 0.031297788239011685 0.0012520398013293743
-0.02014976523337486 0.0307852409422109 0.0011520381085574627
-0.020440563990452344 0.030205039142220263 0.0011520381085574627
-0.02072387614588897 0.02955858826661503 0.0012520398013293743
-0.021006720924122948 0.028913069902197174 0.001352041494101286
-0.02128909498674569 0.028268490709760886 0.0014520431868731976
-0.02157919226071813 0.027689688509150587 0.0014520431868731976
-0.021852443893479262 0.026982132360254006 0.0016520391218364239
-0.02213341582449407 0.026340350701379845 0.0017520408146083355
-0.022422805773146436 0.02576295975653972 0.0017520408146083355
-0.02271219906020739 0.025185562150905404 0.0017520408146083355
-0.023010948457719786 0.024670683576136186 0.0016520391218364239
-0.023310171909252008 0.024154859168591197 0.0015520374290645123
-0.023609856069181187 0.023638107241448734 0.0014520431868731976
-0.02389995209125041 0.023059307538636258 0.0014520431868731976
-0.024190048113319627 0.022480507835823782 0.0014520431868731976
-0.024490673696459787 0.02196188589471667 0.001352041494101286
-0.024781003407130325 0.021382619936310503 0.001352041494101286
-0.027384862481433986 0.007744156404532539 0.011752038262784481
-0.029455301778018365 0.012218830592519325 0.0011520381085574627
-0.029746100535095847 0.011638628792528687 0.0011520381085574627
-0.020127328564357134 0.03203137329632087 0.0014520431868731976
-0.02043192315366313 0.031588354976692136 0.0012520398013293743
-0.0207224848837307 0.031008626093089388 0.0012520398013293743
-0.02101305329061545 0.03042888388789824 0.0012520398013293743
-0.021303615020683016 0.029849155004295486 0.0012520398013293743
-0.021577807005498932 0.02913737811265558 0.0014520431868731976
-0.021867898019955267 0.0285585884010344 0.0014520431868731976
-0.022132026856006477 0.027784539199709433 0.0017520408146083355
-0.022412529193019004 0.027142530513028142 0.0018520425073802471
-0.022692567491237475 0.026501447676740033 0.0019520442001521587
-0.02297213173543612 0.025861310673227687 0.0020520384423434734
-0.02326082061828452 0.02528531849516863 0.0020520384423434734
-0.023559335205586635 0.024772072375781794 0.0019520442001521587
-0.023868379901555027 0.024320166887491924 0.0017520408146083355
-0.024168069600669445 0.02380458449854675 0.0016520391218364239
-0.024478755124459982 0.023349405229909772 0.0014520431868731976
-0.0247688511465292 0.022770605527097296 0.0014520431868731976
-0.025058945499394126 0.022191809154681916 0.0014520431868731976
-0.025360272695933588 0.02167295131618534 0.001352041494101286
-0.025639136082978804 0.02103421266315442 0.0014520431868731976
-0.025929230435843727 0.02045541629073904 0.0014520431868731976
-0.027915511303006926 0.008010119070902294 0.011752038262784481
-0.0300355069084061 0.012509631018801102 0.0011520381085574627
-0.030326305665483583 0.011929429218810465 0.0011520381085574627
-0.020996222628046027 0.03174266461597622 0.0014520431868731976
-0.021294265370116455 0.031231532198358142 0.001352041494101286
-0.0215927855046153 0.030719447287170104 0.0012520398013293743
-0.02187492479145754 0.030073000281545813 0.001352041494101286
-0.02215660337791431 0.029427472465520507 0.0014520431868731976
-0.022428917664610717 0.02871711403403457 0.0016520391218364239
-0.022700300952611493 0.028008613131529914 0.0018520425073802471
-0.022970742809389797 0.027301990572988398 0.0020520384423434734
-0.02324984414441484 0.026661604890082045 0.002152040135115385
-0.023538296000253322 0.02608608562841087 0.002152040135115385
-0.023826751194500395 0.0255105597059455 0.002152040135115385
-0.024115206388747472 0.02493503378348013 0.002152040135115385
-0.024424719549097692 0.024484529852784574 0.0019520442001521587
-0.02473516745584171 0.02403216922971276 0.0017520408146083355
-0.025046555132615396 0.023577925263076407 0.0015520374290645123
-0.02534764751894458 0.023060699879962218 0.0014520431868731976
-0.025637741871809505 0.02248190350754684 0.0014520431868731976
-0.025939538654339754 0.02196328102685588 0.001352041494101286
-0.026217932455394184 0.021324307016019346 0.0014520431868731976
-0.02649585866258394 0.020686274262668312 0.0015520374290645123
-0.026760915666306048 0.019990395565164198 0.0017520408146083355
-0.026999755201460158 0.019179780803320983 0.002152040135115385
-0.027262466973147565 0.018488581313739233 0.0023520435206592083
-0.028165447077524802 0.008752621312224113 0.011852039955556393
-0.03061570870839674 0.012800429775878584 0.0011520381085574627
-0.021865113345314834 0.031453970926424255 0.0014520431868731976
-0.02215521103658835 0.030875167893214678 0.0014520431868731976
-0.022445305389453274 0.0302963715207993 0.0014520431868731976
-0.022726277354897857 0.02965108959335475 0.0015520374290645123
-0.02298806937379539 0.02887470241082588 0.0018520425073802471
-0.02325804944300905 0.02816666497310166 0.0020520384423434734
-0.023536911534224544 0.027525592667588684 0.002152040135115385
-0.023825370066880208 0.026950060084329118 0.002152040135115385
-0.024113821922718694 0.026374540822657944 0.002152040135115385
-0.024402277116965767 0.025799014900192572 0.002152040135115385
-0.02469073231121284 0.025223488977727204 0.002152040135115385
-0.025001181313147533 0.024773454093438587 0.0019520442001521587
-0.025312561731078927 0.02432156084756942 0.0017520408146083355
-0.025636351199687837 0.023929595604843912 0.0014520431868731976
-0.025926447221757055 0.023350795902031436 0.0014520431868731976
-0.026228474902075378 0.022832876695932588 0.001352041494101286
-0.02651880461274592 0.022253610737526422 0.001352041494101286
-0.02679673215820666 0.021614403038088564 0.0014520431868731976
-0.02707418877940563 0.020976134926931914 0.0015520374290645123
-0.027312568770213007 0.020161772886328595 0.0019520442001521587
-0.02757528112392553 0.019468235997568056 0.002152040135115385
-0.02783705705402846 0.018776567461579366 0.0023520435206592083
-0.027115078555306694 0.012256536390822756 0.011752038262784481
-0.027366996350789673 0.011669223355261963 0.011852039955556393
-0.027632721990149517 0.011139047450076907 0.011852039955556393
-0.027898445960305062 0.010608874875288946 0.011852039955556393
-0.028164171599664906 0.01007869897010389 0.011852039955556393
-0.028429897343350018 0.009548522856769014 0.011852039955556393
-0.028695622982709862 0.009018346951583957 0.011852039955556393
-0.03092079245041742 0.013724822427780253 0.001052043866366148
-0.023024101761868653 0.030586465873664224 0.0014520431868731976
-0.023314199453142167 0.030007662840454648 0.0014520431868731976
-0.023574819725054274 0.029230113328118024 0.0017520408146083355
-0.02384409764128478 0.028521140588393175 0.0019520442001521587
-0.024122727165507913 0.027879368338685193 0.0020520384423434734
-0.02440089598934558 0.027238515278576195 0.002152040135115385
-0.024689347845184065 0.02666299601690502 0.002152040135115385
-0.02497780303943114 0.02608747009443965 0.002152040135115385
-0.02527748603531009 0.025575392965654763 0.0020520384423434734
-0.02558910456743058 0.0251253608721794 0.0018520425073802471
-0.025889956006316148 0.024610952465426078 0.0017520408146083355
-0.026215147572103217 0.02421968995770884 0.0014520431868731976
-0.026505243594172435 0.023640890254896362 0.0014520431868731976
-0.02680774086048154 0.02312320640660313 0.001352041494101286
-0.027098070571152082 0.022543940448196964 0.001352041494101286
-0.02737552853062204 0.02190449739095349 0.0014520431868731976
-0.02762631092971953 0.021146576406511835 0.0017520408146083355
-0.027889027203865754 0.020450695457778313 0.0019520442001521587
-0.02806936886842588 0.01940404868727093 0.002752042841166258
-0.027631443286217788 0.012465123230602568 0.011852039955556393
-0.027897168925577632 0.011934947325417512 0.011852039955556393
-0.028162894564937476 0.011404771420232454 0.011852039955556393
-0.02842861853509302 0.010874598845444495 0.011852039955556393
-0.02867913365137273 0.010288920474054226 0.011952041648328304
-0.02894462403725222 0.009759213946710137 0.011952041648328304
-0.024172798252804842 0.02965248080506026 0.0015520374290645123
-0.024452132893559908 0.029008129430589107 0.0016520391218364239
