ply
format ascii 1.0
element vertex 757
property float x
property float y
property float z
end_header
-0.060614895075559616 0.010850544087588787 -0.12619999051094055
-0.060911599546670914 0.011271841824054718 -0.13109999895095825
-0.060042236000299454 0.011237449944019318 -0.1306999921798706
-0.05863206833600998 0.01109988335520029 -0.1290999948978424
-0.05755288898944855 0.011022502556443214 -0.1281999945640564
-0.05657185986638069 0.010962317697703838 -0.1274999976158142
-0.055685851722955704 0.010919328778982162 -0.12700000405311584
-0.0549350380897522 0.010902132838964462 -0.12680000066757202
-0.054229121655225754 0.010893534868955612 -0.1266999989748001
-0.053693365305662155 0.010919328778982162 -0.12700000405311584
-0.05269515514373779 0.010850544087588787 -0.12619999051094055
-0.044378671795129776 0.010446444153785706 -0.12150000035762787
-0.04367126524448395 0.010429248213768005 -0.12129999697208405
-0.04303691163659096 0.010429248213768005 -0.12129999697208405
-0.042577341198921204 0.010472237132489681 -0.121799997985363
-0.04438929259777069 0.011254645884037018 -0.13089999556541443
-0.04400522634387016 0.011332026682794094 -0.13179999589920044
-0.04344742372632027 0.011366419494152069 -0.13220000267028809
-0.0428854338824749 0.01140080951154232 -0.13259999454021454
-0.04231926426291466 0.011435202322900295 -0.13300000131130219
-0.02022688463330269 0.011142874136567116 -0.12960000336170197
-0.02012232318520546 0.011469593271613121 -0.13339999318122864
-0.019439253956079483 0.011478191241621971 -0.13349999487400055
-0.0787549838423729 0.009819119237363338 -0.12159999459981918
-0.07811906188726425 0.009819119237363338 -0.12159999459981918
-0.07722826302051544 0.009786820039153099 -0.12119999527931213
-0.07646804302930832 0.009770669974386692 -0.12099999934434891
-0.07577258348464966 0.009762595407664776 -0.120899997651577
-0.07501602172851562 0.009746445342898369 -0.12069999426603317
-0.07432317733764648 0.009738370776176453 -0.12060000002384186
-0.07357027381658554 0.009722220711410046 -0.12039999663829803
-0.07294062525033951 0.009722220711410046 -0.12039999663829803
-0.07243110239505768 0.009738370776176453 -0.12060000002384186
-0.07203855365514755 0.009770669974386692 -0.12099999934434891
-0.07164181768894196 0.009802970103919506 -0.12139999866485596
-0.07112392038106918 0.009819119237363338 -0.12159999459981918
-0.0705459713935852 0.00982719473540783 -0.1216999962925911
-0.06990952044725418 0.00982719473540783 -0.1216999962925911
-0.06927307695150375 0.00982719473540783 -0.1216999962925911
-0.0685238391160965 0.009811044670641422 -0.12150000035762787
-0.06777668744325638 0.009794894605875015 -0.12129999697208405
-0.06697627902030945 0.009770669974386692 -0.12099999934434891
-0.06628866493701935 0.009762595407664776 -0.120899997651577
-0.06560209393501282 0.009754519909620285 -0.12079999595880508
-0.06491657346487045 0.009746445342898369 -0.12069999426603317
-0.06417883932590485 0.009730295278131962 -0.12049999833106995
-0.06344319134950638 0.009714145213365555 -0.12029999494552612
-0.06276185065507889 0.009706069715321064 -0.12019999325275421
-0.06218494474887848 0.009714145213365555 -0.12029999494552612
-0.06165815889835358 0.009730295278131962 -0.12049999833106995
-0.06117992848157883 0.009754519909620285 -0.12079999595880508
-0.06074867770075798 0.009786820039153099 -0.12119999527931213
-0.0604124441742897 0.009835269302129745 -0.121799997985363
-0.060069937258958817 0.009883718565106392 -0.12239999324083328
-0.05996392294764519 0.009972543455660343 -0.12349999696016312
-0.061597201973199844 0.010586238466203213 -0.13109999895095825
-0.0608651377260685 0.010578162968158722 -0.13099999725818634
-0.05999629572033882 0.010545862838625908 -0.1305999904870987
-0.05904081463813782 0.010497413575649261 -0.12999999523162842
-0.05768756940960884 0.010376290418207645 -0.12849999964237213
-0.056971192359924316 0.010368214920163155 -0.12839999794960022
-0.056212011724710464 0.010352064855396748 -0.1281999945640564
-0.05567155033349991 0.010376290418207645 -0.12849999964237213
-0.05504234507679939 0.010384364984929562 -0.12860000133514404
-0.04390506073832512 0.010618537664413452 -0.1314999908208847
-0.04328309744596481 0.01063468772917986 -0.13169999420642853
-0.04275606945157051 0.010675063356757164 -0.13220000267028809
-0.04219198599457741 0.010707362554967403 -0.13259999454021454
-0.04159242659807205 0.010731587186455727 -0.13289999961853027
-0.0409281849861145 0.010739662684500217 -0.13300000131130219
-0.020398560911417007 0.010553938336670399 -0.1306999921798706
-0.020107239484786987 0.010763886384665966 -0.13329999148845673
-0.019424691796302795 0.010771961882710457 -0.13339999318122864
-0.08840312063694 0.00990818627178669 -0.13120000064373016
-0.08771698921918869 0.00990818627178669 -0.13120000064373016
-0.08703087270259857 0.00990818627178669 -0.13120000064373016
-0.08608148992061615 0.009877977892756462 -0.13079999387264252
-0.0840916857123375 0.009726937860250473 -0.12879998981952667
-0.0785045251250267 0.009228507988154888 -0.12219999730587006
-0.07761058211326599 0.009198300540447235 -0.121799997985363
-0.07684721797704697 0.009183196350932121 -0.12159999459981918
-0.07583525776863098 0.009137884713709354 -0.12099999934434891
-0.07520247250795364 0.009137884713709354 -0.12099999934434891
-0.0745696872472763 0.009137884713709354 -0.12099999934434891
-0.0738757997751236 0.009130332618951797 -0.120899997651577
-0.07330411672592163 0.009137884713709354 -0.12099999934434891
-0.07267133891582489 0.009137884713709354 -0.12099999934434891
-0.07221715897321701 0.009160540997982025 -0.12129999697208405
-0.07175984233617783 0.009183196350932121 -0.12159999459981918
-0.07112392038106918 0.009183196350932121 -0.12159999459981918
-0.07060393691062927 0.009198300540447235 -0.121799997985363
-0.06996696442365646 0.009198300540447235 -0.121799997985363
-0.06927307695150375 0.009190748445689678 -0.1216999962925911
-0.0685238391160965 0.009175645187497139 -0.12150000035762787
-0.06777668744325638 0.009160540997982025 -0.12129999697208405
-0.06697627902030945 0.009137884713709354 -0.12099999934434891
-0.06623383611440659 0.00912278052419424 -0.12079999595880508
-0.06554778665304184 0.009115228429436684 -0.12069999426603317
-0.06486279517412186 0.009107677266001701 -0.12060000002384186
-0.06407231092453003 0.00908502098172903 -0.12029999494552612
-0.06333772093057632 0.009069916792213917 -0.1200999990105629
-0.06270963698625565 0.009069916792213917 -0.1200999990105629
-0.06213325262069702 0.009077468886971474 -0.12019999325275421
-0.06155581772327423 0.00908502098172903 -0.12029999494552612
-0.06031324341893196 0.009183196350932121 -0.12159999459981918
-0.05982455611228943 0.009205852635204792 -0.12189999967813492
-0.05981826409697533 0.009304028004407883 -0.12319999933242798
-0.06214027851819992 0.009877977892756462 -0.13079999387264252
-0.06150323152542114 0.009885529987514019 -0.13089999556541443
-0.06081867218017578 0.009885529987514019 -0.13089999556541443
-0.05782224237918854 0.009726937860250473 -0.12879998981952667
-0.05705993250012398 0.009711834602057934 -0.12860000133514404
-0.05638740584254265 0.009711834602057934 -0.12860000133514404
-0.05580151826143265 0.009726937860250473 -0.12879998981952667
-0.04383828863501549 0.009915738366544247 -0.13130000233650208
-0.04318450391292572 0.009923290461301804 -0.131400004029274
-0.042626697570085526 0.009953497909009457 -0.13179999589920044
-0.04209652543067932 0.009991256520152092 -0.1322999894618988
-0.041498538106679916 0.010013912804424763 -0.13259999454021454
-0.04083586484193802 0.01002146489918232 -0.13269999623298645
-0.040202394127845764 0.010036569088697433 -0.13289999961853027
-0.02046099118888378 0.009900634177029133 -0.13109999895095825
-0.02012232318520546 0.010074328631162643 -0.13339999318122864
-0.019424691796302795 0.010074328631162643 -0.13339999318122864
-0.01875513792037964 0.010089432820677757 -0.13359999656677246
-0.08840312063694 0.00922205951064825 -0.13120000064373016
-0.08771698921918869 0.00922205951064825 -0.13120000064373016
-0.08709720522165298 0.009229089133441448 -0.13130000233650208
-0.08647636324167252 0.009236117824912071 -0.131400004029274
-0.0855933278799057 0.009215030819177628 -0.13109999895095825
-0.08367717266082764 0.009081479161977768 -0.12919999659061432
-0.08158817142248154 0.00892684143036604 -0.12700000405311584
-0.07684721797704697 0.008547274395823479 -0.12159999459981918
-0.07608594745397568 0.008533217012882233 -0.12139999866485596
-0.0754510760307312 0.008533217012882233 -0.12139999866485596
-0.07475456595420837 0.008526187390089035 -0.12129999697208405
-0.07418132573366165 0.008533217012882233 -0.12139999866485596
-0.07354644685983658 0.008533217012882233 -0.12139999866485596
-0.0729115754365921 0.008533217012882233 -0.12139999866485596
-0.07239576429128647 0.008547274395823479 -0.12159999459981918
-0.07175984233617783 0.008547274395823479 -0.12159999459981918
-0.07112392038106918 0.008547274395823479 -0.12159999459981918
-0.07048799842596054 0.008547274395823479 -0.12159999459981918
-0.06475522369146347 0.008462926372885704 -0.12039999663829803
-0.06401905417442322 0.008448868058621883 -0.12019999325275421
-0.0632849857211113 0.008434810675680637 -0.11999999731779099
-0.0626574233174324 0.008434810675680637 -0.11999999731779099
-0.062029872089624405 0.008434810675680637 -0.11999999731779099
-0.06150465086102486 0.008448868058621883 -0.12019999325275421
-0.05986684560775757 0.008484013378620148 -0.12069999426603317
-0.05938286334276199 0.008505100384354591 -0.12099999934434891
-0.05908995494246483 0.008554303087294102 -0.1216999962925911
-0.060657501220703125 0.009074450470507145 -0.1290999948978424
-0.059982359409332275 0.009074450470507145 -0.1290999948978424
-0.05953691154718399 0.00910959579050541 -0.12960000336170197
-0.05863206833600998 0.009074450470507145 -0.1290999948978424
-0.05782224237918854 0.009053362533450127 -0.12879998981952667
-0.05705993250012398 0.00903930515050888 -0.12860000133514404
-0.05638740584254265 0.00903930515050888 -0.12860000133514404
-0.042529672384262085 0.00924314558506012 -0.1314999908208847
-0.04203289374709129 0.009285320527851582 -0.13210000097751617
-0.04143594577908516 0.009306407533586025 -0.13239999115467072
-0.040805090218782425 0.009320464916527271 -0.13259999454021454
-0.040111642330884933 0.009320464916527271 -0.13259999454021454
-0.039418190717697144 0.009320464916527271 -0.13259999454021454
-0.020523417741060257 0.00924314558506012 -0.1314999908208847
-0.020092153921723366 0.009362638927996159 -0.13319998979568481
-0.019424691796302795 0.00937669724225998 -0.13339999318122864
-0.01875513792037964 0.0093907555565238 -0.13359999656677246
-0.08902134001255035 0.008529427461326122 -0.13109999895095825
-0.08833573758602142 0.008529427461326122 -0.13109999895095825
-0.08771698921918869 0.008535933680832386 -0.13120000064373016
-0.0871635377407074 0.008548945188522339 -0.131400004029274
-0.08647636324167252 0.008548945188522339 -0.131400004029274
-0.08565861731767654 0.008535933680832386 -0.13120000064373016
-0.08484295010566711 0.008522921241819859 -0.13099999725818634
-0.08312999457120895 0.008418824523687363 -0.12939999997615814
-0.07627397030591965 0.0079178586602211 -0.1216999962925911
-0.07557537406682968 0.007911352440714836 -0.12159999459981918
-0.07493945211172104 0.007911352440714836 -0.12159999459981918
-0.0743035301566124 0.007911352440714836 -0.12159999459981918
-0.07366760820150375 0.007911352440714836 -0.12159999459981918
-0.07303168624639511 0.007911352440714836 -0.12159999459981918
-0.07175984233617783 0.007911352440714836 -0.12159999459981918
-0.07112392038106918 0.007911352440714836 -0.12159999459981918
-0.07048799842596054 0.007911352440714836 -0.12159999459981918
-0.05966844782233238 0.007826773449778557 -0.12029999494552612
-0.059137482196092606 0.007839785888791084 -0.12049999833106995
-0.05859760195016861 0.007937376387417316 -0.12199999392032623
-0.058387160301208496 0.00799593050032854 -0.12289999425411224
-0.05906001850962639 0.008178099989891052 -0.1256999969482422
-0.058913737535476685 0.008249667473137379 -0.12680000066757202
-0.058342497795820236 0.008262679912149906 -0.12700000405311584
-0.058314159512519836 0.008353764191269875 -0.12839999794960022
-0.05755288898944855 0.008340751752257347 -0.1281999945640564
-0.056971192359924316 0.008353764191269875 -0.12839999794960022
-0.056299708783626556 0.008353764191269875 -0.12839999794960022
-0.04249733313918114 0.008548945188522339 -0.131400004029274
-0.04193743318319321 0.00857496913522482 -0.13179999589920044
-0.0413733571767807 0.008600994013249874 -0.13220000267028809
-0.04074354097247124 0.008614005520939827 -0.13239999115467072
-0.040051139891147614 0.008614005520939827 -0.13239999115467072
-0.039329007267951965 0.008607499301433563 -0.1322999894618988
-0.020695097744464874 0.008627017959952354 -0.13259999454021454
-0.020092153921723366 0.008666053414344788 -0.13319998979568481
-0.019424691796302795 0.008679065853357315 -0.13339999318122864
-0.01875513792037964 0.008692078292369843 -0.13359999656677246
-0.08895343542098999 0.007837841287255287 -0.13099999725818634
-0.08833573758602142 0.007843824103474617 -0.13109999895095825
-0.08765013515949249 0.007843824103474617 -0.13109999895095825
-0.08709720522165298 0.007855790667235851 -0.13130000233650208
-0.08647636324167252 0.007861773483455181 -0.131400004029274
-0.08565861731767654 0.007849806919693947 -0.13120000064373016
-0.08490771800279617 0.007843824103474617 -0.13109999895095825
-0.08402939140796661 0.007825874723494053 -0.13079999387264252
-0.07975427061319351 0.007550652604550123 -0.12619999051094055
-0.07690070569515228 0.00734124518930912 -0.12269999831914902
-0.0757618322968483 0.007293380331248045 -0.12189999967813492
-0.07500108331441879 0.007281413767486811 -0.1216999962925911
-0.07436463981866837 0.007281413767486811 -0.1216999962925911
-0.07372818887233734 0.007281413767486811 -0.1216999962925911
-0.07303168624639511 0.007275430951267481 -0.12159999459981918
-0.059519652277231216 0.007179701700806618 -0.11999999731779099
-0.05889209732413292 0.007179701700806618 -0.11999999731779099
-0.05855586379766464 0.007215600460767746 -0.12060000002384186
-0.05811729654669762 0.00723953265696764 -0.12099999934434891
-0.05786457285284996 0.007287397049367428 -0.121799997985363
-0.05765046924352646 0.00734124518930912 -0.12269999831914902
-0.05751987546682358 0.007407058496028185 -0.12379999458789825
-0.057194024324417114 0.00744894053786993 -0.12449999898672104
-0.057315003126859665 0.007550652604550123 -0.12619999051094055
-0.05674481391906738 0.00756261870265007 -0.12639999389648438
-0.04249733313918114 0.007861773483455181 -0.131400004029274
-0.04193743318319321 0.007885705679655075 -0.13179999589920044
-0.0413733571767807 0.007909637875854969 -0.13220000267028809
-0.04074354097247124 0.007921603508293629 -0.13239999115467072
-0.0400208905339241 0.007915620692074299 -0.1322999894618988
-0.03929928317666054 0.007909637875854969 -0.13220000267028809
-0.03860792890191078 0.007909637875854969 -0.13220000267028809
-0.021275635808706284 0.007891688495874405 -0.13189999759197235
-0.020757528021931648 0.007957503199577332 -0.13300000131130219
-0.020092153921723366 0.007969467900693417 -0.13319998979568481
-0.019424691796302795 0.007981434464454651 -0.13339999318122864
-0.01875513792037964 0.007993401028215885 -0.13359999656677246
-0.08881762623786926 0.0071418397128582 -0.13079999387264252
-0.08813359588384628 0.0071418397128582 -0.13079999387264252
-0.0875832736492157 0.007152759935706854 -0.13099999725818634
-0.08696453273296356 0.007158220279961824 -0.13109999895095825
-0.08634474128484726 0.007163680624216795 -0.13120000064373016
-0.08565861731767654 0.007163680624216795 -0.13120000064373016
-0.08490771800279617 0.007158220279961824 -0.13109999895095825
-0.08396514505147934 0.0071363793686032295 -0.1306999921798706
-0.08270815014839172 0.007087238132953644 -0.1297999918460846
-0.08114460110664368 0.0070107970386743546 -0.12839999794960022
-0.07878091931343079 0.006863373331725597 -0.1256999969482422
-0.07594828307628632 0.006672269199043512 -0.12219999730587006
-0.07506270706653595 0.006650428753346205 -0.121799997985363
-0.07436463981866837 0.006644968409091234 -0.1216999962925911
-0.07378876954317093 0.006650428753346205 -0.121799997985363
-0.059470050036907196 0.00654668640345335 -0.11989999562501907
-0.05889209732413292 0.006552146747708321 -0.11999999731779099
-0.05841020122170448 0.006568526849150658 -0.12029999494552612
-0.05787714198231697 0.0065794470719993114 -0.12049999833106995
-0.05748451128602028 0.00660674786195159 -0.12099999934434891
-0.057039666920900345 0.006628588307648897 -0.12139999866485596
-0.056497711688280106 0.006639508530497551 -0.12159999459981918
-0.056091487407684326 0.006666808854788542 -0.12209999561309814
-0.055725447833538055 0.0066995699889957905 -0.12269999831914902
-0.05572882667183876 0.006857913453131914 -0.12559999525547028
-0.055335067212581635 0.006890673656016588 -0.12619999051094055
-0.054891712963581085 0.006917974911630154 -0.1266999989748001
-0.05452872812747955 0.006956195458769798 -0.1273999959230423
-0.04318450391292572 0.007174600847065449 -0.131400004029274
-0.04259435459971428 0.0071909804828464985 -0.13169999420642853
-0.04203289374709129 0.007212821394205093 -0.13210000097751617
-0.04140464961528778 0.00722374115139246 -0.1322999894618988
-0.040805090218782425 0.007240121718496084 -0.13259999454021454
-0.040051139891147614 0.00722920149564743 -0.13239999115467072
-0.039329007267951965 0.00722374115139246 -0.1322999894618988
-0.038637127727270126 0.00722374115139246 -0.1322999894618988
-0.021340154111385345 0.00722374115139246 -0.1322999894618988
-0.020741919055581093 0.0072565022855997086 -0.13289999961853027
-0.020092153921723366 0.007272882387042046 -0.13319998979568481
-0.019424691796302795 0.007283802609890699 -0.13339999318122864
-0.018741099163889885 0.00728926295414567 -0.13349999487400055
-0.0887497216463089 0.006452867761254311 -0.1306999921798706
-0.08813359588384628 0.006457805167883635 -0.13079999387264252
-0.0874495580792427 0.006457805167883635 -0.13079999387264252
-0.08689820021390915 0.006467679515480995 -0.13099999725818634
-0.0862131118774414 0.006467679515480995 -0.13099999725818634
-0.08552803844213486 0.006467679515480995 -0.13099999725818634
-0.08477818965911865 0.006462742108851671 -0.13089999556541443
-0.08390089869499207 0.006447930354624987 -0.1305999904870987
-0.0828355923295021 0.006418307777494192 -0.12999999523162842
-0.08165017515420914 0.00637881038710475 -0.12919999659061432
-0.07617200911045074 0.006102329585701227 -0.12359999865293503
-0.07454795390367508 0.006023334804922342 -0.12199999392032623
-0.07378876954317093 0.006013460922986269 -0.121799997985363
-0.05961884930729866 0.005934466142207384 -0.12019999325275421
-0.05903932452201843 0.005939403083175421 -0.12029999494552612
-0.058458756655454636 0.005944340489804745 -0.12039999663829803
-0.05787714198231697 0.005949277896434069 -0.12049999833106995
-0.05729448050260544 0.005954214837402105 -0.12060000002384186
-0.05680474266409874 0.005969026125967503 -0.120899997651577
-0.0562189444899559 0.0059739635325968266 -0.12099999934434891
-0.0557699128985405 0.005993712227791548 -0.12139999866485596
-0.055362120270729065 0.006018397863954306 -0.12189999967813492
-0.05526334419846535 0.006077643949538469 -0.12309999763965607
-0.05501890927553177 0.006122078280895948 -0.12399999797344208
-0.05520353093743324 0.0062158843502402306 -0.125900000333786
-0.05476174131035805 0.0062405699864029884 -0.12639999389648438
-0.0544431246817112 0.006280067376792431 -0.12719999253749847
-0.05390475317835808 0.0062948791310191154 -0.1274999976158142
-0.053196221590042114 0.0062899417243897915 -0.1273999959230423
-0.05215887725353241 0.006245507393032312 -0.1264999955892563
-0.043315961956977844 0.006507176905870438 -0.13179999589920044
-0.04265904054045677 0.006512113846838474 -0.13189999759197235
-0.04206471145153046 0.006526925601065159 -0.13220000267028809
-0.04143594577908516 0.006536799483001232 -0.13239999115467072
-0.040805090218782425 0.006546673830598593 -0.13259999454021454
-0.040051139891147614 0.006536799483001232 -0.13239999115467072
-0.039329007267951965 0.006531862076371908 -0.1322999894618988
-0.03866633400321007 0.006536799483001232 -0.13239999115467072
-0.021356284618377686 0.006536799483001232 -0.13239999115467072
-0.02071070484817028 0.006551611237227917 -0.13269999623298645
-0.02006198838353157 0.006566422991454601 -0.13300000131130219
-0.019424691796302795 0.006586171220988035 -0.13339999318122864
-0.018741099163889885 0.006591108161956072 -0.13349999487400055
-0.08868181705474854 0.005764941684901714 -0.1305999904870987
-0.0880662128329277 0.005769356153905392 -0.1306999921798706
-0.08738269656896591 0.005769356153905392 -0.1306999921798706
-0.08683186024427414 0.005778184626251459 -0.13089999556541443
-0.08608148992061615 0.005773770622909069 -0.13079999387264252
-0.08546274900436401 0.005778184626251459 -0.13089999556541443
-0.08464865386486053 0.005769356153905392 -0.1306999921798706
-0.08377242088317871 0.0057561141438782215 -0.13040000200271606
-0.0828355923295021 0.005738456733524799 -0.12999999523162842
-0.08196615427732468 0.005725214257836342 -0.12969999015331268
-0.08109985291957855 0.005711971782147884 -0.12939999997615814
-0.07980163395404816 0.0056678298860788345 -0.12839999794960022
-0.07497569173574448 0.005416220519691706 -0.12269999831914902
-0.059817250818014145 0.005323522724211216 -0.12060000002384186
-0.05923563241958618 0.005327936261892319 -0.12069999426603317
-0.058604415506124496 0.005327936261892319 -0.12069999426603317
-0.05792517215013504 0.005323522724211216 -0.12060000002384186
-0.05724697187542915 0.005319108255207539 -0.12049999833106995
-0.056569818407297134 0.005314693786203861 -0.12039999663829803
-0.0559401698410511 0.005314693786203861 -0.12039999663829803
-0.05544833838939667 0.005327936261892319 -0.12069999426603317
-0.05522586777806282 0.0053676641546189785 -0.12159999459981918
-0.054949089884757996 0.005402978044003248 -0.12239999324083328
-0.05501890927553177 0.0054736053571105 -0.12399999797344208
-0.05524737760424614 0.0055618891492486 -0.12600000202655792
-0.054891712963581085 0.005592788569629192 -0.1266999989748001
-0.05452872812747955 0.005623687990009785 -0.1273999959230423
-0.05394703149795532 0.005632516462355852 -0.12759999930858612
-0.05302920192480087 0.005606031510978937 -0.12700000405311584
-0.052117642015218735 0.0055795456282794476 -0.12639999389648438
-0.05113094300031662 0.005544232204556465 -0.12559999525547028
-0.04420555382966995 0.005844397470355034 -0.13239999115467072
-0.04344742372632027 0.005835569463670254 -0.13220000267028809
-0.04282074794173241 0.005844397470355034 -0.13239999115467072
-0.04219198599457741 0.005853225942701101 -0.13259999454021454
-0.041498538106679916 0.005853225942701101 -0.13259999454021454
-0.040805090218782425 0.005853225942701101 -0.13259999454021454
-0.040051139891147614 0.005844397470355034 -0.13239999115467072
-0.039329007267951965 0.0058399830013513565 -0.1322999894618988
-0.038637127727270126 0.0058399830013513565 -0.1322999894618988
-0.021340154111385345 0.0058399830013513565 -0.1322999894618988
-0.02071070484817028 0.005857640411704779 -0.13269999623298645
-0.02006198838353157 0.0058708833530545235 -0.13300000131130219
-0.019424691796302795 0.005888539366424084 -0.13339999318122864
-0.0880662128329277 0.005085844546556473 -0.1306999921798706
-0.08738269656896591 0.005085844546556473 -0.1306999921798706
-0.08676552772521973 0.0050897360779345036 -0.13079999387264252
-0.08608148992061615 0.0050897360779345036 -0.13079999387264252
-0.08539745956659317 0.0050897360779345036 -0.13079999387264252
-0.08458388596773148 0.005081953480839729 -0.1305999904870987
-0.08377242088317871 0.005074171349406242 -0.13040000200271606
-0.0828993171453476 0.005062497220933437 -0.13009999692440033
-0.08209254592657089 0.005054714623838663 -0.1298999935388565
-0.0812252014875412 0.005043041426688433 -0.12960000336170197
-0.08005023002624512 0.005011911038309336 -0.12879998981952667
-0.06001564860343933 0.0047083948738873005 -0.12099999934434891
-0.05938286334276199 0.0047083948738873005 -0.12099999934434891
-0.058750081807374954 0.0047083948738873005 -0.12099999934434891
-0.05802123248577118 0.004700612276792526 -0.12079999595880508
-0.05724697187542915 0.0046889386139810085 -0.12049999833106995
-0.056522831320762634 0.004681156016886234 -0.12029999494552612
-0.05584724619984627 0.004677264951169491 -0.12019999325275421
-0.055356465280056 0.0046889386139810085 -0.12049999833106995
-0.05518045648932457 0.0047278511337935925 -0.12150000035762787
-0.05548780784010887 0.004809567239135504 -0.12359999865293503
-0.05515201762318611 0.004836805630475283 -0.12429999560117722
-0.055335067212581635 0.00491073913872242 -0.12619999051094055
-0.05510833114385605 0.004949651192873716 -0.12719999253749847
-0.05465713515877724 0.004969107918441296 -0.12770000100135803
-0.053989313542842865 0.004969107918441296 -0.12770000100135803
-0.05302920192480087 0.004941869527101517 -0.12700000405311584
-0.05203517898917198 0.00491073913872242 -0.12619999051094055
-0.05096811056137085 0.004871827084571123 -0.12520000338554382
-0.04975074902176857 0.004817349370568991 -0.12379999458789825
-0.044372495263814926 0.005171452183276415 -0.13289999961853027
-0.04361174628138542 0.005163669586181641 -0.13269999623298645
-0.042917776852846146 0.005163669586181641 -0.13269999623298645
-0.04219198599457741 0.00515977805480361 -0.13259999454021454
-0.041498538106679916 0.00515977805480361 -0.13259999454021454
-0.040805090218782425 0.00515977805480361 -0.13259999454021454
-0.0400208905339241 0.005148104391992092 -0.1322999894618988
-0.03926955536007881 0.005140322260558605 -0.13210000097751617
-0.03857872262597084 0.005140322260558605 -0.13210000097751617
-0.022032033652067184 0.005148104391992092 -0.1322999894618988
-0.021356284618377686 0.005151995457708836 -0.13239999115467072
-0.02071070484817028 0.005163669586181641 -0.13269999623298645
-0.02006198838353157 0.005175343248993158 -0.13300000131130219
-0.019424691796302795 0.0051909079775214195 -0.13339999318122864
-0.0880662128329277 0.004402332939207554 -0.1306999921798706
-0.08738269656896591 0.004402332939207554 -0.1306999921798706
-0.08676552772521973 0.004405701532959938 -0.13079999387264252
-0.08608148992061615 0.004405701532959938 -0.13079999387264252
-0.08533217012882233 0.004402332939207554 -0.1306999921798706
-0.08451912552118301 0.00439559668302536 -0.13050000369548798
-0.08377242088317871 0.004392228554934263 -0.13040000200271606
-0.0828993171453476 0.004382123704999685 -0.13009999692440033
-0.0821557492017746 0.004378755111247301 -0.12999999523162842
-0.08141321688890457 0.004375386983156204 -0.1298999935388565
-0.08054744452238083 0.004365282598882914 -0.12960000336170197
-0.05957917124032974 0.0040890839882195 -0.12139999866485596
-0.05894429609179497 0.0040890839882195 -0.12139999866485596
-0.05811729654669762 0.0040756105445325375 -0.12099999934434891
-0.05729448050260544 0.004062137566506863 -0.12060000002384186
-0.056522831320762634 0.004052032716572285 -0.12029999494552612
-0.05584724619984627 0.004048664588481188 -0.12019999325275421
-0.055264584720134735 0.004052032716572285 -0.12029999494552612
-0.05522586777806282 0.004095820244401693 -0.12159999459981918
-0.05526334419846535 0.004146344494074583 -0.12309999763965607
-0.05524075776338577 0.004193500149995089 -0.12449999898672104
-0.05461433157324791 0.004297916777431965 -0.12759999930858612
-0.05394703149795532 0.004297916777431965 -0.12759999930858612
-0.05294569209218025 0.004270970821380615 -0.12680000066757202
-0.05203517898917198 0.004250760655850172 -0.12619999051094055
-0.050845980644226074 0.004206973593682051 -0.12489999830722809
-0.049630191177129745 0.004159817472100258 -0.12349999696016312
-0.0483100563287735 0.004102556966245174 -0.121799997985363
-0.04735996201634407 0.0040756105445325375 -0.12099999934434891
-0.04520315304398537 0.004489907994866371 -0.13329999148845673
-0.044439271092414856 0.004483171738684177 -0.1331000030040741
-0.04371034353971481 0.0044798036105930805 -0.13300000131130219
-0.04298245906829834 0.004476435482501984 -0.13289999961853027
-0.04222380369901657 0.004469698760658503 -0.13269999623298645
-0.041498538106679916 0.004466330166906118 -0.13259999454021454
-0.04074354097247124 0.004459593445062637 -0.13239999115467072
-0.03999064490199089 0.004452857654541731 -0.13220000267028809
-0.03921009972691536 0.004442752338945866 -0.13189999759197235
-0.022032033652067184 0.0044562253169715405 -0.1322999894618988
-0.021388545632362366 0.004466330166906118 -0.13259999454021454
-0.020741919055581093 0.004476435482501984 -0.13289999961853027
-0.02006198838353157 0.0044798036105930805 -0.13300000131130219
-0.019424691796302795 0.004493276588618755 -0.13339999318122864
-0.0880662128329277 0.003718821331858635 -0.1306999921798706
-0.08738269656896591 0.003718821331858635 -0.1306999921798706
-0.08676552772521973 0.0037216665223240852 -0.13079999387264252
-0.08608148992061615 0.0037216665223240852 -0.13079999387264252
-0.08533217012882233 0.003718821331858635 -0.1306999921798706
-0.08451912552118301 0.0037131309509277344 -0.13050000369548798
-0.08364393562078476 0.003704594913870096 -0.13019999861717224
-0.0828993171453476 0.0037017494905740023 -0.13009999692440033
-0.0821557492017746 0.0036989040672779083 -0.12999999523162842
-0.08141321688890457 0.003696058876812458 -0.1298999935388565
-0.08073389530181885 0.003696058876812458 -0.1298999935388565
-0.08011619001626968 0.0036989040672779083 -0.12999999523162842
-0.05899285152554512 0.003457052865996957 -0.12150000035762787
-0.058213356882333755 0.0034485168289393187 -0.12119999527931213
-0.057341985404491425 0.0034342901781201363 -0.12069999426603317
-0.056569818407297134 0.0034257543738931417 -0.12039999663829803
-0.05584724619984627 0.003420063527300954 -0.12019999325275421
-0.0552186444401741 0.003420063527300954 -0.12019999325275421
-0.05522586777806282 0.003459898056462407 -0.12159999459981918
-0.05517355725169182 0.0034968869294971228 -0.12289999425411224
-0.05510764569044113 0.003533876035362482 -0.1241999939084053
-0.055291227996349335 0.0035879372153431177 -0.12610000371932983
-0.05476174131035805 0.0035964730195701122 -0.12639999389648438
-0.054186318069696426 0.0036021636333316565 -0.1265999972820282
-0.05356653034687042 0.0036050090566277504 -0.1266999989748001
-0.05282042175531387 0.0035993182100355625 -0.1264999955892563
-0.0518290176987648 0.0035765557549893856 -0.1256999969482422
-0.05052030459046364 0.003531030844897032 -0.12409999966621399
-0.049228325486183167 0.0034855057019740343 -0.1224999949336052
-0.048151399940252304 0.003454207442700863 -0.12139999866485596
-0.04720340296626091 0.003431444987654686 -0.12060000002384186
-0.04637962207198143 0.0034172185696661472 -0.1200999990105629
-0.04593469575047493 0.003795644734054804 -0.13339999318122864
-0.04520315304398537 0.00379279931075871 -0.13329999148845673
-0.044439271092414856 0.0037871089298278093 -0.1331000030040741
-0.04371034353971481 0.003784263739362359 -0.13300000131130219
-0.04298245906829834 0.003781418316066265 -0.13289999961853027
-0.04219198599457741 0.003772882279008627 -0.13259999454021454
-0.04143594577908516 0.003767191432416439 -0.13239999115467072
-0.040681999176740646 0.003761501284316182 -0.13220000267028809
-0.03989989310503006 0.0037529650144279003 -0.13189999759197235
-0.022081993520259857 0.003772882279008627 -0.13259999454021454
-0.021404676139354706 0.0037757274694740772 -0.13269999623298645
-0.020757528021931648 0.003784263739362359 -0.13300000131130219
-0.020092153921723366 0.003789953887462616 -0.13319998979568481
-0.019424691796302795 0.003795644734054804 -0.13339999318122864
-0.08738269656896591 0.003035309724509716 -0.1306999921798706
-0.08676552772521973 0.0030376319773495197 -0.13079999387264252
-0.08601567894220352 0.003035309724509716 -0.1306999921798706
-0.08526688069105148 0.0030329872388392687 -0.1305999904870987
-0.08445436507463455 0.0030283427331596613 -0.13040000200271606
-0.08357968926429749 0.0030213757418096066 -0.13009999692440033
-0.08277187496423721 0.0030167310032993555 -0.1298999935388565
-0.08209254592657089 0.0030167310032993555 -0.1298999935388565
-0.0814758911728859 0.003019053256139159 -0.12999999523162842
-0.08085819333791733 0.0030213757418096066 -0.13009999692440033
-0.08017782121896744 0.0030213757418096066 -0.13009999692440033
-0.07955855876207352 0.0030236979946494102 -0.13019999861717224
-0.07899881899356842 0.0030283427331596613 -0.13040000200271606
-0.05738949403166771 0.0028053971473127604 -0.12079999595880508
-0.056616801768541336 0.0027984301559627056 -0.12049999833106995
-0.055893708020448685 0.0027937854174524546 -0.12029999494552612
-0.055264584720134735 0.0027937854174524546 -0.12029999494552612
-0.05522586777806282 0.002823975868523121 -0.12159999459981918
-0.05499398335814476 0.0028448770754039288 -0.1224999949336052
-0.05497453734278679 0.0028773900121450424 -0.12389999628067017
-0.054896604269742966 0.0029075806960463524 -0.12520000338554382
-0.05388671159744263 0.0029238371644169092 -0.125900000333786
-0.05322830379009247 0.0029238371644169092 -0.125900000333786
-0.05236111208796501 0.0029122252017259598 -0.12539999186992645
-0.05121053382754326 0.002884357003495097 -0.1241999939084053
-0.04974682629108429 0.002837910084053874 -0.12219999730587006
-0.048866648226976395 0.002823975868523121 -0.12159999459981918
-0.047953084111213684 0.0028077196329832077 -0.120899997651577
-0.04712511971592903 0.002796107903122902 -0.12039999663829803
-0.04637962207198143 0.002789140911772847 -0.1200999990105629
-0.04575154557824135 0.002789140911772847 -0.1200999990105629
-0.045865826308727264 0.003093368373811245 -0.13319998979568481
-0.04513533413410187 0.003091046353802085 -0.1331000030040741
-0.04440588131546974 0.0030887238681316376 -0.13300000131130219
-0.04371034353971481 0.0030887238681316376 -0.13300000131130219
-0.042917776852846146 0.003081756643950939 -0.13269999623298645
-0.04219198599457741 0.0030794343911111355 -0.13259999454021454
-0.0413733571767807 0.003070145146921277 -0.13220000267028809
-0.04065122455358505 0.0030678226612508297 -0.13210000097751617
-0.03989989310503006 0.0030631779227405787 -0.13189999759197235
-0.02263803221285343 0.003060855669900775 -0.13179999589920044
-0.022081993520259857 0.0030794343911111355 -0.13259999454021454
-0.021404676139354706 0.003081756643950939 -0.13269999623298645
-0.020757528021931648 0.0030887238681316376 -0.13300000131130219
-0.020107239484786987 0.0030956906266510487 -0.13329999148845673
-0.08738269656896591 0.002351798117160797 -0.1306999921798706
-0.08676552772521973 0.0023535974323749542 -0.13079999387264252
-0.08601567894220352 0.002351798117160797 -0.1306999921798706
-0.08520159870386124 0.002348199486732483 -0.13050000369548798
-0.08426006138324738 0.002341001760214567 -0.13009999692440033
-0.08332271873950958 0.002333804266527295 -0.12969999015331268
-0.08245328068733215 0.00232840608805418 -0.12939999997615814
-0.08196615427732468 0.002333804266527295 -0.12969999015331268
-0.08135054260492325 0.0023356035817414522 -0.1297999918460846
-0.08079604804515839 0.00233920244500041 -0.12999999523162842
-0.0802394449710846 0.002342801308259368 -0.13019999861717224
-0.07968077063560486 0.002346400171518326 -0.13040000200271606
-0.0791199803352356 0.0023499985691159964 -0.1305999904870987
-0.05307348817586899 0.002231239341199398 -0.12399999797344208
-0.05238273739814758 0.0022294397931545973 -0.12389999628067017
-0.051567766815423965 0.002222242299467325 -0.12349999696016312
-0.05042712017893791 0.002200649818405509 -0.12229999899864197
-0.04950257018208504 0.0021880539134144783 -0.12159999459981918
-0.04854515939950943 0.002173658926039934 -0.12079999595880508
-0.04771510139107704 0.0021646618843078613 -0.12029999494552612
-0.04700769856572151 0.002161063253879547 -0.1200999990105629
-0.04637962207198143 0.002161063253879547 -0.1200999990105629
-0.04575154557824135 0.002161063253879547 -0.1200999990105629
-0.045161034911870956 0.0021628625690937042 -0.12019999325275421
-0.045762527734041214 0.002391384681686759 -0.13289999961853027
-0.04506751149892807 0.002391384681686759 -0.13289999961853027
-0.0443057157099247 0.002387785818427801 -0.13269999623298645
-0.04361174628138542 0.002387785818427801 -0.13269999623298645
-0.0428854338824749 0.002385986503213644 -0.13259999454021454
-0.04209652543067932 0.002380588324740529 -0.1322999894618988
-0.0413733571767807 0.002378789009526372 -0.13220000267028809
-0.04058967903256416 0.002373390831053257 -0.13189999759197235
-0.02253497764468193 0.00236079515889287 -0.13120000064373016
-0.02201538160443306 0.002378789009526372 -0.13220000267028809
-0.021404676139354706 0.002387785818427801 -0.13269999623298645
-0.020773135125637054 0.002394983544945717 -0.1331000030040741
-0.020107239484786987 0.002398582175374031 -0.13329999148845673
-0.08669918775558472 0.0016682863933965564 -0.1306999921798706
-0.0859498605132103 0.001667009899392724 -0.1305999904870987
-0.0851363092660904 0.0016644572606310248 -0.13040000200271606
-0.0840657651424408 0.0016567985294386744 -0.1297999918460846
-0.08312999457120895 0.0016516930190846324 -0.12939999997615814
-0.08232583850622177 0.0016491400310769677 -0.12919999659061432
-0.08177656680345535 0.0016516930190846324 -0.12939999997615814
-0.08128786832094193 0.001655522151850164 -0.12969999015331268
-0.08079604804515839 0.0016593515174463391 -0.12999999523162842
-0.0803627073764801 0.0016644572606310248 -0.13040000200271606
-0.079802967607975 0.001667009899392724 -0.1305999904870987
-0.07930172979831696 0.0016708392649888992 -0.13089999556541443
-0.052345868200063705 0.001561066834256053 -0.12229999899864197
-0.05195995420217514 0.0015687253326177597 -0.12289999425411224
-0.05077441409230232 0.001552131841890514 -0.12159999459981918
-0.04989109933376312 0.0015444733435288072 -0.12099999934434891
-0.04897334799170494 0.001535538351163268 -0.12029999494552612
-0.04814329370856285 0.00152915611397475 -0.11979999393224716
-0.04751678556203842 0.00152915611397475 -0.11979999393224716
-0.04696855694055557 0.0015317091019824147 -0.11999999731779099
-0.046341001987457275 0.0015317091019824147 -0.11999999731779099
-0.045865826308727264 0.0015368147287517786 -0.12039999663829803
-0.04523618146777153 0.0015368147287517786 -0.12039999663829803
-0.04471767693758011 0.001540643977932632 -0.12069999426603317
-0.044965777546167374 0.0016925384989008307 -0.13259999454021454
-0.04427232965826988 0.0016925384989008307 -0.13259999454021454
-0.04357888177037239 0.0016925384989008307 -0.13259999454021454
-0.04282074794173241 0.001689985627308488 -0.13239999115467072
-0.04206471145153046 0.0016874328721314669 -0.13220000267028809
-0.04134206101298332 0.0016861564945429564 -0.13210000097751617
-0.022558802738785744 0.0015802131965756416 -0.12379999458789825
-0.022371551021933556 0.0016134001780301332 -0.12639999389648438
-0.022517802193760872 0.001673392136581242 -0.13109999895095825
-0.021948769688606262 0.0016823271289467812 -0.13179999589920044
-0.021388545632362366 0.0016925384989008307 -0.13259999454021454
-0.020773135125637054 0.0016989207360893488 -0.1331000030040741
-0.08656653016805649 0.0009832679061219096 -0.13050000369548798
-0.08581824600696564 0.0009825143497437239 -0.13040000200271606
-0.0850057303905487 0.000981007469817996 -0.13019999861717224
-0.0840657651424408 0.0009779935935512185 -0.1297999918460846
-0.08312999457120895 0.0009749797754921019 -0.12939999997615814
-0.08232583850622177 0.0009734727791510522 -0.12919999659061432
-0.08177656680345535 0.0009749797754921019 -0.12939999997615814
-0.08135054260492325 0.0009779935935512185 -0.1297999918460846
-0.08092034608125687 0.000981007469817996 -0.13019999861717224
-0.08054758608341217 0.0009847746696323156 -0.1306999921798706
-0.08004739135503769 0.0009870351059362292 -0.13099999725818634
-0.07942289113998413 0.0009877885458990932 -0.13109999895095825
-0.0787372961640358 0.0009877885458990932 -0.13109999895095825
-0.0511566698551178 0.0009116889559663832 -0.12099999934434891
-0.0502733513712883 0.0009071681415662169 -0.12039999663829803
-0.04939631000161171 0.0009026473853737116 -0.11979999393224716
-0.04872909560799599 0.0009018939454108477 -0.11969999969005585
-0.048062920570373535 0.0009011404472403228 -0.11959999799728394
-0.0474771223962307 0.0009018939454108477 -0.11969999969005585
-0.04692941531538963 0.0009034008253365755 -0.11989999562501907
-0.046341001987457275 0.0009041543235071003 -0.11999999731779099
-0.04548705741763115 0.000995323178358376 -0.13210000097751617
-0.04486404359340668 0.0009968300582841039 -0.1322999894618988
-0.04417216405272484 0.0009968300582841039 -0.1322999894618988
-0.04344742372632027 0.0009960767347365618 -0.13220000267028809
-0.04275606945157051 0.0009960767347365618 -0.13220000267028809
-0.04196925461292267 0.0009938162984326482 -0.13189999759197235
-0.04121687263250351 0.0009923093020915985 -0.13169999420642853
-0.02268635854125023 0.0009380601113662124 -0.12449999898672104
-0.022513141855597496 0.0009584035142324865 -0.12719999253749847
-0.022517802193760872 0.0009877885458990932 -0.13109999895095825
-0.021932115778326988 0.0009923093020915985 -0.13169999420642853
-0.021404676139354706 0.0009998439345508814 -0.13269999623298645
-0.020773135125637054 0.001002857810817659 -0.1331000030040741
-0.08568662405014038 0.0003001105797011405 -0.13019999861717224
-0.08494044095277786 0.0002998800773639232 -0.13009999692440033
-0.08413052558898926 0.00029941907268948853 -0.1298999935388565
-0.0832584798336029 0.000298727594781667 -0.12960000336170197
-0.08245328068733215 0.00029826659010723233 -0.12939999997615814
-0.08202935010194778 0.0002991885703522712 -0.1297999918460846
-0.0814758911728859 0.00029964957502670586 -0.12999999523162842
-0.08104465156793594 0.0003005715843755752 -0.13040000200271606
-0.08060920983552933 0.00030149356462061405 -0.13079999387264252
-0.08004739135503769 0.0003019545692950487 -0.13099999725818634
-0.07942289113998413 0.00030218507163226604 -0.13109999895095825
-0.0788574144244194 0.0003026460763067007 -0.13130000233650208
-0.05069160833954811 0.00027636910090222955 -0.11989999562501907
-0.05002281814813614 0.0002761385985650122 -0.11979999393224716
-0.04931384697556496 0.000275677622994408 -0.11959999799728394
-0.0486476756632328 0.0002754471206571907 -0.11949999630451202
-0.048062920570373535 0.000275677622994408 -0.11959999799728394
-0.047437459230422974 0.000275677622994408 -0.11959999799728394
-0.04696855694055557 0.0002765996032394469 -0.11999999731779099
-0.04593319445848465 0.00030287657864391804 -0.131400004029274
-0.04534932225942612 0.0003035680565517396 -0.13169999420642853
-0.04472840204834938 0.0003040290903300047 -0.13189999759197235
-0.04410539194941521 0.00030449009500443935 -0.13210000097751617
-0.043315961956977844 0.0003037985588889569 -0.13179999589920044
-0.042626697570085526 0.0003037985588889569 -0.13179999589920044
-0.04187379404902458 0.00030333755421452224 -0.13159999251365662
-0.023275621235370636 0.0002784436219371855 -0.12079999595880508
-0.022812586277723312 0.00028051811386831105 -0.1216999962925911
-0.022977910935878754 0.0002906601002905518 -0.12610000371932983
-0.022483449429273605 0.0003017240669578314 -0.13089999556541443
-0.021915461868047714 0.00030333755421452224 -0.13159999251365662
-0.021388545632362366 0.00030564257758669555 -0.13259999454021454
-0.08542337268590927 -0.00037961642374284565 -0.1297999918460846
-0.08480986207723618 -0.00037990888813510537 -0.1298999935388565
-0.08413052558898926 -0.00037990888813510537 -0.1298999935388565
-0.08338695764541626 -0.00037961642374284565 -0.1297999918460846
-0.08270815014839172 -0.00037961642374284565 -0.1297999918460846
-0.0821557492017746 -0.0003802013525273651 -0.12999999523162842
-0.08172658830881119 -0.0003813712392002344 -0.13040000200271606
-0.08116894960403442 -0.0003819561388809234 -0.1305999904870987
-0.08060920983552933 -0.0003825410676654428 -0.13079999387264252
-0.08004739135503769 -0.00038312599644996226 -0.13099999725818634
-0.07942289113998413 -0.000383418460842222 -0.13109999895095825
-0.0787372961640358 -0.000383418460842222 -0.13109999895095825
-0.05064932629466057 -0.00035037018824368715 -0.11979999393224716
-0.04993931204080582 -0.0003497852594591677 -0.11959999799728394
-0.04931384697556496 -0.0003497852594591677 -0.11959999799728394
-0.048688385635614395 -0.0003497852594591677 -0.11959999799728394
-0.048062920570373535 -0.0003497852594591677 -0.11959999799728394
-0.047437459230422974 -0.0003497852594591677 -0.11959999799728394
-0.04784708470106125 -0.0003623611410148442 -0.12389999628067017
-0.048037219792604446 -0.00036879535764455795 -0.12610000371932983
-0.047791045159101486 -0.0003720124077517539 -0.12719999253749847
-0.04719993472099304 -0.00037259733653627336 -0.1273999959230423
-0.04678936302661896 -0.0003746445581782609 -0.12809999287128448
-0.046227455139160156 -0.00037552198045887053 -0.12839999794960022
-0.046052686870098114 -0.00037961642374284565 -0.1297999918460846
-0.04582832381129265 -0.000383418460842222 -0.13109999895095825
-0.045211587101221085 -0.0003840033896267414 -0.13130000233650208
-0.044626668095588684 -0.0003848807536996901 -0.13159999251365662
-0.04397183656692505 -0.0003851732180919498 -0.13169999420642853
-0.04321736469864845 -0.0003845882893074304 -0.1314999908208847
-0.023907359689474106 -0.00035329480306245387 -0.12079999595880508
-0.023391228169202805 -0.00035504958941601217 -0.12139999866485596
-0.02311490848660469 -0.0003819561388809234 -0.1305999904870987
-0.02255215309560299 -0.0003840033896267414 -0.13130000233650208
-0.021965421736240387 -0.0003857581759802997 -0.13189999759197235
-0.08461400121450424 -0.0010567907011136413 -0.12960000336170197
-0.0840657651424408 -0.001058421446941793 -0.1297999918460846
-0.08345120400190353 -0.0010592368198558688 -0.1298999935388565
-0.0828993171453476 -0.0010608677985146642 -0.13009999692440033
-0.08240853995084763 -0.0010633140336722136 -0.13040000200271606
-0.08178926259279251 -0.0010641295230016112 -0.13050000369548798
-0.08123110234737396 -0.001065760268829763 -0.1306999921798706
-0.08060920983552933 -0.0010665756417438388 -0.13079999387264252
-0.07998628914356232 -0.0010673911310732365 -0.13089999556541443
-0.07930172979831696 -0.0010673911310732365 -0.13089999556541443
-0.0786772295832634 -0.0010682066204026341 -0.13099999725818634
-0.0778135359287262 -0.001065760268829763 -0.1306999921798706
-0.05002281814813614 -0.0009768789168447256 -0.11979999393224716
-0.048688385635614395 -0.0009752481710165739 -0.11959999799728394
-0.04853244498372078 -0.0010388512164354324 -0.1273999959230423
-0.04797890782356262 -0.0010412975680083036 -0.12770000100135803
-0.04731108248233795 -0.0010412975680083036 -0.12770000100135803
-0.0468624122440815 -0.0010461900383234024 -0.1282999962568283
-0.04626346006989479 -0.0010478210169821978 -0.12849999964237213
-0.0245797261595726 -0.0009866640903055668 -0.12099999934434891
-0.02402610518038273 -0.0009899258147925138 -0.12139999866485596
-0.023468300700187683 -0.000993187539279461 -0.121799997985363
-0.023562384769320488 -0.0010249890619888902 -0.1256999969482422
-0.02318570576608181 -0.0010682066204026341 -0.13099999725818634
-0.022620856761932373 -0.0010739145800471306 -0.13169999420642853
-0.02201538160443306 -0.0010779916774481535 -0.13220000267028809
-0.08380670845508575 -0.0017318729078397155 -0.12939999997615814
-0.08338695764541626 -0.001737226382829249 -0.1297999918460846
-0.0828993171453476 -0.0017412415472790599 -0.13009999692440033
-0.08247173577547073 -0.001746595255099237 -0.13050000369548798
-0.08191460371017456 -0.0017492718761786819 -0.1306999921798706
-0.0812932476401329 -0.0017506101867184043 -0.13079999387264252
-0.08060920983552933 -0.0017506101867184043 -0.13079999387264252
