ply
format ascii 1.0
element vertex 796
property float x
property float y
property float z
end_header
0.1997702419757843 0.15757547318935394 -0.25439998507499695
0.20157496631145477 0.1579471230506897 -0.2549999952316284
0.20314721763134003 0.15813294053077698 -0.25529998540878296
0.20472265779972076 0.15831877291202545 -0.2556000053882599
0.20654302835464478 0.15869039297103882 -0.25619998574256897
0.20812630653381348 0.1588762253522873 -0.2565000057220459
0.20946769416332245 0.1588762253522873 -0.2565000057220459
0.21080909669399261 0.1588762253522873 -0.2565000057220459
0.21215049922466278 0.1588762253522873 -0.2565000057220459
0.21349190175533295 0.1588762253522873 -0.2565000057220459
0.1491246223449707 0.15477105975151062 -0.25200000405311584
0.17531543970108032 0.15698207914829254 -0.2556000053882599
0.17665213346481323 0.15698207914829254 -0.2556000053882599
0.17798882722854614 0.15698207914829254 -0.2556000053882599
0.17932550609111786 0.15698207914829254 -0.2556000053882599
0.18108628690242767 0.1573505699634552 -0.25619998574256897
0.1859005242586136 0.15802615880966187 -0.2572999894618988
0.18837180733680725 0.15784190595149994 -0.25699999928474426
0.1957790106534958 0.15624505281448364 -0.25439998507499695
0.1971094161272049 0.15624505281448364 -0.25439998507499695
0.1984398365020752 0.15624505281448364 -0.25439998507499695
0.20024140179157257 0.1566135585308075 -0.2549999952316284
0.20181210339069366 0.15679781138896942 -0.25529998540878296
0.20314721763134003 0.15679781138896942 -0.25529998540878296
0.20472265779972076 0.15698207914829254 -0.2556000053882599
0.20605933666229248 0.15698207914829254 -0.2556000053882599
0.2073960304260254 0.15698207914829254 -0.2556000053882599
0.20848771929740906 0.15679781138896942 -0.25529998540878296
0.2098228484392166 0.15679781138896942 -0.25529998540878296
0.21115796267986298 0.15679781138896942 -0.25529998540878296
0.21249309182167053 0.15679781138896942 -0.25529998540878296
0.1491246223449707 0.15345320105552673 -0.25200000405311584
0.1751096546649933 0.15546269714832306 -0.25529998540878296
0.17644476890563965 0.15546269714832306 -0.25529998540878296
0.1777798980474472 0.15546269714832306 -0.25529998540878296
0.17932550609111786 0.15564538538455963 -0.2556000053882599
0.18066221475601196 0.15564538538455963 -0.2556000053882599
0.18568377196788788 0.15649789571762085 -0.25699999928474426
0.18837180733680725 0.15649789571762085 -0.25699999928474426
0.1953658014535904 0.15564538538455963 -0.2556000053882599
0.19647161662578583 0.15546269714832306 -0.25529998540878296
0.19757430255413055 0.15528002381324768 -0.2549999952316284
0.19890786707401276 0.15528002381324768 -0.2549999952316284
0.2004769742488861 0.15546269714832306 -0.25529998540878296
0.20181210339069366 0.15546269714832306 -0.25529998540878296
0.20314721763134003 0.15546269714832306 -0.25529998540878296
0.20448234677314758 0.15546269714832306 -0.25529998540878296
0.20581746101379395 0.15546269714832306 -0.25529998540878296
0.2069091796875 0.15528002381324768 -0.2549999952316284
0.20750775933265686 0.15473197400569916 -0.2540999948978424
0.2088366150856018 0.15473197400569916 -0.2540999948978424
0.21016545593738556 0.15473197400569916 -0.2540999948978424
0.2109948992729187 0.154366597533226 -0.25349998474121094
0.1491246223449707 0.15213532745838165 -0.25200000405311584
0.17449234426021576 0.15358422696590424 -0.25439998507499695
0.17623744904994965 0.15394645929336548 -0.2549999952316284
0.1777798980474472 0.1541275680065155 -0.25529998540878296
0.17932550609111786 0.15430869162082672 -0.2556000053882599
0.18108628690242767 0.15467090904712677 -0.25619998574256897
0.18568377196788788 0.15515388548374176 -0.25699999928474426
0.18837180733680725 0.15515388548374176 -0.25699999928474426
0.1953658014535904 0.15430869162082672 -0.2556000053882599
0.1967025101184845 0.15430869162082672 -0.2556000053882599
0.1980391889810562 0.15430869162082672 -0.2556000053882599
0.19937588274478912 0.15430869162082672 -0.2556000053882599
0.20118370652198792 0.15467090904712677 -0.25619998574256897
0.20252354443073273 0.15467090904712677 -0.25619998574256897
0.20314721763134003 0.1541275680065155 -0.25529998540878296
0.20424208045005798 0.15394645929336548 -0.2549999952316284
0.20485006272792816 0.1534031182527542 -0.2540999948978424
0.20569206774234772 0.15304088592529297 -0.25349998474121094
0.20628279447555542 0.1524975448846817 -0.2525999844074249
0.2071106880903244 0.15213532745838165 -0.25200000405311584
0.2084285467863083 0.15213532745838165 -0.25200000405311584
0.2095799595117569 0.1520145833492279 -0.251800000667572
0.1493021547794342 0.15099701285362244 -0.2522999942302704
0.1742865890264511 0.15207427740097046 -0.2540999948978424
0.17582276463508606 0.15225382149219513 -0.25439998507499695
0.1777798980474472 0.15279245376586914 -0.25529998540878296
0.17932550609111786 0.152972012758255 -0.2556000053882599
0.18108628690242767 0.15333108603954315 -0.25619998574256897
0.18618953227996826 0.1542288064956665 -0.25769999623298645
0.18800532817840576 0.15351064503192902 -0.2565000057220459
0.18868236243724823 0.152972012758255 -0.2556000053882599
0.18979600071907043 0.15279245376586914 -0.25529998540878296
0.19090653955936432 0.15261290967464447 -0.2549999952316284
0.1917877495288849 0.15225382149219513 -0.25439998507499695
0.19357365369796753 0.15261290967464447 -0.2549999952316284
0.19513648748397827 0.15279245376586914 -0.25529998540878296
0.19716423749923706 0.15333108603954315 -0.25619998574256897
0.1987365037202835 0.15351064503192902 -0.2565000057220459
0.20007792115211487 0.15351064503192902 -0.2565000057220459
0.20118370652198792 0.15333108603954315 -0.25619998574256897
0.20204927027225494 0.152972012758255 -0.2556000053882599
0.20290851593017578 0.15261290967464447 -0.2549999952316284
0.2035212218761444 0.15207427740097046 -0.2540999948978424
0.20364078879356384 0.1511765420436859 -0.2525999844074249
0.20447497069835663 0.15081746876239777 -0.25200000405311584
0.20513950288295746 0.15033867955207825 -0.25119999051094055
0.20620663464069366 0.15015913546085358 -0.250900000333786
0.20751874148845673 0.15015913546085358 -0.250900000333786
0.20883086323738098 0.15015913546085358 -0.250900000333786
0.1493021547794342 0.149677574634552 -0.2522999942302704
0.17561542987823486 0.1507454216480255 -0.2540999948978424
0.17757099866867065 0.15127934515476227 -0.2549999952316284
0.17974644899368286 0.15199124813079834 -0.25619998574256897
0.1816517412662506 0.1524658501148224 -0.25699999928474426
0.18618953227996826 0.15288113057613373 -0.25769999623298645
0.18800532817840576 0.15216922760009766 -0.2565000057220459
0.18868236243724823 0.1516353040933609 -0.2556000053882599
0.18957297503948212 0.15127934515476227 -0.2549999952316284
0.19045734405517578 0.15092338621616364 -0.25439998507499695
0.19156159460544586 0.1507454216480255 -0.2540999948978424
0.1928904503583908 0.1507454216480255 -0.2540999948978424
0.1944485753774643 0.15092338621616364 -0.25439998507499695
0.19624075293540955 0.15127934515476227 -0.2549999952316284
0.1978067308664322 0.15145732462406158 -0.25529998540878296
0.19914186000823975 0.15145732462406158 -0.25529998540878296
0.20024140179157257 0.15127934515476227 -0.2549999952316284
0.2011006623506546 0.15092338621616364 -0.25439998507499695
0.20171493291854858 0.15038946270942688 -0.25349998474121094
0.20231978595256805 0.14985553920269012 -0.2525999844074249
0.20315709710121155 0.14949959516525269 -0.25200000405311584
0.20382583141326904 0.14902499318122864 -0.25119999051094055
0.2048945128917694 0.14884701371192932 -0.250900000333786
0.20596006512641907 0.14866903424263 -0.2505999803543091
0.20727059245109558 0.14866903424263 -0.2505999803543091
0.20858114957809448 0.14866903424263 -0.2505999803543091
0.1493021547794342 0.14835813641548157 -0.2522999942302704
0.17561542987823486 0.14941658079624176 -0.2540999948978424
0.17757099866867065 0.14994581043720245 -0.2549999952316284
0.17995694279670715 0.15082783997058868 -0.2565000057220459
0.1823585480451584 0.15170986950397491 -0.257999986410141
0.18640626966953278 0.15170986950397491 -0.257999986410141
0.18778541684150696 0.15065142512321472 -0.25619998574256897
0.18846088647842407 0.15012221038341522 -0.25529998540878296
0.18957297503948212 0.14994581043720245 -0.2549999952316284
0.1902327537536621 0.14941658079624176 -0.2540999948978424
0.1908831000328064 0.14888736605644226 -0.2531999945640564
0.1922072470188141 0.14888736605644226 -0.2531999945640564
0.1937606781721115 0.14906376600265503 -0.25349998474121094
0.19508638978004456 0.14906376600265503 -0.25349998474121094
0.19687697291374207 0.14941658079624176 -0.2540999948978424
0.198205828666687 0.14941658079624176 -0.2540999948978424
0.1990635097026825 0.14906376600265503 -0.25349998474121094
0.20015208423137665 0.14888736605644226 -0.2531999945640564
0.20076006650924683 0.14835813641548157 -0.2522999942302704
0.20183923840522766 0.1481817364692688 -0.25200000405311584
0.20251214504241943 0.14771130681037903 -0.25119999051094055
0.20358240604400635 0.14753490686416626 -0.250900000333786
0.20464950799942017 0.1473584920167923 -0.2505999803543091
0.20596006512641907 0.1473584920167923 -0.2505999803543091
0.20727059245109558 0.1473584920167923 -0.2505999803543091
0.20858114957809448 0.1473584920167923 -0.2505999803543091
0.1494796723127365 0.14721353352069855 -0.2525999844074249
0.15062159299850464 0.14703869819641113 -0.2522999942302704
0.17561542987823486 0.14808772504329681 -0.2540999948978424
0.1777798980474472 0.14878708124160767 -0.25529998540878296
0.18030773103237152 0.1497778296470642 -0.25699999928474426
0.18257060647010803 0.1505354642868042 -0.2583000063896179
0.18640626966953278 0.1503606140613556 -0.257999986410141
0.18778541684150696 0.1493115872144699 -0.25619998574256897
0.1882394403219223 0.14861224591732025 -0.2549999952316284
0.18890389800071716 0.14808772504329681 -0.2540999948978424
0.1895589679479599 0.14756321907043457 -0.2531999945640564
0.19020460546016693 0.14703869819641113 -0.2522999942302704
0.19129632413387299 0.14686386287212372 -0.25200000405311584
0.19261416792869568 0.14686386287212372 -0.25200000405311584
0.19416290521621704 0.14703869819641113 -0.2522999942302704
0.19548234343528748 0.14703869819641113 -0.2522999942302704
0.1968017816543579 0.14703869819641113 -0.2522999942302704
0.1978856325149536 0.14686386287212372 -0.25200000405311584
0.1992035061120987 0.14686386287212372 -0.25200000405311584
0.20012348890304565 0.14657245576381683 -0.2514999806880951
0.20143873989582062 0.14657245576381683 -0.2514999806880951
0.2022702991962433 0.1462228000164032 -0.250900000333786
0.20358240604400635 0.1462228000164032 -0.250900000333786
0.2048945128917694 0.1462228000164032 -0.250900000333786
0.20620663464069366 0.1462228000164032 -0.250900000333786
0.20751874148845673 0.1462228000164032 -0.250900000333786
0.20883086323738098 0.1462228000164032 -0.250900000333786
0.1493021547794342 0.1457192599773407 -0.2522999942302704
0.15044249594211578 0.14554598927497864 -0.25200000405311584
0.17561542987823486 0.14675886929035187 -0.2540999948978424
0.17798882722854614 0.14762522280216217 -0.2556000053882599
0.18030773103237152 0.14843380451202393 -0.25699999928474426
0.18257060647010803 0.14918464422225952 -0.2583000063896179
0.18568377196788788 0.14843380451202393 -0.25699999928474426
0.18712575733661652 0.14745193719863892 -0.25529998540878296
0.18713213503360748 0.14641232788562775 -0.25349998474121094
0.18778875470161438 0.14589251577854156 -0.2525999844074249
0.18866059184074402 0.14554598927497864 -0.25200000405311584
0.18960148096084595 0.14525720477104187 -0.2514999806880951
0.1909167468547821 0.14525720477104187 -0.2514999806880951
0.19200268387794495 0.1450839340686798 -0.25119999051094055
0.19331638514995575 0.1450839340686798 -0.25119999051094055
0.19463005661964417 0.1450839340686798 -0.25119999051094055
0.19594374299049377 0.1450839340686798 -0.25119999051094055
0.1972574144601822 0.1450839340686798 -0.25119999051094055
0.1983339637517929 0.14491067826747894 -0.250900000333786
0.19964607059955597 0.14491067826747894 -0.250900000333786
0.20119845867156982 0.1450839340686798 -0.25119999051094055
0.20251214504241943 0.1450839340686798 -0.25119999051094055
0.20382583141326904 0.1450839340686798 -0.25119999051094055
0.20538447797298431 0.14525720477104187 -0.2514999806880951
0.20669974386692047 0.14525720477104187 -0.2514999806880951
0.20826312899589539 0.14543047547340393 -0.251800000667572
0.20999611914157867 0.1457192599773407 -0.2522999942302704
0.1491246223449707 0.14422814548015594 -0.25200000405311584
0.15032309293746948 0.1441136747598648 -0.251800000667572
0.17520074546337128 0.1450866311788559 -0.25349998474121094
0.1777798980474472 0.14611682295799255 -0.25529998540878296
0.17932550609111786 0.14628854393959045 -0.2556000053882599
0.18108628690242767 0.14663192629814148 -0.25619998574256897
0.1842387616634369 0.14594513177871704 -0.2549999952316284
0.18558654189109802 0.14491493999958038 -0.2531999945640564
0.18602485954761505 0.14422814548015594 -0.25200000405311584
0.18697097897529602 0.1439419537782669 -0.2514999806880951
0.1880616545677185 0.1437702625989914 -0.25119999051094055
0.1891491711139679 0.14359857141971588 -0.250900000333786
0.19046129286289215 0.14359857141971588 -0.250900000333786
0.1917733997106552 0.14359857141971588 -0.250900000333786
0.19308552145957947 0.14359857141971588 -0.250900000333786
0.19439761340618134 0.14359857141971588 -0.250900000333786
0.1957097351551056 0.14359857141971588 -0.250900000333786
0.19678625464439392 0.14342685043811798 -0.2505999803543091
0.1983339637517929 0.14359857141971588 -0.250900000333786
0.19964607059955597 0.14359857141971588 -0.250900000333786
0.20119845867156982 0.1437702625989914 -0.25119999051094055
0.20275399088859558 0.1439419537782669 -0.2514999806880951
0.20431268215179443 0.1441136747598648 -0.251800000667572
0.20603780448436737 0.14439983665943146 -0.2522999942302704
0.2080969214439392 0.14491493999958038 -0.2531999945640564
0.21041357517242432 0.14560173451900482 -0.25439998507499695
0.21249309182167053 0.14611682295799255 -0.25529998540878296
0.14882872998714447 0.14262670278549194 -0.2514999806880951
0.15014399588108063 0.14262670278549194 -0.2514999806880951
0.1743713915348053 0.14308039844036102 -0.2522999942302704
0.17589974403381348 0.14325051009655 -0.2525999844074249
0.17722073197364807 0.14325051009655 -0.2525999844074249
0.1783297061920166 0.14308039844036102 -0.2522999942302704
0.182071253657341 0.14291027188301086 -0.25200000405311584
0.1843404918909073 0.14262670278549194 -0.2514999806880951
0.18543429672718048 0.14245657622814178 -0.25119999051094055
0.18652494251728058 0.14228644967079163 -0.250900000333786
0.18783706426620483 0.14228644967079163 -0.250900000333786
0.1891491711139679 0.14228644967079163 -0.250900000333786
0.19046129286289215 0.14228644967079163 -0.250900000333786
0.1915440708398819 0.14211630821228027 -0.2505999803543091
0.19308552145957947 0.14228644967079163 -0.250900000333786
0.19439761340618134 0.14228644967079163 -0.250900000333786
0.1954757124185562 0.14211630821228027 -0.2505999803543091
0.19678625464439392 0.14211630821228027 -0.2505999803543091
0.19809679687023163 0.14211630821228027 -0.2505999803543091
0.19964607059955597 0.14228644967079163 -0.250900000333786
0.20119845867156982 0.14245657622814178 -0.25119999051094055
0.20299585163593292 0.1427968442440033 -0.251800000667572
0.20471838116645813 0.14308039844036102 -0.2522999942302704
0.20750775933265686 0.14410117268562317 -0.2540999948978424
0.2095762938261032 0.14461156725883484 -0.2549999952316284
0.21190235018730164 0.14529208838939667 -0.25619998574256897
0.21390806138515472 0.14574578404426575 -0.25699999928474426
0.16967011988162994 0.14114290475845337 -0.25119999051094055
0.17077960073947906 0.14097434282302856 -0.250900000333786
0.17209172248840332 0.14097434282302856 -0.250900000333786
0.18390072882175446 0.14097434282302856 -0.250900000333786
0.18521283566951752 0.14097434282302856 -0.250900000333786
0.18630190193653107 0.14080576598644257 -0.2505999803543091
0.18761245906352997 0.14080576598644257 -0.2505999803543091
0.18892298638820648 0.14080576598644257 -0.2505999803543091
0.19023354351520538 0.14080576598644257 -0.2505999803543091
0.1915440708398819 0.14080576598644257 -0.2505999803543091
0.19308552145957947 0.14097434282302856 -0.250900000333786
0.19439761340618134 0.14097434282302856 -0.250900000333786
0.1957097351551056 0.14097434282302856 -0.250900000333786
0.19678625464439392 0.14080576598644257 -0.2505999803543091
0.1983339637517929 0.14097434282302856 -0.250900000333786
0.19964607059955597 0.14097434282302856 -0.250900000333786
0.20143873989582062 0.14131145179271698 -0.2514999806880951
0.20315709710121155 0.14159241318702698 -0.25200000405311584
0.20544864237308502 0.142266646027565 -0.2531999945640564
0.208242729306221 0.14327803254127502 -0.2549999952316284
0.21056252717971802 0.14395226538181305 -0.25619998574256897
0.2128121554851532 0.14457033574581146 -0.2572999894618988
0.21474036574363708 0.14496365189552307 -0.257999986410141
0.15878048539161682 0.13949522376060486 -0.2505999803543091
0.16140156984329224 0.13949522376060486 -0.2505999803543091
0.1727818101644516 0.13916124403476715 -0.25
0.17996439337730408 0.1396622210741043 -0.250900000333786
0.18127650022506714 0.1396622210741043 -0.250900000333786
0.18390072882175446 0.1396622210741043 -0.250900000333786
0.18499137461185455 0.13949522376060486 -0.2505999803543091
0.18630190193653107 0.13949522376060486 -0.2505999803543091
0.18761245906352997 0.13949522376060486 -0.2505999803543091
0.18892298638820648 0.13949522376060486 -0.2505999803543091
0.19023354351520538 0.13949522376060486 -0.2505999803543091
0.1917733997106552 0.1396622210741043 -0.250900000333786
0.19308552145957947 0.1396622210741043 -0.250900000333786
0.19439761340618134 0.1396622210741043 -0.250900000333786
0.1957097351551056 0.1396622210741043 -0.250900000333786
0.19702184200286865 0.1396622210741043 -0.250900000333786
0.1983339637517929 0.1396622210741043 -0.250900000333786
0.20012348890304565 0.13999620079994202 -0.2514999806880951
0.20183923840522766 0.1402745395898819 -0.25200000405311584
0.20364078879356384 0.1406085193157196 -0.2525999844074249
0.2061789184808731 0.14144349098205566 -0.2540999948978424
0.20848771929740906 0.14211145043373108 -0.25529998540878296
0.21080909669399261 0.14277943968772888 -0.2565000057220459
0.2131430059671402 0.1434474140405655 -0.25769999623298645
0.21499009430408478 0.1437813937664032 -0.2583000063896179
0.17974919080734253 0.13818468153476715 -0.2505999803543091
0.18105973303318024 0.13818468153476715 -0.2505999803543091
0.1825886219739914 0.13835011422634125 -0.250900000333786
0.18368081748485565 0.13818468153476715 -0.2505999803543091
0.18499137461185455 0.13818468153476715 -0.2505999803543091
0.18630190193653107 0.13818468153476715 -0.2505999803543091
0.18761245906352997 0.13818468153476715 -0.2505999803543091
0.18892298638820648 0.13818468153476715 -0.2505999803543091
0.19023354351520538 0.13818468153476715 -0.2505999803543091
0.1915440708398819 0.13818468153476715 -0.2505999803543091
0.19308552145957947 0.13835011422634125 -0.250900000333786
0.19439761340618134 0.13835011422634125 -0.250900000333786
0.19594374299049377 0.13851553201675415 -0.25119999051094055
0.19749298691749573 0.13868096470832825 -0.2514999806880951
0.1988082379102707 0.13868096470832825 -0.2514999806880951
0.20052136480808258 0.138956680893898 -0.25200000405311584
0.20231978595256805 0.13928751647472382 -0.2525999844074249
0.20436634123325348 0.13978378474712372 -0.25349998474121094
0.2064223289489746 0.14028006792068481 -0.25439998507499695
0.2087327241897583 0.1409417688846588 -0.2556000053882599
0.21080909669399261 0.1414380520582199 -0.2565000057220459
0.2131430059671402 0.14209973812103271 -0.25769999623298645
0.21474036574363708 0.14226515591144562 -0.257999986410141
0.1753966212272644 0.13654643297195435 -0.25
0.17712810635566711 0.13687413930892944 -0.2505999803543091
0.17843864858150482 0.13687413930892944 -0.2505999803543091
0.17974919080734253 0.13687413930892944 -0.2505999803543091
0.18607889115810394 0.1367102861404419 -0.25029999017715454
0.1873878687620163 0.1367102861404419 -0.25029999017715454
0.18869683146476746 0.1367102861404419 -0.25029999017715454
0.19023354351520538 0.13687413930892944 -0.2505999803543091
0.1915440708398819 0.13687413930892944 -0.2505999803543091
0.19308552145957947 0.13703800737857819 -0.250900000333786
0.1948624849319458 0.1373656988143921 -0.2514999806880951
0.19641177356243134 0.13752956688404083 -0.251800000667572
0.1978856325149536 0.13763880729675293 -0.25200000405311584
0.19944064319133759 0.13780266046524048 -0.2522999942302704
0.20147621631622314 0.13829421997070312 -0.2531999945640564
0.20304064452648163 0.13845807313919067 -0.25349998474121094
0.2050919085741043 0.13894964754581451 -0.25439998507499695
0.2071526050567627 0.13944120705127716 -0.25529998540878296
0.2087327241897583 0.1396050751209259 -0.2556000053882599
0.21056252717971802 0.139932781457901 -0.25619998574256897
0.21215049922466278 0.14009664952754974 -0.2565000057220459
0.21390806138515472 0.1403697282075882 -0.25699999928474426
0.17865227162837982 0.13572590053081512 -0.250900000333786
0.17974919080734253 0.13556359708309174 -0.2505999803543091
0.18105973303318024 0.13556359708309174 -0.2505999803543091
0.18193365633487701 0.13523903489112854 -0.25
0.18324105441570282 0.13523903489112854 -0.25
0.18454846739768982 0.13523903489112854 -0.25
0.18585586547851562 0.13523903489112854 -0.25
0.18716327846050262 0.13523903489112854 -0.25
0.18847067654132843 0.13523903489112854 -0.25
0.19023354351520538 0.13556359708309174 -0.2505999803543091
0.1915440708398819 0.13556359708309174 -0.2505999803543091
0.19308552145957947 0.13572590053081512 -0.250900000333786
0.1948624849319458 0.13605046272277832 -0.2514999806880951
0.19656777381896973 0.13632094860076904 -0.25200000405311584
0.1983567774295807 0.13664551079273224 -0.2525999844074249
0.20015208423137665 0.13697008788585663 -0.2531999945640564
0.20171493291854858 0.13713237643241882 -0.25349998474121094
0.2037615031003952 0.1376192271709442 -0.25439998507499695
0.205575630068779 0.1379438191652298 -0.2549999952316284
0.2069091796875 0.1379438191652298 -0.2549999952316284
0.208242729306221 0.1379438191652298 -0.2549999952316284
0.2098228484392166 0.1381060928106308 -0.25529998540878296
0.21115796267986298 0.1381060928106308 -0.25529998540878296
0.21274280548095703 0.1382683962583542 -0.2556000053882599
0.1817881017923355 0.13382446765899658 -0.24979999661445618
0.18287456035614014 0.13366375863552094 -0.24949999153614044
0.1841793656349182 0.13366375863552094 -0.24949999153614044
0.1857071816921234 0.13382446765899658 -0.24979999661445618
0.18701355159282684 0.13382446765899658 -0.24979999661445618
0.18847067654132843 0.13393162190914154 -0.25
0.1900058090686798 0.1340923309326172 -0.25029999017715454
0.1915440708398819 0.13425303995609283 -0.2505999803543091
0.19308552145957947 0.13441377878189087 -0.250900000333786
0.1948624849319458 0.13473519682884216 -0.2514999806880951
0.19656777381896973 0.13500307500362396 -0.25200000405311584
0.1983567774295807 0.13532450795173645 -0.2525999844074249
0.20038922131061554 0.13580664992332458 -0.25349998474121094
0.20219236612319946 0.13612809777259827 -0.2540999948978424
0.2037615031003952 0.1362888067960739 -0.25439998507499695
0.2050919085741043 0.1362888067960739 -0.25439998507499695
0.2064223289489746 0.1362888067960739 -0.25439998507499695
0.20750775933265686 0.13612809777259827 -0.2540999948978424
0.2088366150856018 0.13612809777259827 -0.2540999948978424
0.21016545593738556 0.13612809777259827 -0.2540999948978424
0.2114942967891693 0.13612809777259827 -0.2540999948978424
0.1793188452720642 0.13262422382831573 -0.25
0.18048174679279327 0.13251812756061554 -0.24979999661445618
0.18156978487968445 0.13235896825790405 -0.24949999153614044
0.18265467882156372 0.13219982385635376 -0.2491999864578247
0.18395790457725525 0.13219982385635376 -0.2491999864578247
0.1854841411113739 0.13235896825790405 -0.24949999153614044
0.18678894639015198 0.13235896825790405 -0.24949999153614044
0.18831989169120789 0.13251812756061554 -0.24979999661445618
0.18977808952331543 0.13262422382831573 -0.25
0.1915440708398819 0.13294251263141632 -0.2505999803543091
0.19308552145957947 0.1331016719341278 -0.250900000333786
0.19509494304656982 0.13357912003993988 -0.251800000667572
0.1968017816543579 0.13384436070919037 -0.2522999942302704
0.1983567774295807 0.13400350511074066 -0.2525999844074249
0.20038922131061554 0.13448095321655273 -0.25349998474121094
0.20171493291854858 0.13448095321655273 -0.25349998474121094
0.2035212218761444 0.13479925692081451 -0.2540999948978424
0.20485006272792816 0.13479925692081451 -0.2540999948978424
0.2061789184808731 0.13479925692081451 -0.2540999948978424
0.20677277445793152 0.13432180881500244 -0.2531999945640564
0.2080969214439392 0.13432180881500244 -0.2531999945640564
0.208924800157547 0.13400350511074066 -0.2525999844074249
0.21024580299854279 0.13400350511074066 -0.2525999844074249
0.17953401803970337 0.13147439062595367 -0.25029999017715454
0.18048174679279327 0.1312117576599121 -0.24979999661445618
0.1813514530658722 0.13089658319950104 -0.2491999864578247
0.18265467882156372 0.13089658319950104 -0.2491999864578247
0.18395790457725525 0.13089658319950104 -0.2491999864578247
0.1854841411113739 0.13105417788028717 -0.24949999153614044
0.18678894639015198 0.13105417788028717 -0.24949999153614044
0.18831989169120789 0.1312117576599121 -0.24979999661445618
0.18977808952331543 0.13131681084632874 -0.25
0.1915440708398819 0.13163195550441742 -0.2505999803543091
0.19308552145957947 0.13178955018520355 -0.250900000333786
0.19509494304656982 0.13226228952407837 -0.251800000667572
0.1968017816543579 0.13252492249011993 -0.2522999942302704
0.1983567774295807 0.13268250226974487 -0.2525999844074249
0.20015208423137665 0.13299766182899475 -0.2531999945640564
0.20171493291854858 0.1331552416086197 -0.25349998474121094
0.20280036330223083 0.13299766182899475 -0.2531999945640564
0.20412449538707733 0.13299766182899475 -0.2531999945640564
0.20496179163455963 0.13268250226974487 -0.2525999844074249
0.20603780448436737 0.13252492249011993 -0.2522999942302704
0.2071106880903244 0.132367342710495 -0.25200000405311584
0.2084285467863083 0.132367342710495 -0.25200000405311584
0.2095799595117569 0.13226228952407837 -0.251800000667572
0.1598576158285141 0.1312054991722107 -0.2522999942302704
0.17974919080734253 0.1303214281797409 -0.2505999803543091
0.18048174679279327 0.12990540266036987 -0.24979999661445618
0.18156978487968445 0.1297493875026703 -0.24949999153614044
0.1841793656349182 0.1297493875026703 -0.24949999153614044
0.1854841411113739 0.1297493875026703 -0.24949999153614044
0.18701355159282684 0.12990540266036987 -0.24979999661445618
0.18847067654132843 0.13000941276550293 -0.25
0.19023354351520538 0.1303214281797409 -0.2505999803543091
0.1917733997106552 0.1304774433374405 -0.250900000333786
0.19331638514995575 0.13063345849514008 -0.25119999051094055
0.19509494304656982 0.13094547390937805 -0.251800000667572
0.19656777381896973 0.1310494840145111 -0.25200000405311584
0.1983567774295807 0.13136149942874908 -0.2525999844074249
0.20015208423137665 0.13167352974414825 -0.2531999945640564
0.20147621631622314 0.13167352974414825 -0.2531999945640564
0.20280036330223083 0.13167352974414825 -0.2531999945640564
0.20364078879356384 0.13136149942874908 -0.2525999844074249
0.20471838116645813 0.1312054991722107 -0.2522999942302704
0.20579282939434052 0.1310494840145111 -0.25200000405311584
0.20694631338119507 0.13094547390937805 -0.251800000667572
0.20801497995853424 0.13078945875167847 -0.2514999806880951
0.2090805470943451 0.13063345849514008 -0.25119999051094055
0.17974919080734253 0.129010871052742 -0.2505999803543091
0.18062624335289001 0.12870199978351593 -0.25
0.18156978487968445 0.1284445971250534 -0.24949999153614044
0.18287456035614014 0.1284445971250534 -0.24949999153614044
0.1841793656349182 0.1284445971250534 -0.24949999153614044
0.1857071816921234 0.12859903275966644 -0.24979999661445618
0.18716327846050262 0.12870199978351593 -0.25
0.18869683146476746 0.12885643541812897 -0.25029999017715454
0.19046129286289215 0.12916532158851624 -0.250900000333786
0.1917733997106552 0.12916532158851624 -0.250900000333786
0.19354724884033203 0.1294742077589035 -0.2514999806880951
0.19509494304656982 0.12962865829467773 -0.251800000667572
0.1968017816543579 0.12988606095314026 -0.2522999942302704
0.1983567774295807 0.1300404965877533 -0.2525999844074249
0.20015208423137665 0.13034938275814056 -0.2531999945640564
0.20147621631622314 0.13034938275814056 -0.2531999945640564
0.20280036330223083 0.13034938275814056 -0.2531999945640564
0.20364078879356384 0.1300404965877533 -0.2525999844074249
0.20447497069835663 0.12973162531852722 -0.25200000405311584
0.20579282939434052 0.12973162531852722 -0.25200000405311584
0.20694631338119507 0.12962865829467773 -0.251800000667572
0.20801497995853424 0.1294742077589035 -0.2514999806880951
0.2090805470943451 0.12931975722312927 -0.25119999051094055
0.18062624335289001 0.12739460170269012 -0.25
0.1817881017923355 0.1272926777601242 -0.24979999661445618
0.18440082669258118 0.1272926777601242 -0.24979999661445618
0.18585586547851562 0.12739460170269012 -0.25
0.18761245906352997 0.1277003437280655 -0.2505999803543091
0.18892298638820648 0.1277003437280655 -0.2505999803543091
0.19046129286289215 0.12785322964191437 -0.250900000333786
0.19200268387794495 0.12800608575344086 -0.25119999051094055
0.1937781274318695 0.12831184267997742 -0.251800000667572
0.19524990022182465 0.12841376662254333 -0.25200000405311584
0.1970357745885849 0.1287194937467575 -0.2525999844074249
0.1990635097026825 0.12917812168598175 -0.25349998474121094
0.2008635252714157 0.12948386371135712 -0.2540999948978424
0.20219236612319946 0.12948386371135712 -0.2540999948978424
0.20304064452648163 0.12917812168598175 -0.25349998474121094
0.20412449538707733 0.12902525067329407 -0.2531999945640564
0.20471838116645813 0.12856662273406982 -0.2522999942302704
0.20603780448436737 0.12856662273406982 -0.2522999942302704
0.20694631338119507 0.12831184267997742 -0.251800000667572
0.20826312899589539 0.12831184267997742 -0.251800000667572
0.2090805470943451 0.12800608575344086 -0.25119999051094055
0.18630190193653107 0.1263897866010666 -0.2505999803543091
0.18761245906352997 0.1263897866010666 -0.2505999803543091
0.1891491711139679 0.1265411078929901 -0.250900000333786
0.19068901240825653 0.12669239938259125 -0.25119999051094055
0.19223198294639587 0.12684370577335358 -0.2514999806880951
0.1937781274318695 0.1269950121641159 -0.251800000667572
0.19524990022182465 0.12709589302539825 -0.25200000405311584
0.1970357745885849 0.12739849090576172 -0.2525999844074249
0.1990635097026825 0.1278523951768875 -0.25349998474121094
0.2011006623506546 0.1283063143491745 -0.25439998507499695
0.2024310827255249 0.1283063143491745 -0.25439998507499695
0.2037615031003952 0.1283063143491745 -0.25439998507499695
0.20436634123325348 0.1278523951768875 -0.25349998474121094
0.20544864237308502 0.12770110368728638 -0.2531999945640564
0.20677277445793152 0.12770110368728638 -0.2531999945640564
0.2071106880903244 0.12709589302539825 -0.25200000405311584
0.2084285467863083 0.12709589302539825 -0.25200000405311584
0.2093302458524704 0.12684370577335358 -0.2514999806880951
0.18652494251728058 0.12522900104522705 -0.250900000333786
0.18783706426620483 0.12522900104522705 -0.250900000333786
0.18937532603740692 0.12537872791290283 -0.25119999051094055
0.1909167468547821 0.1255284547805786 -0.2514999806880951
0.19223198294639587 0.1255284547805786 -0.2514999806880951
0.1937781274318695 0.12567821145057678 -0.251800000667572
0.19524990022182465 0.12577803432941437 -0.25200000405311584
0.1970357745885849 0.12607748806476593 -0.2525999844074249
0.1990635097026825 0.12652669847011566 -0.25349998474121094
0.2011006623506546 0.1269759088754654 -0.25439998507499695
0.2024310827255249 0.1269759088754654 -0.25439998507499695
0.2037615031003952 0.1269759088754654 -0.25439998507499695
0.20485006272792816 0.1268261820077896 -0.2540999948978424
0.20569206774234772 0.12652669847011566 -0.25349998474121094
0.20701776444911957 0.12652669847011566 -0.25349998474121094
0.2076037973165512 0.12607748806476593 -0.2525999844074249
0.20867666602134705 0.12592776119709015 -0.2522999942302704
0.20974642038345337 0.12577803432941437 -0.25200000405311584
0.18521283566951752 0.12391688674688339 -0.250900000333786
0.1867479681968689 0.12406504899263382 -0.25119999051094055
0.18828624486923218 0.12421321123838425 -0.2514999806880951
0.18960148096084595 0.12421321123838425 -0.2514999806880951
0.1909167468547821 0.12421321123838425 -0.2514999806880951
0.19223198294639587 0.12421321123838425 -0.2514999806880951
0.1937781274318695 0.12436138838529587 -0.251800000667572
0.19509494304656982 0.12436138838529587 -0.251800000667572
0.19656777381896973 0.12446016818284988 -0.25200000405311584
0.1983567774295807 0.12475649267435074 -0.2525999844074249
0.20038922131061554 0.12520098686218262 -0.25349998474121094
0.20171493291854858 0.12520098686218262 -0.25349998474121094
0.2035212218761444 0.12549732625484467 -0.2540999948978424
0.20485006272792816 0.12549732625484467 -0.2540999948978424
0.20569206774234772 0.12520098686218262 -0.25349998474121094
0.20677277445793152 0.1250528246164322 -0.2531999945640564
0.2080969214439392 0.1250528246164322 -0.2531999945640564
0.208924800157547 0.12475649267435074 -0.2525999844074249
0.21024580299854279 0.12475649267435074 -0.2525999844074249
0.1858772188425064 0.12304456532001495 -0.251800000667572
0.18719403445720673 0.12304456532001495 -0.251800000667572
0.18851085007190704 0.12304456532001495 -0.251800000667572
0.18982766568660736 0.12304456532001495 -0.251800000667572
0.19114449620246887 0.12304456532001495 -0.251800000667572
0.19223198294639587 0.12289796024560928 -0.2514999806880951
0.19354724884033203 0.12289796024560928 -0.2514999806880951
0.1948624849319458 0.12289796024560928 -0.2514999806880951
0.19641177356243134 0.12304456532001495 -0.251800000667572
0.1978856325149536 0.1231423020362854 -0.25200000405311584
0.19944064319133759 0.12328889220952988 -0.2522999942302704
0.20099878311157227 0.12343548983335495 -0.2525999844074249
0.20280036330223083 0.1237286850810051 -0.2531999945640564
0.20412449538707733 0.1237286850810051 -0.2531999945640564
0.20544864237308502 0.1237286850810051 -0.2531999945640564
0.20628279447555542 0.12343548983335495 -0.2525999844074249
0.2080969214439392 0.1237286850810051 -0.2531999945640564
0.2094210684299469 0.1237286850810051 -0.2531999945640564
0.2107452154159546 0.1237286850810051 -0.2531999945640564
0.1845603883266449 0.12172774970531464 -0.251800000667572
0.18602485954761505 0.12182443588972092 -0.25200000405311584
0.18756572902202606 0.12196946144104004 -0.2522999942302704
0.18280692398548126 0.11749663949012756 -0.25119999051094055
0.18630190193653107 0.11328436434268951 -0.2505999803543091
0.18761245906352997 0.11328436434268951 -0.2505999803543091
0.18892298638820648 0.11328436434268951 -0.2505999803543091
0.19023354351520538 0.11328436434268951 -0.2505999803543091
0.1915440708398819 0.11328436434268951 -0.2505999803543091
0.19308552145957947 0.11341998726129532 -0.250900000333786
0.19439761340618134 0.11341998726129532 -0.250900000333786
0.1957097351551056 0.11341998726129532 -0.250900000333786
0.19702184200286865 0.11341998726129532 -0.250900000333786
0.1985711008310318 0.11355560272932053 -0.25119999051094055
0.19988477230072021 0.11355560272932053 -0.25119999051094055
0.20119845867156982 0.11355560272932053 -0.25119999051094055
0.2022702991962433 0.11341998726129532 -0.250900000333786
0.20358240604400635 0.11341998726129532 -0.250900000333786
0.2048945128917694 0.11341998726129532 -0.250900000333786
0.20596006512641907 0.11328436434268951 -0.2505999803543091
0.20702247321605682 0.1131487488746643 -0.25029999017715454
0.20808176696300507 0.1130131408572197 -0.25
0.16941826045513153 0.10210265219211578 -0.24889999628067017
0.18189096450805664 0.0959227979183197 -0.24639999866485596
-0.1192394569516182 -0.020762357860803604 -0.22609999775886536
-0.11821366846561432 -0.02078990638256073 -0.2263999879360199
-0.11713307350873947 -0.020808272063732147 -0.22659999132156372
-0.11594803631305695 -0.020808272063732147 -0.22659999132156372
-0.11450978368520737 -0.020762357860803604 -0.22609999775886536
-0.11332736164331436 -0.020762357860803604 -0.22609999775886536
-0.11194653809070587 -0.02072562649846077 -0.2256999909877777
-0.11061899363994598 -0.020698079839348793 -0.22540000081062317
-0.10944022983312607 -0.020698079839348793 -0.22540000081062317
-0.10816541314125061 -0.020679712295532227 -0.22519999742507935
-0.10698769986629486 -0.020679712295532227 -0.22519999742507935
-0.10590396076440811 -0.020698079839348793 -0.22540000081062317
-0.1198832169175148 -0.021634189411997795 -0.22289998829364777
-0.1193566545844078 -0.021750660613179207 -0.2240999937057495
-0.11865933984518051 -0.021838011220097542 -0.22499999403953552
-0.11758709698915482 -0.021857423707842827 -0.22519999742507935
-0.11651278287172318 -0.021876836195588112 -0.22540000081062317
-0.11548751592636108 -0.02190595306456089 -0.2256999909877777
-0.11430720239877701 -0.02190595306456089 -0.2256999909877777
-0.11312686651945114 -0.02190595306456089 -0.2256999909877777
-0.1117977499961853 -0.021876836195588112 -0.22540000081062317
-0.11052083224058151 -0.021857423707842827 -0.22519999742507935
-0.10934312641620636 -0.021857423707842827 -0.22519999742507935
-0.10806935280561447 -0.021838011220097542 -0.22499999403953552
-0.10689268261194229 -0.021838011220097542 -0.22499999403953552
-0.10571601986885071 -0.021838011220097542 -0.22499999403953552
-0.10463228076696396 -0.021857423707842827 -0.22519999742507935
-0.10345456749200821 -0.021857423707842827 -0.22519999742507935
-0.10227686166763306 -0.021857423707842827 -0.22519999742507935
-0.11855080723762512 -0.02232935093343258 -0.218299999833107
-0.11685340851545334 -0.022441865876317024 -0.21939998865127563
-0.11649710685014725 -0.022595299407839775 -0.22089999914169312
-0.11638616025447845 -0.02279987372457981 -0.22289998829364777
-0.10934312641620636 -0.023035135120153427 -0.22519999742507935
-0.10806935280561447 -0.023014677688479424 -0.22499999403953552
-0.10689268261194229 -0.023014677688479424 -0.22499999403953552
-0.10571601986885071 -0.023014677688479424 -0.22499999403953552
-0.10453935712575912 -0.023014677688479424 -0.22499999403953552
-0.10345456749200821 -0.023035135120153427 -0.22519999742507935
-0.10227686166763306 -0.023035135120153427 -0.22519999742507935
-0.11947311460971832 -0.023427970707416534 -0.21789999306201935
-0.11795343458652496 -0.02335270866751671 -0.21719999611377716
-0.11670999974012375 -0.023331204429268837 -0.21699999272823334
-0.11589471995830536 -0.023395715281367302 -0.2175999879837036
-0.10689268261194229 -0.024191342294216156 -0.22499999403953552
-0.10571601986885071 -0.024191342294216156 -0.22499999403953552
-0.10453935712575912 -0.024191342294216156 -0.22499999403953552
-0.10336268693208694 -0.024191342294216156 -0.22499999403953552
-0.10227686166763306 -0.024212846532464027 -0.22519999742507935
-0.10109914839267731 -0.024212846532464027 -0.22519999742507935
-0.12270206212997437 -0.02475917525589466 -0.21959999203681946
-0.12083406001329422 -0.024612605571746826 -0.218299999833107
-0.11908931285142899 -0.024488583207130432 -0.21719999611377716
-0.1176275983452797 -0.024420935660600662 -0.21660000085830688
-0.10571601986885071 -0.02536800689995289 -0.22499999403953552
-0.10453935712575912 -0.02536800689995289 -0.22499999403953552
-0.10336268693208694 -0.02536800689995289 -0.22499999403953552
-0.10227686166763306 -0.02539055608212948 -0.22519999742507935
-0.10109914839267731 -0.02539055608212948 -0.22519999742507935
-0.10001017898321152 -0.025413107126951218 -0.22540000081062317
-0.12807266414165497 -0.02654467150568962 -0.22499999403953552
-0.12621921300888062 -0.026403099298477173 -0.22379998862743378
-0.12370782345533371 -0.026119956746697426 -0.22139999270439148
-0.1211661696434021 -0.02582501620054245 -0.21889999508857727
-0.11947311460971832 -0.02570703998208046 -0.21789999306201935
-0.1173560619354248 -0.025494681671261787 -0.21609999239444733
-0.10453935712575912 -0.02654467150568962 -0.22499999403953552
-0.10336268693208694 -0.02654467150568962 -0.22499999403953552
-0.10227686166763306 -0.02656826749444008 -0.22519999742507935
-0.10109914839267731 -0.02656826749444008 -0.22519999742507935
-0.09992143511772156 -0.02656826749444008 -0.22519999742507935
-0.0987437292933464 -0.02656826749444008 -0.22519999742507935
-0.06951636075973511 -0.026650849729776382 -0.22589999437332153
-0.06827449053525925 -0.026627255603671074 -0.2256999909877777
-0.0670049786567688 -0.026591863483190536 -0.22540000081062317
-0.06582622230052948 -0.026591863483190536 -0.22540000081062317
-0.06479087471961975 -0.026650849729776382 -0.22589999437332153
-0.06360950320959091 -0.026650849729776382 -0.22589999437332153
-0.062483400106430054 -0.02667444571852684 -0.22609999775886536
-0.06130098178982735 -0.02667444571852684 -0.22609999775886536
-0.06011856347322464 -0.02667444571852684 -0.22609999775886536
-0.12807266414165497 -0.027721336111426353 -0.22499999403953552
-0.126501202583313 -0.02763509377837181 -0.22429999709129333
-0.12432245165109634 -0.027413321658968925 -0.2224999964237213
-0.12177504599094391 -0.027105307206511497 -0.2199999988079071
-0.11969243735074997 -0.026895858347415924 -0.218299999833107
-0.10336268693208694 -0.027721336111426353 -0.22499999403953552
-0.10227686166763306 -0.02774597890675068 -0.22519999742507935
-0.10109914839267731 -0.02774597890675068 -0.22519999742507935
-0.09992143511772156 -0.02774597890675068 -0.22519999742507935
-0.0987437292933464 -0.02774597890675068 -0.22519999742507935
-0.07548999786376953 -0.027856864035129547 -0.22609999775886536
-0.07424185425043106 -0.02783222310245037 -0.22589999437332153
-0.07299579679965973 -0.027807580307126045 -0.2256999909877777
-0.07165637612342834 -0.02774597890675068 -0.22519999742507935
-0.07035347819328308 -0.027696695178747177 -0.2247999906539917
-0.0689624473452568 -0.027610450983047485 -0.2240999937057495
-0.06751824170351028 -0.027499565854668617 -0.2231999933719635
-0.06011856347322464 -0.027856864035129547 -0.22609999775886536
-0.05893614515662193 -0.027856864035129547 -0.22609999775886536
-0.057753730565309525 -0.027856864035129547 -0.22609999775886536
-0.12924931943416595 -0.028898002579808235 -0.22499999403953552
-0.12807266414165497 -0.028898002579808235 -0.22499999403953552
-0.12678319215774536 -0.02887231484055519 -0.2247999906539917
-0.12504883110523224 -0.02874387800693512 -0.22379998862743378
-0.12266068160533905 -0.02846132032573223 -0.2215999960899353
-0.10336268693208694 -0.028898002579808235 -0.22499999403953552
-0.10218602418899536 -0.028898002579808235 -0.22499999403953552
-0.10100936144590378 -0.028898002579808235 -0.22499999403953552
-0.0998326987028122 -0.028898002579808235 -0.22499999403953552
-0.09865602850914001 -0.028898002579808235 -0.22499999403953552
-0.09747936576604843 -0.028898002579808235 -0.22499999403953552
-0.08007774502038956 -0.028987906873226166 -0.2256999909877777
-0.07896734029054642 -0.02901359461247921 -0.22589999437332153
-0.07778596878051758 -0.02901359461247921 -0.22589999437332153
-0.060065384954214096 -0.02901359461247921 -0.22589999437332153
-0.05888401344418526 -0.02901359461247921 -0.22589999437332153
-0.05770264193415642 -0.02901359461247921 -0.22589999437332153
-0.1291344314813614 -0.030047932639718056 -0.2247999906539917
-0.12807266414165497 -0.030074667185544968 -0.22499999403953552
-0.1268959939479828 -0.030074667185544968 -0.22499999403953552
-0.1253282129764557 -0.02998110093176365 -0.22429999709129333
-0.12315884977579117 -0.029740504920482635 -0.2224999964237213
-0.12078902125358582 -0.029446439817547798 -0.22029998898506165
-0.10218602418899536 -0.030074667185544968 -0.22499999403953552
-0.10100936144590378 -0.030074667185544968 -0.22499999403953552
-0.0998326987028122 -0.030074667185544968 -0.22499999403953552
-0.09865602850914001 -0.030074667185544968 -0.22499999403953552
-0.09747936576604843 -0.030074667185544968 -0.22499999403953552
-0.08284071087837219 -0.02988753654062748 -0.22360000014305115
-0.08200009167194366 -0.03000783547759056 -0.22450000047683716
-0.08100605756044388 -0.030074667185544968 -0.22499999403953552
-0.07889742404222488 -0.030168231576681137 -0.2256999909877777
-0.060065384954214096 -0.03019496612250805 -0.22589999437332153
-0.05888401344418526 -0.03019496612250805 -0.22589999437332153
-0.05770264193415642 -0.03019496612250805 -0.22589999437332153
-0.1301361620426178 -0.031181884929537773 -0.22450000047683716
-0.12896209955215454 -0.031181884929537773 -0.22450000047683716
-0.12807266414165497 -0.03125132992863655 -0.22499999403953552
-0.1268959939479828 -0.03125132992863655 -0.22499999403953552
-0.12543995678424835 -0.031181884929537773 -0.22450000047683716
-0.12376773357391357 -0.031056879088282585 -0.22360000014305115
-0.10218602418899536 -0.03125132992863655 -0.22499999403953552
-0.10100936144590378 -0.03125132992863655 -0.22499999403953552
-0.0998326987028122 -0.03125132992863655 -0.22499999403953552
-0.09856833517551422 -0.03122355230152607 -0.2247999906539917
-0.09726274758577347 -0.031181884929537773 -0.22450000047683716
-0.09600309282541275 -0.031154105439782143 -0.22429999709129333
-0.08318347483873367 -0.030751310288906097 -0.22139999270439148
-0.08243317157030106 -0.030904095619916916 -0.2224999964237213
-0.08167136460542679 -0.031056879088282585 -0.22360000014305115
-0.0808260440826416 -0.031181884929537773 -0.22450000047683716
-0.060065384954214096 -0.03137633576989174 -0.22589999437332153
-0.05888401344418526 -0.03137633576989174 -0.22589999437332153
-0.057753730565309525 -0.03140411525964737 -0.22609999775886536
-0.13107623159885406 -0.03229828551411629 -0.2240999937057495
-0.13002021610736847 -0.032327111810445786 -0.22429999709129333
-0.1291344314813614 -0.032399170100688934 -0.2247999906539917
-0.12807266414165497 -0.03242799639701843 -0.22499999403953552
-0.1268959939479828 -0.03242799639701843 -0.22499999403953552
-0.12560757994651794 -0.032399170100688934 -0.2247999906539917
-0.12404448539018631 -0.03229828551411629 -0.2240999937057495
-0.10091957449913025 -0.032399170100688934 -0.2247999906539917
-0.09952210634946823 -0.032327111810445786 -0.22429999709129333
-0.09826140850782394 -0.03229828551411629 -0.2240999937057495
-0.09695947170257568 -0.03225504606962204 -0.22379998862743378
-0.09540387243032455 -0.032125335186719894 -0.22289998829364777
-0.08380798995494843 -0.03170737624168396 -0.2199999988079071
-0.08292047679424286 -0.03180826082825661 -0.2206999957561493
-0.08224792778491974 -0.03199562430381775 -0.22199998795986176
-0.06011856347322464 -0.032586533576250076 -0.22609999775886536
-0.05893614515662193 -0.032586533576250076 -0.22609999775886536
-0.1301361620426178 -0.03352998569607735 -0.22450000047683716
-0.12924931943416595 -0.033604662865400314 -0.22499999403953552
-0.12807266414165497 -0.033604662865400314 -0.22499999403953552
-0.1268959939479828 -0.033604662865400314 -0.22499999403953552
-0.12560757994651794 -0.03357478976249695 -0.2247999906539917
-0.12426590174436569 -0.03352998569607735 -0.22450000047683716
-0.1004706397652626 -0.03342543542385101 -0.22379998862743378
-0.0989009216427803 -0.03329101577401161 -0.22289998829364777
-0.097559854388237 -0.03323127701878548 -0.2224999964237213
-0.09600634127855301 -0.033096857368946075 -0.2215999960899353
-0.09454785287380219 -0.03299231082201004 -0.22089999914169312
-0.0860307440161705 -0.03282802179455757 -0.21979999542236328
-0.08507435768842697 -0.03290269523859024 -0.22029998898506165
