ply
format ascii 1.0
element vertex 758
property float x
property float y
property float z
end_header
0.00012427310866769403 0.025008784607052803 -0.15209999680519104
0.00092151272110641 0.025058111175894737 -0.15240000188350677
0.0017218900611624122 0.02510743774473667 -0.15269999206066132
0.006564455106854439 0.025304745882749557 -0.15389999747276306
0.0074746375903487206 0.025666475296020508 -0.15609999001026154
0.008418453857302666 0.02606109343469143 -0.15850000083446503
0.009434046223759651 0.026587247848510742 -0.16169999539852142
0.029765937477350235 0.026620132848620415 -0.16189999878406525
0.03059370443224907 0.026603689417243004 -0.16179999709129333
0.03140099346637726 0.02657080441713333 -0.1615999937057495
0.03208646923303604 0.02643926627933979 -0.1607999950647354
0.03257927671074867 0.026159746572375298 -0.1590999960899353
-0.020489217713475227 0.02413376234471798 -0.15160000324249268
-0.01982632838189602 0.024292953312397003 -0.1525999903678894
-0.019277675077319145 0.024611342698335648 -0.15459999442100525
-0.0188395157456398 0.025104843080043793 -0.15770000219345093
0.00012427310866769403 0.024213358759880066 -0.15209999680519104
0.0009209080599248409 0.02424519695341587 -0.15230000019073486
0.0017173796659335494 0.02424519695341587 -0.15230000019073486
0.005752131342887878 0.024468068033456802 -0.15369999408721924
0.006585781928151846 0.024579502642154694 -0.15439999103546143
0.007532098330557346 0.025041164830327034 -0.15729999542236328
0.00848218984901905 0.02542322874069214 -0.15969999134540558
0.03059370443224907 0.02575753629207611 -0.16179999709129333
0.031420424580574036 0.025741618126630783 -0.16169999539852142
0.032166287302970886 0.025662021711468697 -0.16120000183582306
0.03272261843085289 0.025439148768782616 -0.1597999930381775
-0.01964443549513817 0.02327936515212059 -0.15119999647140503
-0.018965940922498703 0.02341793291270733 -0.15209999680519104
-0.018481122329831123 0.023818239569664 -0.15469999611377716
0.0001241097052115947 0.023387139663100243 -0.15189999341964722
0.0009184893569909036 0.023387139663100243 -0.15189999341964722
0.0017139967530965805 0.023402536287903786 -0.15199999511241913
0.0049258023500442505 0.023556500673294067 -0.15299999713897705
0.005763358902186155 0.02371046505868435 -0.15399999916553497
0.0066028437577188015 0.023833636194467545 -0.15479999780654907
0.007546463515609503 0.024264736101031303 -0.15760000050067902
0.03059370443224907 0.024911383166909218 -0.16179999709129333
0.031420424580574036 0.024895986542105675 -0.16169999539852142
0.03224610164761543 0.02488058991730213 -0.1615999937057495
0.032886434346437454 0.02472662553191185 -0.1605999916791916
0.03328531235456467 0.024403303861618042 -0.15850000083446503
-0.019566481932997704 0.022399406880140305 -0.15060000121593475
-0.018828777596354485 0.022458897903561592 -0.1509999930858612
-0.0181585680693388 0.022607633844017982 -0.15199999511241913
-0.01760355941951275 0.022919977083802223 -0.15410000085830688
0.0009166754316538572 0.022548140957951546 -0.15160000324249268
0.0017106137238442898 0.022563012316823006 -0.1516999900341034
0.004117580130696297 0.022711746394634247 -0.15269999206066132
0.004938679747283459 0.02281586080789566 -0.1533999890089035
0.00577832804992795 0.0229645948857069 -0.15439999103546143
0.006641232408583164 0.02315795049071312 -0.15569999814033508
0.007594347465783358 0.023589281365275383 -0.15860000252723694
0.031420424580574036 0.024050356820225716 -0.16169999539852142
0.03224610164761543 0.024035483598709106 -0.1615999937057495
0.032927390187978745 0.023916495963931084 -0.1607999950647354
0.0333063118159771 0.023589281365275383 -0.15860000252723694
0.03400658816099167 0.02350004017353058 -0.15799999237060547
-0.018778899684548378 0.02161182463169098 -0.15060000121593475
-0.01805105060338974 0.021683577448129654 -0.15109999477863312
-0.017489325255155563 0.021970586851239204 -0.15309999883174896
0.0009160707122646272 0.021740978583693504 -0.15150000154972076
0.001709486241452396 0.02175533026456833 -0.15160000324249268
0.003305975580587983 0.021827081218361855 -0.15209999680519104
0.004117580130696297 0.021913183853030205 -0.15269999206066132
0.004961216356605291 0.022114092484116554 -0.15410000085830688
0.005812010262161493 0.022286295890808105 -0.15529999136924744
0.006743601989001036 0.022688109427690506 -0.15809999406337738
0.03220619261264801 0.02316167578101158 -0.1613999903202057
0.03286595642566681 0.023032521829009056 -0.16049998998641968
0.03328531235456467 0.022745512425899506 -0.15850000083446503
0.033855926245450974 0.022573307156562805 -0.15729999542236328
-0.018027156591415405 0.020865725353360176 -0.1508999913930893
-0.017295125871896744 0.02093486301600933 -0.15139999985694885
-0.01680857501924038 0.021322034299373627 -0.1542000025510788
0.0009160707122646272 0.02094869129359722 -0.15150000154972076
0.0017083586426451802 0.02094869129359722 -0.15150000154972076
0.002503947587683797 0.020976345986127853 -0.1516999900341034
0.003305975580587983 0.021031655371189117 -0.15209999680519104
0.004125669598579407 0.021156104281544685 -0.15299999713897705
0.004974094219505787 0.021363515406847 -0.15449999272823334
0.005886859260499477 0.021750686690211296 -0.15729999542236328
0.0068246447481215 0.0221240296959877 -0.1599999964237213
0.032146330922842026 0.0222761332988739 -0.16110000014305115
0.03272261843085289 0.02209637500345707 -0.1597999930381775
0.03324330970644951 0.021888962015509605 -0.1582999974489212
0.03383440524339676 0.021736858412623405 -0.15719999372959137
-0.0179913192987442 0.020036661997437477 -0.15060000121593475
-0.01724943146109581 0.020089879631996155 -0.1509999930858612
-0.016754072159528732 0.02044910378754139 -0.15369999408721924
0.0009160707122646272 0.02015640400350094 -0.15150000154972076
0.0017083586426451802 0.02015640400350094 -0.15150000154972076
0.0025022970512509346 0.020169708877801895 -0.15160000324249268
0.0033038018736988306 0.020222926512360573 -0.15199999511241913
0.004147241823375225 0.020462408661842346 -0.15379999577999115
0.005003069527447224 0.020675281062722206 -0.15539999306201935
0.005928026046603918 0.021074417978525162 -0.15839999914169312
0.03204656019806862 0.021367117762565613 -0.1605999916791916
0.03262023255228996 0.021194159984588623 -0.15929999947547913
0.03320130705833435 0.02103450335562229 -0.15809999406337738
0.03370526432991028 0.02083493582904339 -0.1565999984741211
-0.017226584255695343 0.019274642691016197 -0.15079998970031738
-0.01657966338098049 0.019440805539488792 -0.15209999680519104
0.0009160707122646272 0.019364116713404655 -0.15150000154972076
0.0017083586426451802 0.019364116713404655 -0.15150000154972076
0.003305975580587983 0.019440805539488792 -0.15209999680519104
0.004160724114626646 0.019721999764442444 -0.15429998934268951
0.005061020143330097 0.020092666149139404 -0.15719999372959137
0.005991647485643625 0.020463332533836365 -0.16009999811649323
0.03202660381793976 0.020514458417892456 -0.16049998998641968
0.03262023255228996 0.020361080765724182 -0.15929999947547913
0.03320130705833435 0.02020770125091076 -0.15809999406337738
0.03376983106136322 0.020054319873452187 -0.15689998865127563
-0.016492459923028946 0.018547309562563896 -0.15129999816417694
-0.016002167016267776 0.018902810290455818 -0.1542000025510788
-0.015461832284927368 0.019233791157603264 -0.15689998865127563
0.0009160707122646272 0.018571827560663223 -0.15150000154972076
0.0017083586426451802 0.018571827560663223 -0.15150000154972076
0.002503947587683797 0.0185963436961174 -0.1516999900341034
0.00331901665776968 0.018718929961323738 -0.15269999206066132
0.004174206871539354 0.01897636242210865 -0.15479999780654907
0.00509321503341198 0.019393155351281166 -0.1581999957561493
0.03262023255228996 0.019527999684214592 -0.15929999947547913
0.03322231024503708 0.019393155351281166 -0.1581999957561493
0.03383440524339676 0.01927056908607483 -0.15719999372959137
-0.015804994851350784 0.017873425036668777 -0.15230000019073486
-0.015185904689133167 0.01808466762304306 -0.15410000085830688
0.0009160707122646272 0.01777954027056694 -0.15150000154972076
0.0017083586426451802 0.01777954027056694 -0.15150000154972076
0.0025072486605495214 0.01782648079097271 -0.15189999341964722
0.0033320582006126642 0.017990780994296074 -0.15330000221729279
0.004209261387586594 0.018319379538297653 -0.15609999001026154
0.005115751177072525 0.018647978082299232 -0.15889999270439148
0.032702140510082245 0.01874186284840107 -0.15969999134540558
0.03324330970644951 0.018577564507722855 -0.1582999974489212
0.033877450972795486 0.018471943214535713 -0.1573999971151352
-0.015690840780735016 0.016953613609075546 -0.15119999647140503
-0.015067650005221367 0.017144229263067245 -0.15289999544620514
-0.01451066229492426 0.01743575930595398 -0.15549999475479126
0.0017083586426451802 0.016987251117825508 -0.15150000154972076
0.0025072486605495214 0.01703210175037384 -0.15189999341964722
0.003351620165631175 0.017289994284510612 -0.1542000025510788
0.004238923080265522 0.01762637495994568 -0.15719999372959137
0.032702140510082245 0.017906691879034042 -0.15969999134540558
0.03326430916786194 0.017760928720235825 -0.15839999914169312
0.033877450972795486 0.01764880120754242 -0.1573999971151352
-0.01565970852971077 0.016130823642015457 -0.1508999913930893
-0.014909977093338966 0.016173584386706352 -0.15129999816417694
-0.014352025464177132 0.016440827399492264 -0.15379999577999115
-0.01390005461871624 0.016868416219949722 -0.15779998898506165
0.001709486241452396 0.01620565354824066 -0.15160000324249268
0.0025105499662458897 0.016259102150797844 -0.15209999680519104
0.0033581408206373453 0.01651565544307232 -0.15449999272823334
0.004255102016031742 0.016868416219949722 -0.15779998898506165
0.032702140510082245 0.017071522772312164 -0.15969999134540558
0.033369310200214386 0.016986005008220673 -0.15889999270439148
0.03383440524339676 0.016804277896881104 -0.15719999372959137
-0.014870557934045792 0.015341674908995628 -0.1508999913930893
-0.014184055849909782 0.01545350905507803 -0.15199999511241913
-0.013565327040851116 0.0156568456441164 -0.15399999916553497
-0.013099677860736847 0.0160736832767725 -0.15809999406337738
0.0017106137238442898 0.015423008240759373 -0.1516999900341034
0.002513851271942258 0.015484010800719261 -0.15230000019073486
0.0033646614756435156 0.01573817990720272 -0.15479999780654907
0.004298246931284666 0.01620585285127163 -0.15940000116825104
0.03272261843085289 0.01624651812016964 -0.1597999930381775
0.03324330970644951 0.016094017773866653 -0.1582999974489212
0.03376983106136322 0.01595168188214302 -0.15689998865127563
-0.02700868993997574 0.014716469682753086 -0.1525999903678894
-0.026056066155433655 0.014629675075411797 -0.1516999900341034
-0.025146162137389183 0.014562168158590794 -0.1509999930858612
-0.02430810034275055 0.014533238485455513 -0.15070000290870667
-0.023426350206136703 0.014475374482572079 -0.1500999927520752
-0.02258104830980301 0.01443680003285408 -0.14970000088214874
-0.021754490211606026 0.014407867565751076 -0.149399995803833
-0.014100071042776108 0.014571812935173512 -0.15109999477863312
-0.013450813479721546 0.01472611352801323 -0.15269999206066132
-0.012859392911195755 0.014967208728194237 -0.15519998967647552
-0.012303926050662994 0.015285455621778965 -0.15850000083446503
0.001712869037874043 0.014648962765932083 -0.15189999341964722
0.0025188028812408447 0.014716469682753086 -0.1525999903678894
0.003377702785655856 0.014986496418714523 -0.15539999306201935
0.03272261843085289 0.015410824678838253 -0.1597999930381775
0.03322231024503708 0.015256524085998535 -0.1581999957561493
0.033683743327856064 0.0150925787165761 -0.15649999678134918
-0.03098278120160103 0.014666340313851833 -0.1607999950647354
-0.029804447665810585 0.014502163976430893 -0.1589999943971634
-0.028881829231977463 0.014456560835242271 -0.15850000083446503
-0.02745116874575615 0.014146451838314533 -0.1551000028848648
-0.02641676366329193 0.014027879573404789 -0.15379999577999115
-0.02536265179514885 0.0138910673558712 -0.15230000019073486
-0.02437261864542961 0.01378161646425724 -0.15109999477863312
-0.02347317337989807 0.01371777057647705 -0.15039999783039093
-0.022565964609384537 0.013644804246723652 -0.14959999918937683
-0.020151332020759583 0.013599199242889881 -0.14909999072551727
-0.01939758099615574 0.013617441058158875 -0.1492999941110611
-0.018616797402501106 0.013617441058158875 -0.1492999941110611
-0.017871854826807976 0.013644804246723652 -0.14959999918937683
-0.017112350091338158 0.013663046061992645 -0.14980000257492065
-0.014062745496630669 0.013745133765041828 -0.15070000290870667
-0.013327493332326412 0.013799858279526234 -0.15129999816417694
-0.012701964937150478 0.013982276432216167 -0.15330000221729279
-0.012094331905245781 0.014210297726094723 -0.155799999833107
0.0017218900611624122 0.013927550055086613 -0.15269999206066132
0.002546862931922078 0.014073483645915985 -0.15429998934268951
0.0034190001897513866 0.014347109943628311 -0.15729999542236328
0.03257927671074867 0.014511285349726677 -0.1590999960899353
0.03313830867409706 0.014392714016139507 -0.15779998898506165
0.033446986228227615 0.014173813164234161 -0.15539999306201935
-0.0329287089407444 0.013937190175056458 -0.16210000216960907
-0.03214035555720329 0.013962983153760433 -0.1623999923467636
-0.031291067600250244 0.013962983153760433 -0.1623999923467636
-0.030385542660951614 0.013937190175056458 -0.16210000216960907
-0.029410265386104584 0.013877003453671932 -0.1613999903202057
-0.028460010886192322 0.013825416564941406 -0.1607999950647354
-0.027447326108813286 0.01373943779617548 -0.1597999930381775
-0.024582311511039734 0.01310319360345602 -0.15240000188350677
-0.023629244416952133 0.013017214834690094 -0.15139999985694885
-0.02273189090192318 0.012957029975950718 -0.15070000290870667
-0.02097318507730961 0.012845256365835667 -0.149399995803833
-0.02017836458981037 0.012836658395826817 -0.1492999941110611
-0.019410572946071625 0.012845256365835667 -0.149399995803833
-0.018629267811775208 0.012845256365835667 -0.149399995803833
-0.01784796081483364 0.012845256365835667 -0.149399995803833
-0.017100926488637924 0.012871051207184792 -0.14970000088214874
-0.016318053007125854 0.012871051207184792 -0.14970000088214874
-0.015566309913992882 0.012896843254566193 -0.14999999105930328
-0.014811431057751179 0.012922638095915318 -0.15029999613761902
-0.014044081792235374 0.012939834035933018 -0.15049999952316284
-0.013283449225127697 0.012965627014636993 -0.15079998970031738
-0.012552822940051556 0.013025812804698944 -0.15150000154972076
-0.011954602785408497 0.013240760192275047 -0.15399999916553497
-0.011330235749483109 0.01345570757985115 -0.15649999678134918
0.001744442735798657 0.013300945051014423 -0.15469999611377716
0.0025881279725581408 0.0134815014898777 -0.15680000185966492
0.016338473185896873 0.013326738961040974 -0.1550000011920929
0.01710480824112892 0.013292347081005573 -0.15459999442100525
0.01789013296365738 0.013275151140987873 -0.15439999103546143
0.0186491496860981 0.013240760192275047 -0.15399999916553497
0.03192683309316635 0.01375663373619318 -0.1599999964237213
0.03243593871593475 0.013619067147374153 -0.15839999914169312
0.032928306609392166 0.0134815014898777 -0.15680000185966492
0.03329632431268692 0.013300945051014423 -0.15469999611377716
-0.03540622442960739 0.013065243139863014 -0.16179999709129333
-0.03460279107093811 0.013081393204629421 -0.16200000047683716
-0.033776428550481796 0.013089468702673912 -0.16210000216960907
-0.03298964723944664 0.01311369240283966 -0.1623999923467636
-0.03216014802455902 0.013121766969561577 -0.16249999403953552
-0.03131033480167389 0.013121766969561577 -0.16249999403953552
-0.030441775918006897 0.01311369240283966 -0.1623999923467636
-0.02953782118856907 0.013089468702673912 -0.16210000216960907
-0.028637001290917397 0.013065243139863014 -0.16179999709129333
-0.027670616284012794 0.013008718378841877 -0.16110000014305115
-0.0265949796885252 0.012895668856799603 -0.15969999134540558
-0.02558237873017788 0.0128068458288908 -0.15860000252723694
-0.024081850424408913 0.01245962269604206 -0.15429998934268951
-0.019436558708548546 0.012080101296305656 -0.14959999918937683
-0.01865420676767826 0.012080101296305656 -0.14959999918937683
-0.01784796081483364 0.01206395123153925 -0.149399995803833
-0.017066655680537224 0.01206395123153925 -0.149399995803833
-0.016307152807712555 0.012080101296305656 -0.14959999918937683
-0.01553517859429121 0.012088175863027573 -0.14970000088214874
-0.01478186622262001 0.012112400494515896 -0.14999999105930328
-0.01400675531476736 0.012120475061237812 -0.1500999927520752
-0.013257023878395557 0.0121527761220932 -0.15049999952316284
-0.012503108009696007 0.012185074388980865 -0.1508999913930893
-0.011776059865951538 0.012249673716723919 -0.1516999900341034
-0.011178200133144855 0.012467697262763977 -0.15439999103546143
-0.010572250932455063 0.012709946371614933 -0.1573999971151352
0.001776016317307949 0.01271802093833685 -0.1574999988079071
0.002616188023239374 0.01279877033084631 -0.15850000083446503
0.013906698673963547 0.012516147457063198 -0.1550000011920929
0.014698299579322338 0.012499997392296791 -0.15479999780654907
0.01550784520804882 0.012499997392296791 -0.15479999780654907
0.01630684919655323 0.012491922825574875 -0.15469999611377716
0.01709374412894249 0.012475772760808468 -0.15449999272823334
0.017878547310829163 0.01245962269604206 -0.15429998934268951
0.0186370387673378 0.012427323497831821 -0.15389999747276306
0.019340815022587776 0.012362724170088768 -0.15309999883174896
0.020115159451961517 0.012346574105322361 -0.15289999544620514
0.03164747357368469 0.0128068458288908 -0.15860000252723694
0.03227211907505989 0.01272609643638134 -0.15760000050067902
0.03263430297374725 0.012548446655273438 -0.15539999306201935
0.03321022912859917 0.01245962269604206 -0.15429998934268951
-0.036274783313274384 0.012226641178131104 -0.16189999878406525
-0.03544998914003372 0.01223419327288866 -0.16200000047683716
-0.03462415188550949 0.012241745367646217 -0.16210000216960907
-0.03383893892168999 0.012264400720596313 -0.1623999923467636
-0.03300996124744415 0.01227195281535387 -0.16249999403953552
-0.03216014802455902 0.01227195281535387 -0.16249999403953552
-0.03131033480167389 0.01227195281535387 -0.16249999403953552
-0.030423030257225037 0.012256848625838757 -0.1622999906539917
-0.02953782118856907 0.012241745367646217 -0.16210000216960907
-0.02867239899933338 0.01223419327288866 -0.16200000047683716
-0.01553517859429121 0.011305300518870354 -0.14970000088214874
-0.014762158505618572 0.01131285261362791 -0.14980000257492065
-0.013978760689496994 0.01131285261362791 -0.14980000257492065
-0.013239406049251556 0.01135061215609312 -0.15029999613761902
-0.01246996596455574 0.011365716345608234 -0.15049999952316284
-0.011721720919013023 0.011403475888073444 -0.1509999930858612
-0.011033405549824238 0.011509204283356667 -0.15240000188350677
-0.010397613979876041 0.011690450832247734 -0.15479999780654907
0.0017974413931369781 0.012037841603159904 -0.15940000116825104
0.0026574525982141495 0.012158673256635666 -0.16099999845027924
0.012261737138032913 0.011682898737490177 -0.15469999611377716
0.013079209253191948 0.011690450832247734 -0.15479999780654907
0.013906698673963547 0.011705555021762848 -0.1550000011920929
0.014726785011589527 0.011713107116520405 -0.1551000028848648
0.015537899918854237 0.011713107116520405 -0.1551000028848648
0.01634901389479637 0.011713107116520405 -0.1551000028848648
0.017126936465501785 0.011690450832247734 -0.15479999780654907
0.017924895510077477 0.011682898737490177 -0.15469999611377716
0.01869758777320385 0.011660242453217506 -0.15439999103546143
0.019467143341898918 0.01163758710026741 -0.15410000085830688
0.020141471177339554 0.01156206801533699 -0.15309999883174896
0.031408023089170456 0.01188680250197649 -0.1573999971151352
0.03182161971926689 0.011735762469470501 -0.15539999306201935
0.03244530037045479 0.011667794547975063 -0.15449999272823334
0.0331026166677475 0.01161493081599474 -0.15379999577999115
-0.03631959483027458 0.011394023895263672 -0.16210000216960907
-0.03553751856088638 0.011415109969675541 -0.1623999923467636
-0.034709587693214417 0.011422138661146164 -0.16249999403953552
-0.03388061374425888 0.011429168283939362 -0.16259999573230743
-0.033030275255441666 0.011429168283939362 -0.16259999573230743
-0.03217994049191475 0.011429168283939362 -0.16259999573230743
-0.031291067600250244 0.011415109969675541 -0.1623999923467636
-0.030423030257225037 0.011408080346882343 -0.1622999906539917
-0.014752303250133991 0.01052242610603571 -0.14970000088214874
-0.013978760689496994 0.010529455728828907 -0.14980000257492065
-0.01322178915143013 0.010550541803240776 -0.1500999927520752
-0.012453394010663033 0.010564600117504597 -0.15029999613761902
-0.011690670624375343 0.01058568712323904 -0.15060000121593475
-0.010946528054773808 0.010627861134707928 -0.15119999647140503
-0.010296862572431564 0.010775471106171608 -0.15330000221729279
-0.009718137793242931 0.011028514243662357 -0.15689998865127563
0.011430504731833935 0.010852789506316185 -0.15439999103546143
0.012245884165167809 0.010859818197786808 -0.15449999272823334
0.013096107169985771 0.010894963517785072 -0.1550000011920929
0.013969503343105316 0.010944166220724583 -0.15569999814033508
0.014850219711661339 0.010993369854986668 -0.15639999508857727
0.01568816974759102 0.011007428169250488 -0.1565999984741211
0.016538750380277634 0.011028514243662357 -0.15689998865127563
0.017359277233481407 0.011028514243662357 -0.15689998865127563
0.018145045265555382 0.011007428169250488 -0.1565999984741211
0.01886712573468685 0.01095119584351778 -0.155799999833107
0.019580839201807976 0.010894963517785072 -0.1550000011920929
0.020299337804317474 0.010845759883522987 -0.15429998934268951
0.02092844620347023 0.01075438316911459 -0.15299999713897705
0.030351703986525536 0.010979311540722847 -0.15619999170303345
0.03088921122252941 0.010880905203521252 -0.15479999780654907
0.03159637004137039 0.010845759883522987 -0.15429998934268951
0.03227730095386505 0.0108035858720541 -0.15369999408721924
-0.03723610192537308 0.010565819218754768 -0.1623999923467636
-0.03640921413898468 0.010572325438261032 -0.16249999403953552
-0.03560316935181618 0.01058533787727356 -0.16269999742507935
-0.03475230932235718 0.01058533787727356 -0.16269999742507935
-0.03390144929289818 0.01058533787727356 -0.16269999742507935
-0.033030275255441666 0.010578831657767296 -0.16259999573230743
-0.03216014802455902 0.010572325438261032 -0.16249999403953552
-0.03131033480167389 0.010572325438261032 -0.16249999403953552
-0.012461679987609386 0.009785094298422337 -0.15039999783039093
-0.011690670624375343 0.009798106737434864 -0.15060000121593475
-0.010932047851383686 0.00982412975281477 -0.1509999930858612
-0.010209543630480766 0.009889191016554832 -0.15199999511241913
-0.009575679898262024 0.010058348067104816 -0.15459999442100525
-0.008959989994764328 0.010279553011059761 -0.15799999237060547
-0.008267555385828018 0.010448710061609745 -0.1605999916791916
0.00973295234143734 0.009960757568478584 -0.15309999883174896
0.010574888437986374 0.009999793022871017 -0.15369999408721924
0.01140829548239708 0.010025817900896072 -0.15410000085830688
0.012245884165167809 0.010051841847598553 -0.15449999272823334
0.013155250810086727 0.010129914619028568 -0.15569999814033508
0.014113055542111397 0.010234011337161064 -0.15729999542236328
0.019871393218636513 0.010234011337161064 -0.15729999542236328
0.020365118980407715 0.010071360506117344 -0.15479999780654907
0.02103787660598755 0.010006299242377281 -0.15379999577999115
0.021643368527293205 0.009915214963257313 -0.15240000188350677
0.029307939112186432 0.010084372013807297 -0.1550000011920929
0.030001940205693245 0.010045335628092289 -0.15439999103546143
0.03070962429046631 0.010012805461883545 -0.15389999747276306
0.031350646167993546 0.009960757568478584 -0.15309999883174896
0.032109297811985016 0.009947745129466057 -0.15289999544620514
-0.03810884431004524 0.0097225122153759 -0.16249999403953552
-0.03730488568544388 0.009734478779137135 -0.16269999742507935
-0.036498840898275375 0.009746445342898369 -0.16290000081062317
-0.03569069877266884 0.009758410975337029 -0.1630999892950058
-0.0348377451300621 0.009758410975337029 -0.1630999892950058
-0.03394312411546707 0.009746445342898369 -0.16290000081062317
-0.03305058926343918 0.009734478779137135 -0.16269999742507935
-0.010961007326841354 0.009058390744030476 -0.15139999985694885
-0.010296862572431564 0.009172068908810616 -0.15330000221729279
-0.00960045587271452 0.009273781441152096 -0.1550000011920929
-0.00894864834845066 0.009441306814551353 -0.15779998898506165
-0.008236668072640896 0.009572935290634632 -0.1599999964237213
0.008908960036933422 0.009136170148849487 -0.15269999206066132
0.00972023792564869 0.009148136712610722 -0.15289999544620514
0.010533607564866543 0.009160102345049381 -0.15309999883174896
0.011415699496865273 0.009225917048752308 -0.1542000025510788
0.012285515666007996 0.009273781441152096 -0.1550000011920929
0.013290436007082462 0.00941139180213213 -0.15729999542236328
0.01992192491889 0.009435324929654598 -0.15770000219345093
0.02103787660598755 0.00920198392122984 -0.15379999577999115
0.021643368527293205 0.009118221700191498 -0.15240000188350677
0.028515731915831566 0.009279764257371426 -0.1551000028848648
0.029194487258791924 0.009237882681190968 -0.15439999103546143
0.02988535352051258 0.00920198392122984 -0.15379999577999115
0.030549990013241768 0.009160102345049381 -0.15309999883174896
0.031309690326452255 0.009148136712610722 -0.15289999544620514
-0.038958657532930374 0.008872698061168194 -0.16249999403953552
-0.038155749440193176 0.008883618749678135 -0.16269999742507935
-0.03739659860730171 0.008905459195375443 -0.1630999892950058
-0.036566056311130524 0.008910918608307838 -0.1631999909877777
-0.035712581127882004 0.008910918608307838 -0.1631999909877777
-0.034859105944633484 0.008910918608307838 -0.1631999909877777
-0.03394312411546707 0.008894539438188076 -0.16290000081062317
-0.00973671954125166 0.008583311922848225 -0.15719999372959137
-0.008982674218714237 0.008648833259940147 -0.15839999914169312
-0.00824181642383337 0.008741655386984348 -0.16009999811649323
-0.007478553336113691 0.008829017169773579 -0.16169999539852142
0.00890312623232603 0.0083321463316679 -0.1525999903678894
0.009701165370643139 0.0083321463316679 -0.1525999903678894
0.010547367855906487 0.00837036781013012 -0.15330000221729279
0.011445310898125172 0.008441348560154438 -0.15459999442100525
0.012412333860993385 0.00855055171996355 -0.1565999984741211
0.02103787660598755 0.008397667668759823 -0.15379999577999115
0.02162916772067547 0.008315766230225563 -0.15230000019073486
0.027883240953087807 0.008523249998688698 -0.15609999001026154
0.028497347608208656 0.00846318993717432 -0.1550000011920929
0.029213394969701767 0.008435888215899467 -0.15449999272823334
0.02996307983994484 0.008419509045779705 -0.1542000025510788
0.03070962429046631 0.008403128013014793 -0.15389999747276306
-0.039808470755815506 0.008022884838283062 -0.16249999403953552
-0.039006609469652176 0.00803275965154171 -0.16269999742507935
-0.03824955224990845 0.008052507415413857 -0.1630999892950058
-0.037419527769088745 0.008057444356381893 -0.1631999909877777
-0.036566056311130524 0.008057444356381893 -0.1631999909877777
-0.035712581127882004 0.008057444356381893 -0.1631999909877777
-0.03479503095149994 0.008042633533477783 -0.16290000081062317
-0.009056394919753075 0.007884643971920013 -0.15969999134540558
-0.008293296210467815 0.007953764870762825 -0.16110000014305115
-0.007478553336113691 0.00798338744789362 -0.16169999539852142
0.008891457691788673 0.007524231914430857 -0.15240000188350677
0.00973295234143734 0.007558791898190975 -0.15309999883174896
0.010629930533468723 0.007627911865711212 -0.15449999272823334
0.011585971340537071 0.007726655341684818 -0.15649999678134918
0.02040458656847477 0.007657535374164581 -0.1551000028848648
0.020969484001398087 0.007568666245788336 -0.15330000221729279
0.02158656157553196 0.007504482753574848 -0.15199999511241913
0.027066893875598907 0.00770690618082881 -0.15609999001026154
0.02782965451478958 0.0076920953579247 -0.155799999833107
0.028589272871613503 0.007677283603698015 -0.15549999475479126
0.029326846823096275 0.007657535374164581 -0.1551000028848648
0.030079666525125504 0.007642723619937897 -0.15479999780654907
-0.03990646451711655 0.007190728094428778 -0.16290000081062317
-0.03910250589251518 0.007199556101113558 -0.1630999892950058
-0.038273006677627563 0.007203970570117235 -0.1631999909877777
-0.037419527769088745 0.007203970570117235 -0.1631999909877777
-0.036543648689985275 0.007199556101113558 -0.1630999892950058
-0.03564693406224251 0.007190728094428778 -0.16290000081062317
0.008089151233434677 0.00672282325103879 -0.15230000019073486
0.008891457691788673 0.006727237720042467 -0.15240000188350677
0.009796525351703167 0.006802279036492109 -0.15410000085830688
0.010684971697628498 0.006855248939245939 -0.15529999136924744
0.02040458656847477 0.006846420932561159 -0.1551000028848648
0.020969484001398087 0.00676696514710784 -0.15330000221729279
0.02158656157553196 0.006709580309689045 -0.15199999511241913
0.022366739809513092 0.006705166306346655 -0.15189999341964722
0.02322211116552353 0.00672282325103879 -0.15230000019073486
0.02417628839612007 0.00676696514710784 -0.15330000221729279
0.025189803913235664 0.006824349518865347 -0.15459999442100525
0.026200102642178535 0.0068773203529417515 -0.155799999833107
0.02713625319302082 0.0069082193076610565 -0.15649999678134918
0.02800827845931053 0.006921462249010801 -0.15680000185966492
0.028791513293981552 0.006912633776664734 -0.1565999984741211
-0.040758367627859116 0.006338822655379772 -0.16290000081062317
-0.03995545580983162 0.006346604786813259 -0.1630999892950058
-0.03912648186087608 0.00635049631819129 -0.1631999909877777
-0.038273006677627563 0.00635049631819129 -0.1631999909877777
-0.03739659860730171 0.006346604786813259 -0.1630999892950058
-0.036498840898275375 0.006338822655379772 -0.16290000081062317
0.008078528568148613 0.0059185693971812725 -0.15209999680519104
0.00890312623232603 0.005938025191426277 -0.1525999903678894
0.009821953251957893 0.006011958699673414 -0.15449999272823334
0.019934555515646935 0.006140369456261396 -0.15779998898506165
0.020430896431207657 0.006043088622391224 -0.15529999136924744
0.02103787660598755 0.005984720308333635 -0.15379999577999115
0.021600764244794846 0.0059185693971812725 -0.15209999680519104
0.022425638511776924 0.005926351994276047 -0.15230000019073486
0.023344090208411217 0.005957481451332569 -0.15309999883174896
0.02433399111032486 0.00600417610257864 -0.15429998934268951
0.02522239089012146 0.006023632828146219 -0.15479999780654907
0.026469165459275246 0.006124804727733135 -0.1573999971151352
0.02734432741999626 0.006136478390544653 -0.15770000219345093
-0.040758367627859116 0.005486917216330767 -0.16290000081062317
-0.03995545580983162 0.0054936534725129604 -0.1630999892950058
-0.03912648186087608 0.005497022066265345 -0.1631999909877777
-0.03824955224990845 0.0054936534725129604 -0.1630999892950058
-0.03730488568544388 0.005480180494487286 -0.16269999742507935
0.008057283237576485 0.0051096705719828606 -0.1516999900341034
0.008908960036933422 0.005143353249877691 -0.15269999206066132
0.009828311391174793 0.005207350477576256 -0.15459999442100525
0.021229377016425133 0.005227559711784124 -0.15519998967647552
0.021870596334338188 0.0051871407777071 -0.15399999916553497
0.02358805201947689 0.005210718605667353 -0.15469999611377716
0.024475926533341408 0.005227559711784124 -0.15519998967647552
0.025776371359825134 0.005328608211129904 -0.1581999957561493
0.026738228276371956 0.005355554632842541 -0.1589999943971634
-0.04153364151716232 0.004626475740224123 -0.16259999573230743
-0.04070832580327988 0.004629320930689573 -0.16269999742507935
-0.03990646451711655 0.004635011777281761 -0.16290000081062317
-0.03910250589251518 0.0046407016925513744 -0.1630999892950058
-0.038155749440193176 0.004629320930689573 -0.16269999742507935
-0.03725903108716011 0.004623630084097385 -0.16249999403953552
0.008041350170969963 0.004307800903916359 -0.15139999985694885
0.008885623887181282 0.004333408549427986 -0.15230000019073486
0.02162606082856655 0.004498436581343412 -0.15809999406337738
-0.04068330302834511 0.0037761388812214136 -0.16259999573230743
-0.039857469499111176 0.003778461366891861 -0.16269999742507935
-0.039006609469652176 0.003778461366891861 -0.16269999742507935
-0.03813229873776436 0.0037761388812214136 -0.16259999573230743
-0.03723610192537308 0.0037714941427111626 -0.1623999923467636
0.007240008097141981 0.0035113913472741842 -0.15119999647140503
0.008036037907004356 0.003513713600113988 -0.15129999816417694
0.008844783529639244 0.0035206808242946863 -0.15160000324249268
0.009771095588803291 0.003569449996575713 -0.15369999408721924
0.010650571435689926 0.003594995941966772 -0.15479999780654907
-0.04150809720158577 0.0029240029398351908 -0.16249999403953552
-0.04065828397870064 0.0029240029398351908 -0.16249999403953552
-0.039857469499111176 0.0029276018030941486 -0.16269999742507935
-0.039006609469652176 0.0029276018030941486 -0.16269999742507935
-0.038085393607616425 0.0029222036246210337 -0.1623999923467636
-0.03716731816530228 0.0029168056789785624 -0.16210000216960907
0.008025415241718292 0.0027188730891793966 -0.15109999477863312
0.008833114989101887 0.0027242712676525116 -0.15139999985694885
0.009682094678282738 0.0027404658030718565 -0.15230000019073486
0.010547367855906487 0.0027584596537053585 -0.15330000221729279
0.011423101648688316 0.002776453271508217 -0.15429998934268951
0.012261737138032913 0.0027836509980261326 -0.15469999611377716
0.013129903003573418 0.0027962466701865196 -0.15539999306201935
-0.04150809720158577 0.0020741892512887716 -0.16249999403953552
-0.04068330302834511 0.002075465861707926 -0.16259999573230743
-0.03983297199010849 0.002075465861707926 -0.16259999573230743
-0.038958657532930374 0.0020741892512887716 -0.16249999403953552
-0.03806194290518761 0.0020716364961117506 -0.1622999906539917
-0.037144389003515244 0.002067807363346219 -0.16200000047683716
0.008025415241718292 0.001928676967509091 -0.15109999477863312
0.00882144644856453 0.0019299534615129232 -0.15119999647140503
0.00961852166801691 0.0019312298391014338 -0.15129999816417694
0.01041664369404316 0.001932506333105266 -0.15139999985694885
0.011230618692934513 0.0019363354658707976 -0.1516999900341034
0.012071509845554829 0.0019439940806478262 -0.15230000019073486
0.012952473014593124 0.0019567583221942186 -0.15330000221729279
0.013843893073499203 0.001969522563740611 -0.15429998934268951
-0.04150809720158577 0.0012243755627423525 -0.16249999403953552
-0.04068330302834511 0.0012251291191205382 -0.16259999573230743
-0.039857469499111176 0.0012258825590834022 -0.16269999742507935
-0.038958657532930374 0.0012243755627423525 -0.16249999403953552
-0.03801504150032997 0.0012213618028908968 -0.16210000216960907
-0.037144389003515244 0.0012206083629280329 -0.16200000047683716
0.007235219702124596 0.001138480962254107 -0.15109999477863312
0.008025415241718292 0.001138480962254107 -0.15109999477863312
0.00882144644856453 0.001139234402216971 -0.15119999647140503
0.00961852166801691 0.0011399879585951567 -0.15129999816417694
0.010409764014184475 0.0011399879585951567 -0.15129999816417694
0.011208410374820232 0.0011407413985580206 -0.15139999985694885
0.012000175192952156 0.0011407413985580206 -0.15139999985694885
0.012800388969480991 0.0011414948385208845 -0.15150000154972076
0.013637536205351353 0.001145262154750526 -0.15199999511241913
0.014536884613335133 0.0011535502271726727 -0.15309999883174896
-0.04150809720158577 0.0003745619615074247 -0.16249999403953552
-0.04065828397870064 0.0003745619615074247 -0.16249999403953552
-0.03983297199010849 0.00037479246384464204 -0.16259999573230743
-0.038958657532930374 0.0003745619615074247 -0.16249999403953552
-0.03801504150032997 0.00037363998126238585 -0.16210000216960907
-0.037144389003515244 0.0003734094789251685 -0.16200000047683716
-0.015658924356102943 0.0003662639937829226 -0.15889999270439148
-0.014706626534461975 0.0003632674925029278 -0.15760000050067902
-0.010330446064472198 0.0003545084910001606 -0.15379999577999115
-0.009581874124705791 0.00035658301203511655 -0.15469999611377716
-0.00893163587898016 0.00036303699016571045 -0.1574999988079071
0.011992248706519604 0.00034874601988121867 -0.15129999816417694
0.012775041162967682 0.00034851551754400134 -0.15119999647140503
0.013574732467532158 0.00034874601988121867 -0.15129999816417694
0.014375468716025352 0.000348976522218436 -0.15139999985694885
-0.0406082421541214 -0.00047466676915064454 -0.1622999906539917
-0.039808470755815506 -0.000475251697935164 -0.16249999403953552
-0.03893468528985977 -0.00047495923354290426 -0.1623999923467636
-0.03801504150032997 -0.00047408186946995556 -0.16210000216960907
-0.037144389003515244 -0.00047378940507769585 -0.16200000047683716
-0.016614442691206932 -0.0004682326107285917 -0.16009999811649323
-0.015550523065030575 -0.00046150595881044865 -0.15779998898506165
-0.014482666738331318 -0.00045390191371552646 -0.15519998967647552
-0.010939287953078747 -0.00044191096094436944 -0.15109999477863312
-0.01016924250870943 -0.00044278838322497904 -0.15139999985694885
-0.00945180281996727 -0.00044629789772443473 -0.1525999903678894
-0.008767180144786835 -0.0004521471564657986 -0.15459999442100525
-0.008102823048830032 -0.00046033613034524024 -0.1573999971151352
-0.00736755458638072 -0.0004658929246943444 -0.15929999947547913
0.01276659220457077 -0.00044191096094436944 -0.15109999477863312
0.013547815382480621 -0.0004416184965521097 -0.1509999930858612
0.014346983283758163 -0.00044191096094436944 -0.15109999477863312
-0.0413803830742836 -0.0013209882890805602 -0.16200000047683716
-0.04055820405483246 -0.0013218037784099579 -0.16210000216960907
-0.03971048444509506 -0.0013218037784099579 -0.16210000216960907
-0.03891070932149887 -0.0013234345242381096 -0.1622999906539917
-0.03801504150032997 -0.0013218037784099579 -0.16210000216960907
-0.037144389003515244 -0.0013209882890805602 -0.16200000047683716
-0.017473505809903145 -0.001307126134634018 -0.16030000150203705
-0.016500288620591164 -0.001296525471843779 -0.1589999943971634
-0.015570232644677162 -0.0012883712770417333 -0.15799999237060547
-0.01464130450040102 -0.0012794015929102898 -0.15689998865127563
-0.01357413548976183 -0.001256569754332304 -0.15410000085830688
-0.00937128346413374 -0.0012337377993389964 -0.15129999816417694
-0.008625408634543419 -0.0012402612483128905 -0.15209999680519104
-0.00796382874250412 -0.0012614622246474028 -0.15469999611377716
-0.0072981794364750385 -0.0012867404147982597 -0.15779998898506165
-0.006554984953254461 -0.0013030489208176732 -0.1597999930381775
0.01276659220457077 -0.0012321069370955229 -0.15109999477863312
0.013547815382480621 -0.001231291564181447 -0.1509999930858612
0.014337488450109959 -0.001231291564181447 -0.1509999930858612
-0.04053318127989769 -0.0021681871730834246 -0.16200000047683716
-0.03971048444509506 -0.002169525483623147 -0.16210000216960907
-0.03886276111006737 -0.002169525483623147 -0.16210000216960907
-0.03801504150032997 -0.002169525483623147 -0.16210000216960907
-0.03716731816530228 -0.002169525483623147 -0.16210000216960907
-0.019209854304790497 -0.002152126282453537 -0.1607999950647354
-0.01839177869260311 -0.0021548031363636255 -0.16099999845027924
-0.017495306208729744 -0.002148111118003726 -0.16049998998641968
-0.01653142273426056 -0.0021320506930351257 -0.15929999947547913
-0.01559979747980833 -0.0021186666563153267 -0.1582999974489212
-0.007855722680687904 -0.002042378531768918 -0.1525999903678894
-0.007159431464970112 -0.002071823226287961 -0.15479999780654907
-0.0064811487682163715 -0.0021146514918655157 -0.15799999237060547
-0.00571571197360754 -0.002137404168024659 -0.15969999134540558
-0.004929438699036837 -0.0021588183008134365 -0.16129998862743378
0.01276659220457077 -0.0020223029423505068 -0.15109999477863312
0.013547815382480621 -0.0020209643989801407 -0.1509999930858612
0.014337488450109959 -0.0020209643989801407 -0.1509999930858612
-0.04050816223025322 -0.003013524692505598 -0.16189999878406525
-0.03968598693609238 -0.0030153861735016108 -0.16200000047683716
-0.03886276111006737 -0.0030172476544976234 -0.16210000216960907
-0.03801504150032997 -0.0030172476544976234 -0.16210000216960907
-0.03716731816530228 -0.0030172476544976234 -0.16210000216960907
-0.02089170180261135 -0.0029930497985333204 -0.1607999950647354
-0.02005077712237835 -0.0029930497985333204 -0.1607999950647354
-0.01923374831676483 -0.002996772760525346 -0.16099999845027924
-0.01839177869260311 -0.002996772760525346 -0.16099999845027924
-0.01754980906844139 -0.002996772760525346 -0.16099999845027924
-0.016635198146104813 -0.0029837433248758316 -0.16030000150203705
-0.007071556989103556 -0.0028460032772272825 -0.15289999544620514
-0.006362191401422024 -0.002886953065171838 -0.1551000028848648
-0.005654868669807911 -0.0029409320559352636 -0.15799999237060547
-0.004883597604930401 -0.0029744363855570555 -0.1597999930381775
-0.004088433459401131 -0.0030042179860174656 -0.1613999903202057
0.01276659220457077 -0.0028124989476054907 -0.15109999477863312
0.013547815382480621 -0.0028106376994401217 -0.1509999930858612
0.014346983283758163 -0.0028124989476054907 -0.15109999477863312
-0.04048313945531845 -0.0038578163366764784 -0.16179999709129333
-0.03966148942708969 -0.003860200522467494 -0.16189999878406525
-0.038838788866996765 -0.0038625849410891533 -0.16200000047683716
-0.03801504150032997 -0.0038649693597108126 -0.16210000216960907
-0.037213172763586044 -0.003869737731292844 -0.1622999906539917
-0.021732624620199203 -0.00383397308178246 -0.1607999950647354
-0.020917687565088272 -0.0038387419190257788 -0.16099999845027924
-0.020088186487555504 -0.0038411261048167944 -0.16110000014305115
-0.01924569346010685 -0.0038411261048167944 -0.16110000014305115
-0.018403202295303345 -0.0038411261048167944 -0.16110000014305115
-0.01754980906844139 -0.0038387419190257788 -0.16099999845027924
-0.006997557822614908 -0.0036074635572731495 -0.15129999816417694
-0.006280151661485434 -0.0036503812298178673 -0.15309999883174896
-0.0055367606692016125 -0.0036885300651192665 -0.15469999611377716
-0.004831644240766764 -0.0037695965729653835 -0.15809999406337738
-0.004055503290146589 -0.00381728308275342 -0.16009999811649323
0.011976395733654499 -0.0036026949528604746 -0.15109999477863312
0.012758142314851284 -0.0036003105342388153 -0.1509999930858612
0.013556787744164467 -0.0036026949528604746 -0.15109999477863312
0.014365973882377148 -0.0036074635572731495 -0.15129999816417694
-0.03966148942708969 -0.00470687635242939 -0.16189999878406525
-0.038838788866996765 -0.0047097839415073395 -0.16200000047683716
-0.03801504150032997 -0.004712691064924002 -0.16210000216960907
-0.03723610192537308 -0.004721412435173988 -0.1623999923467636
-0.03638681024312973 -0.004721412435173988 -0.1623999923467636
-0.021759655326604843 -0.004680710844695568 -0.16099999845027924
-0.020943671464920044 -0.00468652555719018 -0.16120000183582306
-0.020100655034184456 -0.00468652555719018 -0.16120000183582306
-0.019269585609436035 -0.004689432680606842 -0.16129998862743378
-0.018414625898003578 -0.00468652555719018 -0.16120000183582306
-0.00776820769533515 -0.004387076012790203 -0.1508999913930893
-0.006983682978898287 -0.004389983601868153 -0.1509999930858612
-0.006214519497007132 -0.004404520150274038 -0.15150000154972076
-0.005522444378584623 -0.004485923331230879 -0.15429998934268951
-0.004837756510823965 -0.0046022143214941025 -0.1582999974489212
-0.00404537096619606 -0.00464291637763381 -0.15969999134540558
0.010382242500782013 -0.004387076012790203 -0.1508999913930893
0.011171393096446991 -0.004387076012790203 -0.1508999913930893
0.011960543692111969 -0.004387076012790203 -0.1508999913930893
0.012758142314851284 -0.004389983601868153 -0.1509999930858612
0.013556787744164467 -0.004392890725284815 -0.15109999477863312
0.014375468716025352 -0.004401612561196089 -0.15139999985694885
0.02155766822397709 -0.004581863526254892 -0.15760000050067902
0.022410258650779724 -0.004587677773088217 -0.15779998898506165
0.022985173389315605 -0.004538254346698523 -0.15609999001026154
0.023740528151392937 -0.004526625387370586 -0.15569999814033508
-0.03966148942708969 -0.0055535524152219296 -0.16189999878406525
-0.038838788866996765 -0.005556982476264238 -0.16200000047683716
-0.03801504150032997 -0.0055604130029678345 -0.16210000216960907
-0.03716731816530228 -0.0055604130029678345 -0.16210000216960907
-0.03636440262198448 -0.005567273125052452 -0.1622999906539917
-0.02095666341483593 -0.005532970651984215 -0.16129998862743378
-0.019269585609436035 -0.005532970651984215 -0.16129998862743378
-0.018414625898003578 -0.005529540590941906 -0.16120000183582306
-0.007773355580866337 -0.005179656203836203 -0.1509999930858612
-0.006988307926803827 -0.005183086730539799 -0.15109999477863312
-0.006230927538126707 -0.005210528615862131 -0.15189999341964722
-0.005518865771591663 -0.0052894242107868195 -0.1542000025510788
-0.004807196091860533 -0.005395761225372553 -0.15729999542236328
0.010361602529883385 -0.00516593549400568 -0.15060000121593475
0.011156587861478329 -0.005169366020709276 -0.15070000290870667
0.011960543692111969 -0.005176226142793894 -0.1508999913930893
0.012749693356454372 -0.005176226142793894 -0.1508999913930893
0.013556787744164467 -0.005183086730539799 -0.15109999477863312
0.0196819007396698 -0.005344307981431484 -0.155799999833107
0.020457208156585693 -0.005334016866981983 -0.15549999475479126
0.021174663677811623 -0.005310005508363247 -0.15479999780654907
0.021927401423454285 -0.005296284332871437 -0.15439999103546143
0.022661233320832253 -0.005279133096337318 -0.15389999747276306
0.023374587297439575 -0.005258552264422178 -0.15330000221729279
-0.03879083693027496 -0.0063962750136852264 -0.16179999709129333
-0.037991587072610855 -0.0064041814766824245 -0.16200000047683716
-0.037144389003515244 -0.0064041814766824245 -0.16200000047683716
-0.03631959483027458 -0.00640813447535038 -0.16210000216960907
-0.03547187149524689 -0.00640813447535038 -0.16210000216960907
-0.021773172542452812 -0.006368602626025677 -0.16110000014305115
-0.02095666341483593 -0.0063765086233615875 -0.16129998862743378
-0.020100655034184456 -0.006372555624693632 -0.16120000183582306
-0.01924569346010685 -0.006368602626025677 -0.16110000014305115
-0.01839177869260311 -0.006364649161696434 -0.16099999845027924
-0.008568699471652508 -0.005973282270133495 -0.15109999477863312
-0.007783651817589998 -0.005977235734462738 -0.15119999647140503
-0.007016057148575783 -0.00599700165912509 -0.1516999900341034
-0.006276049185544252 -0.006048393435776234 -0.15299999713897705
0.010327200405299664 -0.005933750420808792 -0.1500999927520752
0.011134377680718899 -0.005945610348135233 -0.15039999783039093
0.011944691650569439 -0.005957469809800386 -0.15070000290870667
0.012749693356454372 -0.005965375807136297 -0.1508999913930893
0.013556787744164467 -0.005973282270133495 -0.15109999477863312
0.018709696829319 -0.0061076912097632885 -0.15449999272823334
0.01950504072010517 -0.006103737745434046 -0.15439999103546143
0.020273027941584587 -0.00609187874943018 -0.15410000085830688
0.020969484001398087 -0.0060602533631026745 -0.15330000221729279
0.021643368527293205 -0.006024674512445927 -0.15240000188350677
0.0223372895270586 -0.00599700165912509 -0.1516999900341034
0.023084882646799088 -0.005985142197459936 -0.15139999985694885
0.023876646533608437 -0.005985142197459936 -0.15139999985694885
-0.03876686096191406 -0.0072379522025585175 -0.16169999539852142
-0.03794468566775322 -0.0072424281388521194 -0.16179999709129333
-0.03709853067994118 -0.0072424281388521194 -0.16179999709129333
-0.036274783313274384 -0.007246904540807009 -0.16189999878406525
