ply
format ascii 1.0
element vertex 741
property float x
property float y
property float z
end_header
0.02345707267522812 0.0024709790013730526 -0.10639999806880951
0.02401350438594818 0.0024709790013730526 -0.10639999806880951
0.024546843022108078 0.002468656748533249 -0.1062999963760376
0.025149982422590256 0.0024733014870435 -0.10649999976158142
-0.04923870414495468 0.002263628179207444 -0.1257999986410141
-0.04861943796277046 0.002265427727252245 -0.125900000333786
-0.047961026430130005 0.002265427727252245 -0.125900000333786
-0.04734019190073013 0.002267227042466402 -0.12600000202655792
-0.03332196921110153 0.0020530999172478914 -0.11409999430179596
-0.03309812396764755 0.0020764919463545084 -0.11539999395608902
-0.032579101622104645 0.0020818901248276234 -0.11569999903440475
-0.03222275152802467 0.0020980846602469683 -0.11659999936819077
-0.03177565336227417 0.002108881017193198 -0.11719999462366104
-0.03121591918170452 0.002112479880452156 -0.11739999800920486
-0.0299880038946867 0.002112479880452156 -0.11739999800920486
-0.029374046251177788 0.002112479880452156 -0.11739999800920486
-0.028711095452308655 0.002108881017193198 -0.11719999462366104
-0.028002284467220306 0.002101683523505926 -0.11679999530315399
-0.027180401608347893 0.0020854889880865812 -0.11589999496936798
-0.026459641754627228 0.0020764919463545084 -0.11539999395608902
-0.02552006021142006 0.0020495012868195772 -0.11389999836683273
-0.02347436174750328 0.001977525884285569 -0.10989999771118164
-0.022837117314338684 0.0019721277058124542 -0.1096000000834465
-0.02224363572895527 0.0019703281577676535 -0.10949999839067459
-0.02165120095014572 0.0019685288425534964 -0.10939999669790268
-0.02113688364624977 0.0019739270210266113 -0.10969999432563782
-0.020600683987140656 0.001977525884285569 -0.10989999771118164
-0.020062392577528954 0.0019811245147138834 -0.11009999364614487
-0.019539708271622658 0.0019865226931869984 -0.1103999987244606
-0.019134119153022766 0.0020045165438205004 -0.11140000075101852
-0.021582402288913727 0.002332004951313138 -0.12960000336170197
-0.02093690074980259 0.0023356035817414522 -0.1297999918460846
-0.02030491828918457 0.002341001760214567 -0.13009999692440033
-0.019639629870653152 0.002342801308259368 -0.13019999861717224
-0.004426050465553999 0.0019415379501879215 -0.1078999936580658
-0.003865353297442198 0.0019433373818174005 -0.10799999535083771
-0.0033036102540791035 0.0019451368134468794 -0.10809999704360962
-0.0027408211026340723 0.0019469362450763583 -0.10819999873638153
-0.002174976048991084 0.0019469362450763583 -0.10819999873638153
0.0018239038763567805 0.001988322241231799 -0.11050000041723251
0.002416991861537099 0.002000917913392186 -0.1111999973654747
0.0030066154431551695 0.0020063158590346575 -0.11149999499320984
0.0035929379519075155 0.0020081154070794582 -0.11159999668598175
0.0041728210635483265 0.0020063158590346575 -0.11149999499320984
0.0047431280836462975 0.002000917913392186 -0.1111999973654747
0.005305508617311716 0.0019937201868742704 -0.11079999804496765
0.005869016982614994 0.001988322241231799 -0.11050000041723251
0.006435221526771784 0.0019847233779728413 -0.11029999703168869
0.007018405944108963 0.0019865226931869984 -0.1103999987244606
0.007588875945657492 0.0019847233779728413 -0.11029999703168869
0.00816570408642292 0.0019847233779728413 -0.11029999703168869
0.008726678788661957 0.0019811245147138834 -0.11009999364614487
0.009277112782001495 0.0019757263362407684 -0.10979999601840973
0.009761604480445385 0.0019577324856072664 -0.1087999939918518
0.010273617692291737 0.0019469362450763583 -0.10819999873638153
0.010799391195178032 0.0019397387513890862 -0.10779999941587448
0.01129989791661501 0.0019289422780275345 -0.10719999670982361
0.011860514059662819 0.0019289422780275345 -0.10719999670982361
0.02285759337246418 0.0019109484273940325 -0.10619999468326569
0.023412978276610374 0.0019109484273940325 -0.10619999468326569
0.023968365043401718 0.0019109484273940325 -0.10619999468326569
0.024523749947547913 0.0019109484273940325 -0.10619999468326569
0.025079136714339256 0.0019109484273940325 -0.10619999468326569
-0.03973729535937309 0.0014295950531959534 -0.1119999960064888
-0.039116621017456055 0.0014283186756074429 -0.11189999431371689
-0.0384625606238842 0.0014257659204304218 -0.11169999837875366
-0.0334387868642807 0.0014615056570619345 -0.11449999362230301
-0.03329889476299286 0.0014819285133853555 -0.1160999983549118
-0.03300147503614426 0.0014959691325202584 -0.11719999462366104
-0.032526738941669464 0.0015023512532934546 -0.11769999563694
-0.03212811052799225 0.0015125626232475042 -0.1184999942779541
-0.030294524505734444 0.0015138391172513366 -0.11859999597072601
-0.029524169862270355 0.0015061806188896298 -0.11800000071525574
-0.02878458797931671 0.0014997984981164336 -0.11749999970197678
-0.02805023454129696 0.0014934163773432374 -0.11699999868869781
-0.027414917945861816 0.001492139883339405 -0.1168999969959259
-0.026230357587337494 0.001460229279473424 -0.1143999993801117
-0.02415851131081581 0.0014091723132878542 -0.1103999987244606
-0.02345300279557705 0.0014015138149261475 -0.10979999601840973
-0.022774605080485344 0.0013951316941529512 -0.10929999500513077
-0.022203007712960243 0.0013951316941529512 -0.10929999500513077
-0.02165120095014572 0.0013964080717414618 -0.10939999669790268
-0.021117616444826126 0.0013989609433338046 -0.1096000000834465
-0.020619429647922516 0.0014040666865184903 -0.10999999940395355
-0.02008061483502388 0.0014066194416955113 -0.11019999533891678
-0.0195574089884758 0.0014104488072916865 -0.11050000041723251
-0.019065413624048233 0.001416830811649561 -0.11099999397993088
-0.021130463108420372 0.0016721157589927316 -0.13099999725818634
-0.02046099118888378 0.001673392136581242 -0.13109999895095825
-0.019820641726255417 0.0016772215021774173 -0.131400004029274
-0.004413744434714317 0.0013734324602410197 -0.10759999603033066
-0.0038510372396558523 0.0013734324602410197 -0.10759999603033066
-0.003285273676738143 0.0013721559662371874 -0.10749999433755875
-0.002728155581280589 0.0013747088378295302 -0.10769999772310257
-0.0021669354755431414 0.0013759853318333626 -0.10779999941587448
-0.001604669145308435 0.001377261709421873 -0.1078999936580658
-0.001043285708874464 0.0013810910750180483 -0.10819999873638153
0.0018404097063466907 0.0014232129324227571 -0.11149999499320984
0.002432206878438592 0.0014283186756074429 -0.11189999431371689
0.003020097967237234 0.0014295950531959534 -0.1119999960064888
0.0036122549790889025 0.001432148041203618 -0.11219999939203262
0.004202760756015778 0.0014334243023768067 -0.11229999363422394
0.004790047183632851 0.0014334243023768067 -0.11229999363422394
0.005377333611249924 0.0014334243023768067 -0.11229999363422394
0.005959309171885252 0.001432148041203618 -0.11219999939203262
0.0065344045870006084 0.0014295950531959534 -0.1119999960064888
0.007101050112396479 0.0014257659204304218 -0.11169999837875366
0.008180510252714157 0.0014104488072916865 -0.11050000041723251
0.008718753233551979 0.0014040666865184903 -0.10999999940395355
0.009209520183503628 0.0013913024449720979 -0.10899999737739563
0.009707773104310036 0.0013810910750180483 -0.10819999873638153
0.010216647759079933 0.0013734324602410197 -0.10759999603033066
0.010709228925406933 0.0013644974678754807 -0.10689999908208847
0.011257735081017017 0.0013632210902869701 -0.10679999738931656
0.011816258542239666 0.0013632210902869701 -0.10679999738931656
0.022260207682847977 0.0013530097203329206 -0.10599999874830246
0.02279302477836609 0.0013517332263290882 -0.10589999705553055
0.02334684133529663 0.0013517332263290882 -0.10589999705553055
0.023923227563500404 0.0013530097203329206 -0.10599999874830246
0.024454474449157715 0.0013517332263290882 -0.10589999705553055
-0.04190399497747421 0.0008288081153295934 -0.10999999940395355
-0.041328735649585724 0.0008288081153295934 -0.10999999940395355
-0.040753480046987534 0.0008288081153295934 -0.10999999940395355
-0.03945345804095268 0.000837849685922265 -0.1111999973654747
-0.03901175037026405 0.0008408635039813817 -0.11159999668598175
-0.0382559560239315 0.0008370961877517402 -0.11109999567270279
-0.037437569350004196 0.0008318219915963709 -0.1103999987244606
-0.03672666847705841 0.0008288081153295934 -0.10999999940395355
-0.033335618674755096 0.0008303150534629822 -0.11019999533891678
-0.03368085250258446 0.0008536723325960338 -0.11329999566078186
-0.03358480706810951 0.0008664812194183469 -0.11499999463558197
-0.03372910991311073 0.0008860711823217571 -0.11759999394416809
-0.03339569270610809 0.00089360581478104 -0.11859999597072601
-0.033024176955223083 0.0009003870072774589 -0.11949999630451202
-0.03242634981870651 0.0009011404472403228 -0.11959999799728394
-0.031854063272476196 0.0009026473853737116 -0.11979999393224716
-0.03120148926973343 0.0009018939454108477 -0.11969999969005585
-0.030524415895342827 0.0009003870072774589 -0.11949999630451202
-0.027642667293548584 0.0008687415975145996 -0.1152999997138977
-0.025914015248417854 0.0008325754315592349 -0.11050000041723251
-0.02522149682044983 0.0008288081153295934 -0.10999999940395355
-0.022223321720957756 0.0008242873591370881 -0.10939999669790268
-0.02169078402221203 0.0008257942972704768 -0.1096000000834465
-0.02117541991174221 0.0008280546753667295 -0.10989999771118164
-0.020638173446059227 0.0008295615552924573 -0.11009999364614487
-0.020098837092518806 0.0008310684934258461 -0.11029999703168869
-0.019065413624048233 0.0008363426895812154 -0.11099999397993088
-0.018501579761505127 0.0008370961877517402 -0.11109999567270279
-0.01932276412844658 0.0009998439345508814 -0.13269999623298645
-0.004421948455274105 0.0008122319704852998 -0.10779999941587448
-0.0038510372396558523 0.0008107250323519111 -0.10759999603033066
-0.003282217774540186 0.0008092181524261832 -0.10740000009536743
-0.002715490059927106 0.0008077111560851336 -0.10719999670982361
-0.0021548746153712273 0.0008077111560851336 -0.10719999670982361
-0.0015927717322483659 0.0008069577161222696 -0.1070999950170517
-0.001034607645124197 0.0008084646542556584 -0.10729999840259552
-0.0004765579360537231 0.0008137388504110277 -0.10799999535083771
8.8486383901909e-05 0.0008159992867149413 -0.10830000042915344
0.00125166866928339 0.0008363426895812154 -0.11099999397993088
0.0018602169584482908 0.0008491516346111894 -0.11270000040531158
0.0024713308084756136 0.0008566862088628113 -0.11369999498128891
0.003071331884711981 0.0008581931469962001 -0.11389999836683273
0.0036669860128313303 0.0008581931469962001 -0.11389999836683273
0.0042588976211845875 0.0008574396488256752 -0.11379999667406082
0.007120121736079454 0.0008438773220404983 -0.1119999960064888
0.007685198914259672 0.0008416170021519065 -0.11169999837875366
0.008158301003277302 0.0008303150534629822 -0.11019999533891678
0.008655344136059284 0.0008227804210036993 -0.10920000076293945
0.00914192758500576 0.0008152457885444164 -0.10819999873638153
0.009600108489394188 0.0008062042761594057 -0.10700000077486038
0.01013119239360094 0.0008039438398554921 -0.10669999569654465
0.010679175145924091 0.0008031903998926282 -0.10659999400377274
0.011236652731895447 0.0008031903998926282 -0.10659999400377274
0.011794130317866802 0.0008031903998926282 -0.10659999400377274
0.021603481844067574 0.0007949023274704814 -0.1054999977350235
0.02215520665049553 0.0007949023274704814 -0.1054999977350235
0.02268540859222412 0.0007941488292999566 -0.10539999604225159
0.02325865626335144 0.0007949023274704814 -0.1054999977350235
0.023787811398506165 0.0007941488292999566 -0.10539999604225159
-0.04079052433371544 0.0002537801337894052 -0.11009999364614487
-0.03931153938174248 0.00025539365014992654 -0.11079999804496765
-0.038732100278139114 0.00025539365014992654 -0.11079999804496765
-0.038049355149269104 0.00025470214313827455 -0.11050000041723251
-0.0373358353972435 0.0002537801337894052 -0.11009999364614487
-0.036693282425403595 0.000253319158218801 -0.10989999771118164
-0.0360199511051178 0.00025262765120714903 -0.1096000000834465
-0.035349756479263306 0.00025193614419549704 -0.10929999500513077
-0.03474634140729904 0.0002517056418582797 -0.10920000076293945
-0.034175269305706024 0.0002517056418582797 -0.10920000076293945
-0.03369650989770889 0.0002523971488699317 -0.10949999839067459
-0.033275119960308075 0.00025354966055601835 -0.10999999940395355
-0.03424537181854248 0.00027521661831997335 -0.11939999461174011
-0.033733587712049484 0.0002761385985650122 -0.11979999393224716
-0.033245258033275604 0.00027729111025109887 -0.12029999494552612
-0.03269747272133827 0.00027798261726275086 -0.12060000002384186
-0.03141001984477043 0.00027775211492553353 -0.12049999833106995
-0.03067767806351185 0.0002768301055766642 -0.1200999990105629
-0.02989947609603405 0.0002754471206571907 -0.11949999630451202
-0.028319135308265686 0.00026645761681720614 -0.11559999734163284
-0.022712094709277153 0.00025124463718384504 -0.10899999737739563
-0.02224363572895527 0.0002523971488699317 -0.10949999839067459
-0.021750155836343765 0.000253319158218801 -0.10989999771118164
-0.02121395617723465 0.0002537801337894052 -0.11009999364614487
-0.020675664767622948 0.0002542411384638399 -0.11029999703168869
-0.020153502002358437 0.0002549326454754919 -0.11059999465942383
-0.019439253956079483 0.0003077170695178211 -0.13349999487400055
-0.004994952119886875 0.0002489396429155022 -0.10799999535083771
-0.004430152475833893 0.0002489396429155022 -0.10799999535083771
-0.0038617742247879505 0.00024870914057828486 -0.1078999936580658
-0.003285273676738143 0.000247787160333246 -0.10749999433755875
-0.002712956862524152 0.00024686515098437667 -0.1070999950170517
-0.002148844301700592 0.000246404146309942 -0.10689999908208847
-0.0015883102314546704 0.0002461736439727247 -0.10679999738931656
-0.0010297865374013782 0.0002461736439727247 -0.10679999738931656
-0.00047170414472930133 0.000246404146309942 -0.10689999908208847
8.807785343378782e-05 0.000248478667344898 -0.10779999941587448
0.0006566685042344034 0.0002503226569388062 -0.10859999805688858
0.001893228734843433 0.0002643831248860806 -0.11469999700784683
0.0025104547385126352 0.0002662271144799888 -0.11549999564886093
0.0031198691576719284 0.0002666881191544235 -0.11569999903440475
0.003721717046573758 0.00026645761681720614 -0.11559999734163284
0.00809907540678978 0.00025216664653271437 -0.10939999669790268
0.009040538221597672 0.00024663464864715934 -0.10700000077486038
0.009555247612297535 0.00024548216606490314 -0.10649999976158142
0.010093212127685547 0.0002450211613904685 -0.1062999963760376
0.010619067586958408 0.0002443296543788165 -0.10599999874830246
0.01119448896497488 0.00024479065905325115 -0.10619999468326569
0.021521572023630142 0.00024225516244769096 -0.10509999841451645
0.02209220640361309 0.0002424856647849083 -0.10520000010728836
0.02262083813548088 0.00024225516244769096 -0.10509999841451645
0.0231704730540514 0.00024225516244769096 -0.10509999841451645
0.02372010610997677 0.00024225516244769096 -0.10509999841451645
-0.03989098221063614 -0.00032404856756329536 -0.11079999804496765
-0.03862722963094711 -0.0003231711743865162 -0.11050000041723251
-0.037946052849292755 -0.00032229378120973706 -0.11019999533891678
-0.0373019278049469 -0.00032170885242521763 -0.10999999940395355
-0.036693282425403595 -0.0003214163880329579 -0.10989999771118164
-0.0360199511051178 -0.00032053899485617876 -0.1096000000834465
-0.0354144424200058 -0.00032024653046391904 -0.10949999839067459
-0.03484179824590683 -0.00032024653046391904 -0.10949999839067459
-0.03426915407180786 -0.00032024653046391904 -0.10949999839067459
-0.03375805541872978 -0.0003208314592484385 -0.10969999432563782
-0.033244866877794266 -0.0003214163880329579 -0.10989999771118164
-0.032729580998420715 -0.00032200131681747735 -0.11009999364614487
-0.03513262793421745 -0.0003518324811011553 -0.12029999494552612
-0.03458955138921738 -0.0003527099033817649 -0.12060000002384186
-0.03398701548576355 -0.00035300233867019415 -0.12069999426603317
-0.033383432775735855 -0.00035329480306245387 -0.12079999595880508
-0.03277880698442459 -0.0003535872674547136 -0.120899997651577
-0.03217313811182976 -0.0003538797318469733 -0.12099999934434891
-0.03154035285115242 -0.0003538797318469733 -0.12099999934434891
-0.03083093650639057 -0.00035300233867019415 -0.12069999426603317
-0.025988422334194183 -0.0003170294512528926 -0.10839999467134476
-0.023196686059236526 -0.00031761438003741205 -0.10859999805688858
-0.022691259160637856 -0.00031849174411036074 -0.10889999568462372
-0.02226394973695278 -0.00032053899485617876 -0.1096000000834465
-0.021750155836343765 -0.0003214163880329579 -0.10989999771118164
-0.021233223378658295 -0.00032229378120973706 -0.11019999533891678
-0.02073189802467823 -0.0003234636096749455 -0.11059999465942383
-0.02018994651734829 -0.00032404856756329536 -0.11079999804496765
-0.019663602113723755 -0.00032492593163624406 -0.11109999567270279
-0.01918564736843109 -0.00032668071798980236 -0.11169999837875366
-0.004438356496393681 -0.0003164445224683732 -0.10819999873638153
-0.0038725114427506924 -0.0003164445224683732 -0.10819999873638153
-0.003297497984021902 -0.00031556712929159403 -0.1078999936580658
-0.0027230894193053246 -0.00031439727172255516 -0.10749999433755875
-0.002150854328647256 -0.00031293497886508703 -0.10700000077486038
-0.0015868230257183313 -0.0003120575856883079 -0.10669999569654465
-0.001027858117595315 -0.00031176512129604816 -0.10659999400377274
-0.00047038032789714634 -0.00031176512129604816 -0.10659999400377274
8.717909804545343e-05 -0.0003120575856883079 -0.10669999569654465
0.0006451798253692687 -0.0003120575856883079 -0.10669999569654465
0.0019328430062159896 -0.0003424737078603357 -0.11710000038146973
0.007928802631795406 -0.00031322744325734675 -0.1070999950170517
0.008457190357148647 -0.0003120575856883079 -0.10669999569654465
0.008964496664702892 -0.00031030282843858004 -0.10610000044107437
0.009474499151110649 -0.00030884050647728145 -0.10559999942779541
0.010026747360825539 -0.00030884050647728145 -0.10559999942779541
0.010589012876152992 -0.0003091329417657107 -0.10569999366998672
0.011141783557832241 -0.0003091329417657107 -0.10569999366998672
0.011705619283020496 -0.00030942540615797043 -0.10579999536275864
0.020737992599606514 -0.0003497852594591677 -0.11959999799728394
0.021480618044734 -0.00030679325573146343 -0.10489999502897263
0.022029204294085503 -0.00030679325573146343 -0.10489999502897263
0.022577792406082153 -0.00030679325573146343 -0.10489999502897263
0.023126378655433655 -0.00030679325573146343 -0.10489999502897263
0.023697536438703537 -0.00030708572012372315 -0.10499999672174454
-0.03869714215397835 -0.00090267532505095 -0.11069999635219574
-0.038049355149269104 -0.0009010445210151374 -0.11050000041723251
-0.0373697467148304 -0.0008985981694422662 -0.11019999533891678
-0.03672666847705841 -0.0008969673654064536 -0.10999999940395355
-0.03608568012714386 -0.0008953365031629801 -0.10979999601840973
-0.03547912463545799 -0.0008945210720412433 -0.10969999432563782
-0.03493725508451462 -0.0008953365031629801 -0.10979999601840973
-0.034394338726997375 -0.0008961519342847168 -0.10989999771118164
-0.033850375562906265 -0.0008969673654064536 -0.10999999940395355
-0.033275119960308075 -0.0008969673654064536 -0.10999999940395355
-0.03275930881500244 -0.0008985981694422662 -0.11019999533891678
-0.035161834210157394 -0.0009817715035751462 -0.12039999663829803
-0.03444614261388779 -0.0009793252684175968 -0.1200999990105629
-0.033818066120147705 -0.0009793252684175968 -0.1200999990105629
-0.03318998962640762 -0.0009793252684175968 -0.1200999990105629
-0.03258902207016945 -0.0009801406413316727 -0.12019999325275421
-0.031987011432647705 -0.0009809561306610703 -0.12029999494552612
-0.03133181855082512 -0.0009801406413316727 -0.12019999325275421
-0.03075430728495121 -0.0009817715035751462 -0.12039999663829803
-0.023153964430093765 -0.0008839205256663263 -0.10839999467134476
-0.022691259160637856 -0.0008879976812750101 -0.10889999568462372
-0.022284263744950294 -0.0008945210720412433 -0.10969999432563782
-0.021789737045764923 -0.0008977827383205295 -0.11009999364614487
-0.021291028708219528 -0.0009010445210151374 -0.11050000041723251
-0.019752096384763718 -0.00091001414693892 -0.11159999668598175
-0.01921999827027321 -0.0009124603820964694 -0.11189999431371689
-0.018834643065929413 -0.0009222455555573106 -0.11309999972581863
-0.01903354749083519 -0.0009622013894841075 -0.11800000071525574
-0.018666166812181473 -0.0009752481710165739 -0.11959999799728394
-0.018055789172649384 -0.0009760636021383107 -0.11969999969005585
-0.0038796693552285433 -0.0008839205256663263 -0.10839999467134476
-0.003306666389107704 -0.0008822897216305137 -0.10819999873638153
-0.002738288138061762 -0.0008814742905087769 -0.10809999704360962
-0.0021548746153712273 -0.0008741354686208069 -0.10719999670982361
-0.0015868230257183313 -0.0008700583130121231 -0.10669999569654465
-0.0010268939658999443 -0.0008684275089763105 -0.10649999976158142
-0.00046861529699526727 -0.0008659811574034393 -0.10619999468326569
8.660717139719054e-05 -0.0008643503533676267 -0.10599999874830246
0.000640947138890624 -0.0008643503533676267 -0.10599999874830246
0.001331730280071497 -0.0009630167623981833 -0.11809999495744705
0.00789178628474474 -0.0008692428818903863 -0.10659999400377274
0.008401707746088505 -0.0008643503533676267 -0.10599999874830246
0.008905353024601936 -0.0008594577666372061 -0.10539999604225159
0.009447582066059113 -0.0008586423355154693 -0.10529999434947968
0.00999826192855835 -0.0008586423355154693 -0.10529999434947968
0.01055895909667015 -0.0008594577666372061 -0.10539999604225159
0.011110161431133747 -0.0008594577666372061 -0.10539999604225159
0.011661363765597343 -0.0008594577666372061 -0.10539999604225159
0.012212565168738365 -0.0008594577666372061 -0.10539999604225159
0.015134092420339584 -0.0009768789168447256 -0.11979999393224716
0.015760600566864014 -0.0009768789168447256 -0.11979999393224716
0.01637343131005764 -0.0009760636021383107 -0.11969999969005585
0.016999417915940285 -0.0009760636021383107 -0.11969999969005585
0.01761067844927311 -0.0009752481710165739 -0.11959999799728394
0.01823614165186882 -0.0009752481710165739 -0.11959999799728394
0.01886160485446453 -0.0009752481710165739 -0.11959999799728394
0.019487066194415092 -0.0009752481710165739 -0.11959999799728394
0.0203834418207407 -0.0008553806692361832 -0.10489999502897263
0.02091207727789879 -0.0008545652963221073 -0.10480000078678131
0.021460141986608505 -0.0008545652963221073 -0.10480000078678131
0.022008204832673073 -0.0008545652963221073 -0.10480000078678131
0.02255626954138279 -0.0008545652963221073 -0.10480000078678131
0.023104334250092506 -0.0008545652963221073 -0.10480000078678131
0.023652398958802223 -0.0008545652963221073 -0.10480000078678131
-0.03753930330276489 -0.001481594517827034 -0.11069999635219574
-0.03679344430565834 -0.0014749024994671345 -0.11019999533891678
-0.03615141287446022 -0.0014722257619723678 -0.10999999940395355
-0.03557615354657173 -0.0014722257619723678 -0.10999999940395355
-0.035032711923122406 -0.0014735640725120902 -0.11009999364614487
-0.03448822721838951 -0.0014749024994671345 -0.11019999533891678
-0.03394269570708275 -0.0014762409264221787 -0.11029999703168869
-0.03348686918616295 -0.001481594517827034 -0.11069999635219574
-0.03323494642972946 -0.0014963167486712337 -0.11180000007152557
-0.03460695222020149 -0.0015859886771067977 -0.1184999942779541
-0.03421669453382492 -0.0015966958599165082 -0.1193000003695488
-0.03359280154109001 -0.0015966958599165082 -0.1193000003695488
-0.033024176955223083 -0.001599372480995953 -0.11949999630451202
-0.03242634981870651 -0.0016007109079509974 -0.11959999799728394
-0.031827475875616074 -0.0016020493349060416 -0.11969999969005585
-0.023132607340812683 -0.0014494732022285461 -0.10830000042915344
-0.022691259160637856 -0.001457503531128168 -0.10889999568462372
-0.022284263744950294 -0.0014682105975225568 -0.10969999432563782
-0.021769946441054344 -0.0014722257619723678 -0.10999999940395355
-0.01905113272368908 -0.0015311148017644882 -0.1143999993801117
-0.0189367663115263 -0.001571266446262598 -0.11739999800920486
-0.018603738397359848 -0.001595357432961464 -0.11919999867677689
-0.018040703609585762 -0.0016007109079509974 -0.11959999799728394
-0.0174152422696352 -0.0016007109079509974 -0.11959999799728394
-0.003908301703631878 -0.001461518695577979 -0.10920000076293945
-0.0033250025007873774 -0.0014561651041731238 -0.1087999939918518
-0.002745887264609337 -0.0014508115127682686 -0.10839999467134476
-0.0021689455024898052 -0.0014441196108236909 -0.1078999936580658
-0.0015883102314546704 -0.0014293973799794912 -0.10679999738931656
-0.0010259296977892518 -0.001424043788574636 -0.10639999806880951
-0.0004677328106481582 -0.0014186903135851026 -0.10599999874830246
8.628034993307665e-05 -0.0014133367221802473 -0.10559999942779541
0.0006379238329827785 -0.0014119984116405249 -0.1054999977350235
0.007847367785871029 -0.0014186903135851026 -0.10599999874830246
0.008377928286790848 -0.0014146750327199697 -0.10569999366998672
0.008913801982998848 -0.0014119984116405249 -0.1054999977350235
0.009456554427742958 -0.0014106599846854806 -0.10539999604225159
0.00999826192855835 -0.0014093215577304363 -0.10529999434947968
0.010548940859735012 -0.0014093215577304363 -0.10529999434947968
0.011099619790911674 -0.0014093215577304363 -0.10529999434947968
0.011650299653410912 -0.0014093215577304363 -0.10529999434947968
0.012200978584587574 -0.0014093215577304363 -0.10529999434947968
0.015108827501535416 -0.0016007109079509974 -0.11959999799728394
0.015734290704131126 -0.0016007109079509974 -0.11959999799728394
0.016359753906726837 -0.0016007109079509974 -0.11959999799728394
0.0169852152466774 -0.0016007109079509974 -0.11959999799728394
0.01762540452182293 -0.0016020493349060416 -0.11969999969005585
0.018251389265060425 -0.0016020493349060416 -0.11969999969005585
0.01886160485446453 -0.0016007109079509974 -0.11959999799728394
0.019853763282299042 -0.0014053063932806253 -0.10499999672174454
0.0203834418207407 -0.001403967966325581 -0.10489999502897263
0.02091207727789879 -0.0014026296557858586 -0.10480000078678131
0.021460141986608505 -0.0014026296557858586 -0.10480000078678131
0.021987205371260643 -0.0014012912288308144 -0.1046999990940094
0.022534746676683426 -0.0014012912288308144 -0.1046999990940094
0.02306024171411991 -0.001399952918291092 -0.10459999740123749
-0.033184170722961426 -0.00215358124114573 -0.11569999903440475
-0.03294515982270241 -0.0021777788642793894 -0.11699999868869781
-0.03247147053480148 -0.002187085570767522 -0.11749999970197678
-0.03196543827652931 -0.0021945310290902853 -0.11789999902248383
-0.031402043998241425 -0.002198253758251667 -0.11809999495744705
-0.03117542341351509 -0.0022261738777160645 -0.11959999799728394
-0.023655207827687263 -0.002012118697166443 -0.10809999704360962
-0.023132607340812683 -0.0020158414263278246 -0.10830000042915344
-0.022753769531846046 -0.0020325935911387205 -0.10920000076293945
-0.022304577752947807 -0.0020437617786228657 -0.10979999601840973
-0.021789737045764923 -0.0020493457559496164 -0.11009999364614487
-0.021348832175135612 -0.0020623751915991306 -0.11079999804496765
-0.020919349044561386 -0.002077265875414014 -0.11159999668598175
-0.019875990226864815 -0.002090295311063528 -0.11229999363422394
-0.019494816660881042 -0.0021126316860318184 -0.11349999904632568
-0.019151050597429276 -0.002140551805496216 -0.11499999463558197
-0.01895289681851864 -0.002187085570767522 -0.11749999970197678
-0.018463274464011192 -0.0022019764874130487 -0.11829999834299088
-0.01802561990916729 -0.0022243126295506954 -0.11949999630451202
-0.017400680109858513 -0.0022243126295506954 -0.11949999630451202
-0.003933354746550322 -0.0020456230267882347 -0.10989999771118164
-0.0033525072503834963 -0.002041900297626853 -0.10969999432563782
-0.002768685342743993 -0.0020344548393040895 -0.10929999500513077
-0.0021769863087683916 -0.0020158414263278246 -0.10830000042915344
-0.0015912846429273486 -0.001991644036024809 -0.10700000077486038
-0.0010249654296785593 -0.001978614367544651 -0.1062999963760376
-0.0004655265074688941 -0.001963723683729768 -0.1054999977350235
8.595352846896276e-05 -0.001958139706403017 -0.10520000010728836
0.0006361098494380713 -0.001958139706403017 -0.10520000010728836
0.007854770869016647 -0.001974891871213913 -0.10610000044107437
0.008393781259655952 -0.0019711691420525312 -0.10589999705553055
0.008930699899792671 -0.0019674464128911495 -0.10569999366998672
0.009474499151110649 -0.0019655851647257805 -0.10559999942779541
0.010026747360825539 -0.0019655851647257805 -0.10559999942779541
0.01055895909667015 -0.001961862202733755 -0.10539999604225159
0.011110161431133747 -0.001961862202733755 -0.10539999604225159
0.011661363765597343 -0.001961862202733755 -0.10539999604225159
0.015734290704131126 -0.0022261738777160645 -0.11959999799728394
0.016359753906726837 -0.0022261738777160645 -0.11959999799728394
0.0169852152466774 -0.0022261738777160645 -0.11959999799728394
0.01764012686908245 -0.002229896606877446 -0.11979999393224716
0.01826663687825203 -0.002229896606877446 -0.11979999393224716
0.019598819315433502 -0.001984198344871402 -0.10659999400377274
0.019853763282299042 -0.0019544169772416353 -0.10499999672174454
0.020402874797582626 -0.0019544169772416353 -0.10499999672174454
0.02093202993273735 -0.0019525554962456226 -0.10489999502897263
0.021480618044734 -0.0019525554962456226 -0.10489999502897263
0.021987205371260643 -0.0019488328834995627 -0.1046999990940094
0.022534746676683426 -0.0019488328834995627 -0.1046999990940094
0.02306024171411991 -0.0019469715189188719 -0.10459999740123749
-0.03269658982753754 -0.002718115458264947 -0.11400000005960464
-0.0324101522564888 -0.002744342666119337 -0.11509999632835388
-0.032056938856840134 -0.002765801502391696 -0.11599999666213989
-0.031341854482889175 -0.002756264293566346 -0.11559999734163284
-0.03108297288417816 -0.002787260338664055 -0.1168999969959259
-0.02404128573834896 -0.002558366395533085 -0.10729999840259552
-0.023633325472474098 -0.002575056627392769 -0.10799999535083771
-0.023153964430093765 -0.0025845938362181187 -0.10839999467134476
-0.02279544249176979 -0.002608436858281493 -0.10939999669790268
-0.02232489176094532 -0.0026203584857285023 -0.10989999771118164
-0.021809527650475502 -0.002627511275932193 -0.11019999533891678
-0.021425902843475342 -0.002651354530826211 -0.1111999973654747
-0.02099432796239853 -0.0026704289484769106 -0.1119999960064888
-0.019201010465621948 -0.0027491115033626556 -0.1152999997138977
-0.018791595473885536 -0.002777723129838705 -0.11649999767541885
-0.018400846049189568 -0.002811103593558073 -0.11789999902248383
-0.017995452508330345 -0.0028444838244467974 -0.1193000003695488
-0.017400680109858513 -0.0028492524288594723 -0.11949999630451202
-0.0033647315576672554 -0.002625127090141177 -0.11009999364614487
-0.0027864170260727406 -0.0026227429043501616 -0.10999999940395355
-0.002183016622439027 -0.0025893624406307936 -0.10859999805688858
-0.0015912846429273486 -0.0025512136053293943 -0.10700000077486038
-0.001021108590066433 -0.002524985931813717 -0.10589999705553055
-0.00046420274884440005 -0.0025082959327846766 -0.10520000010728836
8.579011773690581e-05 -0.0025035273283720016 -0.10499999672174454
0.0006349004688672721 -0.0025035273283720016 -0.10499999672174454
0.001952650025486946 -0.002820640802383423 -0.11829999834299088
0.008433411829173565 -0.002536907559260726 -0.10639999806880951
0.008964496664702892 -0.0025297547690570354 -0.10610000044107437
0.009519360028207302 -0.0025297547690570354 -0.10610000044107437
0.010064727626740932 -0.002527370350435376 -0.10599999874830246
0.010599031113088131 -0.0025226017460227013 -0.10579999536275864
0.011141783557832241 -0.002520217327401042 -0.10569999366998672
0.011705619283020496 -0.0025226017460227013 -0.10579999536275864
0.012282087467610836 -0.002527370350435376 -0.10599999874830246
0.012836427427828312 -0.002527370350435376 -0.10599999874830246
0.016359753906726837 -0.0028516368474811316 -0.11959999799728394
0.0169852152466774 -0.0028516368474811316 -0.11959999799728394
0.01762540452182293 -0.002854021033272147 -0.11969999969005585
0.016757123172283173 -0.0026203584857285023 -0.10989999771118164
0.01728454791009426 -0.0026132056955248117 -0.1096000000834465
0.01784142106771469 -0.0026108212769031525 -0.10949999839067459
0.018397247418761253 -0.002608436858281493 -0.10939999669790268
0.019672362133860588 -0.0025512136053293943 -0.10700000077486038
0.020118480548262596 -0.002536907559260726 -0.10639999806880951
0.020480599254369736 -0.0025130645371973515 -0.10539999604225159
0.020971938967704773 -0.0025059115141630173 -0.10509999841451645
0.021501094102859497 -0.0025035273283720016 -0.10499999672174454
0.022029204294085503 -0.0025011429097503424 -0.10489999502897263
0.02255626954138279 -0.0024987587239593267 -0.10480000078678131
-0.03255318105220795 -0.0032997559756040573 -0.11349999904632568
-0.03201593458652496 -0.0033055702224373817 -0.11369999498128891
-0.03147659823298454 -0.0033113849349319935 -0.11389999836683273
-0.03085383214056492 -0.0033084775786846876 -0.11379999667406082
-0.030258702114224434 -0.0033084775786846876 -0.11379999667406082
-0.029637504369020462 -0.0033055702224373817 -0.11369999498128891
-0.02604086510837078 -0.003090432146564126 -0.1062999963760376
-0.023589560762047768 -0.003134041326120496 -0.10779999941587448
-0.023153964430093765 -0.0031514847651124 -0.10839999467134476
-0.022837117314338684 -0.003186372108757496 -0.1096000000834465
-0.022345205768942833 -0.0031980013009160757 -0.10999999940395355
-0.021908482536673546 -0.003218352096155286 -0.11069999635219574
-0.021522242575883865 -0.0032474249601364136 -0.11169999837875366
-0.019700929522514343 -0.0033346430864185095 -0.11469999700784683
-0.019250968471169472 -0.0033608085941523314 -0.11559999734163284
-0.018823854625225067 -0.0033927885815501213 -0.11669999361038208
-0.018369629979133606 -0.0034218612127006054 -0.11769999563694
-0.017935113981366158 -0.0034567485563457012 -0.11889999359846115
-0.017371557652950287 -0.003468377748504281 -0.1193000003695488
-0.016761701554059982 -0.0034712848719209433 -0.11939999461174011
-0.003373899729922414 -0.003209630260244012 -0.1103999987244606
-0.002791483188048005 -0.003203815780580044 -0.11019999533891678
-0.0022091486025601625 -0.00319509394466877 -0.10989999771118164
-0.0010124306427314878 -0.0030526374466717243 -0.10499999672174454
-0.0004628789611160755 -0.0030497300904244184 -0.10489999502897263
8.55450052767992e-05 -0.003043915843591094 -0.1046999990940094
0.0006330864853225648 -0.003043915843591094 -0.1046999990940094
0.0019476982997730374 -0.003430583281442523 -0.11800000071525574
0.008473042398691177 -0.003107875818386674 -0.10689999908208847
0.00900674145668745 -0.0030991537496447563 -0.10659999400377274
0.009564219042658806 -0.0030991537496447563 -0.10659999400377274
0.010112202726304531 -0.003096246626228094 -0.10649999976158142
0.01064912136644125 -0.003090432146564126 -0.1062999963760376
0.01119448896497488 -0.00308752479031682 -0.10619999468326569
0.011738811619579792 -0.003084617666900158 -0.10610000044107437
0.012293674051761627 -0.003084617666900158 -0.10610000044107437
0.012836427427828312 -0.003081710310652852 -0.10599999874830246
0.01621183566749096 -0.003200908424332738 -0.11009999364614487
0.016772370785474777 -0.0031980013009160757 -0.10999999940395355
0.01731608808040619 -0.003192186588421464 -0.10979999601840973
0.017874006181955338 -0.003189279232174158 -0.10969999432563782
0.018447695299983025 -0.003189279232174158 -0.10969999432563782
0.01898670755326748 -0.0031834649853408337 -0.10949999839067459
0.019452176988124847 -0.003166021080687642 -0.10889999568462372
0.019911371171474457 -0.003148577641695738 -0.10830000042915344
0.02026974782347679 -0.003116597654297948 -0.10719999670982361
0.021011846140027046 -0.0030613592825829983 -0.10529999434947968
0.021562526002526283 -0.0030613592825829983 -0.10529999434947968
0.02205020561814308 -0.0030526374466717243 -0.10499999672174454
-0.03198777884244919 -0.0038967481814324856 -0.1136000007390976
-0.03142132982611656 -0.0039001782424747944 -0.11369999498128891
-0.030799608677625656 -0.0038967481814324856 -0.1136000007390976
-0.030152345076203346 -0.0038898875936865807 -0.11339999735355377
-0.029507171362638474 -0.0038830270059406757 -0.11319999396800995
-0.02599187195301056 -0.0036394805647432804 -0.10610000044107437
-0.023414500057697296 -0.0036703527439385653 -0.10700000077486038
-0.02306852675974369 -0.0037046547513455153 -0.10799999535083771
-0.02264958620071411 -0.003728666575625539 -0.10869999974966049
-0.022284263744950294 -0.0037629688158631325 -0.10969999432563782
-0.021888691931962967 -0.0037938409950584173 -0.11059999465942383
-0.02158004604279995 -0.003841864410787821 -0.1119999960064888
-0.021256757900118828 -0.0038898875936865807 -0.11339999735355377
-0.02082771621644497 -0.003920760005712509 -0.11429999768733978
-0.020318465307354927 -0.003937911242246628 -0.11479999870061874
-0.019821161404252052 -0.003958492074161768 -0.11539999395608902
-0.019300928339362144 -0.003975643310695887 -0.11589999496936798
-0.018856115639209747 -0.004009945783764124 -0.1168999969959259
-0.0183540228754282 -0.0040339576080441475 -0.11759999394416809
-0.01787477731704712 -0.004064829554408789 -0.1184999942779541
-0.017313312739133835 -0.0040785507299005985 -0.11889999359846115
-0.01671958714723587 -0.0040854113176465034 -0.11909999698400497
-0.002788949990645051 -0.0037766897585242987 -0.11009999364614487
-0.0022111586295068264 -0.00377325969748199 -0.10999999940395355
-0.0010066452668979764 -0.0035811662673950195 -0.10439999401569366
-0.0004606726870406419 -0.0035811662673950195 -0.10439999401569366
8.529988554073498e-05 -0.0035811662673950195 -0.10439999401569366
0.0006312724435701966 -0.0035811662673950195 -0.10439999401569366
0.0019460476469248533 -0.004044248256832361 -0.11789999902248383
0.008584008552134037 -0.0037149456329643726 -0.10830000042915344
0.00911657977849245 -0.003701224457472563 -0.1078999936580658
0.009618052281439304 -0.0036772130988538265 -0.10719999670982361
0.010140687227249146 -0.0036634921561926603 -0.10679999738931656
0.010679175145924091 -0.0036566315684467554 -0.10659999400377274
0.011226112022995949 -0.0036532015074044466 -0.10649999976158142
0.011783067137002945 -0.0036532015074044466 -0.10649999976158142
0.012340021319687366 -0.0036532015074044466 -0.10649999976158142
0.012884866446256638 -0.003649771213531494 -0.10639999806880951
0.01622656174004078 -0.003780120052397251 -0.11019999533891678
0.016772370785474777 -0.00377325969748199 -0.10999999940395355
0.017331859096884727 -0.0037698294036090374 -0.10989999771118164
0.017922887578606606 -0.00377325969748199 -0.10999999940395355
0.018498146906495094 -0.00377325969748199 -0.10999999940395355
0.019056065008044243 -0.0037698294036090374 -0.10989999771118164
0.019630802795290947 -0.0037698294036090374 -0.10989999771118164
0.020131995901465416 -0.003756108460947871 -0.10949999839067459
0.02102467603981495 -0.00371151533909142 -0.10819999873638153
0.021849926561117172 -0.003756108460947871 -0.10949999839067459
0.021828729659318924 -0.0036566315684467554 -0.10659999400377274
-0.027842354029417038 -0.004308986011892557 -0.10899999737739563
-0.025893880054354668 -0.004178530536592007 -0.10569999366998672
-0.022748131304979324 -0.004210156388580799 -0.10649999976158142
-0.022482890635728836 -0.004265500698238611 -0.1078999936580658
-0.021999871358275414 -0.004281313624233007 -0.10830000042915344
-0.021750155836343765 -0.004344564862549305 -0.10989999771118164
-0.021637849509716034 -0.004439441487193108 -0.11229999363422394
-0.02133173681795597 -0.00449873972684145 -0.11379999667406082
-0.020955270156264305 -0.004546178039163351 -0.11499999463558197
-0.020424658432602882 -0.00456199049949646 -0.11539999395608902
-0.019872689619660378 -0.004573850426822901 -0.11569999903440475
-0.019367540255188942 -0.004597569350153208 -0.11629999428987503
-0.018904507160186768 -0.004633148200809956 -0.11719999462366104
-0.0183540228754282 -0.004648961126804352 -0.11759999394416809
-0.01781444065272808 -0.004668727051466703 -0.11809999495744705
-0.017255067825317383 -0.0046845399774611 -0.1184999942779541
-0.003972724080085754 -0.004388049710541964 -0.11099999397993088
-0.0033647315576672554 -0.004352471325546503 -0.11009999364614487
-0.0027661523781716824 -0.004316892474889755 -0.10920000076293945
-0.0021769863087683916 -0.004281313624233007 -0.10830000042915344
-0.0010018242755904794 -0.004107373300939798 -0.1039000004529953
-0.00045890765613876283 -0.004111326299607754 -0.10399999469518661
8.49730713525787e-05 -0.004111326299607754 -0.10399999469518661
0.0006294584600254893 -0.004115279298275709 -0.10409999638795853
0.001324964570812881 -0.004645008128136396 -0.11749999970197678
0.0019394452683627605 -0.004645008128136396 -0.11749999970197678
0.008734605275094509 -0.0043564243242144585 -0.11019999533891678
0.009285562671720982 -0.004344564862549305 -0.10989999771118164
0.009716744534671307 -0.004281313624233007 -0.10830000042915344
0.010235637426376343 -0.004261547699570656 -0.10779999941587448
0.010729264467954636 -0.004233875311911106 -0.1070999950170517
0.011247193440794945 -0.00421806238591671 -0.10669999569654465
0.011805194430053234 -0.00421806238591671 -0.10669999569654465
0.012351607903838158 -0.0042141093872487545 -0.10659999400377274
0.016787618398666382 -0.004352471325546503 -0.11009999364614487
0.017363399267196655 -0.004352471325546503 -0.11009999364614487
0.0179554745554924 -0.0043564243242144585 -0.11019999533891678
0.01858222857117653 -0.004368284251540899 -0.11050000041723251
0.01919477991759777 -0.00437619024887681 -0.11069999635219574
0.019737977534532547 -0.004368284251540899 -0.11050000041723251
0.020334234461188316 -0.004372237250208855 -0.11059999465942383
0.021704772487282753 -0.004415722563862801 -0.11169999837875366
0.02240864560008049 -0.004439441487193108 -0.11229999363422394
0.02313927374780178 -0.004467113874852657 -0.11299999803304672
0.02389822155237198 -0.00449873972684145 -0.11379999667406082
-0.022128665819764137 -0.004753682762384415 -0.10619999468326569
-0.021593593060970306 -0.004758158698678017 -0.1062999963760376
-0.021413711830973625 -0.0048432061448693275 -0.10819999873638153
-0.02121395617723465 -0.004928253125399351 -0.11009999364614487
-0.021500442177057266 -0.005134156439453363 -0.11469999700784683
-0.02102815732359886 -0.005165489390492439 -0.11539999395608902
-0.020460058003664017 -0.0051744417287409306 -0.11559999734163284
-0.019924217835068703 -0.005192346405237913 -0.11599999666213989
-0.019467459991574287 -0.005232632160186768 -0.1168999969959259
-0.01895289681851864 -0.0052594891749322414 -0.11749999970197678
-0.018369629979133606 -0.005268441047519445 -0.11769999563694
-0.004553212318569422 -0.004968538414686918 -0.11099999397993088
-0.003965566400438547 -0.004959586076438427 -0.11079999804496765
-0.003373899729922414 -0.004941681399941444 -0.1103999987244606
-0.0021327631548047066 -0.004749206826090813 -0.10610000044107437
-0.001548156258650124 -0.0046596834436059 -0.10409999638795853
-0.0010008600074797869 -0.0046462551690638065 -0.10379999876022339
-0.0004580251406878233 -0.0046462551690638065 -0.10379999876022339
8.480966062052175e-05 -0.0046462551690638065 -0.10379999876022339
0.0006282491376623511 -0.0046507311053574085 -0.1039000004529953
0.0019311923533678055 -0.00523710809648037 -0.11699999868869781
0.008813866414129734 -0.0049774907529354095 -0.1111999973654747
0.009310909546911716 -0.004932729061692953 -0.11019999533891678
0.009833381511271 -0.0049058725126087666 -0.1096000000834465
0.010425537824630737 -0.0049148243851959705 -0.10979999601840973
0.010809408500790596 -0.004829777404665947 -0.1078999936580658
0.011405307799577713 -0.0048432061448693275 -0.10819999873638153
0.011827322654426098 -0.004785016179084778 -0.10689999908208847
0.018085822463035583 -0.004968538414686918 -0.11099999397993088
0.01868312805891037 -0.0049730148166418076 -0.11109999567270279
0.019316157326102257 -0.004986443091183901 -0.11140000075101852
0.019952325150370598 -0.004999871831387281 -0.11169999837875366
0.020536474883556366 -0.004999871831387281 -0.11169999837875366
0.021120622754096985 -0.004999871831387281 -0.11169999837875366
0.021899085491895676 -0.005044633522629738 -0.11270000040531158
0.022588234394788742 -0.005067013669759035 -0.11319999396800995
0.023262137547135353 -0.005084918811917305 -0.1136000007390976
-0.02132951281964779 -0.005249079316854477 -0.10499999672174454
-0.020780403167009354 -0.005249079316854477 -0.10499999672174454
-0.02023129351437092 -0.005249079316854477 -0.10499999672174454
-0.021064601838588715 -0.005778986029326916 -0.11559999734163284
-0.020513154566287994 -0.005793983582407236 -0.11589999496936798
-0.01995857059955597 -0.0058089811354875565 -0.11620000004768372
-0.01951741799712181 -0.005858972202986479 -0.11719999462366104
-0.01895289681851864 -0.005873969756066799 -0.11749999970197678
-0.004512192215770483 -0.005499035585671663 -0.10999999940395355
-0.003933354746550322 -0.005494036246091127 -0.10989999771118164
-0.0021086412016302347 -0.005244079977273941 -0.10489999502897263
-0.0015496434643864632 -0.005209085997194052 -0.10419999808073044
-0.0010018242755904794 -0.005194088909775019 -0.1039000004529953
-0.0004580251406878233 -0.005189089570194483 -0.10379999876022339
8.480966062052175e-05 -0.005189089570194483 -0.10379999876022339
0.001305794925428927 -0.0057889847084879875 -0.11580000072717667
0.0019163369433954358 -0.005803981795907021 -0.1160999983549118
0.008924832567572594 -0.005629012361168861 -0.11259999871253967
0.009454543702304363 -0.005594018381088972 -0.11189999431371689
0.009976934641599655 -0.00555902486667037 -0.1111999973654747
0.01051099319010973 -0.005534029100090265 -0.11069999635219574
0.018199877813458443 -0.005584020633250475 -0.11169999837875366
0.01878402754664421 -0.005584020633250475 -0.11169999837875366
0.01938551478087902 -0.0055890195071697235 -0.11180000007152557
0.020023776218295097 -0.005604017060250044 -0.11209999769926071
0.02066517248749733 -0.005619014147669077 -0.11239999532699585
0.021366432309150696 -0.005649009253829718 -0.11299999803304672
0.022054536268115044 -0.005674004554748535 -0.11349999904632568
-0.02066165767610073 -0.005765056703239679 -0.10439999401569366
-0.020096417516469955 -0.005759534891694784 -0.10429999977350235
-0.01955096796154976 -0.005759534891694784 -0.10429999977350235
-0.02113748900592327 -0.0064056189730763435 -0.11599999666213989
-0.02056625299155712 -0.006416663061827421 -0.11620000004768372
-0.020095977932214737 -0.006460839882493019 -0.11699999868869781
-0.01955072395503521 -0.006482928059995174 -0.11739999800920486
-0.01898515783250332 -0.0064994944259524345 -0.11769999563694
-0.0021026108879595995 -0.005776101257652044 -0.10459999740123749
-0.0010066452668979764 -0.005765056703239679 -0.10439999401569366
8.538159454474226e-05 -0.005770578980445862 -0.10449999570846558
0.0013012842973694205 -0.006372486241161823 -0.11539999395608902
0.0019080840284004807 -0.006383530329912901 -0.11559999734163284
0.009589729830622673 -0.006267566699534655 -0.11349999904632568
0.010156375356018543 -0.0062510003335773945 -0.11319999396800995
0.010729379020631313 -0.006239956244826317 -0.11299999803304672
0.01124018244445324 -0.006195779889822006 -0.11219999939203262
0.011932355351746082 -0.0062510003335773945 -0.11319999396800995
0.01824875734746456 -0.006184735335409641 -0.1119999960064888
0.018834475427865982 -0.006184735335409641 -0.1119999960064888
0.019489550963044167 -0.006206823512911797 -0.11239999532699585
0.020148811861872673 -0.006228912156075239 -0.1127999946475029
0.020812254399061203 -0.0062510003335773945 -0.11319999396800995
-0.020096417516469955 -0.006304984446614981 -0.10429999977350235
-0.01955096796154976 -0.006304984446614981 -0.10429999977350235
-0.021228600293397903 -0.007042480167001486 -0.11649999767541885
