ply
format ascii 1.0
element vertex 748
property float x
property float y
property float z
end_header
0.008893883056766352 -0.029755268281202396 0.0007265582848992485
-0.041259166872008216 -0.011283115592772192 0.006539058667933648
-0.027113124400262208 -0.002325709447767417 0.00217968245498218
-0.004846342603503298 -0.024324021662199626 0.00217968245498218
0.018867955446345674 -0.0008058585456599001 0.006539058667933648
-0.024508456756536526 -0.003435524701221755 0.0014531185185893776
-0.01721981698804992 -0.024279100639199053 0.001089838434224161
-0.007815304010621495 -0.023695574842805194 0.00027245346986476605
0.0392983727493272 0.02838744753271809 0.0005449126237029341
0.009838647909996683 -0.039641612798075015 0.00330190316775475
0.0037141876349396715 -0.02063858589577457 0.001089838434224161
0.028337840441368205 -0.016512801422751723 0.001089838434224161
-0.0382715911311945 0.025525700478271175 0.006539058667933648
-0.028369067502974552 0.03621646887260856 0.00217968245498218
-0.03986620456222147 -0.03673356913194685 0.0005449126237029341
-0.010024546892219644 -0.026764764338078846 0.006539058667933648
-0.03426268303439064 0.031009165402379735 0.006539058667933648
0.03305112800280851 -0.021127007889183362 0.006539058667933648
-0.010526889350241103 -0.026729150081401712 0.010855267214086506
-0.010231808990539253 -0.03829857206158236 0.013013373825711992
-0.03927243633638937 -0.0031504645889566963 0.00330190316775475
-0.025833168313950605 -0.011478737825311811 6.474370503439355e-05
-0.03491676516205613 -0.006050224395620351 6.474370503439355e-05
0.018754095415349656 0.030193449644602296 0.009776214947628899
-0.037898672247772686 -0.005017347028351511 0.0012455320147822101
0.0017482296348913134 -0.008668175537076456 0.001907223301144012
-0.008435419938123315 -0.036054115696700445 0.00330190316775475
0.03140402960203629 -0.03325005044175619 0.0016347641473058439
-0.007716976214108707 -0.018801963281238558 0.0117185098587367
-0.011795304881111555 -0.036725955705430344 0.001416790198346315
-0.007024949034493958 -0.021808196644415724 0.0007265582848992485
-0.0160782253441879 0.005933693622446567 0.0005449126237029341
-0.00784202848541645 0.0024298039807442396 0.0016347641473058439
0.024934066563451495 0.005736090304181768 -5.683973402071323e-09
0.005936968195253988 -0.02900134741260691 -5.683973402071323e-09
0.00951557044661485 -0.02871621546103067 0.00217968245498218
0.02373621266533982 0.03203550322997595 0.006539058667933648
0.024045898588835386 0.032126009787040014 0.013013373825711992
-0.03342824371697997 -0.034334118027817544 -5.683973402071323e-09
-0.008183387826765386 0.003419733442190404 0.00217968245498218
-0.03764925835171553 0.02085171856503875 0.006539058667933648
-0.004074384084804089 0.005658404559635457 0.001089838434224161
0.03386716926427879 0.03368509243117236 0.0016347641473058439
-0.03686227276311138 -0.020681160986320918 0.00217968245498218
0.0040003291696063025 0.01711053842995898 0.00217968245498218
-0.03216049547670966 0.008666606769531572 0.010855267214086506
0.009989446187947174 -0.02600764794940093 0.00217968245498218
-0.022630946350509454 0.011384785027755218 0.008697161641816156
0.0009362193626758456 -0.018409994866208142 0.006539058667933648
-0.0008463762624919401 -0.018488101487825002 0.000817379280385993
0.009134476416228447 -0.022957983458013323 0.0005449126237029341
-0.015610284091915831 0.001655899847431531 0.0005449126237029341
-0.0076450051181568566 0.002314077690715507 0.0016347641473058439
-0.02934057743594938 -0.01248219647156589 0.00330190316775475
-0.005880777701518618 0.0283427613697416 -5.683973402071323e-09
-0.008083706162758155 -0.03714475542737889 -5.683973402071323e-09
-0.025036917998914346 -0.03332380855525415 0.0014531185185893776
-0.03790912239393263 -0.005011098881496053 0.0005449126237029341
0.007566306396806909 -0.006322768948030451 0.00912878400349639
0.03868107130823678 0.034428343152765946 0.009776214947628899
-0.0149463196077365 -0.02584003327830886 0.001089838434224161
-0.02749294053738774 -0.0026629032503230035 0.0016347641473058439
0.006868011453988727 -0.024860552164641586 0.0007265582848992485
0.03326143484666088 -0.022071279227001483 0.006539058667933648
-0.032326335493024105 -0.008691659648731639 0.00217968245498218
-0.008733282906646433 -0.01686292245868677 0.001089838434224161
-0.040865470329756924 -0.014253344215510517 6.474370503439355e-05
-0.0070373712420147595 -0.026514086347580863 0.0018164023706169635
-0.03281265718995674 -0.011807845355353818 0.001089838434224161
-0.006531261950591514 -0.02239971275359408 0.009776214947628899
-0.022206163271297017 -0.002640192905387112 0.004380956213728708
0.0034817161259501203 -0.0329039496212008 0.001089838434224161
0.02045289990311185 -0.0420670229373926 0.001089838434224161
-0.0059201434568476605 -0.018189482823101424 0.006539058667933648
-0.024678879961044318 -0.003544609918550991 0.00217968245498218
-0.035451855551999846 0.012537053825555967 0.002222850121780791
0.007015596055436024 -0.027371006190701156 0.0007265582848992485
-0.008819237732829673 0.027656036919901848 0.00217968245498218
-0.005849419839632142 -0.018413507962029618 0.009416531551713122
-0.004708907486085241 -0.02231845596425232 0.008697161641816156
0.011425351620047913 0.02812381269737857 0.00217968245498218
-0.018392981040308183 0.00215426789055349 0.001089838434224161
-0.028992401613248595 -0.012507386739535541 0.00330190316775475
-0.006601802560441058 -0.01600806135668077 0.00217968245498218
0.04216928510304612 0.030924958663032118 6.474370503439355e-05
0.03304193554355734 -0.021091695014821273 0.013013373825711992
-0.014403364722577323 0.03591089411494758 6.474370503439355e-05
0.003678826392655441 -0.03324087307070745 0.00217968245498218
0.0036598654186680707 -0.0326471567450998 0.0015569155381553307
-0.004788656840494204 -0.019005843240718263 0.0008718681230076095
0.003442115497252016 -0.03273995669586923 0.00046706768477524626
0.010399798484382246 -0.005655058798563666 0.00217968245498218
-0.02142960667420166 0.010223174554611908 0.004380956213728708
-0.004355850069133427 -0.023139398721282334 0.001089838434224161
0.00032205870947328466 -0.016399758129294447 0.013013373825711992
-0.00190063534328129 -0.015554678150340248 0.001089838434224161
-0.03985234530952186 0.02194742867028388 0.00217968245498218
0.010705045040320788 -0.005726199927442112 0.0007265582848992485
-0.02809917568644967 -0.010277059719477066 0.001089838434224161
-0.0035329850502003133 0.01945851472560145 0.00217968245498218
0.028400669118215396 0.03490634766637472 0.006539058667933648
-0.028574390010636563 -0.0068637679699750775 0.001362297588062329
-0.02299188513181118 -0.038464517001790946 0.013013373825711992
0.01834243283544116 -0.04269310603393648 0.00217968245498218
0.04161773118299513 0.03515496386679393 0.013013373825711992
-0.0057673621442135845 0.016352592784919785 6.474370503439355e-05
-0.02178814697270943 0.035828104110512446 0.006539058667933648
-0.03682662554987888 -0.02059094386506811 0.001362297588062329
-0.0059202773472957675 -0.018174772329676323 0.013013373825711992
0.00012111045691773325 -0.03040731036367405 0.009776214947628899
0.038281861295557364 0.019617125746155796 0.013013373825711992
-0.04079864120011737 -0.011778298330653197 0.0003632744328716625
-0.007679144570373752 0.003801866249597451 0.009776214947628899
0.006436845773293888 0.02086165470510758 0.004380956213728708
-0.023164401501635953 -0.0030764294264265476 0.00217968245498218
-0.03578580184246787 0.01301399439739178 0.010855267214086506
-0.04249609264283392 -0.026890020100014556 -5.683973402071323e-09
-0.023798382476354112 0.03776312035521033 0.0014531185185893776
0.00652466740621226 -0.024096348368110077 -5.683973402071323e-09
-0.0019729838992298986 -0.018366055964081952 -5.683973402071323e-09
-0.014293589052323028 -0.03782174159119963 0.001416790198346315
0.008766721938233713 -0.02990551911015629 0.001089838434224161
0.0035948202964535764 -0.03266865774357718 -5.683973402071323e-09
-0.04086139834886429 -0.032520659077936845 0.009776214947628899
-0.03815599593152583 -0.005196425184265867 0.00038922274584755846
0.04057264811151504 0.03330294566758091 0.006539058667933648
-0.0065190002083963024 0.028266640834478333 6.474370503439355e-05
-0.027056516606382024 -0.012762093821104896 0.001089838434224161
-0.01719401903706845 0.007323506355574371 0.006539058667933648
-0.006959709341735154 -0.023469373234799504 0.00330190316775475
-0.02867035153325767 -0.005295677285805216 0.0005449126237029341
-0.03618871786615231 0.013635841667924805 0.013013373825711992
0.032902103930329975 -0.02059354804145896 6.474370503439355e-05
0.03703517913689079 0.03444290444654425 0.00330190316775475
0.011133126659868646 -0.04012749205918378 0.00330190316775475
0.019426319564680543 -0.04181334145423795 0.013013373825711992
-0.03897385451865764 -0.0345667404331434 0.004380956213728708
0.03716188587778415 0.01596442486079429 0.00217968245498218
-0.022537920535664953 0.013880370282483252 0.00217968245498218
-0.03487717356758091 -0.006130299808323582 0.009776214947628899
-0.030186655261864898 0.03443216462767734 0.013013373825711992
0.0326923036084348 -0.018308025663649315 0.00217968245498218
-0.02438911434021458 -0.037146186815927455 0.009776214947628899
0.03211434431701878 -0.030742325537853294 0.009776214947628899
-0.03833192660506585 0.013970247402349128 0.002222850121780791
-0.01793150208445075 0.0015009109327617956 0.013013373825711992
-0.008142638893335276 -0.03725517420554259 0.001089838434224161
0.04108584394089447 0.03549145950494156 0.0039493296946279295
0.03151822473949545 -0.027251539394025266 6.474370503439355e-05
-0.026306356109686443 0.012110530856067388 0.009776214947628899
0.006255162150771202 -0.02262090669223005 0.013013373825711992
-0.037907192141003486 0.0274387329312537 0.0005449126237029341
-0.007405769337144184 0.0054633561046736594 0.009776214947628899
-0.012197245524055015 -0.03694111087770478 0.0008718681230076095
5.894519483525232e-05 -0.02988836306119406 0.0016347641473058439
-0.02121818323840088 0.00922036969008917 0.0014531185185893776
0.0010316076385876365 -0.008033930650812848 0.0018164023706169635
-0.004485107773864012 0.022871831877803766 0.006539058667933648
-0.0391706911425444 -0.0022475342424349907 0.0005449126237029341
-0.0250043752325818 0.01167474896985513 0.00217968245498218
-0.007346268640088583 0.026150442651257703 0.009776214947628899
-0.03028398117910034 0.004534765898447345 0.001089838434224161
0.00173324693669007 -0.0301542063009121 6.474370503439355e-05
0.030516543434432414 -0.020667951613425946 -5.683973402071323e-09
0.029427702274890298 -0.013457880541363876 0.001089838434224161
0.034531450402112286 0.01673328346472523 0.0016347641473058439
0.025120048488605523 -0.012923672085286839 0.0007265582848992485
0.023064982496372212 -0.038181853203741775 0.00330190316775475
-0.03594666375632184 0.02923329093705302 0.009776214947628899
-0.008958159935879596 -0.03739157656957213 0.009776214947628899
0.008476087011912875 0.022800350212458 0.004380956213728708
0.03245051876915037 -0.02995688649618488 0.006539058667933648
-0.040155516436544816 -0.02243945391344455 0.009776214947628899
-0.00488347451561044 -0.01870036226129718 0.0016347641473058439
-0.02422527663417682 -0.009520766493915358 0.001089838434224161
-0.03885784550021535 0.023934314685821047 0.013013373825711992
0.042707052867681346 0.03438940988861831 0.00217968245498218
-0.01545048517082613 -0.025509960061118525 0.010855267214086506
-0.010813794782738745 0.033302508419994464 0.00330190316775475
-0.02109375588500145 -0.0039026598058262306 0.0003632744328716625
-0.0004728012095607497 -0.01623648967664899 0.013013373825711992
-0.004131266327411569 -0.01613066912454301 0.013013373825711992
0.013988906967657712 -0.0038811864300900946 -5.683973402071323e-09
-0.004359996468609587 -0.02315551638575254 0.00217968245498218
-0.021517783499242778 -0.04015522729522716 -5.683973402071323e-09
-0.026114227382310472 -0.007105899447228749 0.002222850121780791
-0.015848426714998275 -0.03825548708153602 0.0005449126237029341
-0.02729311862802569 -0.0032061633427125534 0.010855267214086506
-0.038527759928236746 -0.005663642322690983 0.0015569155381553307
-0.023804617538732142 -0.03861523798928465 0.0003632744328716625
-0.007633907028612286 0.0041898394748571275 0.009776214947628899
-0.0206184459614827 0.03808814953192493 0.00217968245498218
-0.03028398117910034 0.004534765898447345 0.001907223301144012
-0.03865193954309146 -0.0058359491230677045 0.0010119934628166252
-0.03766551423823795 -0.003907195324843725 0.0039493296946279295
-0.018164126932714065 0.005242214300350488 0.013013373825711992
-0.036273562006834896 -0.0028776058886499606 6.474370503439355e-05
-0.008581039330896828 -0.03697769616933881 0.013013373825711992
-0.022902121435013356 -0.039406550635657234 0.0014531185185893776
-0.027968083601250453 0.011119943331643877 6.474370503439355e-05
-0.016781691442400982 -0.030140027380912 0.002222850121780791
-0.03711713674437393 -0.020105661976221455 0.006539058667933648
-0.030034464262463468 0.004469910860258692 0.001362297588062329
-0.04216653219086196 -0.02785954085719765 0.009776214947628899
-0.005588765341179648 0.026475827755625833 0.013013373825711992
-0.001239121934350637 -0.017879933509984684 0.004380956213728708
0.01942809923850672 -0.04181276531506415 0.006539058667933648
-0.03764197365891568 -0.005544732372033972 0.001907223301144012
-0.012316004032156618 0.03232096766571312 0.00330190316775475
0.002454709996234814 -0.008220963699919344 0.004380956213728708
-0.008171712298875995 -0.027100100079207635 0.001089838434224161
0.03389243105776388 0.03596033624978202 0.006539058667933648
0.00795219467931617 -0.006351947864541931 0.0039493296946279295
-0.03720160199309259 -0.019754573534069557 0.00492047715018183
0.009806761911411423 -0.027784447044541048 0.001089838434224161
-0.005468988729742973 -0.025146508950154224 0.0014531185185893776
0.03389025468328969 -0.02232056796610734 0.001089838434224161
0.03799797930356798 0.017610575231223346 0.001089838434224161
0.009012401374235963 -0.02960438672134197 0.001089838434224161
-0.004665875225580336 -0.01930929412699084 0.0020706973643336004
0.01183333800041468 0.025682151693766756 6.474370503439355e-05
-0.014396427102476805 -0.03836724931944644 6.474370503439355e-05
-0.028334586394630323 0.013529320339208797 -5.683973402071323e-09
-0.01992085450923752 -0.004234980328024776 0.004380956213728708
0.038483274572341415 0.025853471719101614 0.0016347641473058439
-0.023395920664714066 0.011774974834151684 0.006539058667933648
-0.028244564440088264 0.010783370336384332 0.00330190316775475
-0.026532468058347025 -0.03260192218865175 0.001089838434224161
-0.008658196218749036 0.031000682918968396 0.013013373825711992
0.04231271862605097 0.032162487789717836 6.474370503439355e-05
-0.00791911450635785 -0.016876642624183428 0.004380956213728708
-0.036301288261432633 0.02879845732024886 0.006539058667933648
-0.024112009805835277 -0.010307156939320487 0.0003632744328716625
-0.0416942621891014 -0.03506917131241613 0.00330190316775475
-0.02710873363379651 0.011076924782280971 0.00217968245498218
-0.038696509565238665 -0.01675132259778965 0.0005449126237029341
0.023015858234519636 0.03347680150673347 6.474370503439355e-05
0.005849418830782715 -0.03143519244520579 0.006539058667933648
-0.01647102378373039 -0.03075176779626028 0.013013373825711992
-0.013837917822814341 -0.03484802439512119 -5.683973402071323e-09
-0.02201217851041967 -0.0032544302895216987 0.00217968245498218
0.031796861844928755 0.03385526612351791 0.006539058667933648
0.037827555261722115 0.022946387523858754 -5.683973402071323e-09
-0.0076912580935455605 0.0036345606888092048 0.006539058667933648
-0.01932074573170635 -0.002363144707041832 0.002222850121780791
-0.004458802212601159 -0.019792601514346336 0.0003632744328716625
-0.00576084141658963 0.018302215920009725 6.474370503439355e-05
-0.012107446973875745 -0.032563431729640456 0.00217968245498218
-0.00013587504152803113 -0.03266331050454519 0.001089838434224161
-0.026206225347355606 -0.004596002419323421 6.474370503439355e-05
0.03067908078812634 -0.019605058298202895 0.006539058667933648
-0.025909681568492392 -0.0055183914425788235 0.00217968245498218
-0.006312190845407744 -0.02521057221159111 6.474370503439355e-05
-0.025687344857092412 -0.004683913936574499 -5.683973402071323e-09
0.04010953348865458 0.03289731959510551 0.000817379280385993
-0.03045666158636484 0.03491627928501907 -5.683973402071323e-09
0.04294740096454011 0.03267269822215495 0.00217968245498218
-0.014750453525913731 -0.03797871736395724 0.000762886670102007
0.007371303915239804 -0.024593528746876297 0.006539058667933648
-0.029269470060379082 -0.03628188101188489 0.0005449126237029341
-0.010024546892219644 -0.026764764338078846 0.004380956213728708
-0.025411877229813425 -0.033003394999582124 0.0003632744328716625
-0.037501639397313005 0.02703902160236808 0.00330190316775475
-0.0373300653077659 0.01653314792941053 0.00330190316775475
0.00677289119674977 -0.030840794375420567 0.009776214947628899
-0.03726607966073102 0.012233430281167856 0.004380956213728708
-0.02879217480964965 0.008258441786907348 0.0018164023706169635
0.029067019934019434 -0.03182787191004004 -5.683973402071323e-09
-0.025787119799045164 -0.006491883529377201 0.0007265582848992485
-0.001480647611188634 0.009569040910881168 0.001089838434224161
-0.00027185129384007893 -0.016272311196990404 6.474370503439355e-05
-0.004732883830930232 -0.024130245538736064 0.0007265582848992485
-0.012622329050377561 0.032591661580079104 0.009776214947628899
-0.02423142807739781 -0.0027353317341340263 6.474370503439355e-05
-0.02124166009031307 0.01000830004876244 0.004380956213728708
-0.037296244978852894 -0.004715801965041635 6.474370503439355e-05
-0.0104427535523073 -0.03490754071276917 -5.683973402071323e-09
0.02751473731510525 -0.011323324001887495 0.001089838434224161
0.02928799666039295 -0.013289806113670501 0.00217968245498218
-0.01621100962914733 -0.0230861857019385 0.0014531185185893776
-0.0074429762600561 -0.016702655744717965 0.002222850121780791
-0.020620494567424045 -0.0013758942533060319 6.474370503439355e-05
-0.03437871744746393 -0.009780526557323008 6.474370503439355e-05
0.00539190229460314 -0.008691191525818539 0.00217968245498218
0.021547605475096952 -0.03856206622220591 0.00217968245498218
-0.030715342961323937 0.009702548162809507 0.006539058667933648
-0.007004816395242715 0.002771236144738364 6.474370503439355e-05
0.03978512676324321 0.03373760324478453 -5.683973402071323e-09
-0.02515150585043627 -0.008860442590006167 0.006539058667933648
-0.037942010227736876 -0.004035930206355042 0.00330190316775475
0.0079009255696152 -0.003699180767881964 0.00217968245498218
-0.007993948568866576 0.0025975364725378605 0.001089838434224161
-0.025934818594737046 0.03664374869090678 0.00330190316775475
-0.029820632988108768 -0.010620626252608087 0.004380956213728708
-0.02652528835482398 -0.012493960763169117 0.000817379280385993
0.006910387184302459 -0.037789988849215944 0.002222850121780791
-0.0059201434568476605 -0.018189482823101424 0.009416531551713122
0.007523382374977025 -0.027282688272079 0.002222850121780791
-0.007551224039375819 0.0028396776717861173 0.013013373825711992
-0.01673549217936159 -0.0033573853754582184 -5.683973402071323e-09
-0.0057980202686910825 0.019192824834990654 0.006539058667933648
0.008065560815979617 -0.029712758456409184 0.006539058667933648
-0.04256309975716561 -0.030824642392725213 0.013013373825711992
-0.038522667838880295 0.014435488377623007 6.474370503439355e-05
-0.03996941141685537 0.018407960373654237 0.0005449126237029341
-0.02951278256115765 0.004913428246634709 -5.683973402071323e-09
0.040385098698016514 0.030820435072406005 0.009776214947628899
0.011181673068816168 0.027394145459087315 0.013013373825711992
-0.03740241014177442 -0.004453953508963355 0.00912878400349639
-0.008871751228671752 -0.03731062644547936 0.006539058667933648
-0.015747753520189787 -0.02269616041253502 0.0018164023706169635
-0.005909170750664108 -0.01811897622896545 0.009416531551713122
-0.024937167816961803 -0.0031069307521603634 0.004380956213728708
-0.022616154866108882 -0.0031002256131653348 0.0007265582848992485
-0.03720160199309259 -0.019754573534069557 0.009776214947628899
-0.03951924541590981 -0.015575347926969347 -5.683973402071323e-09
-0.03141370348388734 0.005610073728503505 0.006539058667933648
-0.007971777654230478 -0.016902810119872685 0.010855267214086506
-0.03303397076076714 0.006362881593698912 0.0003632744328716625
-0.02250310243158583 -0.0007896790262306589 0.010855267214086506
-0.028007828421107127 -0.006919180081521503 6.474370503439355e-05
0.003817297874000821 -0.032600714290239835 0.00031138154210239195
-0.010914794997066107 -0.026661934650718255 6.474370503439355e-05
0.0014620671338267319 -0.007513543077074763 6.474370503439355e-05
-0.01194728926562977 -0.035486799468260506 0.010855267214086506
-0.024740113302934266 -0.009791255807520376 0.001683321520083539
0.008653890084921869 -0.022068710544122745 0.001089838434224161
-0.03772146288891448 -0.018897943832971043 6.474370503439355e-05
-0.032632086249638814 -0.03648092006816598 0.006539058667933648
-0.016927523852827406 -0.02386021564110049 0.00217968245498218
-0.029061753924993248 -0.010300358448669566 -5.683973402071323e-09
0.013384007189674198 -0.04062192280095526 0.006539058667933648
0.03981171231873556 0.03422792287071661 0.0117185098587367
-0.024818414296397834 -0.010495549191395986 0.006539058667933648
-0.012529143132827611 -0.026668903297840663 0.001089838434224161
-0.037184398405114824 -0.005010544699805106 0.013013373825711992
-0.014430585130707945 -0.022571670535713455 0.006539058667933648
-0.016474168991638293 -0.030746137354160107 0.004380956213728708
-0.02391665407049317 -0.03520450410503661 0.006539058667933648
0.014452431329496314 0.030355129679057444 0.00217968245498218
-0.027644346724626137 0.01390993246594963 0.001089838434224161
-0.012963577126994596 -0.03547172791356742 0.001089838434224161
-0.005870483055197766 -0.018076058037639415 6.474370503439355e-05
0.01744441852295749 0.03195792304989848 0.00217968245498218
-0.008791078534393976 -0.01780523605191235 -5.683973402071323e-09
0.011207917013053396 -0.00279274356409686 0.006539058667933648
-0.0074429762600561 -0.016702655744717965 0.010855267214086506
-0.03911627061651907 -0.01982064868399209 0.004380956213728708
0.0061141298198444174 -0.019869230107022736 0.00330190316775475
-0.030966028836649725 -0.009570989112738284 0.00217968245498218
0.004417378764573425 -0.03189360695863728 6.474370503439355e-05
0.001271892788769739 -0.006750903554100587 0.0005449126237029341
-0.0064499746646174885 0.003312906882598029 0.006539058667933648
-0.043099095153935195 -0.011180883251580391 0.013013373825711992
-0.02004887756413671 -0.03777294284815621 0.001089838434224161
-0.012225689475921031 -0.03531258351723813 0.013013373825711992
0.04058705473327655 0.03313450766001599 0.00912878400349639
-0.02865191296592755 0.008936654560701987 0.00217968245498218
-0.024065772097213056 -0.034249433963000245 0.00217968245498218
0.010893061933862695 -0.0057549301029991675 0.00217968245498218
-0.028164207751666528 -0.010827900883442952 0.013013373825711992
-0.01797921783643073 0.0010929745016951535 6.474370503439355e-05
-0.03789572563358096 -0.005020415622223727 -5.683973402071323e-09
-0.034212086868854845 0.031822131566976386 0.001089838434224161
0.03040746872080427 0.03534679182861697 0.013013373825711992
-0.006895589345791726 0.023169693402490085 0.00217968245498218
-0.04054054668450127 -0.007928945411748885 0.006539058667933648
-0.038410429598295236 -0.005506835302130389 0.00038922274584755846
0.007617271339007157 0.022009681223042456 0.006539058667933648
0.04094333466624427 0.03625707667626321 0.00217968245498218
-0.008177188179267809 0.026602417959756514 0.00217968245498218
-0.01019966097170181 -0.0267587334935703 6.474370503439355e-05
-0.02486975263931448 -0.003689617216886394 0.0007265582848992485
-0.004746784394039093 -0.017889772260235283 0.013013373825711992
-0.017091191588658412 -0.02521286609772799 0.006539058667933648
-0.03750401814639166 -0.005864921503271316 0.0016347641473058439
-0.037127401771060185 -0.020135475749894324 0.011394792307960172
-0.018067336544768876 0.00045742416102554387 0.013013373825711992
-0.005374158489764163 -0.019119155695371672 0.00492047715018183
-0.008101212537673772 0.0028256179478847194 0.0016347641473058439
-0.024065772097213056 -0.034249433963000245 -5.683973402071323e-09
0.006964129690130674 -0.02751537766978198 -5.683973402071323e-09
-0.030603279119769303 -0.03665088792472956 0.0016347641473058439
0.023420586527689385 -0.03792916240227353 0.009776214947628899
-0.037861351045133024 -0.0050766068584655 0.0016347641473058439
-0.02635916880822413 -0.0325785025631417 -5.683973402071323e-09
-0.01976527215703055 -0.0043747917100968835 0.010855267214086506
-0.022723588068848073 -0.03561555082805857 0.00217968245498218
-0.03022423719287193 0.01076473410410974 0.013013373825711992
-0.015517874467479612 -0.028124168928129686 0.002222850121780791
0.03124060184383228 -0.024270021572356804 0.00217968245498218
-0.015165628263349521 -0.03810511812167635 0.0006539015144937313
0.006826967168198988 -0.03149704637795301 0.00217968245498218
-0.03003963694317189 -0.009993446639425035 0.001362297588062329
-0.03811166818260154 0.027094238036983978 0.001089838434224161
-0.03758028633929533 -0.018266144259108438 0.0018164023706169635
-0.004012708927973529 0.017546642996667253 0.013013373825711992
0.008504893187215735 -0.03832944823631659 -5.683973402071323e-09
-0.03719481532758839 0.012139947093000562 6.474370503439355e-05
0.006682901034383197 -0.02324897662510797 0.00330190316775475
-0.011622227487236493 -0.02708862698524233 0.00217968245498218
-0.03528529253643913 0.008745780401922618 0.0007265582848992485
-0.03941252365127437 -0.02484411995058561 0.006539058667933648
0.008408725444528514 0.025023833787143596 0.013013373825711992
-0.038559825464566704 -0.0048216166119570796 0.005460005881798474
0.02080198978384588 -0.00989645433368551 0.013013373825711992
-0.03980903822518629 0.01706866827579741 0.001089838434224161
-0.03629252579736818 -0.034875806927543114 0.010855267214086506
0.03397956391510149 -0.026337514203734747 -5.683973402071323e-09
0.03169064290346138 -0.02328408731876536 0.009776214947628899
0.0001933881017591095 -0.029859477160821286 0.001362297588062329
-0.01105505911551737 -0.026628728952181498 0.002222850121780791
0.0015181010541226504 -0.00856573603339468 0.0014531185185893776
-0.008897023099267282 -0.03469646799447452 0.0005449126237029341
-0.01629857455311688 -0.038316853301568636 0.00217968245498218
0.029891374038911955 0.03298889373782933 0.00217968245498218
-0.004499654383772293 -0.018384929522749394 0.0016347641473058439
0.010561663657407551 -0.005701480719089804 -5.683973402071323e-09
-0.019563878491101843 -0.00217454673141756 0.00912878400349639
-0.024708401480897264 -0.03362573382294637 0.0018164023706169635
-0.04014324068072719 -0.008279405811727687 0.0014790705667477948
-0.00791587971975656 -0.024454114755482287 0.009776214947628899
-0.026344771773056285 -0.005040036155015074 6.474370503439355e-05
0.0023458488770997806 -0.006139923670677794 -5.683973402071323e-09
0.01161209584225075 -0.04265967319221138 0.001089838434224161
-0.0063271959681458 0.0025212943204259526 0.001089838434224161
0.025291066540748246 0.002783167521114856 -5.683973402071323e-09
0.029511196199002693 -0.035597641029702067 0.001089838434224161
-0.0285847343133062 -0.004635485131189013 0.001907223301144012
0.006868683667909865 -0.024862329915525436 -5.683973402071323e-09
-0.041255757348869944 -0.012178247462364308 6.474370503439355e-05
0.006668096282084593 0.02109556188374581 0.008697161641816156
0.003999415887873559 -0.037146955409951186 0.006539058667933648
-0.012630960114742663 -0.023641014879832844 0.00330190316775475
0.0035417721920005182 -0.03301789543358687 0.001089838434224161
-0.0390613136532027 -0.036332603399364796 6.474370503439355e-05
-0.004784777478670145 -0.02078751182626148 0.013013373825711992
-0.03806708270562161 -0.005104421473332095 -5.683973402071323e-09
-0.03481852334585528 0.012464782597034105 0.00217968245498218
-0.03730079474760518 -0.020535610535387112 0.009776214947628899
-0.03756897372100425 -0.03656958925511745 6.474370503439355e-05
-0.03829899892842445 -0.002195158762878709 6.474370503439355e-05
-0.03032410506250277 -0.03376285747930659 0.001089838434224161
-0.02114316047570393 0.009130078188664311 0.0003632744328716625
-0.012319431201176585 -0.037000922630590655 0.0016347641473058439
-0.035870891560428476 0.010501837501144938 0.006539058667933648
-0.009442159583402552 -0.03499181609398919 6.474370503439355e-05
0.036869917438607944 0.03622800411403646 6.474370503439355e-05
-0.013061190235492312 -0.023162501240270163 0.002222850121780791
-0.0339338505852671 0.010587504779346621 6.474370503439355e-05
0.0016559779302179937 -0.006497173322907583 0.001089838434224161
-0.01976527215703055 -0.0043747917100968835 0.002222850121780791
0.006378658308131033 -0.0372773762330741 0.002222850121780791
-0.008398603197475225 -0.024137529543021667 0.0016347641473058439
-0.036448412522755214 0.015423697746091545 0.001089838434224161
0.0036047620289778102 -0.020550365367462884 0.00217968245498218
-0.0363170224239625 0.013852899942097298 0.006539058667933648
0.003580143571882354 -0.03308356811916644 0.0007265582848992485
-0.02463915071369181 -0.0336911822185047 -5.683973402071323e-09
-0.00336280387513064 -0.016076367408118113 0.006539058667933648
-0.004885122144926851 0.02450166831165942 0.013013373825711992
0.04010227599300037 0.023945080110558424 0.013013373825711992
-0.01153899268692577 -0.03649602205030072 0.0003632744328716625
0.01163726324078215 0.02829523043412748 0.00217968245498218
0.030087129634811673 -0.0300312142987131 0.00217968245498218
-0.020499250998287262 -0.03993493629612835 0.00330190316775475
-0.00456417594783965 -0.01952958289199044 0.00217968245498218
-0.035496685119529615 -0.004720646939075171 0.009776214947628899
-0.041499631568328005 -0.006187519527303908 0.013013373825711992
0.030851784300743396 -0.029441047442444083 0.006539058667933648
-0.012349262944636029 -0.023229303266432598 0.00217968245498218
0.008389799898522423 0.022068271289572235 0.001089838434224161
-0.037926788545411615 -0.005009616739359701 0.0018682952938660821
0.017491441968886638 -0.0071523757941588575 0.00330190316775475
-0.006578901365405966 -0.01649990192697127 0.013013373825711992
-0.022147407363824898 -0.03617753650733394 0.0016347641473058439
-0.04035611392307111 -0.008731880503571814 0.0015569155381553307
0.030261667164864905 -0.03477828644443603 -5.683973402071323e-09
-0.03694544689775766 -0.007183586468018191 0.0005449126237029341
0.018123683997200095 -0.0018218744674414707 0.00217968245498218
-0.018941285605921423 0.005807699771091265 0.00217968245498218
0.009023749248895997 -0.005596412673433866 6.474370503439355e-05
-0.030671435624824283 -0.03385587105683157 0.001089838434224161
0.040879617316767765 0.03559376859323815 6.474370503439355e-05
-0.02573304512045204 -0.004782371870297008 0.0018164023706169635
0.008380781125438825 -0.029358014941834067 0.00330190316775475
-0.021094037520887694 0.0358500336915819 0.00330190316775475
-0.003594326207516897 -0.018332612235792335 -5.683973402071323e-09
-0.022309969057895018 -0.03681364740478067 0.006539058667933648
-0.03389315604478669 0.011294959934356507 0.001089838434224161
-0.04070843624628022 -0.014578881626759061 6.474370503439355e-05
-0.03820173993551725 -0.005248110849628822 0.00015568792906449496
-0.04160609853529946 -0.025731132402037372 6.474370503439355e-05
-0.03710251190577472 -0.020031972839108382 0.00492047715018183
0.00753666374137601 -0.02510136329865303 0.006539058667933648
-0.020502172968683452 -0.0008213153844695803 0.0014531185185893776
-0.026962572247732332 -0.01272106304938467 0.00217968245498218
-0.004217850423372504 -0.02082348393907866 0.0007265582848992485
-0.007675646978559611 -0.023567096184028774 0.0005449126237029341
-0.03429888771258219 0.008631070702458287 6.474370503439355e-05
0.04110134995007317 0.03548334804331214 0.013013373825711992
0.02884044804409771 -0.03302373806356158 6.474370503439355e-05
-0.018820980669627146 -0.002605670879236853 0.00912878400349639
-0.017427118639016942 -0.02681693976567133 0.009776214947628899
-0.029296119765476112 0.0054757665019588625 0.000817379280385993
-0.02750628695276261 -0.03283717908464182 0.001362297588062329
-0.03953946250637925 -0.03387117612055628 0.0005449126237029341
-0.0398592830313752 -0.0077509214320195695 0.0019461439030165953
-0.010526889350241103 -0.026729150081401712 0.004380956213728708
-0.009859959893955095 -0.027357054422664992 0.0018164023706169635
-0.029094187009291245 -0.0102940645983378 0.001362297588062329
0.0012100595575168303 -0.008308476366266082 0.0012714766575352807
-0.008707195850817655 -0.018062493925869456 0.0014531185185893776
-0.00936540213003978 -0.03504796171712005 0.009776214947628899
-0.0040239974477812536 0.018577285136814954 0.013013373825711992
-0.0257170826313279 -0.006705582926294338 0.0007265582848992485
0.004473490581798739 -0.03518462731308299 0.010855267214086506
-0.03945909128949932 -0.024961093107258577 6.474370503439355e-05
-0.016868991522011295 -0.023785746324550813 0.0003632744328716625
-0.006405337247685576 0.023323047281322864 0.009776214947628899
0.0027096756270232115 -0.03556880643080065 6.474370503439355e-05
-0.023317154032741053 0.011102986743128769 -5.683973402071323e-09
-0.009880692073488807 -0.03807779147710286 6.474370503439355e-05
-0.0398592830313752 -0.0077509214320195695 0.0015569155381553307
-0.03777140600762739 -0.03654757233809621 0.00330190316775475
-0.004902317900238945 -0.018597064580256017 -5.683973402071323e-09
0.014082722426532704 0.027440884665552508 6.474370503439355e-05
-0.018118230261113758 0.005073576810075906 0.004380956213728708
-0.020903703111301797 0.012177401966251701 0.006539058667933648
-0.008047588742179604 0.004804038533168497 0.0016347641473058439
-0.03768171016736089 -0.0014424063327554745 0.0018164023706169635
0.01793216486262834 -0.007239187568113995 0.00330190316775475
-0.01875433107446079 0.010833661419040526 0.001089838434224161
-0.04120102449571227 -0.01709040470174069 0.009776214947628899
-0.02779517495142984 -0.012972479298713036 0.001089838434224161
-0.01904977069761998 -0.0025413890638644452 0.0039493296946279295
-0.012281682340597845 -0.026119767920784458 0.010855267214086506
-0.03651248782665949 -0.0016765301726954754 0.0014531185185893776
0.030954422991017874 0.011470322654199516 0.001089838434224161
0.02106303082393763 0.0004972177899643967 6.474370503439355e-05
-0.017385977519611674 -0.03014039616652134 0.00217968245498218
-0.01899456880051314 -0.0025703339275574564 0.0061074399439963924
0.0018067663280263175 -0.01940433212568631 -5.683973402071323e-09
0.04055202031947743 0.0335144547486543 0.0013596082566469491
0.014089679661819827 -0.0430289051238873 -5.683973402071323e-09
0.02732989961704923 -0.011137768619723215 -5.683973402071323e-09
-0.003983873968886424 0.006808578104767038 0.006539058667933648
-0.029246958961177964 -0.010259848708803494 0.0016347641473058439
0.01583301483291673 -0.009145768730825194 -5.683973402071323e-09
-0.03668501875828532 -0.001556733795525886 -5.683973402071323e-09
0.028986500053125183 0.005842656493912154 -5.683973402071323e-09
-0.039591719305703994 -0.002640469409339991 -5.683973402071323e-09
0.042045945620917145 0.03024056521762322 6.474370503439355e-05
0.0018762023522598972 -0.006376199322205973 0.00217968245498218
0.001301938073969296 -0.008404398626856319 0.0014531185185893776
-0.04316857841371696 -0.032823662728186646 0.0005449126237029341
0.03500127585694827 0.017622147620243868 -5.683973402071323e-09
-0.03233225616956419 0.03344462880226522 0.00217968245498218
-0.008819237732829673 0.027656036919901848 -5.683973402071323e-09
-0.03850614917061701 -0.0023652527319569564 0.009776214947628899
-0.031207799301730482 -0.03446149543428126 0.008697161641816156
-0.018941646082223134 0.035638054483016775 6.474370503439355e-05
-0.02721783049928904 -0.0024165328650129904 -5.683973402071323e-09
-0.012802984094276583 -0.03271998247270765 6.474370503439355e-05
-0.010537008175559578 0.033909134040566315 0.00217968245498218
-0.03782809268428551 -0.03422377612752549 -5.683973402071323e-09
-0.007960193112339933 0.002550264853711755 0.001089838434224161
-0.007032850163988297 -0.021920439729114914 0.0018164023706169635
-0.02265112910143667 -0.03957587587661445 -5.683973402071323e-09
0.03433849527100302 0.011395686598287628 0.001089838434224161
-0.0272059374760293 -0.03275253668948064 -5.683973402071323e-09
0.00441171017458156 -0.021262876793332303 -5.683973402071323e-09
-0.009966535291529072 -0.034638465838619424 6.474370503439355e-05
-0.014932730240838247 -0.03854173127006968 0.00330190316775475
0.04156826309069521 0.03519480529982739 0.007833919516843531
-0.04316903476308573 -0.008635099404453566 0.00217968245498218
-0.006172928659959838 0.002685008199023556 -5.683973402071323e-09
-0.021494464461997823 0.03531739992444157 0.001089838434224161
-0.00918220790956319 -0.03449712705766192 0.001089838434224161
-0.02249394934413869 0.03523664710726234 0.001089838434224161
0.0046505659871586905 -0.0056885545235878295 0.006539058667933648
-0.03971523782291136 -0.025642983724050397 0.006539058667933648
-0.03561828580895102 0.012771542972439839 6.474370503439355e-05
-0.015829079951093217 -0.00021135202643028243 -5.683973402071323e-09
-0.02857192563087442 -0.01084604038383016 0.006539058667933648
-0.006266201141434441 0.017478342811461024 -5.683973402071323e-09
-0.02220256940333667 0.010322646156814224 -5.683973402071323e-09
-0.026909106874071987 -0.012129101090105612 0.010855267214086506
0.026653166925252717 -0.010498996179894568 0.00217968245498218
-0.028856517294729617 -0.010331528768982771 0.0005449126237029341
-0.021746102415312583 -0.03654666196240493 -5.683973402071323e-09
0.0036409089220215325 -0.03318190191089121 0.00217968245498218
-0.015484354176663231 -0.028279356849580103 0.010855267214086506
0.005719778646398974 -0.021930309000146614 0.009776214947628899
-0.03750700865310491 0.021925239728861682 6.474370503439355e-05
0.009521803420995687 -0.028700980465745495 0.0007265582848992485
-0.023154503242463594 0.011022878459992143 0.00217968245498218
-0.007554850776256243 -0.023444963806310812 0.000817379280385993
-0.015067659944040345 -0.02493475421797819 0.008697161641816156
-0.026125565598282684 0.01214891640753673 6.474370503439355e-05
-0.004573620739881399 -0.023800596388850234 0.001089838434224161
0.025081821055706607 -0.03664844184776123 0.006539058667933648
-0.041068888071104065 -0.02437033455971922 0.009776214947628899
-0.03724847183173831 0.011248346386179076 0.0018164023706169635
-0.011536839098028764 -0.03652257442723386 0.00217968245498218
-0.040359216615654066 -0.031658416077934765 0.00217968245498218
-0.022686089804449895 0.013949263509298945 -5.683973402071323e-09
-0.015143043137311058 -0.02955203403175883 0.009776214947628899
0.030832491943000525 -0.021698234873191505 0.00217968245498218
0.00915161941818874 -0.0055385403511224824 0.013013373825711992
-0.038217485437646304 -0.00436610200061671 0.011934320519899249
-0.009101144349407383 -0.024960334260403765 0.006539058667933648
-0.0403550533809025 -0.03153955809914803 0.00217968245498218
-0.03790189161438748 -0.005014765089473424 0.0017904540901209156
-0.026713737125180905 -0.01203305908730956 0.013013373825711992
-0.03980112100961259 -0.015128712373703997 -5.683973402071323e-09
-0.038427010251915576 -0.004640915847275929 0.013013373825711992
0.00631789920444775 -0.02861943477355235 -5.683973402071323e-09
0.0340701384269846 0.011027955479089652 0.001089838434224161
-0.027579513252055987 -0.012925586001861179 0.00217968245498218
0.025694127197529098 0.034241032424525544 0.006539058667933648
0.02012952495342122 0.03078069642765107 0.00330190316775475
0.041003413379024245 0.0245979126892314 -5.683973402071323e-09
0.004111261832667539 -0.032524550579007036 0.00015568792906449496
-0.030394259426673852 -0.03425162503335964 0.010855267214086506
0.005934865379776727 -0.01968422724308232 0.009776214947628899
-0.011567646793379365 -0.03656486663454378 0.0003269497828514253
0.030773976511859667 -0.021484016370846015 0.0005449126237029341
-0.03936077851465416 -0.0024174891330293303 0.00217968245498218
-0.0076246643501147624 -0.018922273011528302 0.002654469105556831
-0.025411877229813425 -0.033003394999582124 0.0014531185185893776
-0.040906760165646455 -0.008843270027414116 0.010855267214086506
-0.01902667505295221 0.007144120353331254 0.002222850121780791
-0.02994185133423861 -0.010032395282956845 0.001907223301144012
-0.02645693406837145 -0.011890246325504597 0.004380956213728708
0.008154459355904304 0.0218312442248653 0.001089838434224161
-0.020515324320896595 0.008370742135252478 0.001089838434224161
-0.03894458385316864 -0.005366089395565737 0.009776214947628899
-0.024367296619461333 -0.03803115703868916 0.001089838434224161
-0.03748563271505445 -0.019260069140359586 6.474370503439355e-05
0.028856824870786148 -0.03300239286928146 0.00330190316775475
-0.020614228095724007 -0.03989042084486005 0.013013373825711992
0.01094636844434476 -0.005762626677354794 0.0007265582848992485
0.0018964821404356934 -0.019449702082808027 0.001089838434224161
-0.030551125006098898 -0.012818221537376323 -5.683973402071323e-09
0.03248277575991613 0.0334738264956447 0.0005449126237029341
-0.0264569805832591 -0.002281125395648837 0.013013373825711992
0.00384331947432559 -0.006047731132866999 6.474370503439355e-05
0.007843194330699126 0.024496714760565915 6.474370503439355e-05
-0.018850957999667177 -0.0026139926111631955 0.009560403247111214
-0.012491382298134434 -0.02669089248224668 -5.683973402071323e-09
-0.03659358090606607 -0.034858568439780434 0.008697161641816156
-0.023119863147624875 -0.0025201995386109326 0.004380956213728708
0.01811787925065701 0.029895147708418255 6.474370503439355e-05
0.001334813727017359 -0.006702280078751997 -5.683973402071323e-09
0.038813498633467454 0.036754014629763944 0.001089838434224161
-0.03635405253499246 0.011086759456047998 0.002222850121780791
0.0306853982922486 -0.021182975077422467 0.00217968245498218
0.006578360596106034 -0.03164328080288084 0.0014531185185893776
-0.03437871744746393 -0.009780526557323008 0.013013373825711992
-0.017377818037360084 -0.03016071774616062 0.001089838434224161
-0.03768861561167292 0.011883249357876735 -5.683973402071323e-09
-0.0378449601824162 -0.00510769221558087 0.001362297588062329
-0.01160564510688244 -0.03659893542404126 0.0004359312032771797
-0.031364172067510396 -0.03683263439349356 -5.683973402071323e-09
0.004846073031638451 -0.035621658862462706 0.013013373825711992
0.039015546256733986 0.02745614592295038 -5.683973402071323e-09
-0.04089711728383659 -0.014179299221796749 0.013013373825711992
0.020758593706963424 0.03102931260074118 0.00330190316775475
-0.026290613931178257 -0.002132438118162105 0.008697161641816156
0.004603795775804106 -0.02145541898464327 -5.683973402071323e-09
-0.0060115469882541265 0.0038724937941535986 0.006539058667933648
-0.02235027635489266 -0.0031448350205297397 0.001089838434224161
-0.03733095965668325 -0.02172297428055001 0.00217968245498218
-0.02506785344782415 -0.0012949830645640503 0.002222850121780791
-0.02957617886232157 -0.010164530107341004 0.00027245346986476605
0.03991243165401814 0.023459093845687014 0.006539058667933648
-0.014247311562885513 -0.0254863508436089 0.00217968245498218
-0.014449282344347652 -0.037876925000125336 0.0004359312032771797
-0.03933955020418759 0.021530317803870533 0.006539058667933648
0.030962953989760046 -0.015442417970261012 0.001089838434224161
-0.038527759928236746 -0.005663642322690983 0.0017904540901209156
-0.01826426503413551 -0.005031773825648116 0.006539058667933648
0.006819222467418575 -0.02473539647440722 0.0007265582848992485
-0.008269931334317944 -0.017130737506647335 0.004380956213728708
-0.03597508376696096 0.026298273049850565 0.006539058667933648
-0.03924902650038811 0.017141443883090402 6.474370503439355e-05
-0.03914832635002328 -0.019765358225578334 0.013013373825711992
-0.03335144088328455 -0.011449577575550035 0.00217968245498218
-0.039126141558614165 -0.020512419702594868 0.006539058667933648
0.026545823264564027 -0.037579527981141114 6.474370503439355e-05
0.03341439058259437 -0.0231002852576369 6.474370503439355e-05
0.014253699533038799 -0.040705392134442415 6.474370503439355e-05
-0.0380733822614873 -0.00511046722612747 0.0002335328679921828
-0.023146457917444303 0.0110187071959901 0.0003632744328716625
0.006789700435937771 -0.02342188227800605 6.474370503439355e-05
-0.004905228368366982 -0.018540020013010836 0.0020706973643336004
0.010477396396452766 -0.005684267174337793 0.00217968245498218
-0.021911993024490546 0.03529451928282584 -5.683973402071323e-09
-0.02897316887990041 -0.010315723612900611 0.001362297588062329
0.001641336128906104 -0.00862871574654749 0.0003632744328716625
-0.02509673520337006 -0.01087074431939274 0.006539058667933648
-0.0382813745449388 -0.004448342135918669 0.005460005881798474
0.011958114151804694 -0.04273656676474038 0.00217968245498218
0.006372291882283441 -0.022784438642549677 6.474370503439355e-05
-0.03323669159257421 0.03194816537442407 0.00330190316775475
-0.0406291183154213 -0.008103730097619423 0.00330190316775475
0.0003489954677525073 0.01680707004031277 -5.683973402071323e-09
-0.025580363870453503 -0.007041476626331779 0.001089838434224161
0.04038063493918802 0.0339967933427798 0.00912878400349639
-0.007406718738831976 -0.016192109063426677 0.0018164023706169635
-0.03830127781726039 -0.005367617615624318 0.00038922274584755846
0.008985022394355398 -0.008664490490847707 0.00217968245498218
-0.037379519102539914 -0.0018333174037457917 0.006539058667933648
-0.007177374394603222 -0.022820708925237496 0.001907223301144012
0.0270853983241288 -0.014907979497330009 -5.683973402071323e-09
-0.03730984377036264 0.012291397632731564 6.474370503439355e-05
-0.007692756815179293 -0.01678338548928328 0.013013373825711992
0.00427880156658003 -0.03191508055131639 0.013013373825711992
-0.03808255767844997 -0.01837784124904426 0.001683321520083539
-0.002621765067597441 -0.016059508949587183 0.009776214947628899
0.0011521868714354803 -0.030163171531119908 0.013013373825711992
-0.02911909663149291 0.008880905713416624 0.013013373825711992
0.024306962466874547 -0.0367589953035555 0.00217968245498218
0.007738555552576163 -0.006203705609145242 0.002222850121780791
0.03627617347797752 0.03677614998315119 0.001089838434224161
0.008560833005709088 -0.02912721983288299 0.009776214947628899
-0.008471178871627438 -0.035975076453660985 0.00330190316775475
-0.03996941141685537 0.018407960373654237 0.0016347641473058439
-0.03476837940265791 -0.006343817116697204 0.006539058667933648
-0.006877229680840851 0.010620926673967076 -5.683973402071323e-09
-0.0054509253560840985 -0.025126105304869886 0.00217968245498218
-0.01309486834173276 -0.034677759373152726 0.002222850121780791
-0.016775700445349123 0.007809853599717681 0.0016347641473058439
-0.02782445226513848 -0.008893264038176212 0.0016347641473058439
0.0069958189936309215 -0.025238911955444886 0.0014531185185893776
0.03180678172064619 0.036200859503261996 -5.683973402071323e-09
-0.01798869193471943 -0.02671613108909505 0.0016347641473058439
0.02138439829078444 -0.03865062504527873 0.001089838434224161
0.010631176286064725 0.02468266199684768 0.004380956213728708
-0.027787070355482568 -0.0029511327332439213 0.00027245346986476605
0.01110967798606709 -0.005293366689496467 -5.683973402071323e-09
0.006551842367657188 -0.019412503901668095 -5.683973402071323e-09
-0.03675794043487632 -0.020404799911376142 0.000817379280385993
0.040118933798013 0.03413388437158082 0.007833919516843531
0.00027528580757933343 -0.03033908661109969 0.013013373825711992
0.024934066563451495 0.005736090304181768 0.00217968245498218
-0.0384164169963792 -0.017919942040176363 6.474370503439355e-05
