ply
format ascii 1.0
element vertex 743
property float x
property float y
property float z
end_header
0.007903270603379097 0.035856919690065193 5.683902684593983e-09
-0.0028578397805590996 -0.020046895814556515 5.6839026801965585e-09
0.014492094046494737 0.024461030887120556 -0.011718363501131533
-0.005679307036173397 -0.02228911895582555 -6.474289693869814e-05
0.038185014536241645 0.023337424384417202 -0.001089824829250575
0.04032274270214887 0.027698222096029346 -0.010855131782591343
0.018356502674597625 -0.0021499735158846166 -0.001362280570901932
0.016809563370583487 0.024697619757514493 -0.008697053417563437
0.01245897121566709 0.037050866291166475 -7.784202171023686e-05
0.005638335649279714 0.01870356856022457 -0.010855131782591341
0.007957728019040737 0.02699006370086379 5.683902683757866e-09
0.021962698653023104 0.0033075433850217988 -0.0014531003544107095
0.003754573372446848 -0.01123211467580754 -0.0021796552464365972
0.0036984594975341583 -0.013251100158867313 -0.0021796552464365977
0.0007970290058291871 0.030233846976962762 5.683902684625858e-09
0.007890521733517062 -0.0055728423283337965 -0.0013622805709019314
0.00017468814439008527 -0.016125981458303185 -0.0021796552464365977
0.006956107148400734 -0.02334492157518952 -0.001089824829250577
-0.008226459994104476 0.00353531850250932 -0.001089824829250573
0.015229023472565415 0.03812650657809366 -0.0020239637233316877
0.03003757200953053 -0.0052748777091175805 -0.006538976915180686
-0.001216604323525648 0.006801281352285032 -0.0016347437631338828
0.006761314730067495 -0.0022307803764104774 -0.0016347437631338841
-0.001215321579426009 0.018470615785948472 -0.002222822513431309
0.02513841215353038 0.007950269834258554 -0.0021796552464365972
-0.004888750450679738 0.02953204201474356 5.683902685007597e-09
0.023834325992052922 0.00030164756923825803 -0.0021796552464365977
-0.001215321579426009 0.018470615785948472 -0.006538976915180681
-0.009366375727164563 0.027200027694846123 -6.474289693869321e-05
-0.026872847906041664 0.037303194798153014 -6.474289693869089e-05
0.040798442027793876 0.032585408546644594 -0.006538976915180683
0.00993359916109629 0.02455748988759276 5.68390268337412e-09
0.01676955906987546 0.03879062881410214 -0.013013212010264395
0.015555082226594885 -0.0019426235468965602 -0.0016347437631338848
-0.001701848898088409 0.007211523438137744 -6.474289693869569e-05
0.040603148969353235 0.023350189479487412 -0.013013212010264398
0.02645179119477162 0.0331039564193145 -0.008157534524798392
0.018925276853105515 0.0013579911731438866 -0.0008173690875992193
-0.04055141977528968 -0.033722131089838826 -0.010423514991998672
0.029080087154877577 -0.006324734060778282 -0.002179655246436599
0.004911834526568426 -0.008544905628602996 -0.013013212010264398
0.020436219545646415 0.03812955561123937 -0.010855131782591341
0.039375382375646716 -0.02045203091874722 -0.006538976915180688
-0.039845102418115626 -0.03365000872149619 -0.0005449058371596038
0.0064752114176054735 0.02125308465441513 -0.006538976915180681
0.007972027982466672 -0.0026343950974225105 -0.001816379721276463
0.009911181172371997 0.02505979300919102 -0.010855131782591341
-0.0020998475284286786 0.030230971413040167 -0.013013212010264393
0.03368823057381228 0.010403169861292952 -0.006538976915180685
0.04309637679839623 0.031426220832250204 -0.001634743763133884
0.007952051147753087 0.023850932380894203 -0.0018163797212764606
0.004904019665533925 -0.00871107958601384 -0.010423514991998674
0.026157429846118494 0.035218890800933954 -0.006538976915180682
-0.03522695690142822 -0.016945134852714813 -0.0033018619287759053
0.029017807827911173 0.01254093150334553 -0.003301861928775908
0.027717138144776898 0.00913482589046453 -0.0010898248292505754
0.016258288748771613 -0.004486131105889808 -0.00977609306573868
0.019206947544106026 -0.0062844267813433625 -0.0005449058371596059
0.005312384193502784 -0.003839085870256846 -0.0005449058371596046
0.007182882220696944 0.02378711724335282 -0.010855131782591341
0.005331339807651862 0.02403212081236269 -0.013013212010264395
0.005087115256484597 -0.02687399613526742 -0.001089824829250577
0.021032872149481293 0.0012147798905455965 -0.006538976915180685
-0.010044046936357546 0.04162135266742194 -0.006538976915180679
0.029863534389324164 0.01010205258801965 -0.0010898248292505754
-0.03299548990740842 0.030132998822022618 -0.0014531003544107025
-0.03136262608458215 0.021551141482680117 -6.474289693869202e-05
0.028014764140046874 0.004818854380220703 -0.013013212010264398
-0.0408022884285867 -0.036308823654398324 -0.002179655246436596
0.004698356772013634 -0.02588613469230105 5.683902679053945e-09
0.025099743350352637 0.033266905172496926 -0.001089824829250573
0.006440312063679637 0.02172314778458563 -0.002222822513431309
0.01598088451786832 -0.03659615259514017 -6.474289693870119e-05
0.02365143490357515 0.037917480313521185 -0.006538976915180681
0.01895118997995202 0.005102503966953173 -6.474289693869752e-05
0.02913619341348254 -0.008894398349220223 -0.004380901809781793
0.0129274049198751 0.022652653795819537 -0.0003632699081208546
0.003721489285328368 -0.011273899258233872 -0.0010898248292505754
0.020693188881684203 0.0007406264633224135 -0.0021796552464365977
0.03572170505480745 0.0041011243494383735 -0.003301861928775909
-0.011100938005088747 0.03960982055412622 -0.0010898248292505696
0.020846487177874684 0.03794039110753744 -0.008697053417563437
0.027910783601106673 0.010187941996688652 -0.0004359257582109434
0.008675096910485729 0.03491847479846243 -0.0007265492458827768
0.04254862550262705 0.014518136418369234 -0.013013212010264398
-0.0042512351655249435 0.008237283936900163 -0.0033018619287759053
-0.030424388095188507 0.014551725347823652 -0.002179655246436592
0.018261900510192542 -0.037233211120476145 -0.0033018619287759113
0.022108390001526142 0.03984615329085806 5.683902683850017e-09
0.015063407441903409 0.022827489351463205 -0.0016833004774525753
0.02377820332481273 0.0002945752920851141 -0.0007265492458827812
0.040755892481655336 0.03297788490083302 -6.474289693869661e-05
-0.002870076700667822 0.019299659942207146 -6.474289693869447e-05
0.006347440829920752 -0.002498741683921932 -0.0016347437631338841
0.042403376286477695 0.033441185702188264 -6.474289693869671e-05
-0.04180717806126928 -0.03494430858347314 -0.013013212010264397
-0.0034456403620159765 -0.016415209730832644 -0.0021796552464365972
-0.011357641234747947 0.0396924025873425 -0.0005449058371595992
0.020133080153442454 -0.008866241698634043 -0.013013212010264398
0.009195362202472515 -0.029075504637906254 -0.0130132120102644
-0.004491872433974935 0.03244336549115916 -0.0010898248292505706
0.035320934300981835 0.008568257681477481 -0.0043809018097817915
-0.007464653958265738 0.004473049196503834 -6.47428969386955e-05
0.011522012674809325 0.03645119805734998 -0.0012455164687707994
0.007456604067275486 -0.0028435328100980045 -0.0022228225134313115
-0.018082304281826465 0.04279498897608117 -0.001634743763133878
-0.03404984287335826 0.025688117649362976 -0.0010898248292505691
0.017183868092604106 0.03834924289255833 5.683902684097239e-09
0.02618910328707134 0.03262645999212929 -0.0005449058371596029
0.04073542882988023 0.036482147880039714 -0.001089824829250574
0.011690343127070579 0.03663928956011566 -0.0017904317937791321
-0.03219759956214967 -0.013065439828113404 -0.0021796552464365946
-0.02126565793586378 -0.03290448424987311 -6.474289693869791e-05
0.01283961428789563 0.03777174261801299 -0.004380901809781787
0.019716554130401485 0.0020096652218462453 -0.013013212010264398
-0.008069003911341717 0.04138064148414289 -0.001634743763133879
0.026858473299929582 0.010227619532422584 -6.474289693869766e-05
0.018603003625672247 0.005715048862604858 -0.0007265492458827803
0.03874632038640908 0.005946588615525637 -0.001743723871186378
-0.005760816873323851 0.03664003095263777 -0.00653897691518068
0.04054864820600485 0.0038318952852026125 -0.001089824829250577
0.022820896320172056 -0.01145694774278485 -0.006538976915180686
0.007931575528347707 0.026975394235150194 -0.0016347437631338815
0.01712272689351862 0.004237074442426463 -0.0014531003544107088
0.008751230048274744 0.03555656173543335 -0.003301861928775904
0.004907645619710919 -0.008676538045713332 -0.0026544360443949712
0.008997606079016642 0.024459986147022248 -0.0010898248292505726
0.026490217354039433 -0.011961713374486498 -0.004380901809781793
0.03029046817637784 0.012338342693934034 -0.00977609306573868
0.01198125385670809 -0.03511563116492514 -0.0016347437631338878
0.03162575766296273 -0.00909261846703371 -0.0007784452172927592
0.04037985281553977 0.03595686102347231 -6.474289693869631e-05
0.004962274332294472 0.024381655876540145 5.683902683748961e-09
0.033534877879528295 -0.007719218937549088 -6.474289693869986e-05
0.011887198877749555 -0.03425426807928175 -0.0065389769151806875
-0.01758017326214857 0.04003066392345623 -0.0021796552464365907
0.014848094693388015 0.038547317837285565 -0.01193417143076658
-0.02795652115967613 0.015320787818392677 -0.00653897691518068
0.014376565690015075 0.024423128162089313 -0.003949280362576245
-0.001091089261858579 0.016108700712897127 -0.0010898248292505726
-0.0021116232035204257 -0.018266236585983038 -0.006538976915180685
0.005483437985995298 0.018986092459258124 -0.007833821699023245
0.014265045346737757 0.024432707102727564 -0.003949280362576245
-0.007116691239018086 0.027067662464922673 -0.001453100354410705
0.026849634525233774 0.03320869941269861 -6.47428969386955e-05
0.03962154301919161 0.033862462733747274 -0.0010898248292505741
-0.03408842641573555 -0.016014037718077075 -0.001089824829250573
0.01739245009860325 0.0048136818870439585 -0.0014531003544107088
-0.03973604017502113 -0.028130125834279356 -0.009776093065738678
-0.005835045200071623 -0.022447473029097303 -0.006538976915180685
0.028062511918095348 -0.01026178751243034 -0.0016347437631338867
0.013720214473845757 -0.03620317575176392 -0.001634743763133888
-0.02185172808012487 0.010355955181876824 -6.47428969386938e-05
0.01142187624187079 0.02454856125102479 -0.010855131782591341
0.02731599370747176 0.003263504702716508 -0.0022228225134313124
-0.03167987425310012 0.026769653253762307 -6.47428969386915e-05
0.005829584230923814 0.01825943670167546 -0.01042351499199867
0.04143492141714664 0.017723691455367688 -0.0014531003544107095
0.012747129813380916 0.02353532409630409 -0.011394650675356386
0.011300364912653382 -0.0337607027128042 -0.0130132120102644
-0.01013239992322009 -0.02434339403198134 -6.4742896938698e-05
-0.012516891772468152 0.04283927723598744 -0.0016347437631338785
0.000547003290117678 -0.015617131434838439 -0.0021796552464365972
-0.00356936327849716 0.034050650736754756 -0.00653897691518068
0.014060607305252194 0.022619982342862974 -0.006538976915180682
0.026241392861171376 0.03262797559333284 5.68390268284751e-09
0.03303477534759897 -0.010370874490892749 -0.0010898248292505776
0.004910489134666205 -0.008645619492752577 -0.003949280362576247
0.0358456622490751 -0.0264566538511367 -0.013013212010264402
0.03684933919423727 0.0060213094915409745 -0.002222822513431313
-0.006736346104509307 0.039914489671466595 -0.0043809018097817854
0.02026591845805074 0.0009541022774967915 -0.0003632699081208572
0.04111234566643801 0.024478821812602664 -0.00977609306573868
0.02789222859858607 0.00880480586177762 -0.001743723871186377
0.008341869974357131 0.01660718190504429 5.683902682753574e-09
0.01843546439515407 -0.001194220358213393 -0.0013622805709019319
0.00584360269635252 0.0180974827507374 -0.010855131782591341
0.024677312801791605 0.010020781054245382 -0.0022228225134313115
-0.02957560933820386 0.01850794725459414 -0.0016347437631338794
-0.040589713097182366 -0.03352708630607278 -0.0013595912605524063
0.037768022654402114 0.0014629447943118584 -0.0007265492458827822
0.0178605270414398 -0.0014320765904657082 -0.0043809018097817915
0.013054073019138057 -0.03582163624399431 5.68390267746411e-09
0.03988821293986178 0.007793503816572435 -0.0009808447211980844
-0.040469059004750514 -0.023213133403610597 5.683902682860232e-09
-0.04033220964332095 -0.034007270492976915 -0.005244132596999407
-0.020378906522706443 -9.602220211582909e-05 -0.013013212010264395
-0.029599290490105852 0.030948960126761706 -0.0021796552464365907
0.015208202382673805 0.025134158522243006 -0.0022228225134313094
0.036012339922879506 -0.014435680335320292 -0.0021796552464366003
0.007972183668874446 0.018309291534962545 -0.006538976915180682
0.018899047680647804 0.002676418128572613 -0.013013212010264398
0.036409099607780306 -0.024295651677643155 -0.002179655246436601
0.013931836737149495 0.03156919719122074 -0.006538976915180681
0.00574597589452734 -0.019159423857679533 -6.474289693869875e-05
0.00400392820773124 -0.018237225220378475 -0.006538976915180685
-0.030352340319825782 0.02946996233004362 5.683902687006236e-09
0.024008185402776994 0.00032772268555435955 -0.00145310035441071
0.026262786149673954 0.035120918736574705 -0.013013212010264395
0.04266319043337906 0.015946179993621756 -0.0021796552464365977
0.02870196950224453 0.005249464995543812 -0.0007265492458827811
0.0009134166234129355 -0.01426811106481171 -0.006538976915180685
0.04030444984571871 0.008643659225139934 -0.0005449058371596062
0.03799240065080189 0.03714342547884719 -0.0010898248292505737
-0.0068937188756694615 0.0377792139511842 -0.008697053417563435
0.0241074598967144 -0.035388537621200526 -0.009776093065738683
0.017340655778074626 0.004710638341390296 -0.002179655246436597
0.039898698462355664 0.028208127827682016 -0.0021796552464365964
0.03726107073981493 -0.011426731066035704 5.683902677847133e-09
0.014057623867576372 0.022001753602281123 5.68390268280972e-09
0.04056444563873737 0.00939719402473405 -0.002179655246436598
0.015145828931375798 0.025049602251651315 -0.010855131782591341
-0.009614124203593656 -0.02388455868782549 -0.013013212010264398
-0.023540331230880434 -0.004678233274824721 5.683902683266445e-09
-0.03226321160477824 0.018840584374675926 -0.013013212010264393
0.03868131524775896 0.03468275129097028 -0.0033018619287759066
-0.0056077301859896395 0.022749492685232922 -0.0003632699081208531
-0.008066268577247161 0.021228106805373934 -0.0010898248292505715
0.03123818123182916 -0.004917618286908074 5.6839026789318895e-09
0.01839291215546607 0.03819796844709154 -0.0014531003544107058
0.026358373784622323 0.0350435194188798 -6.47428969386953e-05
0.02230719823172982 0.0008077103675129027 -6.474289693869818e-05
0.011536712351452736 0.035665488902773324 -0.003949280362576244
0.015229023472565415 0.03812650657809366 -0.00015568599337711692
-0.04010491948198306 -0.03409796734851845 -0.00265443604439497
0.0010531848673305403 -0.01116336343371943 -0.013013212010264398
4.3262408541009054e-05 0.031663287517053794 -6.474289693869354e-05
0.015342907629770803 0.023038848599813422 -0.013013212010264395
0.010553331616355837 0.026800095010274704 -0.013013212010264395
0.005511441070161502 -0.027735450466734656 -0.0005449058371596069
0.014571377708214477 0.025280588087100556 -0.001362280570901929
0.0344643565435741 -0.012057613726110668 -0.001089824829250578
-0.034877898911845 -0.017495611074238228 -0.0021796552464365946
0.039007193457347204 0.016211698486477858 -0.0005449058371596054
0.01514103663979286 0.026298250296668785 -0.0019071995047852384
0.01910990187308899 0.0016112463249486329 -0.000871857278980316
0.015087723754705101 -0.034274955768337334 -0.013013212010264402
0.037970591354554044 0.005019425893800017 -0.0017437238711863782
0.036156170311609476 -0.013591564425767136 -0.008697053417563442
0.036623182064788734 0.020010035391565456 -0.002179655246436597
-0.023694409904799266 -0.031489219056423594 5.683902680763344e-09
0.03122414550848857 -0.009910138351209683 -0.0009341331315226887
0.015321417548800441 0.02531134603041667 -0.008697053417563437
-0.012513378054547317 0.008754116842853123 -0.002179655246436594
0.012361417149648328 0.03700421455167969 -0.0020239637233316872
-0.006486649254098229 0.029184109286180992 -0.013013212010264393
-0.004102034964428719 0.030169021845591195 -0.009776093065738675
-0.0011647531044430162 0.016666632820074398 -0.006538976915180681
-0.030894832772922397 -0.0354024599628219 -6.47428969386974e-05
-0.0022551045429682307 -0.018443056143184262 -6.474289693869806e-05
0.03190085996193592 -0.009221347147317878 -0.00036326990812085905
-0.04013316881079266 -0.033321813491263994 5.683902681885462e-09
-0.002783312116208684 0.030254728467196183 -0.00653897691518068
0.027569321430873022 0.00973768815781548 5.683902680595562e-09
0.015574146278434802 -0.003036025482454697 -0.0010898248292505756
0.02821852597594555 0.008218654395721506 -0.00036326990812085715
0.013474619895235877 0.022930985376804727 -0.001683300477452575
0.03277675993085133 0.008984459989130828 -0.00977609306573868
0.007246276504249615 -0.008710201295753707 -0.0021796552464365972
0.015606794395473874 0.03822626286717001 -0.0011676687281578755
-0.006002921673338187 0.031367728486427555 -6.474289693869309e-05
0.040049909524836544 0.03346635903333506 -0.0005449058371596038
0.03633037226380758 0.007041524250264708 -0.013013212010264398
0.0038900495914166258 0.017866916228423613 -0.006538976915180681
0.016105399966091175 -0.0015279930455447293 -6.474289693869791e-05
-0.006416193989628306 0.00814239609514482 -0.006538976915180682
-0.04142846837079258 -0.02754165472657106 -6.474289693869583e-05
0.02028783633740959 0.0016037830001755463 -0.004920415580272676
0.01878731010140776 0.0008642073184530526 -0.0013622805709019316
0.025868442245547837 0.005610807716635424 5.683902680342296e-09
0.035398490145924694 -0.013313168275930149 -0.0018163797212764662
0.019766192068103757 0.001281259435728926 5.6839026804164885e-09
0.03750822062131067 0.03483187323257482 -0.003301861928775906
-0.025660372450589317 -0.00577428271423043 -0.004380901809781788
0.039911028108786065 0.0030476338018613322 5.683902678996421e-09
0.01781955641862947 0.025842766426528812 -0.0016347437631338824
0.0064403120636796355 0.02172314778458563 -0.010855131782591341
0.04142198344360955 0.016692647538635447 -0.0033018619287759083
0.00823049500196839 -0.0032034472025603824 -0.001089824829250575
0.0058895146073052185 -0.027142254536734106 -0.0130132120102644
0.02911381241109555 -0.00619390327363083 -0.001089824829250577
-0.011587939808606023 -0.024960050731764882 -0.0010898248292505756
0.011320104728423179 0.02653931253073347 -0.003301861928775905
-0.04281545166421235 -0.03402491367697769 5.683902682030647e-09
0.009053558276614339 0.02730453804709913 -0.0019071995047852377
-0.04041302200822109 -0.03079086698291841 -0.006538976915180683
-0.03204059338876379 0.03098495399672778 -6.474289693869107e-05
-0.041905491080213846 -0.03476972744478205 -0.009128670208156109
0.019055184118334043 0.0016071680319731851 -0.0009808447211980833
0.01650003171261552 -0.034344431415745995 -0.0021796552464366003
0.025772969753850898 -0.034881773354184915 -0.006538976915180688
-0.005316701976938845 0.01827577849302401 -0.001089824829250572
0.007545028028553344 -0.007177925712969664 5.683902680584939e-09
0.023626203312390553 -0.014298200439948021 -0.0010898248292505774
0.03743639163656582 -0.027048646139956906 -0.006538976915180688
-0.032776697288937916 -0.012917515561290904 -0.009776093065738676
0.0287544629298056 0.00596039653246033 -0.0018163797212764638
0.03821568167230264 0.0015947628847297918 -0.001089824829250577
-0.02717075100236957 0.015077506782281603 -0.00163474376313388
0.03821588141139173 0.004465919553258023 -0.013013212010264398
0.031732239074081826 0.009781208007881867 -0.006538976915180685
-0.03158583029627899 0.0329590828301473 -0.0016347437631338778
0.011069296074920786 0.02416166831325656 -0.0018163797212764608
-0.02957560933820386 0.01850794725459414 -0.00108982482925057
0.011996562395888321 0.026221156577105966 -0.011394650675356386
0.020288717034809032 -0.011558054335520198 -0.006538976915180686
0.01329670060378817 -0.033143912591922 -0.0130132120102644
0.0004376407945072819 0.018054928019754578 -0.013013212010264395
0.01898073198070441 0.001498140353901794 -0.0013622805709019316
0.02506598123376911 0.0032055721701883108 -0.0033018619287759083
0.015388437606478067 0.02307718895106709 -0.008157534524798392
0.04325073242357992 0.008781254400885025 -0.0010898248292505767
0.008108048021478324 0.03548729228109196 -0.0010898248292505715
0.043173349310268234 0.008527471697241032 -0.0021796552464365985
0.018867592242889822 -0.009944357059657658 -0.013013212010264398
0.022234174611478492 0.03902951469145223 -6.474289693869459e-05
0.023489541840843814 0.0030871825803411115 -0.0010898248292505756
0.032597978337585015 -0.005932859576810228 5.683902678729605e-09
0.0057343387569009216 0.01803103606749548 -0.008697053417563437
-0.002059623638516415 0.006975676261919768 -0.006538976915180682
-0.03299548990740842 0.030132998822022618 -0.0010898248292505687
-0.01812001500819159 -0.029271175514084407 -0.0021796552464365972
0.01823712854851266 0.005125769767822479 -0.006538976915180684
0.02830802456061054 0.01085075830312762 -6.474289693869771e-05
-0.021983621691926445 0.03826880231362606 5.68390268717291e-09
0.023293601809979716 -0.01172408123861879 -0.009776093065738681
-0.018939624654692084 0.0007374837971062104 -6.474289693869495e-05
0.02765524124546783 0.009995125334626395 -0.0010898248292505754
0.01473346925235107 -0.0367075680232432 5.683902677248798e-09
0.01232936206301844 0.026037103770833177 -0.006538976915180681
0.039627710812565 -0.02309855746714797 -0.002179655246436601
0.01931909904876752 0.00483828071452582 -0.011718363501131536
-0.040397086874636286 -0.03396575176430468 -0.010423514991998672
0.0350064439808914 0.005887554464431176 -0.013013212010264398
0.005682183937359924 0.018616631796466204 -0.005244132596999406
0.009105644726664848 0.03758059578476079 -0.013013212010264393
0.019083799113684848 0.0016130203431916142 -0.0004359257582109435
0.010673634119401088 -0.03317547463788133 -0.0130132120102644
0.03686458434928333 0.03488856603725 -6.474289693869614e-05
0.005197733175187416 0.023801372057572122 -0.010855131782591341
0.03707881094251422 -0.015683242887458124 -0.009776093065738683
0.008597651612695347 0.03498325046994134 -0.0014531003544107053
0.0046764252541104095 0.021398028800937014 -0.006538976915180681
-0.03453253034904636 -0.034217209198579034 -6.474289693869699e-05
0.014063109462793903 0.03772767588407829 -0.0008562892326153791
0.00822012311056609 -0.003553520353581439 5.683902680871814e-09
0.015054629413507999 -0.033641461333267536 -0.0021796552464366003
0.01756347477206911 -0.037674409952943154 -0.0016347437631338885
0.01835975939357224 -0.002066808866537202 -0.0005449058371596055
-0.02079422127451266 -0.03334638223873204 5.683902680360818e-09
0.03246190227096731 0.011382023058612722 -0.006538976915180685
0.04280547428955911 0.013639687500799531 -0.00977609306573868
0.03842075495208156 0.005494637260614581 -0.0005449058371596063
0.013458381362478294 0.03210099020231704 -0.009776093065738676
0.022805691673516162 -0.010763699845896573 -0.0003632699081208585
-0.006693565538133767 0.0233275764594163 -0.0065389769151806805
0.025418850594277582 -0.013959990044016421 -0.009776093065738681
0.024251239016569545 0.009270579822315484 -0.0018163797212764632
-0.04011741923053312 -0.0316712406999697 -0.001089824829250574
-0.007151893518615329 0.02674323064495585 -0.001453100354410705
0.009362022894456824 0.035049902843627634 -0.003301861928775904
0.016785066900941337 0.02380635118295906 -0.00027245006640441624
-0.007634111165801874 0.025708660829464772 -0.013013212010264393
0.04063507854409772 0.022169636891267 5.683902680733325e-09
0.01193686984965044 0.03678686008872866 -0.001323360484093425
0.0040917421638251815 -0.023821638877648006 5.683902679295374e-09
0.007513667360803308 -0.004861656302248407 -0.0022228225134313115
-0.031180453624610707 0.01565707872681278 -0.002179655246436592
0.020300618587849997 -0.009077618981475884 -6.474289693869896e-05
0.00022997436552236683 0.03235184065921098 -0.002179655246436593
0.017835567193080788 0.0054900674267173485 -0.002179655246436597
-0.02984196165294333 0.01377514915004526 -0.0021796552464365924
0.04168419430904898 0.017392843283566235 -0.0018163797212764638
0.037029613342131125 0.019092784466227263 -0.0010898248292505752
-0.0016434276124921636 0.018633579731076585 -0.008697053417563437
0.009634795027082867 0.027347240959733475 -0.00027245006640441537
0.010346026086692231 0.03648114483158296 -0.008697053417563435
0.00671275418496704 0.023024661547842957 -0.002222822513431309
-0.039404647969196814 -0.0342836053339246 -0.009776093065738678
0.019637097186431744 0.0013626849730860352 -0.0020706716459244503
-0.009983261070912696 0.025844021885511412 5.683902685062645e-09
0.0058106652748030965 0.0183188255745441 -0.009128670208156107
0.008537926696616075 -0.02725855601423305 -0.0007265492458827826
-0.04060609889936157 -0.03196996567892261 -0.013013212010264397
0.010768388251029631 0.03678637876145354 -0.008697053417563435
0.014487796274174708 0.0384256722529491 -6.474289693869404e-05
0.04353291649527567 0.010046982136053376 -0.0010898248292505765
0.015379889748238843 0.02247038162834211 -0.0019071995047852388
0.012089964683330942 0.024099458315984614 -0.010855131782591341
0.023655546562344133 0.03473737551848983 -0.0003632699081208543
-0.001906508490610373 -0.018875045856527713 -0.0010898248292505756
0.012649007902461804 0.02584113460153415 -0.004920415580272673
0.01882765736510114 0.0010269412622521377 5.6839026804665106e-09
0.004912528058095871 -0.008618437344033267 -0.011718363501131536
0.02610037169235461 0.035276058228407466 -0.008697053417563437
0.018482965228544743 0.0017207638563073238 -0.004380901809781791
-0.0064166036293702815 0.004320792501407904 -0.0016347437631338826
0.018317012050568363 0.0010656250901445981 -0.013013212010264398
-0.007098228683625459 0.02392091655499311 -0.013013212010264393
0.015145767947182415 0.02736145684662539 -0.0019071995047852384
0.016008188164847878 0.0009035012029096537 -0.0003632699081208569
0.02448556446796325 -0.01159195021712925 -0.002179655246436599
0.007506168922316426 0.020095354260076314 -0.0014531003544107066
0.0321251585337804 0.03642794771950261 -0.013013212010264395
0.019683898952400688 0.0013337536623296616 5.683902680427891e-09
0.020573694848274243 0.0007947101382519387 -0.0021796552464365977
0.007220167755400545 -0.006208084468431979 -0.002222822513431312
0.003777937644570192 -0.011650773696450508 -0.0014531003544107093
0.019083799113684848 0.0016130203431916142 -0.0011988048208877457
-0.03966599036870149 -0.03371164083699366 -0.0019071995047852397
-0.02202914359827846 -0.0029715432752155037 -0.008697053417563437
0.04057868110372265 0.014812969391809871 -0.0033018619287759083
-0.029862299847708575 0.014971550604509202 -0.00653897691518068
-0.032123658420429385 -0.012030717460196955 -0.0033018619287759053
0.00771499637821756 0.024316016713634567 -0.006538976915180681
0.0020854317595681016 0.015572189734504483 -0.0010898248292505728
0.02850711499766341 0.00751389524008002 5.683902680313118e-09
0.00537897307908465 -0.02603217466020752 -0.006538976915180686
0.03586020997655403 -0.013130467662072395 -0.004380901809781794
0.038057740948359293 0.005073927714966067 -0.0014167724875733282
-0.039236670845636916 -0.03381214952791992 5.68390268176889e-09
0.015124233595134786 0.038095195153869395 -0.00015568599337711692
0.02705425277468816 0.009046548090288365 -0.004380901809781791
0.010083271842008783 0.03394113564213404 -0.0003632699081208533
0.04137763646571034 0.011820323773498507 -0.013013212010264398
0.031402103866275705 -0.009505551149225354 -0.0021796552464365994
-0.028774169434057792 0.036363307535833896 -0.0010898248292505685
0.038560087889015146 0.016835794457063753 5.68390268039628e-09
0.02051851191520677 0.004470004485765127 -0.0018163797212764634
0.03641445695157762 0.034430587982870915 -0.0005449058371596035
0.014314256222321652 0.025239919676405865 -0.001362280570901929
0.017868404221956447 0.005519688965263108 -0.002179655246436597
0.035162041705966186 0.005534722433728426 -0.00977609306573868
0.040769654336706214 0.008480836196099545 -0.013013212010264398
0.019195698302074283 0.0054973031023140585 -0.00036326990812085666
0.036661807877124454 0.019843276403849017 -0.0007265492458827803
0.007787180738412994 0.023699230962234367 -0.0010898248292505726
0.008449717023937233 0.018610676979952133 -0.0005449058371596027
0.005011077283493384 -0.025019065413088928 -0.0130132120102644
-0.018567153223174565 0.0009473782198269458 -0.006538976915180681
0.009464080778629608 0.0378369696870685 -6.47428969386937e-05
0.04002035291535699 0.03424697440398699 -0.013013212010264397
0.008229663586447469 0.018991650638586943 5.683902682986102e-09
0.005953457005945143 -0.0029548771182981155 5.683902681106404e-09
0.010083271842008783 0.03394113564213404 -0.0014531003544107056
-0.04251619932961054 -0.02933858028394104 -0.0010898248292505735
0.0403065790850304 0.03238751748093078 -0.0005449058371596039
0.012012388929251779 0.03682783877137629 -0.0006227535777725254
0.014621898978657398 0.02454323028833164 -6.474289693869535e-05
0.014311227959919457 0.03782011753201159 -0.001011980813927946
0.03874632038640908 0.005946588615525637 -0.0018527039792388701
0.004719948670239007 0.0223346555867411 -0.006538976915180681
0.005842640392374636 0.018207084097361787 -0.012149980291724203
0.01758052765373226 0.004079232404465461 -6.47428969386975e-05
0.010347888376696018 0.036485943818987315 -6.47428969386939e-05
0.004514661924170645 -0.010866262361382129 -0.013013212010264398
0.0005428556271091686 0.031660111009409644 -0.00036326990812085276
0.01618594036316271 -0.03667099075578364 -0.0065389769151806875
0.01985429888292711 0.04019275234683958 -6.47428969386943e-05
0.026142229430871113 0.004581474667717911 -0.013013212010264398
-0.032090914582649434 -0.033880292096664905 -0.0033018619287759074
0.03871728067504322 0.03415906960363773 -0.002179655246436596
0.01823563061033664 -0.03781543531151597 5.683902676869179e-09
0.007931003157728326 0.018383213963649316 -0.008697053417563437
0.027800538786151057 0.010131009828298709 -0.0006538933375850332
0.006198933069977397 -0.02768444626556642 -0.006538976915180687
-0.02972871691465478 0.01878780317422721 -0.002179655246436592
0.038299187658475745 0.034231356731019943 -0.002179655246436596
0.042193761223540655 0.034164135898847627 -0.013013212010264397
-0.009971323023381334 -0.02685630264456279 5.683902680117709e-09
0.024223447779596962 -0.014413520993395509 -0.00036326990812085894
0.019808890052136253 -0.0074651981417286324 -0.0005449058371596061
0.0006360666560998896 0.018021554487881234 -0.008697053417563437
-0.003638547613569928 0.005534912296466566 -0.0010898248292505732
0.016970153448683065 0.025011472253052124 -0.00222282251343131
0.006701392426885402 -0.0029970352467205115 -6.474289693869732e-05
-0.002604929840633497 0.02977565681191173 -0.002179655246436593
-0.037525332987199046 -0.023329099804457964 -0.0005449058371596031
-0.023547271681268744 0.03985441421713353 -0.009776093065738673
0.04034523127779205 0.008745671855542357 -0.0008173690875992203
0.0268115841540771 0.034919505489045446 -0.010855131782591341
0.0282985035977877 0.00804879586452913 -0.0018163797212764636
0.008218229876294739 0.017238873874166803 -0.00222282251343131
-0.040177233246482306 -0.03313020699262227 -0.0016347437631338835
0.007840887664021632 0.018538793404241076 -0.008697053417563437
0.010678664736293258 0.03619442497846732 -0.003949280362576244
-0.0028351095807490367 0.019275930690255544 -0.010855131782591341
0.004708327494060331 -0.00985340491871439 -0.003949280362576247
0.020200039327250615 0.003945678486112159 -0.006538976915180684
0.019313537357445145 0.0015398641723921066 -0.001743723871186377
-0.006584283984644929 0.024106947091346132 -0.0007265492458827765
0.037840912067047185 0.017848646890550494 -0.0007265492458827807
-0.011678212564804924 -0.027604758767864432 -0.006538976915180685
0.039917397962479624 0.026175132332443243 -0.004380901809781791
-0.027467099252490194 0.03752447063167632 -0.0021796552464365903
0.023175175253218914 -0.011010742399222562 -0.00036326990812085856
-0.04235846499445278 -0.03276296038154507 -0.006538976915180683
0.03157712538952159 -0.009162292683053356 -0.0015568961389362845
0.026833021875019188 0.009419979604141211 -0.010855131782591345
0.03981008420174372 0.007652411145834526 -0.0011988048208877468
-0.006094323183523851 0.029473776017183446 -6.474289693869326e-05
0.003780299146870408 -0.011358443053828953 -0.0014531003544107093
0.03731488574083094 0.03484958508129041 -0.003301861928775906
0.04086302737003625 0.010847295262668024 -0.0016347437631338856
0.023914824239353014 0.034461009209245407 -0.0010898248292505728
0.042151825510612306 0.027978344751619404 -0.013013212010264397
0.0283904795863599 -0.013518108598858379 -0.0021796552464365994
0.019750299391098774 0.004444262059375592 -0.0013595912605524074
0.008930028443348432 -0.027850149952040236 5.6839026785365816e-09
-0.028206955651994194 0.012933101755972752 -0.013013212010264393
0.0008002701425477642 0.030557671897513634 5.683902684655982e-09
-0.01860242420296405 -0.0015560608003179963 5.683902683170641e-09
0.0064111738713963735 0.025303391668499306 -0.004380901809781788
0.037380960551250446 0.0207589291815382 -6.474289693869749e-05
0.00043764079450728363 0.018054928019754578 -6.474289693869485e-05
0.02263811822070966 0.03874614646073082 -0.006538976915180681
0.005005089604623328 -0.004286686259280982 -0.0016347437631338843
0.0002020523779636927 0.01809928329001346 -0.013013212010264395
0.027455279254156008 0.010667802298195831 -0.006538976915180684
0.00266810094941833 -0.007817605998134346 -0.001089824829250575
-0.010787211678280836 -0.027531220081386927 -0.0021796552464365977
0.014012812440717866 0.024607187303509595 -0.003949280362576245
0.02855705502691348 -0.009076506733786335 -0.0016347437631338865
0.036797555779794974 0.020690006266993795 -0.001089824829250575
0.02708721156006599 -0.011191488393911759 -0.002179655246436599
0.006978055244818056 0.021464363160149456 -0.0010898248292505726
0.03866065113997326 0.005823761004795155 -0.0020706716459244516
0.032321444353194485 -0.005658571109138204 -0.0010898248292505771
0.005538672822026031 0.018888816740077686 -0.0039492803625762445
0.028553795703259142 0.007364407746212827 -0.0014531003544107095
-0.0027697331961749672 0.006592587454231024 -0.006538976915180682
-0.002000598933846052 -0.015418286552639932 -0.006538976915180684
0.0374900976569223 0.02100078073350105 -0.010855131782591345
-0.03332177681413144 0.029347830888017463 -0.0003632699081208503
0.027026625429107963 -0.036812657734974163 -0.0010898248292505797
-0.00397500204676719 0.03698561894273551 -0.013013212010264393
-0.02951360161985125 0.03564189880622132 5.683902687519222e-09
-0.03469840158330761 -0.011911049064426159 5.6839026834662595e-09
0.010307893705045122 0.03443712647297353 -6.474289693869408e-05
0.00808553884793638 -0.0027985642095784895 -0.0012714607873931536
0.024367520714281814 -0.014433209661300898 5.68390267858005e-09
0.042034381746877784 0.034533239757036725 -0.009776093065738678
-0.0036569099156344895 0.017177406167806733 -0.002179655246436594
0.042709424336366195 0.014013035589080656 -0.0033018619287759087
0.029474322966978238 -0.005136945041051464 -0.0021796552464365985
0.028653245785996748 0.004959600341129961 -0.0010898248292505758
0.014944669219570723 0.038577333100605876 -0.0011437825160101032
0.03730700808779452 -0.016478032058436405 -6.474289693870099e-05
0.039557983602471584 0.007216039139453821 -0.0011988048208877468
0.016737519413147064 0.030167988594826882 -0.006538976915180681
0.012693305193397316 0.025812304735263983 -6.474289693869508e-05
0.03892344977965477 0.0062078697080932745 -0.0016347437631338859
0.014626481161300454 -0.03600753356940818 -0.003301861928775911
0.03179010855354512 -0.00913605618408314 -0.0021796552464365994
0.035490337858362794 0.003227639623183987 -0.0005449058371596063
0.012830357610471457 0.0396099635678795 -0.009776093065738675
0.006569898435154488 -0.002317908959606841 -0.0016347437631338841
-0.03342201729590619 0.02907722227714391 5.683902687211033e-09
0.04288735787726634 0.013253027555278874 -0.0033018619287759087
0.01943089921579872 0.005357250324318875 5.683902680825265e-09
0.011529033495665548 0.03650061812750101 -0.0015568961389362786
0.02855705502691348 -0.009076506733786335 -0.000544905837159607
-0.03522695690142822 -0.01694513485271481 -0.009776093065738676
0.023033013128905704 0.003100791001535865 -0.0013622805709019319
0.04039931349469833 0.0077257345042319545 -0.00977609306573868
-0.03998343298306932 -0.034134054288449525 -0.00265443604439497
0.032067191245250606 0.011615992985686552 -6.474289693869794e-05
-0.03100193734638435 -0.033213738514485114 -0.0005449058371596045
0.03019658139826348 0.035972906711491205 -0.006538976915180682
0.03394126281487523 -0.008161851141438551 -6.474289693869995e-05
0.008815559325222563 0.027272854241399008 -0.0010898248292505722
0.01835204070086124 -0.005638017473080452 -0.00977609306573868
-0.014833079380070219 -0.02982591451804215 -0.006538976915180685
0.019141252271465133 0.0016050990612824535 -0.0020706716459244503
0.028926112788360176 -0.035209845770535306 -0.009776093065738683
0.024293543678125265 0.009167797642947156 -0.001453100354410709
0.022966552412926763 -0.011545812063397623 -6.474289693869939e-05
0.03586020997655403 -0.013130467662072395 -0.0022228225134313146
-0.01113545983038171 0.004711124540928412 -6.474289693869519e-05
-0.002910317861849879 0.008248797081221539 -0.0033018619287759057
0.04037985281553977 0.03595686102347231 -0.013013212010264397
0.012178120226163198 0.03691377533585708 -0.0009341331315226828
0.003780299146870408 -0.011358443053828953 -0.0010898248292505754
-0.04015868203282632 -0.03408037572889586 -0.010423514991998672
0.01984025457685843 0.005062506424466181 -0.0021796552464365972
0.025678595667625568 0.03574542763325265 -0.008697053417563437
-0.027035925182956798 -0.0069290944986686994 -0.006538976915180681
-0.04223767277793704 -0.035280338037721765 -0.0010898248292505741
0.016621218013468154 -0.005900498971782814 -0.013013212010264398
0.03800010624979307 0.0050314385586470506 -0.00043592575821094464
-6.472668961742446e-05 -0.011860651454236766 5.6839026807446674e-09
0.010224507037307779 0.03385277312437839 -0.0014531003544107056
-0.013974189332601606 0.04069569983672465 -0.013013212010264391
0.018354430211057336 -0.0022295305830869775 -0.0019071995047852414
0.041134735708636905 0.013429882642737598 -0.006538976915180685
0.03671782823118973 0.01969253681911243 -0.002179655246436597
0.04308586646888006 0.031237033381396797 -0.001634743763133884
-0.0020080150923694907 0.0063017789733162 -0.0010898248292505735
0.01823427253532601 0.005706468363565597 -0.001816379721276463
-0.006399005778583244 0.03730106835882839 -0.008697053417563435
0.017977572981964438 -0.034853641802100856 5.683902677167349e-09
0.012361417149648328 0.03700421455167969 -0.0015568961389362786
0.013128351942532937 0.031694988331448584 -0.0016347437631338815
0.007038220436645006 -0.009935181467658209 -0.0021796552464365972
0.04143492141714664 0.017723691455367688 -0.0018163797212764636
0.028588703493450017 0.00466625158667333 -0.0010898248292505758
0.003776265444330829 -0.011713768217174259 -0.0018163797212764634
-0.0068633565228001965 0.024812634065448494 -0.0003632699081208528
-0.013199761058633078 0.008813128057632996 5.683902683718118e-09
0.035405494777349424 0.009516246045733973 -0.0016347437631338854
-0.029885779062285744 -0.006546970189422247 5.6839026835906386e-09
0.022393957430875765 0.0031767543868194206 -0.0018163797212764636
0.007916060774085833 0.03671790496005672 -0.00036326990812085287
0.007498998959754376 0.02412560656467359 -6.474289693869484e-05
0.036846509941779376 -0.015027483151659771 -0.009776093065738681
0.040511636737681045 0.028727710152427005 -0.008697053417563438
0.03772040113230453 0.005407195569234514 -0.0007265492458827819
-0.013240425102050571 -0.029451509579287497 5.683902680131584e-09
0.03498533992406142 0.009993332959284099 -0.0010898248292505758
0.007571193205630064 0.023455974147649394 -0.0018163797212764606
0.03669310678957008 0.019754331908120305 -0.002179655246436597
0.02837520453513842 0.012531984707763994 -0.013013212010264398
0.0049083423394605434 -0.00866918653455314 -6.474289693869771e-05
0.02158605603530933 0.03743204189036723 -0.013013212010264395
0.039057037831200854 -0.01617879891179023 -0.013013212010264402
0.007398475495714909 0.020272441533303716 -0.0018163797212764608
0.023383800848683675 -0.01364130507677896 -6.474289693869962e-05
-0.03766994110692468 -0.0344218391324893 -0.006538976915180683
0.02851250557846064 -0.00923125960556452 -0.0016347437631338865
0.0067866066185419335 0.016590581967362482 -0.00222282251343131
0.029392624471241996 -0.006959524282460595 -0.006538976915180686
0.00026192750524175605 0.0299105598954153 -0.0002724500664044144
0.004123839359194734 -0.02062827394379369 -6.474289693869877e-05
0.026964684941766136 0.009190434383087434 -6.474289693869776e-05
0.006756064061598882 0.023118595608362612 -6.474289693869486e-05
0.011887198877749555 -0.03425426807928175 -0.0130132120102644
0.028535280988522167 0.033186419312316556 -0.0013622805709019295
0.025715880699417885 0.004887527985984625 -0.001634743763133885
0.021628463012880086 0.03672292318458532 -0.002179655246436594
0.02790542009046621 0.010185663877535922 5.683902680611131e-09
0.02020725528516795 0.03821674183371071 -0.004380901809781788
0.006317373867111206 -0.016098208005664288 -0.001089824829250576
0.01111393105246414 0.027137460984852778 -0.002179655246436594
-0.033334892442325584 -0.034066505098013435 -6.474289693869707e-05
0.01050818820893172 0.03662835132688807 -0.01085513178259134
0.025061278925530676 0.0032019960546841577 -0.013013212010264398
0.00569570683003472 0.018018943812886403 -0.013013212010264395
-0.012883102593964028 0.040557885355102186 -6.474289693869168e-05
-0.04090320803682579 -0.0356213619110888 -0.013013212010264397
0.011523148527790758 0.036490082715829604 -0.0020239637233316872
0.023871655278478378 0.003133457978692864 -0.0021796552464365977
0.035602963677333926 -0.012754741281799589 -0.008697053417563442
0.016409771825582092 -0.006819856284550297 -0.0016347437631338854
0.01412054052965664 0.022603550423964797 -0.0033018619287759057
0.011801896841476927 0.03670958821205846 -0.0007005974766798292
-0.0025959339390590535 0.008235841983485346 -0.009776093065738676
0.03171787737287981 -0.009091111036425134 -0.00036326990812085905
-0.02911313830901549 0.016870353985210133 -0.013013212010264393
-0.003107984695487983 0.03341198766254388 -0.004380901809781786
0.0376890863549617 -0.01999478192741069 -6.474289693870134e-05
-0.042216833550548415 -0.033817369810349454 -0.001359591260552406
-0.03637426693754369 -0.03437979261737084 -0.009776093065738678
0.038036807990762894 0.005056596302980784 -0.001307792495936158
-0.04200571409575334 -0.03453244593924765 -6.474289693869644e-05
0.033234920796966196 -0.010595011163669683 -0.0007265492458827829
0.014488574107361499 0.04070261757993011 -0.0016347437631338809
0.00756084103941345 -0.0071036115173891525 -0.0005449058371596051
-0.031366227449806085 0.01594620617740887 -0.0010898248292505702
0.02052498286864432 0.04062089029244746 -0.0021796552464365937
0.012178120226163198 0.03691377533585708 -0.0012455164687707994
-0.01733633385395033 0.009446972213206726 5.683902684103208e-09
0.027768645977976514 0.009028279633165279 -0.0010898248292505754
0.02765524124546783 0.009995125334626395 -0.001961691537871958
0.02217778559209282 0.003229465649863664 5.6839026804094186e-09
0.03945358483554911 0.03394576078364795 -0.0005449058371596037
-0.03931017065012214 -0.026759728296455176 -0.013013212010264397
-0.02410096081035651 -0.03379595607879943 -0.006538976915180684
-0.01578058249321326 0.0029898768881448687 5.6839026833749785e-09
0.02703878933667814 0.012795815574018652 -0.0007265492458827803
-0.017530709177156177 0.04053362129210436 -0.013013212010264391
0.011657766830909548 0.02638976406799725 -0.006538976915180681
0.011252283964189666 0.03583075983891469 -0.005244132596999404
-0.02320763064806741 -0.03353553193109684 -6.474289693869782e-05
-0.0383393115838688 -0.01970125166380015 -6.474289693869534e-05
0.036899078806602044 0.0020954505170043113 -0.006538976915180686
0.015189953762236771 0.0267413614954429 -0.0008173690875992166
-0.039818132325692764 -0.030176351703508544 -0.0021796552464365955
0.0059411496421109536 0.02483644188335883 -0.006538976915180681
0.015627581973093604 -0.0009817034008057577 -0.0007265492458827807
0.036905360170705 -0.017165046306851377 -0.0010898248292505787
0.0048388009373408125 -0.009159677697099085 -0.011718363501131536
0.01802777399524923 -0.03718694834616818 -0.009776093065738683
0.012380012291192797 0.023122756221864816 -0.0010898248292505728
0.03428479017364705 0.00716854868392253 -0.006538976915180685
-0.009256530775408753 0.027649832420348287 -0.00653897691518068
0.023746088282915752 0.0008509189921061268 -0.0043809018097817915
0.019178219115194194 -0.037374165725603474 -6.474289693870152e-05
0.01479022605803531 0.03798819899484559 -0.0009341331315226829
-0.0037969288844784373 0.00824882232552217 -0.006538976915180682
0.033688237175598004 0.0366307138509709 -0.009776093065738678
0.04024365480311643 0.015393533735880798 -0.013013212010264398
-0.039510052780714115 -0.027386366541934482 -0.009776093065738678
0.017209588665100115 0.024343657634559163 5.683902682781303e-09
-0.013863299265085649 -0.029896656229301082 -0.0010898248292505758
0.042428819404550094 0.026568205821699577 -0.001089824829250575
-0.009419297884465543 0.02550878294821154 -0.0033018619287759035
0.009370870341543653 0.034405091047344336 5.6839026843422546e-09
-0.007350704895709061 0.00863215805409387 5.6839026832407106e-09
-0.007667190808328893 0.026113702866412354 -0.0033018619287759035
0.011320276165879621 -0.033778435103070284 -0.0065389769151806875
0.03790185460330121 0.005079453474133764 -0.0014531003544107106
-0.006662871130100356 0.028114876574854727 -0.00036326990812085254
0.024202687392775306 -0.014410443392339939 5.683902678595162e-09
-0.0033729267745609207 0.01765880725234252 -6.474289693869458e-05
0.004475327172886423 -0.011117550917997945 -0.013013212010264398
-0.04055141977528968 -0.033722131089838826 -0.007833821699023247
0.026252719005583475 -0.013840167730896432 -0.006538976915180687
0.031969981692353516 0.00898217727383748 -0.0010898248292505758
0.006257372162432458 -0.017180408253728102 -0.002179655246436598
-0.0071519643593685 0.026393804471396654 -0.00036326990812085265
0.018899047680647804 0.002676418128572612 -6.474289693869774e-05
-0.02864124679769695 0.03648669891644677 -0.0005449058371595982
-0.005501831014095007 0.005330786094546387 -0.006538976915180682
0.03594626715607621 0.0023051353423790936 -0.0021796552464365985
0.012012388929251779 0.03682783877137629 -0.0009341331315226828
0.013718876070610755 0.03496705340161814 -0.0021796552464365937
-0.004444105375436706 0.021386193117917188 -0.0021796552464365937
0.02921480568102219 -0.005837377765771431 -0.0005449058371596067
0.020393378305157757 0.0008842951283806292 -0.0018163797212764636
0.0013930566247279243 -0.014450164649272842 -0.0010898248292505756
0.03758333205735112 0.0019238312704087006 -0.003301861928775909
0.017259244422953218 0.028522580915966825 -0.0033018619287759053
0.037777975575821895 0.005294975505187309 5.683902679375163e-09
0.010350205810542057 0.03649064084682135 -0.005459937732666728
0.003779646918812606 -0.011572806434582488 5.683902680469047e-09
0.03800010624979307 0.0050314385586470506 -0.0020706716459244516
0.03821576191315036 0.005238645734185883 -0.0015257563209161188
0.04210391261285818 0.0277543796465726 -6.474289693869721e-05
0.00013351655768823872 0.016321469033108923 -6.474289693869499e-05
-0.005033353659696127 0.03821981051692645 -0.006538976915180679
0.025437858001912898 -0.012155667353407482 -0.0022228225134313137
0.011227208655733954 0.03702892231642794 -0.008697053417563437
-0.005396309950662032 0.0191290363191229 -0.013013212010264395
