ply
format ascii 1.0
element vertex 770
property float x
property float y
property float z
end_header
0.03430380912912286 -0.034385282975933344 0.14740222590238158
0.0373887841949269 -0.030850172652130817 0.16005469050402737
0.038219601825244746 -0.034547004497125826 0.14770511023729638
0.037829526701327214 -0.0345847189295537 0.14769106222912867
0.03703988453069985 -0.030883827536191417 0.16004210123176157
0.03756213458795035 -0.03460735679616208 0.14768046894615183
0.03730515562373867 -0.034626355669521915 0.14766946219827234
0.03666741861387798 -0.030915038313238396 0.16002724852440023
0.03632607734961421 -0.030937600807909384 0.16001182758827778
0.037070444060354125 -0.03464026113296005 0.14765837658672526
0.036853504858173555 -0.034649963426621 0.1476471867173823
0.03602367272861083 -0.030951245473639644 0.15999626528653874
0.036594012310351226 -0.034655982098780846 0.14763212830467023
0.03579520874857868 -0.030956235456935686 0.15998291493585656
0.03641988102661044 -0.034656470942090505 0.14762096035898276
0.03617169555681733 -0.03465172934481281 0.14760341371024147
0.03537310599768827 -0.030952105513793134 0.15995424942228856
0.035911163712664174 -0.03463834610086136 0.1475824754679036
0.03538979342935003 -0.03458596612038628 0.14753290741691893
0.035172157804761295 -0.034554108962002617 0.1475092224948379
0.03434608557903071 -0.03085074199841211 0.15985715260588443
0.03497422686413369 -0.03452105960151244 0.14748646102517668
0.03474697957385845 -0.03447882561546061 0.14745904362362808
0.034541930829668076 -0.034436948964395385 0.1474331754374229
0.034093228948441474 -0.030807466351793357 0.15982775900320462
0.034591044061279844 -0.030886843426611098 0.15988388392145111
0.034848612540292465 -0.03091679103124961 0.15990959119357412
0.03564857885393288 -0.03461621480958282 0.14755878361300093
0.035111302113840503 -0.030938822777819473 0.15993325998013455
0.035591976491206476 -0.030956526948162245 0.1599697966296533
0.041069500801024034 -0.037224545365328855 0.14869236555396304
0.04116690950218134 -0.03698770701524022 0.14862774862077108
0.0403322177076002 -0.03336731246249864 0.16099997362961768
0.041251067902997776 -0.036769408094982844 0.14856782424148368
0.041327719677650546 -0.03655682247651683 0.14850912367317312
0.04052499436304252 -0.0328580008544737 0.16085993244273483
0.04139040631004363 -0.03636432637986408 0.14845553357219834
0.04060133714669514 -0.03262134488727933 0.16079400129198118
0.041426806878927115 -0.03624181682073394 0.14842120049825414
0.04152895106479462 -0.03522398440964826 0.1481229407546988
0.0415096878225006 -0.03514715869492079 0.14809867524668688
0.0407071165117242 -0.03144744074399022 0.16044922343710719
0.0414834409728471 -0.03507086987043113 0.14807411849132163
0.04068171404241101 -0.03137319075130006 0.16042532787103117
0.041451895515285525 -0.035002056265578625 0.14805145885236898
0.04064991820571742 -0.031303445178510615 0.16040236620348075
0.04141525794216 -0.034938650413217774 0.1480300909346545
0.041371899211550975 -0.03487761094622212 0.1480090471166482
0.040569267365123174 -0.03117797056792174 0.16035946884717742
0.04132117056596318 -0.03482035848356137 0.14798861507115807
0.040519471853171285 -0.03112155385265318 0.1603393235195198
0.0412663678298304 -0.03476910649895047 0.14796964072120486
0.04046484762005041 -0.031070258952586676 0.16032047078534337
0.04120449773488531 -0.0347208834509411 0.14795115561001754
0.04040379831364232 -0.031022457852578234 0.16030220331796327
0.04113525074594729 -0.03467648001140704 0.1479333512630021
0.041056376264274504 -0.03463413494465778 0.14791554025253742
0.040259731722961684 -0.030937525355798336 0.1602674040042346
0.040975770372786685 -0.03459869787712313 0.14789968767795222
0.04018126293374967 -0.030902145552023134 0.16025170799590452
0.040890932492894286 -0.03456761670064275 0.147884863642294
0.040800158385532276 -0.0345399999771049 0.14787069285264653
0.04070282475029763 -0.034515592122343224 0.14785705629820606
0.03989173407090224 -0.030814151713873784 0.16020653589565623
0.040588900532990496 -0.0344930631415838 0.14784290506679856
0.04047207564666307 -0.03447480236017783 0.14782984387546672
0.03967003084198914 -0.03077523692930645 0.1601804738756533
0.040350587905186114 -0.03446069957386606 0.14781772528462944
0.03955073238352356 -0.03076129736288197 0.16016854641833383
0.04022543136899715 -0.03445013208305575 0.14780642718542092
0.040086832176532694 -0.03444229835133892 0.14779507469878242
0.03928698435712875 -0.03074280947137364 0.1601458704392282
0.039946912718158104 -0.034438225169987347 0.14778476278294161
0.03884144482174746 -0.03073938274887389 0.16011589367860604
0.03973700132084378 -0.034437143412763646 0.14777079912221439
0.03940700690277889 -0.034446873635221184 0.14775227132783714
0.038588784800270254 -0.030747945946187665 0.16010204149596502
0.03913013215045902 -0.03446302257107956 0.1477391538655353
0.03786238789875381 -0.03080121599771267 0.16007079905500923
0.03886309888398638 -0.03448322897977451 0.14772782395963088
0.03854806410590436 -0.03451276219744624 0.14771620729258864
0.04148848478553317 -0.03600052198183467 0.14835292665278818
0.04152236237181835 -0.035830616773375984 0.14830423175371416
0.04070894726958285 -0.03218915066542505 0.160671527142436
0.04067258688229233 -0.032360244005074576 0.16072041658043443
0.04023138100741274 -0.033609341377378914 0.16106592271438486
0.040124607636896556 -0.03385310184964704 0.1611320047449025
0.04095260242327333 -0.037496353034784685 0.14876619135433203
0.03824733801853224 -0.030768847090442215 0.16008611603578587
0.03907091950043205 -0.030737263952824796 0.16013016978427047
0.03942461897866375 -0.03075052120638547 0.1601571237583904
0.03978647734037552 -0.030793361842425294 0.16019346976469426
0.039991229062122435 -0.03083839583293936 0.16022026432968128
0.04008977846687557 -0.030868386720925726 0.16023565182730548
0.04033274501144925 -0.030976746163081704 0.1602838970954117
0.040612851527421806 -0.03123904234035852 0.1603806595739908
0.04072637771096087 -0.031523755878485285 0.16047333565944147
0.04154283331279782 -0.0353050480046235 0.14814812511030181
0.04074059743720883 -0.031607701106826036 0.16049940593855472
0.04155116630066634 -0.03539582134724405 0.1481758579802264
0.04074873696163112 -0.031697597595068204 0.16052686484898265
0.041553689636715505 -0.03548509708428251 0.14820276473366573
0.04075124859460001 -0.03179439787744496 0.16055602517025358
0.041551128685659064 -0.03557605156844249 0.1482298442657196
0.04074797560330601 -0.031886251103052925 0.16058332769694497
0.04154260871015275 -0.035679959871736666 0.14826041714839033
0.04074004000387715 -0.03198118863958024 0.1606112511810378
0.04072708742450907 -0.032082065581572665 0.1606406278573081
0.0414609316392647 -0.036115654584798665 0.14838562490080281
0.04042286460130656 -0.03313840506229467 0.16093729306216198
0.033820698394068774 -0.04052721905118291 0.16272166226191578
0.03438319877235104 -0.04431255481476279 0.15038116029852044
0.03463647963132169 -0.04422186332139903 0.15037045035157057
0.03405889855901266 -0.040433967137257124 0.16270920584577162
0.034886979010468167 -0.04412303881488555 0.1503571238092711
0.034670941618751436 -0.042194112126414676 0.1565207507569011
0.03513464529173661 -0.04401612490957382 0.15034118994875653
0.034895855297086845 -0.042091039273275496 0.15650448908873305
0.03537946477893954 -0.04390115163910951 0.15032265687683946
0.03511834577063838 -0.04198121168734109 0.15648604654379664
0.03562136961878562 -0.04377815880878021 0.1503015321084681
0.035338392013479436 -0.04186467983471912 0.1564654368733026
0.035860347832453704 -0.04364719157732191 0.15027782839286005
0.035555979449817796 -0.04174146986527481 0.15644266696349823
0.03609634614244467 -0.04350826360015699 0.15025154635871615
0.03577104927346766 -0.04161161627692406 0.1564177433273387
0.03636270776000633 -0.04333973334586 0.15021836989446083
0.03655930835058904 -0.043206688025301795 0.1501912898941543
0.03577835579160325 -0.039492081256000594 0.16253878501263955
0.0367960368273112 -0.04303687780440624 0.15015580441468723
0.03700996238056213 -0.042873733535574186 0.1501208339217871
0.036206087193112135 -0.03917510685275179 0.16247162650714456
0.03641535502752661 -0.03900649667850256 0.16243471609551255
0.037424264724189894 -0.04253062073609217 0.15004497337741307
0.03664550784851717 -0.03880998306899284 0.1623908041026111
0.037204226964891875 -0.04051854131429943 0.15618343100428045
0.03685971758057226 -0.038616370715727974 0.1623467252489543
0.03739831677024805 -0.04033642701316431 0.15614148911045483
0.03707068604892453 -0.038415091733625034 0.16230013919863
0.037624609910037535 -0.04011240279468784 0.15608908535096877
0.03727835092896932 -0.03820616508547808 0.1622510475823322
0.03784702705527067 -0.039879432916619495 0.15603375000974348
0.03748271649320098 -0.03798963226277761 0.16219946310671035
0.03767065987280012 -0.037780492350490025 0.16214902614230892
0.038681710189774836 -0.04123612610110432 0.1497389054591172
0.03788128910921751 -0.037533902417526285 0.1620888448751505
0.03807546424507468 -0.03729476811595263 0.16202982783383435
0.03888715717318475 -0.04098291576096905 0.14967640440521332
0.03828562315143366 -0.03702244137420729 0.16196190541199731
0.03845332779615912 -0.0367941510463034 0.16190441772444475
0.03889903121378237 -0.0385818793937569 0.15571341698423125
0.038636987017958965 -0.03653272793548764 0.1618380406301404
0.03909709090793172 -0.03829611931848554 0.15564068531621905
0.038817083176164266 -0.036263936970469195 0.16176922492903845
0.03929093106947394 -0.03800172951046734 0.15556509438188554
0.03899354112958761 -0.03598783103146827 0.16169798157921084
0.03948052535301105 -0.037698744490656584 0.15548665281032392
0.03916635807204258 -0.03570442789726101 0.16162431572405905
0.03966580783183342 -0.03738718240178425 0.15540536175251563
0.03933548684141992 -0.035413775767262436 0.16154823873751528
0.039846725731458976 -0.03706712700081763 0.15532124286919588
0.039500910181270256 -0.035115896497525736 0.16146975604540537
0.04002325907293807 -0.03673860320752734 0.15523430232704327
0.03966259010211903 -0.034810810907506096 0.16138887141584546
0.039802795176181766 -0.03453444849756719 0.1613151955992289
0.04076847206029811 -0.03789721925949327 0.148874309159455
0.03997453891297424 -0.034179255875831586 0.16121995502646644
0.03723058540500997 -0.042695578651845194 0.15008180217114017
0.03766223239479242 -0.04231605796532858 0.14999616196858098
0.03787320086314469 -0.04211477898322564 0.1499495759182567
0.03808086574318949 -0.04190585233507869 0.14990048430195888
0.03828523130742115 -0.04168931951237821 0.14984889982633703
0.0384862062470229 -0.041465222347531146 0.14979482908948247
0.039068673644327145 -0.04074787253956532 0.14961779010160303
0.03925584261037929 -0.04049383829590401 0.14955385444407143
0.039439501832179126 -0.040232415185088244 0.14948747734976708
0.039619597990384434 -0.0399636242200698 0.14941866164866513
0.03979605594380778 -0.039687518281068875 0.14934741829883752
0.039968872886262746 -0.03940411514686162 0.14927375244368574
0.04013800165564009 -0.03911346301686304 0.14919767545714196
0.04030342499549042 -0.03881558374712634 0.14911919276503205
0.0404651049163392 -0.0385104981571067 0.14903830813547214
0.04062297695778472 -0.03819828365980172 0.14895504056949457
0.035983676806491255 -0.03934441954319525 0.16250789338516147
0.035526826949402276 -0.039661730326231596 0.1625732605964898
0.03529383132822451 -0.03980857635055639 0.16260210963908947
0.03505783301823354 -0.0399475043277213 0.16262839167323337
0.03481885480456545 -0.04007847155917961 0.16265209538884143
0.034576949964719376 -0.040201464389508904 0.16267322015721278
0.034332130477516445 -0.04031643765997322 0.16269175322912985
0.03358068398389595 -0.040612867683942185 0.16273172318237378
0.027793804877184018 -0.04088824521760088 0.162438194427544
0.02858693407167682 -0.04458632981418192 0.15008654125713203
0.028855959926478443 -0.044629350660981164 0.15011690945065853
0.02859889971183347 -0.04100890778006848 0.16252665211324915
0.029676201917626453 -0.0447440463889291 0.15020456462826384
0.028869125124742986 -0.04104378099423666 0.16255465827827859
0.02991565671773289 -0.04477185928697949 0.15022845549104868
0.029109437521447713 -0.04107173757709805 0.16257864786197812
0.0301491094391236 -0.044795940935672934 0.15025083854838267
0.030373207250238548 -0.04481587424395053 0.15027137111195774
0.030654671563370726 -0.04483629214586147 0.1502957764976354
0.029655858211803457 -0.041123155169209606 0.1626295556379616
0.030916136014694576 -0.044849158467772376 0.15031662011884186
0.030110132613575907 -0.04114930322631162 0.16266690628830308
0.031122864674916213 -0.044855273007799554 0.1503318845042758
0.030318829901533274 -0.04115553441112068 0.16268233360897955
0.03132548584323089 -0.0448573140338902 0.15034566185349815
0.030522909817763785 -0.04115760918112338 0.16269621582246993
0.03152555273957975 -0.04485519314602508 0.15035802655758287
0.030719733551992416 -0.04115560823164327 0.16270840563695954
0.031717036313340226 -0.04484912906513172 0.15036865228879975
0.03212439648807927 -0.04482186023218433 0.15038695321145568
0.032313500783085924 -0.044802270071965994 0.1503933724150569
0.031508281095371 -0.0411028658453475 0.16274384456725366
0.03249548575740713 -0.044779114207035405 0.15039826089830483
0.03169109224570309 -0.04107966967686477 0.16274877471385418
0.03268040428178276 -0.04475129982337168 0.15040194449456723
0.03286338023849903 -0.04471957695525913 0.15040433119308985
0.0320632675257565 -0.04101941626189428 0.16275490863527123
0.03307047640080426 -0.044678828592714555 0.15040558141760074
0.03226374948273997 -0.04097998734881497 0.16275612437686432
0.032843278482512006 -0.04279037719836956 0.1565806082338735
0.03343069825688608 -0.044595369670067164 0.15040398753560516
0.0336378388745512 -0.04454109818506888 0.15040118956957707
0.03283249215076396 -0.040842151254878 0.1627517904836248
0.03383161459522474 -0.044486351379831375 0.15039738101495545
0.03302523880548617 -0.040787763226128766 0.162748022505628
0.03410717169100977 -0.04440280135500999 0.15039025830628974
0.033301365958473356 -0.04070418092438263 0.1627409271008928
0.029122148791182044 -0.04466940876281043 0.15014620552741723
0.029399991050466527 -0.0447086906168048 0.15017602598414664
0.03192445665193182 -0.04483810693324405 0.15037882813884487
0.03152030011757356 -0.04298797523000252 0.1565538354615658
0.03262128339876179 -0.040897798833890824 0.16275473613762811
0.0313258979008344 -0.04112184234867613 0.16273767820169247
0.03112194183951973 -0.04113841969197888 0.16272939139139223
0.030910811746104546 -0.041149636049406725 0.16271903251056824
0.029346274625619704 -0.041096236093195765 0.16260137574296002
0.03187695434834188 -0.04105178277729626 0.1627524979678436
0.02992664626509261 -0.04114060103569464 0.1626523769188759
0.028315143535444284 -0.0409690934341215 0.1624962885481121
0.028047828782346247 -0.040928819526906864 0.16246685467516384
0.025657071009063184 -0.04410212428926313 0.14975111783700204
0.024854556194843017 -0.04040243703966252 0.16210168111737533
0.02465950832892288 -0.04551097848112397 0.1501083291609794
0.02385699351470271 -0.04181129123152336 0.16245889244135273
0.019284183294617667 -0.04654885044602578 0.16358092543379998
0.020092823537828083 -0.050243898605732217 0.15122937050357677
0.020343010603965962 -0.05005333104065135 0.15118854147753327
0.020895453225839855 -0.047432130396126815 0.15719472826898112
0.021034379205154947 -0.04950281442549731 0.15106855460392843
0.021415517039215563 -0.049179652670182206 0.1509965150520989
0.02115441508417138 -0.04720692415452563 0.15714409317495695
0.021710207810125344 -0.04891833033213597 0.15093738275211732
0.0214047329974895 -0.04698106134940782 0.1570926997370917
0.022033244336987622 -0.048618290064976505 0.15086849443572273
0.022540987762553668 -0.04811257982025865 0.1507499976407315
0.02279277816338085 -0.047845093176477275 0.15068623122029884
0.021741330496605427 -0.04440994431973871 0.1630998634321467
0.021990824457099753 -0.04414472698132296 0.1630366275628001
0.022841061087045866 -0.04315395482068615 0.1627950823335567
0.022683386069535877 -0.0433478108573969 0.16284290769637486
0.023321538815086775 -0.04490448030555672 0.15659519729881363
0.02317582365507339 -0.04272898313058914 0.1626895316478421
0.023548886387693983 -0.0446144368446714 0.15652308558383718
0.023664618551123923 -0.042076516919611395 0.16252584228967606
0.024453659897350453 -0.045794504916446224 0.1501798856242608
0.0234504753741325 -0.04236592351309633 0.16259862122222846
0.02414446161160068 -0.04621036727903704 0.1502843687086571
0.023036909793290553 -0.04757447788206765 0.15062103006351188
0.023486289999572335 -0.04704693087942644 0.15049220034660313
0.023643575904430163 -0.046853642084873776 0.15044451900448794
0.023896185002236774 -0.04653415727417344 0.1503652294712681
0.02123788975604197 -0.044911727749355076 0.16321746317810618
0.020907692995905176 -0.04521864308253536 0.16328794603249064
0.020613002224995396 -0.0454799654205816 0.16334707833247222
0.020227838980151305 -0.0458063436681327 0.16341981981079484
0.01989360487821324 -0.04607735002131692 0.16347928357083083
0.020687582440294894 -0.04978393776796953 0.1511302328107352
0.02148814719963764 -0.044667720854059706 0.1631606306371483
0.02228805352755071 -0.04836984577745151 0.15081062814363905
0.019551086725343274 -0.046345538476866475 0.16353736493128257
0.023270269852178907 -0.04730519683613102 0.15055552920670784
0.022467035985233624 -0.04360623408310612 0.16290626099590436
0.022233763995694742 -0.0438753910936358 0.16297173206348894
0.012615344020515548 -0.04918456268475804 0.16393714146640193
0.013382276722845178 -0.052876274514638735 0.1515818768859331
0.013549936574795259 -0.052911165911509614 0.15160322329327353
0.013253437714199198 -0.05107801099684943 0.15779031141336752
0.013723266924353078 -0.0529368466297015 0.15162217865456196
0.013375701285607142 -0.05109297922602121 0.15780273968003244
0.013892422105642045 -0.052952625817862815 0.15163789677168169
0.014040912176256746 -0.05295944954487118 0.15164958947070514
0.014183206740519339 -0.052960346734853524 0.1516591044577681
0.013233271857778218 -0.04925960470432506 0.16399977247593067
0.01337886144866651 -0.04926060011831919 0.16400953077773525
0.013889643784645515 -0.05110747928741199 0.15784047821476974
0.013597124608483554 -0.04925181069940479 0.16402108015526765
0.013921218887307869 -0.04921827512982549 0.164032093364762
0.013758191985101144 -0.049238033737626904 0.1640274190164368
0.014716053251307287 -0.052919042764816064 0.1516813547211223
0.014442511242359315 -0.05104996187139809 0.15785917273656744
0.014172512794737193 -0.04917710952768412 0.16403608955492457
0.014920665874262027 -0.052886687337693666 0.15168495771047558
0.015118102995944281 -0.052847821309758826 0.1516861442357116
0.014408845966944106 -0.05295090492996506 0.15167093755408903
0.014559717270706365 -0.05293781617589594 0.15167681995283164
0.015290236401394205 -0.0528081194650764 0.15168543617937022
0.015470325258867993 -0.05276117464498657 0.15168307545057108
0.014654861905849576 -0.04906507778431666 0.16403387280788362
0.014491668049402833 -0.049107444711462236 0.164035960072423
0.015186174435178584 -0.050877935443192024 0.15785596290288612
0.014887701118479247 -0.04899700522755714 0.16402861067923824
0.015037033863262153 -0.04894919174878475 0.16402399022532624
0.015931414806468237 -0.04859737643302956 0.16397671783478068
0.015777882493793416 -0.04866525622891248 0.16398707444981592
0.016075938874913036 -0.04853147977059459 0.16396636799376135
0.017174307429633325 -0.04795590322632132 0.16386532125553072
0.01687337979030676 -0.04812524245241262 0.16389649418896857
0.01757016098561931 -0.04980812267120238 0.15769040056358707
0.017468090755125718 -0.04778136817177307 0.16383212765652347
0.018650368637632114 -0.04700822976045026 0.16367735133062514
0.018342894954034066 -0.04721962168116172 0.1637206960587563
0.019063530241630783 -0.04884902191561472 0.15750013216593314
0.018985493768417745 -0.04676874729716376 0.16362738864310694
0.01569021593269941 -0.05269669247715775 0.15167804739886492
0.015842619059749652 -0.05264792733028955 0.15167334313212663
0.01608209482759233 -0.05256392797662469 0.151663740761209
0.015279943250090789 -0.04886415036978004 0.16401430029533315
0.016585052967650858 -0.05236286458876665 0.1516361926376938
0.016846433616031567 -0.052246549090387215 0.15161833299535044
0.01666047866947827 -0.05131402367446631 0.15470465150964688
0.017138752656534938 -0.052105893285061725 0.15159519296484808
0.017678870788094204 -0.051823234981494985 0.15154561698874228
0.017976822238881283 -0.051655590452999466 0.1515147580516788
0.018275527403184704 -0.0514781276447432 0.151481007518809
0.019140878985963644 -0.05092243602296916 0.1513707755887871
0.019452883448236133 -0.05070791699337998 0.15132678810590375
0.019781936846031332 -0.05047274692036558 0.151277722844613
0.013086999044616306 -0.049252751645523965 0.1639882150861577
0.012920752110132912 -0.0492371593801009 0.16397274193493527
0.012750933722192544 -0.04921194671497506 0.1639541548678896
0.018851109540384395 -0.051115208608238594 0.15140969281617217
0.01775301181625364 -0.04760532384160209 0.163797906092562
0.018558648155277864 -0.05130305114910786 0.1514469586744792
0.01740758096733436 -0.0519688957364174 0.15157162247567238
0.016334176959688036 -0.04840716976648385 0.16394591093344307
0.015530185424675588 -0.04876809994034234 0.16400178803226026
0.01633149028145672 -0.052468318327860315 0.1516513055945878
0.014321052750669036 -0.04914696911267611 0.16403671361039868
0.01804754599230041 -0.04741624771755898 0.1637604054154479
0.016602141819483284 -0.0482707418283536 0.16392245492362903
0.012500863002180115 -0.04915439991986229 0.16392066727771595
0.013229859810881869 -0.052829912857353216 0.15155808538090787
0.012848874891876494 -0.052653637802936394 0.15148052548319135
0.01198215636248911 -0.0489165659144305 0.1638157181211003
0.012698573115205756 -0.0525628186891712 0.1514435537356515
0.011823149626184633 -0.04881532604455226 0.16377505915634014
0.012524324735372409 -0.05244469346148673 0.15139684630184325
0.012172732771339102 -0.05216395594042753 0.15128990391687896
0.011204897412785055 -0.048315075823344 0.16358503333549995
0.012006288435117434 -0.05201372263068011 0.15123408538533115
0.011039192180667238 -0.048154844243103345 0.16352626778598678
0.011839760869081782 -0.051852637115603825 0.15117501060838448
0.011674051321419543 -0.05168194701961999 0.1511131118580817
0.010702678548165792 -0.047798001075527 0.16339750723828078
0.011504355940344678 -0.05149677201291025 0.1510466150873796
0.011337092002437574 -0.05130402101013073 0.15097800686311078
0.010366134347491014 -0.04740015696857782 0.16325646262056215
0.011167337153280641 -0.051098226810641564 0.1509053296221817
0.011000400575563498 -0.05088584714554634 0.15083086278250793
0.010028887712389049 -0.046961092660218674 0.16310302459501735
0.010832098682937857 -0.050661682462967185 0.15075277694527622
0.009861950240334313 -0.046728615464197897 0.1630225373581402
0.010663124568133696 -0.05042642097595881 0.15067132332754798
0.010497331212457658 -0.05018544482499886 0.15058836451118282
0.009529705762072004 -0.04623552176290615 0.16285323952549818
0.010330072856392111 -0.04993193898852388 0.15050155715761515
0.010168861158078085 -0.049677378615084894 0.15041482682591426
0.009202339301483842 -0.04570816568493288 0.162673995150831
0.010003592435344004 -0.0494057497125128 0.15032271987872856
0.00984492919003957 -0.04913417700095139 0.15023105897457203
0.009532570327530954 -0.04856665776889074 0.15004075864349248
0.008578235529751085 -0.04457393739680415 0.1622936770753294
0.009379986595464688 -0.04827212101425955 0.14994261375345697
0.008429880191205228 -0.04427561153471342 0.16219467189496664
0.009231742127154843 -0.047973960367182676 0.14984366526839396
0.008285122012375292 -0.0439720783584822 0.16209434056782035
0.009087112557105866 -0.04767064433022171 0.14974340734339306
0.00814437207618207 -0.04366398766883345 0.16199290445703982
0.00894652224644736 -0.04736286624783166 0.1496420752405778
0.008007911087545342 -0.04335184539499007 0.16189053335648018
0.008810167395278547 -0.04705092863033489 0.14953977234268606
0.007875824312667205 -0.043035483088927295 0.16178718234692535
0.008678151008798492 -0.046734714956046905 0.14943647043039107
0.007748644281782794 -0.04271591708488033 0.1616831904802971
0.008551136854826794 -0.046415551385145665 0.14933260989343755
0.008430412181837961 -0.04609659304478312 0.1492292196341678
0.012358921902271183 -0.04910456275779065 0.16389651520127016
0.01312335083077438 -0.052788565854707495 0.15153877889200784
0.012244679255943065 -0.04905549514393762 0.16387439343765242
0.013003331478714384 -0.05273483846023515 0.15151488590367965
0.01213744362432504 -0.04900336678329241 0.16385181011024658
0.011694493371629342 -0.048724436246503036 0.16373947273269235
0.011532889851870811 -0.048600349312664264 0.16369180105551973
0.012336584027977009 -0.05230095703683232 0.15134159016436735
0.011368746579828854 -0.048463027571981496 0.1636399997824894
0.010869166621494444 -0.04797980480818772 0.16346278572628084
0.010533343776591675 -0.04760288897250682 0.16332805717328652
0.01019648714364628 -0.047184353348287945 0.16318079398298949
0.009693602492576198 -0.046483974660066096 0.16293831480070045
0.009363103829264394 -0.04597254399275982 0.16276363745657446
0.00904062529866188 -0.0454314192595498 0.162580586204364
0.00888356891969813 -0.04515159291380767 0.16248655729184658
0.009687485110905225 -0.04885379089899214 0.1501368371916555
0.008728824661418253 -0.04486467909868048 0.1623905555212124
0.007619956172634118 -0.042375659941239194 0.16157290246354855
0.007355073306046046 -0.0408846008673795 0.14759806181339652
0.007409804761192846 -0.04129594299528413 0.14772483824260169
0.0066061016298037244 -0.03758846713663994 0.1600729911599014
0.006545903655837189 -0.03713376302707072 0.15993287020159994
0.006726090037519469 -0.03840940000982456 0.1603267032609037
0.006667720469002894 -0.03802180242866187 0.16020680328235043
0.007473181791192541 -0.04174213993320594 0.1478626174015644
0.007534303623519098 -0.04214554024294474 0.1479874299908682
0.00759489005679072 -0.042523218119059784 0.14810450257663105
0.006789141017718213 -0.03880448007670282 0.160449148852844
0.0077283207795391835 -0.043282970581282616 0.14834076114077982
0.007784136594407687 -0.04357625941205727 0.14843224439205754
0.006947642650389099 -0.03970053970688334 0.16072786814837828
0.007089526419584435 -0.040402635541065636 0.16094740459953816
0.007550528218848374 -0.04252334554759086 0.1548571451100164
0.007206385081607536 -0.040921049728126595 0.1611102920014854
0.007282033986283836 -0.04122909768810567 0.161207485177961
0.008153927018419726 -0.04519351976493449 0.14894073344222744
0.007364836712066003 -0.04154407858255081 0.16130721999856648
0.007818123888026083 -0.04357952300382912 0.15519091739742677
0.007478885464625695 -0.04194108491919083 0.16143355634936513
0.007554817066648107 -0.042181983908095834 0.16151065300735296
0.007024281707961851 -0.04009046216299211 0.1608496516722633
0.007845751903601112 -0.04388210700950588 0.14852786654630462
0.007908291544010633 -0.04417802796794897 0.1486205751987557
0.008015296312744127 -0.04464732587998201 0.14876810933092485
0.008279625936387052 -0.045635189160291086 0.14908120541971057
0.008360371428525257 -0.04589095305518932 0.14916306798461476
0.0064937225593705745 -0.03671315912734116 0.1598034850916562
0.00729929015018459 -0.040438751424710255 0.14746088025957707
0.008085961999713029 -0.044934447749280675 0.14885871019147998
0.007662284485641534 -0.04291909180787405 0.14822746809343268
0.006866528875518207 -0.03925759448231311 0.16058991056969094
0.005873884829378321 -0.039482128794771296 0.14708169795635903
0.0044560739702241645 -0.035640895844605426 0.15934987970968792
0.005254936854137939 -0.03933964107893937 0.14699879734346638
0.0059127445456256065 -0.03600438716237499 0.15955341730168465
0.006804982584733945 -0.039736358272981546 0.14721835488566368
0.006062159146579113 -0.036060250219568 0.15957986008520256
0.006891274196790899 -0.039771456008588446 0.14723447568415796
0.007284746051709553 -0.040307120929178264 0.1474205044196219
0.007090485674080755 -0.03988566142876479 0.14728163098269198
0.006269905014109758 -0.036172416704174884 0.1596269591555861
0.00703419982456991 -0.03984593909930289 0.1472660745728719
0.006641116585851868 -0.039680174102345 0.14719087688780405
0.0056719929421527124 -0.03593189251015465 0.15951605752639803
0.006411338245127355 -0.03961455363642321 0.1471562894977364
0.0053706394667409965 -0.03585385588913755 0.1594730998322371
0.006207454621493079 -0.039562269239427204 0.14712737923066121
0.006482231237489387 -0.03660743367957766 0.15977106769999522
0.0064677934639580485 -0.03651339198822093 0.15974195879496592
0.0072703082781782145 -0.040213079237821525 0.1473913955145926
0.006448066860905722 -0.03642972724158765 0.15971561471007215
0.007250581675125888 -0.04012941449118825 0.14736505142969883
0.006420726265067888 -0.0363551181294707 0.1596914885542663
0.006377180201845993 -0.036277700008403746 0.15966546794379366
0.0063199363066273 -0.0362136398285601 0.15964255872920252
0.007147916817539417 -0.03993899360285619 0.1473013387241429
0.006212063189780511 -0.03613390195384876 0.1596116633794081
0.0069696071050353876 -0.03980852114776832 0.14725066868990153
0.006141409829414926 -0.03609607299138734 0.15959574056730735
0.007223241079288054 -0.0400548053790713 0.14734092527389298
0.0071859965525313905 -0.039987920193055124 0.1473184693301383
0.0050226197085761655 -0.03577123978933618 0.15942573804562574
-0.0037372237154063882 -0.023660271031646887 0.15522862576545104
-0.002932135998586726 -0.02733040171849539 0.14286937584726914
-0.0029648710186046673 -0.027755472708422806 0.14299458139992532
-0.0034083424501012254 -0.026748707232282006 0.14941966968669837
-0.002997922806577253 -0.028344848985621826 0.14316898511346451
-0.003013582299697247 -0.028846943882327437 0.1433183731392925
-0.0034147970493813816 -0.02702653757105113 0.14950247606784367
-0.0034172460094054023 -0.02730050599045321 0.1495843858656716
-0.0030149402579644317 -0.029427556520496476 0.14349221098377263
-0.003415713874518774 -0.027570647421474075 0.14966540794913163
-0.0034101781524869083 -0.027836970668272662 0.149745546417064
-0.0030031444513836728 -0.02985804320513153 0.14362193239529145
-0.0034005973354164255 -0.028099470446515645 0.14982480238361376
-0.0029874010201598952 -0.030181504917692073 0.14371985039489313
-0.002920794975014622 -0.030959221476114615 0.14395714802792597
-0.002889961829955486 -0.03121056204280652 0.14403444212519861
-0.00372351461610447 -0.02725781527359035 0.15630718307613178
-0.0036920326453580427 -0.02751414002725068 0.15638601236906985
-0.0036176882599944157 -0.02800202287078145 0.1565369914267685
-0.003232852783837073 -0.02980657699323541 0.15119151152719054
-0.0035652865673649406 -0.02828426843729617 0.15662494478028413
-0.0031925407352071007 -0.030009504397520974 0.15125491907619615
-0.0035057806139751763 -0.028566068599791765 0.15671322633089024
-0.0033981302919429586 -0.02900160663285547 0.15685068933134513
-0.0034550559137576653 -0.028781061616063693 0.15678092480143324
-0.002598644908783445 -0.032690150337915065 0.144496591110095
-0.003342128434189639 -0.02920129885408121 0.15691414725365946
-0.002537969277965086 -0.03290675310909878 0.14456541849067017
-0.0029422295300943306 -0.03098179586546666 0.1515624396897019
-0.0024557697104929804 -0.03317336460872885 0.1446506246399522
-0.002854484919199988 -0.03145999089201763 0.14411146531352817
-0.003656647846084323 -0.027762166589203253 0.15646260948557036
-0.0028156088150317997 -0.03169930509707626 0.14418567948593106
-0.0027627717531447764 -0.03198395568689677 0.14427438149991081
-0.002705355200647498 -0.0322561155449165 0.14435963951094805
-0.002653570193404956 -0.03247651426878857 0.1444290261530473
-0.002832217622187043 -0.031399086106707434 0.15085015473711227
-0.002365780548367589 -0.03343809167229802 0.14473577278949434
-0.002120024873138903 -0.034053837759625165 0.14493619182500156
-0.0020283443788674423 -0.03425360414902161 0.14500199029104144
-0.0029233249966380374 -0.030352395176910553 0.1572861782491054
-0.002829736371155911 -0.030556257402191513 0.1573533276345312
-0.002636206587223789 -0.030937960017960262 0.15748024417944606
-0.0021396751899282924 -0.032958982432348786 0.15136243130008425
-0.0025106588845940636 -0.0311615705414146 0.15755538592583318
-0.002033867708820008 -0.03313842357665505 0.15142305915710502
-0.0023947031219239967 -0.03135437633238407 0.15762067665999083
-0.0019237325748471465 -0.033314459198799655 0.1514829480711984
-0.0022736915826681407 -0.031543220395991695 0.15768510914854791
-0.0018092599449856146 -0.033487102590250145 0.1515421026634853
-0.0021475981306438643 -0.03172810499893011 0.15774868576878287
-0.0016904734421331093 -0.03365638520824342 0.15160053082220612
-0.0020164419488822444 -0.03190907365980916 0.1578114183104883
-0.0015673145530052876 -0.03382232405756924 0.15165824144332612
-0.0018558170830208671 -0.03211691117292581 0.15788411439821082
-0.0019327886000704599 -0.034448329671650624 0.14506653058067526
-0.002732743169336277 -0.03075365658875507 0.15741876219946588
-0.0018313586838757563 -0.03464201294241975 0.1451311403926685
-0.0017081440703738994 -0.034861257791015204 0.14520482264545986
-0.0015921883077038325 -0.03505406358198468 0.1452701133796175
-0.0014711767684479765 -0.03524290764559229 0.1453345458681746
-0.0013450833164237001 -0.035427792248530716 0.14539812248840955
-0.0012139271346620802 -0.035608760909409766 0.145460855030115
-0.001049344590748659 -0.035821484965616435 0.14553527225651627
-0.0009188476756741178 -0.03597980456881043 0.1455911772196578
-0.001718042874765069 -0.032283996729288396 0.15794311819658557
-0.000777137020864932 -0.036142511511300934 0.14564912509120206
-0.0015839201814580144 -0.032438021661709 0.15799797233655632
-0.000634816778884037 -0.03629728293103908 0.14570473547586332
-0.001435378656048241 -0.032599679463174325 0.15805604985620175
-0.0004831771422073826 -0.03645356823649734 0.14576140493270368
-0.0012848545052621813 -0.03275471257668284 0.1581122717368119
-0.0002610516346239766 -0.03516771488415645 0.1521461398891968
-1.0729509893416672e-05 -0.0368913770186784 0.1459232520993045
0.00019785859801448383 -0.037064259333390456 0.14598859354519558
-9.370215458847503e-05 -0.035301070059288335 0.15219696128606228
0.00038070369748541624 -0.03720712064058025 0.14604326943668122
7.814046682551312e-05 -0.03543125261470478 0.1522471242604732
0.0005687905440228021 -0.037346298304628774 0.14609718246839484
0.0002544743030363089 -0.03555828421296241 0.15229663517639633
0.0007621479544664619 -0.03748179888604067 0.14615033647803638
0.00043531723903958083 -0.03568219102696479 0.15234550303621708
0.0009607857718404826 -0.03761363567628348 0.14620273608672668
0.0006206872853602302 -0.035802977157027314 0.152393730238498
0.0011962633970753148 -0.037761119695106406 0.146262216832807
0.0018085766960633971 -0.03810496715283054 0.14640500520745
0.0020266830732555106 -0.038215377831221996 0.1464522515280088
0.0010062029924836641 -0.03440535991464691 0.15875560162482197
0.0012205420231931625 -0.034513881524929964 0.15880203726117806
0.0014363620551210536 -0.03461757231377187 0.15884712202772405
0.0020450136790221875 -0.03677094693412174 0.15193180576075377
0.0016979588366206454 -0.03473638860226114 0.15889971221210103
0.0022399511248297546 -0.036856932264310215 0.15197022983964675
0.001958376599559693 -0.034847683606702345 0.15894997273928738
0.003268994081636495 -0.037252309199077974 0.15215553258007233
0.0026199319954352453 -0.03510231414544622 0.15906923445222645
0.003498847997251784 -0.038828960924150474 0.1467317124346588
0.003793090018746805 -0.038928842581961304 0.14678075195497822
0.0022286765909981607 -0.03831256145252213 0.1464944886742044
0.0025004736508408114 -0.03843607585186174 0.1465491489317277
0.002771292166153806 -0.038551698343122394 0.14660138163468212
0.0029895629002463318 -0.03863971008183931 0.14664192885652474
0.00218789286422986 -0.034940358813870205 0.15899264767425597
0.0032171861885470013 -0.038727051552479436 0.14668288304369156
0.00429823725496147 -0.03908590772741921 0.1468606251635233
0.004542317254201527 -0.039155819108420656 0.1468974276124058
0.0034897642230187938 -0.03538444778427497 0.1592102702467748
0.003748310650029521 -0.035458382023701426 0.1592492175311889
0.004339222909394022 -0.03735988594949489 0.15310173483191375
0.004067368617642437 -0.03554407019582191 0.15929561769694903
0.004954431212085492 -0.03926551387372335 0.14695706691762522
0.003005663432023518 -0.03523419271148458 0.15913380451708292
0.00039289807398549745 -0.03406099573962669 0.15861259389390517
0.0001582709576203184 -0.03391394842668288 0.1585532993671
-4.036685975370227e-05 -0.03378211163644006 0.1585008997584097
-0.00023372427019736214 -0.03364661105502817 0.15844774574876816
-0.00042181111673474797 -0.03350743339097965 0.15839383271705454
-0.0006046562162056804 -0.03336457208378985 0.15833915682556887
-0.0008087874898768284 -0.03319553709413544 0.1582752573135214
-0.0009737256391664298 -0.033050571562773565 0.15822111464641658
-0.0011218268978365406 -0.03291360522454985 0.15817046221421277
-0.0003343926556465156 -0.03659898172099458 0.1458146322304448
-0.003168678266380308 -0.029737558498737566 0.15708605757473612
-0.0032582845247131446 -0.029473677359128245 0.15700118792032552
-0.0037894644792481856 -0.0264890222858674 0.156072601114916
-0.003805659265603837 -0.026158355955530926 0.15597249567566476
-0.0038174550726366163 -0.025727869268812015 0.15584277427110244
-0.003816097113917411 -0.025147256632726833 0.1556689364196658
-0.0038000961303590493 -0.024637596178259596 0.155517304205316
-0.0037669875802240696 -0.024050288216286526 0.15534352381750563
-0.002983172429100841 -0.028047163429494926 0.14308076997710567
-0.0037862675380781786 -0.024358188380316045 0.15543450443383106
-0.003772091018747644 -0.02674450725714953 0.15615026210319394
-0.0029471224095773095 -0.030705668860507233 0.14387948410025073
-0.003750229800219971 -0.027000303000367428 0.15622830779062769
0.004037943720420222 -0.039007151826812594 0.14682011997445374
0.0032466421179467037 -0.03531099353632442 0.1591724689882445
0.002418273691672775 -0.035028622756090415 0.15903405736521148
0.0015959193775128156 -0.03799152043738136 0.14635720351502796
0.0007970144663895645 -0.034293819024925586 0.15870859621417896
0.0013901235233995512 -0.03787576811378234 0.14630915700768146
0.0005896519049298013 -0.0341773564066116 0.15866023511695948
-0.0022078434029291875 -0.033848677541799 0.1448690285623772
-0.00300976147261375 -0.03015060693245404 0.15722011486972165
-0.0022887166550102298 -0.03364597516084778 0.14480305292622422
-0.0030916287036329634 -0.029945423964886062 0.15715333148050173
-0.0029693536177543382 -0.030446595258168643 0.14380043249919736
-0.0001700755338027958 -0.036751357097767015 0.14587095421684376
-0.0002283575296470157 -0.02213398710675827 0.15499941710373022
0.0005725190295614753 -0.025832780140739135 0.1426484796115827
0.0002620660735355475 -0.025645112836887834 0.14257209035673646
-0.0005564496796487579 -0.021935988682573834 0.1549187866876435
3.1349592489127165e-05 -0.02551202136794313 0.14251723023539192
-0.00018696388102688866 -0.025391411733171755 0.14246691532080072
-0.0008576787699864259 -0.021763543937044397 0.15484755654098584
-0.0010543252747317947 -0.021657563942401384 0.15480303188606662
-0.0011945946967530235 -0.02158533210618507 0.15477227996941337
-0.00047758591317506593 -0.025242272927341984 0.1424033558904538
-0.0013224121075217747 -0.021522438390246208 0.1547451344508661
-0.000697170988175639 -0.025140093496832692 0.14235847918521619
-0.0009972025026556697 -0.02502010592352607 0.1423030407538931
-0.0011038920717182966 -0.024983953894736177 0.14228527889972162
-0.0019075299264302154 -0.021283950284201988 0.15463567408924847
-0.0012099416034432493 -0.024952192893481336 0.14226887380296474
-0.001312934046276422 -0.024926078556841227 0.14225435876674863
-0.00211508205851638 -0.021226506191518217 0.15460498003672768
-0.0014117297354372532 -0.024905778150203672 0.1422418583529149
-0.001507768064044828 -0.024891109582525193 0.1422312240827596
-0.0016011139928190019 -0.024882634534815984 0.14222261999787952
-0.0024035076978154157 -0.02118299557024619 0.15457320386905346
-0.0016958212306591447 -0.024880220225767982 0.14221574300465906
-0.0020074574526173367 -0.02493366693147727 0.1422121479850336
-0.002075535297495948 -0.024961984779796453 0.14221563012032531
-0.0028780031004150865 -0.021262370984132604 0.15456607644698966
-0.0021458557672800124 -0.024999110779850224 0.1422221239267142
-0.0022072718600974275 -0.025039892348353517 0.1422303469766428
-0.0022660566387939264 -0.025086774993730195 0.14224056601655943
-0.0030685724809369104 -0.02138715113046273 0.15459114437480853
-0.00232573006066239 -0.025143521187713153 0.14225368669635124
-0.003123215514689418 -0.021438786450184946 0.15460305950980358
-0.0023791560621385516 -0.0252041391160888 0.14226837355662514
-0.0031764104999620173 -0.02149783359180879 0.1546172938634147
-0.0024291574442282145 -0.02527015601294917 0.14228489958917623
-0.003230935017742135 -0.021569424859257162 0.1546351975485886
-0.00247880869656952 -0.025345868289996257 0.14230435337578531
-0.0032800311369522613 -0.021644081092855257 0.15465437111558983
-0.0025242283928409055 -0.02542651487824216 0.14232555982798084
-0.002607006497864023 -0.025606001566458373 0.14237394761292949
-0.002645208874307397 -0.02570730368692006 0.14240181093483947
-0.003447628474758043 -0.022007444774249905 0.15475232880425116
-0.002690153933160036 -0.025844010997603716 0.1424398420267033
-0.003515535147237802 -0.022225185703860954 0.1548131410265532
-0.002745458525578337 -0.026050083670294745 0.14249797869907666
-0.003562882913720717 -0.022412090037349446 0.15486605378131843
-0.0027818842654952283 -0.026211502084101234 0.14254396569178598
-0.0036033158702508707 -0.02260951615399432 0.1549225667373712
-0.00283692246388801 -0.026515725874744676 0.14263152156718267
-0.003628836607246444 -0.022752712111212926 0.1549638036814721
-0.003664188613749713 -0.022983131698239918 0.15503053018459123
-0.002871110684044831 -0.026755552941615014 0.14270114170602324
-0.002898637223677024 -0.026983809033308076 0.14276772860393003
-0.0037041202595879605 -0.023311525583606805 0.15512630791604717
2.520845182776149e-05 -0.0222931330607038 0.15506356646236008
0.0008299984155575729 -0.025994214939561205 0.14271356884729436
-0.0034827387612765583 -0.022112994390429106 0.15478166544549501
-0.0034096072050869668 -0.021906357437707413 0.15472451801618112
-0.0025662805539455116 -0.025511882233460632 0.14234839984707395
-0.0033681539819684775 -0.02181079949442774 0.15469858659334398
-0.0033259872338383713 -0.021725417663955596 0.15467574985115656
-0.0030051166134659746 -0.021336573077355696 0.1545801137203222
-0.002942127264955876 -0.0212959088247163 0.15457199814001585
-0.002805223157937589 -0.021232273491936644 0.15456180426392407
-0.0019366897484258787 -0.024911635885419676 0.142209514188581
-0.002731643574082815 -0.021210156343378903 0.1545600018755884
-0.0018552268126595835 -0.024894361747407934 0.14220962469338155
-0.0026565465713810875 -0.02119447929014525 0.15456019803351187
-0.0017779970105123305 -0.02488446654980069 0.14221167963873568
-0.0025734431664469204 -0.021184090043609487 0.15456248868550482
-0.0024893395889567897 -0.021180594602661966 0.15456690648632254
-0.0023101413356940888 -0.021191364738271407 0.15458177766367165
-0.0022126784842137065 -0.02120636468584926 0.154592604904867
-0.002012266533185869 -0.021252495551386075 0.15461944605592712
-0.001798878853783107 -0.02132067774910741 0.15465373595605864
-0.0008799787283591716 -0.0250639917229686 0.1423238040264824
-0.001679277517416082 -0.021365550548262318 0.15467494933403786
-0.0015115740121830652 -0.02143506974829672 0.15470667127549279
0.00807798810328263 -0.027670037534258264 0.14368653164349363
0.007841532949499441 -0.027717266871049293 0.14368531523007802
0.007036031107779032 -0.024018087575465932 0.15603583638989937
0.00759623378668578 -0.02775962071585649 0.1436820634539901
0.007359227644544776 -0.02779409184611789 0.14367698985771807
0.0065521964408273466 -0.024094944150400532 0.15602741967029266
0.00711565347573442 -0.027822479934497664 0.14366966695199382
0.00621515313216503 -0.026007974556871247 0.14982309408295155
0.006359160838791988 -0.027864006531037006 0.14363295139268278
0.005559960459350829 -0.024164216143616583 0.15598369701959058
0.006124515624604478 -0.027861887225701723 0.1436170695916109
0.005893324331941216 -0.02785263654245306 0.1435992758266875
0.00565899471702995 -0.02783609079130877 0.14357909273563152
0.004856927497481189 -0.02413642261818072 0.15592969060120038
0.005423540838471033 -0.0278120618717288 0.14355659548050206
0.005191986397125564 -0.02778127348703635 0.14353232759309725
0.0043871970670237345 -0.02408121263833822 0.15588262899720723
0.0049556157516816215 -0.027742354649378083 0.14350531234226055
0.004155977619100092 -0.02404324864928936 0.15585622955267317
0.004720249709038532 -0.027696245039177066 0.14347621162349375
0.003920874967999432 -0.023997310317963913 0.1558271870738941
0.004064852591236474 -0.025788225063820502 0.149617544556259
0.003422369834373582 -0.025604389579360363 0.14952072826529314
0.003639755977467643 -0.02739216306921479 0.1433149052668582
0.0028379165651593458 -0.02369278800251364 0.15566560584325992
0.003434085977605396 -0.027317781499129258 0.14327925969458313
0.0026294877222469808 -0.023617395237541423 0.15562947818856931
0.0032205386366426295 -0.027235340855888173 0.14324068819962607
0.002414971663849158 -0.023534452260140934 0.15559069328622838
0.003001630865832078 -0.02714542520945119 0.14319952923430948
0.0027860240201837833 -0.027051654803448295 0.1431574300547508
0.0025657393026381967 -0.026950730545630477 0.14311288395895114
0.0017692332310244134 -0.02325384232982206 0.15546467606705924
0.0015625037058589232 -0.023154584342196225 0.15542150888219433
0.001300208913111646 -0.0262788727564799 0.142829393137202
0.0010689972649102243 -0.026141045646193205 0.1427730825700012
0.00026315406116551865 -0.022439340901492487 0.15512282514912726
0.006852398068565664 -0.027845726417449233 0.14365952399481582
0.006456094280096768 -0.02599473957613825 0.14983478533523095
0.006522497961219918 -0.02786099049429782 0.14364266008958484
0.0045603495543215435 -0.02766056969454858 0.1434551263399864
0.0043406155349203415 -0.02760630114409862 0.14342459198609897
0.0038237066126355843 -0.0257253817163912 0.149583050263023
0.004012629308736087 -0.02751445663980615 0.14337576749760086
0.0036235576741797913 -0.025667567642453492 0.14955272642500408
0.0021785892661869213 -0.02676172694685156 0.1430311104515361
0.0017608359238239155 -0.02490282896376828 0.14920260832592835
0.001544668134192597 -0.024790286682349123 0.14915484944370144
0.0017060833779570933 -0.02651078495845781 0.14292523675004765
0.0013261901935053381 -0.024672118622749668 0.14910525521601423
0.0007131814119658159 -0.0227037248314777 0.15523126485670846
0.0011410424493486053 -0.02293981006134169 0.15532978719192922
0.002196041107454288 -0.02344442092243701 0.1555494981767091
0.003210114493611884 -0.023814769386037823 0.15572633079188716
0.0035381007207001755 -0.023906613894498017 0.1557751552664723
0.0037578347401013776 -0.023960882444947977 0.1558056896203597
0.0046214683671858756 -0.024112445933940643 0.15590720857614027
0.005719983146999752 -0.024161303244697216 0.15599322336995816
0.006049883260673763 -0.024146039197022663 0.15601008717779827
0.006316424597927183 -0.024122544857453652 0.156020367650821
0.007412521028363421 -0.023942130060340197 0.15603754640813675
0.0005081963513662718 -0.02258532630779788 0.1551824783323552
