ply
format ascii 1.0
element vertex 777
property float x
property float y
property float z
end_header
0.027572771534323692 -0.044627845287323 0.17430000007152557
0.028076572343707085 -0.044704657047986984 0.17459999024868011
0.028565600514411926 -0.04475586488842964 0.17479999363422394
0.02910548634827137 -0.044883888214826584 0.1753000020980835
0.029647983610630035 -0.04501190409064293 0.17579999566078186
0.030175967141985893 -0.04511432349681854 0.1762000024318695
0.030636494979262352 -0.04511432349681854 0.1762000024318695
0.03109702281653881 -0.04511432349681854 0.1762000024318695
0.0314859077334404 -0.04501190409064293 0.17579999566078186
0.0318545326590538 -0.044883888214826584 0.1753000020980835
0.032202109694480896 -0.04473026096820831 0.17469999194145203
0.03258394077420235 -0.044627845287323 0.17430000007152557
0.03709012269973755 -0.043501269072294235 0.16990000009536743
0.03760045766830444 -0.04357807710766792 0.17019999027252197
0.03813471645116806 -0.043680496513843536 0.17059999704360962
0.03882937133312225 -0.04396213963627815 0.17170000076293945
0.03950689733028412 -0.04421818256378174 0.17270000278949738
0.04016650840640068 -0.0444486141204834 0.1735999882221222
0.04069043695926666 -0.04452542960643768 0.17389999330043793
0.041168615221977234 -0.04455103352665901 0.17399999499320984
0.041671231389045715 -0.04460224136710167 0.17419999837875366
0.04215071722865105 -0.044627845287323 0.17430000007152557
0.042630720883607864 -0.04465344920754433 0.17440000176429749
0.043086543679237366 -0.04465344920754433 0.17440000176429749
0.04359229654073715 -0.044704657047986984 0.17459999024868011
0.04407387226819992 -0.04473026096820831 0.17469999194145203
0.04460694640874863 -0.0448070727288723 0.17499999701976776
0.045141592621803284 -0.044883888214826584 0.1753000020980835
0.04570380970835686 -0.0449863001704216 0.17569999396800995
0.04618930444121361 -0.04501190409064293 0.17579999566078186
0.046754930168390274 -0.04511432349681854 0.1762000024318695
0.04729584604501724 -0.04519113153219223 0.17649999260902405
0.04775715619325638 -0.04519113153219223 0.17649999260902405
0.04827310889959335 -0.045242343097925186 0.17669999599456787
0.048734940588474274 -0.045242343097925186 0.17669999599456787
0.049196772277355194 -0.045242343097925186 0.17669999599456787
0.049658603966236115 -0.045242343097925186 0.17669999599456787
0.05791265517473221 -0.044141367077827454 0.17239999771118164
0.05812627822160721 -0.04396213963627815 0.17170000076293945
0.05833623558282852 -0.04378290846943855 0.17099998891353607
0.058645665645599365 -0.043680496513843536 0.17059999704360962
0.05895300582051277 -0.04357807710766792 0.17019999027252197
0.05932805687189102 -0.043526872992515564 0.17000000178813934
0.05966689810156822 -0.04345005750656128 0.1696999967098236
0.060039591044187546 -0.04339884966611862 0.16949999332427979
0.060232825577259064 -0.04321962222456932 0.1687999963760376
0.06035051494836807 -0.04298918694257736 0.1678999960422516
0.060644518584012985 -0.04288676753640175 0.16749998927116394
0.060936443507671356 -0.04278435558080673 0.1670999974012375
0.061299726366996765 -0.042733144015073776 0.16689999401569366
0.061809927225112915 -0.04278435558080673 0.1670999974012375
0.06254468113183975 -0.04298918694257736 0.1678999960422516
0.06343366950750351 -0.043296437710523605 0.16910000145435333
0.06500224024057388 -0.04375730827450752 0.17090000212192535
0.06709088385105133 -0.04455103352665901 0.17399999499320984
0.06770093739032745 -0.04465344920754433 0.17440000176429749
0.06815676391124725 -0.04465344920754433 0.17440000176429749
-0.0020714288111776114 -0.04488188400864601 0.17710000276565552
-0.0016139994841068983 -0.04503393918275833 0.1776999980211258
-0.0011495521757751703 -0.04503393918275833 0.1776999980211258
-0.0006862615700811148 -0.04510996490716934 0.17799998819828033
-0.00022115447791293263 -0.04513530805706978 0.17809998989105225
0.0002443381818011403 -0.04513530805706978 0.17809998989105225
0.0007102294475771487 -0.045160651206970215 0.17819999158382416
0.001175983459688723 -0.045160651206970215 0.17819999158382416
0.0016417374135926366 -0.045160651206970215 0.17819999158382416
0.002107491483911872 -0.045160651206970215 0.17819999158382416
0.0025732454378157854 -0.045160651206970215 0.17819999158382416
0.0030355886556208134 -0.04510996490716934 0.17799998819828033
0.003500819904729724 -0.04510996490716934 0.17799998819828033
0.003959367051720619 -0.04503393918275833 0.1776999980211258
0.0044188350439071655 -0.04498325288295746 0.17749999463558197
0.00487175676971674 -0.04488188400864601 0.17710000276565552
0.00532258627936244 -0.044780511409044266 0.17669999599456787
0.005764778703451157 -0.044628456234931946 0.1761000007390976
0.006210904102772474 -0.0445270873606205 0.17569999396800995
0.0066435495391488075 -0.04434968903660774 0.17499999701976776
0.0070847091265022755 -0.044248316437006 0.17459999024868011
0.0075324163772165775 -0.04419763386249542 0.17440000176429749
0.007979077287018299 -0.04414694756269455 0.17419999837875366
0.008424692787230015 -0.04409626126289368 0.17399999499320984
0.008879469707608223 -0.04409626126289368 0.17399999499320984
0.009328882209956646 -0.04407091811299324 0.17389999330043793
0.00978902354836464 -0.04409626126289368 0.17399999499320984
0.010255574248731136 -0.04414694756269455 0.17419999837875366
0.010717022232711315 -0.044172290712594986 0.17430000007152557
0.011178992688655853 -0.04419763386249542 0.17440000176429749
0.011654829606413841 -0.04427365958690643 0.17469999194145203
0.01213916577398777 -0.04437503218650818 0.17509999871253967
0.012639982625842094 -0.0445270873606205 0.17569999396800995
0.013136480003595352 -0.04465379938483238 0.1762000024318695
0.01364330668002367 -0.0448058545589447 0.17679999768733978
0.01413731463253498 -0.04490722343325615 0.17719998955726624
0.014625173062086105 -0.04498325288295746 0.17749999463558197
0.015106099657714367 -0.04503393918275833 0.1776999980211258
0.01557931024581194 -0.04505928233265877 0.1777999997138977
0.016044018790125847 -0.04505928233265877 0.1777999997138977
0.01650872640311718 -0.04505928233265877 0.1777999997138977
0.016973435878753662 -0.04505928233265877 0.1777999997138977
0.017428334802389145 -0.04503393918275833 0.1776999980211258
0.01787264458835125 -0.04498325288295746 0.17749999463558197
0.018295247107744217 -0.04488188400864601 0.17710000276565552
0.018694574013352394 -0.04472982510924339 0.17649999260902405
0.019069060683250427 -0.0445270873606205 0.17569999396800995
0.019417135044932365 -0.04427365958690643 0.17469999194145203
0.019816862419247627 -0.04414694756269455 0.17419999837875366
0.020596574991941452 -0.04386817663908005 0.17309999465942383
0.020927399396896362 -0.04361474886536598 0.1720999926328659
0.021277839317917824 -0.04341200739145279 0.1712999939918518
0.021674828603863716 -0.04331063851714134 0.17090000212192535
0.022121502086520195 -0.04331063851714134 0.17090000212192535
0.022581379860639572 -0.04333597794175148 0.17099998891353607
0.023082185536623 -0.043437350541353226 0.17139999568462372
0.023585081100463867 -0.04353872314095497 0.17180000245571136
0.02411804348230362 -0.04369077831506729 0.17239999771118164
0.024625640362501144 -0.04379214718937874 0.1727999895811081
0.025149844586849213 -0.04391886293888092 0.17329999804496765
0.025661883875727654 -0.04402023181319237 0.1736999899148941
0.026160983368754387 -0.04409626126289368 0.17399999499320984
0.02664635330438614 -0.04414694756269455 0.17419999837875366
0.02713276818394661 -0.04419763386249542 0.17440000176429749
0.02762022614479065 -0.044248316437006 0.17459999024868011
0.028140895068645477 -0.04434968903660774 0.17499999701976776
0.02864731103181839 -0.04442571848630905 0.1753000020980835
0.029188500717282295 -0.04455242678523064 0.17579999566078186
0.029715443029999733 -0.04465379938483238 0.1762000024318695
0.03026159666478634 -0.044780511409044266 0.17669999599456787
0.030688654631376266 -0.04472982510924339 0.17649999260902405
0.03109702281653881 -0.04465379938483238 0.1762000024318695
0.0314859077334404 -0.04455242678523064 0.17579999566078186
0.03181818872690201 -0.04437503218650818 0.17509999871253967
0.032183676958084106 -0.044248316437006 0.17459999024868011
0.032565247267484665 -0.04414694756269455 0.17419999837875366
0.03649507835507393 -0.04287981241941452 0.16920000314712524
0.03702463209629059 -0.04298118129372597 0.1695999950170517
0.037534184753894806 -0.04305721074342728 0.16990000009536743
0.03804530203342438 -0.04313323646783829 0.17019999027252197
0.03864845260977745 -0.04331063851714134 0.17090000212192535
0.039301011711359024 -0.04353872314095497 0.17180000245571136
0.039981409907341 -0.04379214718937874 0.1727999895811081
0.040596842765808105 -0.04396954923868179 0.17350000143051147
0.04109763354063034 -0.04402023181319237 0.1736999899148941
0.041599467396736145 -0.04407091811299324 0.17389999330043793
0.0420781672000885 -0.04409626126289368 0.17399999499320984
0.04258183389902115 -0.04414694756269455 0.17419999837875366
0.043061837553977966 -0.044172290712594986 0.17430000007152557
0.04354236647486687 -0.04419763386249542 0.17440000176429749
0.04404864087700844 -0.044248316437006 0.17459999024868011
0.044555965811014175 -0.04429900273680687 0.17479999363422394
0.04509009048342705 -0.04437503218650818 0.17509999871253967
0.04570380970835686 -0.0445270873606205 0.17569999396800995
0.046294402331113815 -0.04465379938483238 0.1762000024318695
0.04683453217148781 -0.04472982510924339 0.17649999260902405
0.047349438071250916 -0.044780511409044266 0.17669999599456787
0.04783833026885986 -0.0448058545589447 0.17679999768733978
0.048382386565208435 -0.04488188400864601 0.17710000276565552
0.04887284338474274 -0.04490722343325615 0.17719998955726624
0.05857504531741142 -0.043513379991054535 0.17170000076293945
0.058783166110515594 -0.04333597794175148 0.17099998891353607
0.05909155681729317 -0.04323460906744003 0.17059999704360962
0.059397850185632706 -0.04313323646783829 0.17019999027252197
0.05977237969636917 -0.04308255389332771 0.17000000178813934
0.060110434889793396 -0.043006524443626404 0.1696999967098236
0.060482606291770935 -0.04295583814382553 0.16949999332427979
0.06067401543259621 -0.042778439819812775 0.1687999963760376
0.06082554906606674 -0.04257569834589958 0.1679999977350235
0.06108230724930763 -0.0424489863216877 0.16749998927116394
0.061373185366392136 -0.04234761744737625 0.1670999974012375
0.061809927225112915 -0.04234761744737625 0.1670999974012375
0.062395673245191574 -0.0424489863216877 0.16749998927116394
0.06324610114097595 -0.0427277535200119 0.16859999299049377
0.06590846925973892 -0.04361474886536598 0.1720999926328659
0.06697520613670349 -0.04402023181319237 0.1736999899148941
0.06762330234050751 -0.04414694756269455 0.17419999837875366
0.06811767816543579 -0.044172290712594986 0.17430000007152557
-0.002067919820547104 -0.04434375837445259 0.17679999768733978
-0.0016139994841068983 -0.04456949234008789 0.1776999980211258
-0.0011514928191900253 -0.044644732028245926 0.17799998819828033
-0.0006870326469652355 -0.044694896787405014 0.17819999158382416
-0.0002212786494055763 -0.044694896787405014 0.17819999158382416
0.00024474976817145944 -0.0447450615465641 0.17839999496936798
0.0007110265432856977 -0.0447450615465641 0.17839999496936798
0.001177303260192275 -0.0447450615465641 0.17839999496936798
0.0016435799188911915 -0.0447450615465641 0.17839999496936798
0.0021098568104207516 -0.0447450615465641 0.17839999496936798
0.002576133469119668 -0.0447450615465641 0.17839999496936798
0.0030389996245503426 -0.044694896787405014 0.17819999158382416
0.0035047533456236124 -0.044694896787405014 0.17819999158382416
0.003968279343098402 -0.04466981440782547 0.17809998989105225
0.004431282170116901 -0.044644732028245926 0.17799998819828033
0.004888261668384075 -0.04456949234008789 0.1776999980211258
0.005334635265171528 -0.04441900551319122 0.17710000276565552
0.0057876938953995705 -0.04434375837445259 0.17679999768733978
0.006228579208254814 -0.04419327527284622 0.1762000024318695
0.006670123431831598 -0.0440678633749485 0.17569999396800995
0.007113113068044186 -0.04396754130721092 0.1753000020980835
0.007549692410975695 -0.0438421331346035 0.17479999363422394
0.00799739919602871 -0.04379196837544441 0.17459999024868011
0.008453743532299995 -0.04379196837544441 0.17459999024868011
0.008899882435798645 -0.04374181106686592 0.17440000176429749
0.009355705231428146 -0.04374181106686592 0.17440000176429749
0.009822778403759003 -0.04379196837544441 0.17459999024868011
0.010279122740030289 -0.04379196837544441 0.17459999024868011
0.010747765190899372 -0.0438421331346035 0.17479999363422394
0.011223862878978252 -0.043917376548051834 0.17509999871253967
0.01170152798295021 -0.04399261996150017 0.1753999888896942
0.012187695130705833 -0.044092945754528046 0.17579999566078186
0.012697535566985607 -0.04426851496100426 0.17649999260902405
0.013181212358176708 -0.04434375837445259 0.17679999768733978
0.013674173504114151 -0.04444408416748047 0.17719998955726624
0.014161249622702599 -0.0445193275809288 0.17749999463558197
0.014625173062086105 -0.0445193275809288 0.17749999463558197
0.015106099657714367 -0.04456949234008789 0.1776999980211258
0.01557931024581194 -0.044594574719667435 0.1777999997138977
0.016044018790125847 -0.044594574719667435 0.1777999997138977
0.01650872640311718 -0.044594574719667435 0.1777999997138977
0.016963887959718704 -0.04456949234008789 0.1776999980211258
0.017408719286322594 -0.0445193275809288 0.17749999463558197
0.01787264458835125 -0.0445193275809288 0.17749999463558197
0.018264256417751312 -0.04434375837445259 0.17679999768733978
0.018662799149751663 -0.04419327527284622 0.1762000024318695
0.019003942608833313 -0.043917376548051834 0.17509999871253967
0.019383791834115982 -0.04374181106686592 0.17440000176429749
0.01979411020874977 -0.043641481548547745 0.17399999499320984
0.020167425274848938 -0.04346591606736183 0.17329999804496765
0.020548980683088303 -0.043315429240465164 0.17270000278949738
0.020890919491648674 -0.043089695274829865 0.17180000245571136
0.021290259435772896 -0.04298936948180199 0.17139999568462372
0.02172555960714817 -0.04296428710222244 0.1712999939918518
0.02217327617108822 -0.04296428710222244 0.1712999939918518
0.022673821076750755 -0.04306461289525032 0.17170000076293945
0.02318991906940937 -0.043190017342567444 0.17219999432563782
0.023708635941147804 -0.043315429240465164 0.17270000278949738
0.024243948981165886 -0.04346591606736183 0.17329999804496765
0.024739649146795273 -0.04354115575551987 0.1735999882221222
0.02525143139064312 -0.043641481548547745 0.17399999499320984
0.025735752657055855 -0.04369164630770683 0.17419999837875366
0.026221124455332756 -0.04374181106686592 0.17440000176429749
0.026707537472248077 -0.04379196837544441 0.17459999024868011
0.02717943862080574 -0.043817050755023956 0.17469999194145203
0.027699323371052742 -0.043917376548051834 0.17509999871253967
0.02820521593093872 -0.04399261996150017 0.1753999888896942
0.028729019686579704 -0.044092945754528046 0.17579999566078186
0.029254915192723274 -0.04419327527284622 0.1762000024318695
0.02979976497590542 -0.044318679720163345 0.17669999599456787
0.030278721824288368 -0.04434375837445259 0.17679999768733978
0.03072343021631241 -0.044318679720163345 0.17669999599456787
0.03109702281653881 -0.04419327527284622 0.1762000024318695
0.0314859077334404 -0.044092945754528046 0.17579999566078186
0.03181818872690201 -0.043917376548051834 0.17509999871253967
0.032183676958084106 -0.04379196837544441 0.17459999024868011
0.036430370062589645 -0.042362336069345474 0.1688999980688095
0.03695913776755333 -0.042462658137083054 0.16929998993873596
0.03746790811419487 -0.042537905275821686 0.1695999950170517
0.037978243082761765 -0.04261314868927002 0.16990000009536743
0.03849014639854431 -0.04268839210271835 0.17019999027252197
0.03907225281000137 -0.04283888265490532 0.17080000042915344
0.03975003585219383 -0.043089695274829865 0.17180000245571136
0.040339455008506775 -0.04324018210172653 0.17239999771118164
0.04088469222187996 -0.04334050416946411 0.1727999895811081
0.04143201559782028 -0.04344083368778229 0.17319999635219574
0.04190888628363609 -0.04346591606736183 0.17329999804496765
0.042435165494680405 -0.04354115575551987 0.1735999882221222
0.04296301305294037 -0.0436163991689682 0.17389999330043793
0.043492428958415985 -0.04369164630770683 0.17419999837875366
0.04399818927049637 -0.04374181106686592 0.17440000176429749
0.04450498893857002 -0.04379196837544441 0.17459999024868011
0.04509009048342705 -0.043917376548051834 0.17509999871253967
0.04562577232718468 -0.04399261996150017 0.1753999888896942
0.04626812785863876 -0.04416819289326668 0.1761000007390976
0.0468876026570797 -0.044318679720163345 0.17669999599456787
0.047349438071250916 -0.044318679720163345 0.17669999599456787
0.04791950806975365 -0.04441900551319122 0.17710000276565552
0.04840970039367676 -0.04444408416748047 0.17719998955726624
0.05902380496263504 -0.04306461289525032 0.17170000076293945
0.059230104088783264 -0.04288904368877411 0.17099998891353607
0.05953744798898697 -0.04278871789574623 0.17059999704360962
0.05984269455075264 -0.04268839210271835 0.17019999027252197
0.06021670252084732 -0.042638231068849564 0.17000000178813934
0.06055397540330887 -0.04256298765540123 0.1696999967098236
0.060853734612464905 -0.042462658137083054 0.16929998993873596
0.061115194112062454 -0.04233725368976593 0.1687999963760376
0.06126464530825615 -0.04213660582900047 0.1679999977350235
0.06159355491399765 -0.04206135869026184 0.16769999265670776
0.06188390776515007 -0.04196103662252426 0.1673000007867813
0.062395673245191574 -0.04201119765639305 0.16749998927116394
0.06317107379436493 -0.04223692789673805 0.16839998960494995
0.06658963114023209 -0.043315429240465164 0.17270000278949738
0.06742919981479645 -0.04356623813509941 0.1736999899148941
0.0680004358291626 -0.043641481548547745 0.17399999499320984
0.06853389739990234 -0.04369164630770683 0.17419999837875366
-0.002067919820547104 -0.04388166591525078 0.17679999768733978
-0.001614907756447792 -0.0441298633813858 0.1777999997138977
-0.0011521397391334176 -0.04420432075858116 0.17809998989105225
-0.0006878037820570171 -0.04427878186106682 0.17839999496936798
-0.00022152700694277883 -0.04427878186106682 0.17839999496936798
0.0002448869636282325 -0.04430360347032547 0.1784999966621399
0.0007114250911399722 -0.04430360347032547 0.1784999966621399
0.001177963218651712 -0.04430360347032547 0.1784999966621399
0.0016445012297481298 -0.04430360347032547 0.1784999966621399
0.0021110393572598696 -0.04430360347032547 0.1784999966621399
0.0025775774847716093 -0.04430360347032547 0.1784999966621399
0.0030441158451139927 -0.04430360347032547 0.1784999966621399
0.0035086870193481445 -0.04427878186106682 0.17839999496936798
0.003974963910877705 -0.04427878186106682 0.17839999496936798
0.004436261486262083 -0.04422914236783981 0.17819999158382416
0.00489926477894187 -0.04420432075858116 0.17809998989105225
0.00535572087392211 -0.0441298633813858 0.1777999997138977
0.005810608621686697 -0.044055402278900146 0.17749999463558197
0.006274533458054066 -0.044055402278900146 0.17749999463558197
0.006711883004754782 -0.04388166591525078 0.17679999768733978
0.007161804940551519 -0.04380720481276512 0.17649999260902405
0.007605839986354113 -0.04370792582631111 0.1761000007390976
0.008047783747315407 -0.0436086431145668 0.17569999396800995
0.008492477238178253 -0.043534182012081146 0.1753999888896942
0.008950913324952126 -0.043534182012081146 0.1753999888896942
0.009409349411725998 -0.043534182012081146 0.1753999888896942
0.009862160310149193 -0.04350936785340309 0.1753000020980835
0.010326220653951168 -0.043534182012081146 0.1753999888896942
0.010809251107275486 -0.043633464723825455 0.17579999566078186
0.011268732137978077 -0.043633464723825455 0.17579999566078186
0.011754900217056274 -0.04373274743556976 0.1762000024318695
0.012250089086592197 -0.043856844305992126 0.17669999599456787
0.012719118036329746 -0.04388166591525078 0.17679999768733978
0.013211033307015896 -0.04398094117641449 0.17719998955726624
0.013697324320673943 -0.044055402278900146 0.17749999463558197
0.014161249622702599 -0.044055402278900146 0.17749999463558197
0.014641652815043926 -0.04410504549741745 0.1776999980211258
0.015106099657714367 -0.04410504549741745 0.1776999980211258
0.015570547431707382 -0.04410504549741745 0.1776999980211258
0.016034994274377823 -0.04410504549741745 0.1776999980211258
0.01648087240755558 -0.044055402278900146 0.17749999463558197
0.01691615581512451 -0.04398094117641449 0.17719998955726624
0.01737929694354534 -0.04398094117641449 0.17719998955726624
0.01783236861228943 -0.043956127017736435 0.17710000276565552
0.018202273175120354 -0.04373274743556976 0.1762000024318695
0.01857806369662285 -0.043534182012081146 0.1753999888896942
0.018960528075695038 -0.04336044564843178 0.17469999194145203
0.01933933235704899 -0.04318670555949211 0.17399999499320984
0.019759980961680412 -0.043112244457006454 0.1736999899148941
0.020109238103032112 -0.04288886487483978 0.1727999895811081
0.020489485934376717 -0.04273994639515877 0.17219999432563782
0.020878760144114494 -0.042615849524736404 0.17170000076293945
0.021277839317917824 -0.042516566812992096 0.1712999939918518
0.021738242357969284 -0.04254138842225075 0.17139999568462372
0.022237999364733696 -0.04264066740870476 0.17180000245571136
0.022739846259355545 -0.04273994639515877 0.17219999432563782
0.02331112138926983 -0.04296332597732544 0.17309999465942383
0.02381846122443676 -0.04306260868906975 0.17350000143051147
0.02432788535952568 -0.04316188395023346 0.17389999330043793
0.024796653538942337 -0.04318670555949211 0.17399999499320984
0.025294968858361244 -0.04326116666197777 0.17430000007152557
0.025765301659703255 -0.04328598827123642 0.17440000176429749
0.026266228407621384 -0.04336044564843178 0.17469999194145203
0.026768725365400314 -0.043434906750917435 0.17499999701976776
0.027241671457886696 -0.04345972463488579 0.17509999871253967
0.02774677984416485 -0.043534182012081146 0.1753999888896942
0.028269538655877113 -0.043633464723825455 0.17579999566078186
0.028794387355446815 -0.04373274743556976 0.1762000024318695
0.0293379295617342 -0.043856844305992126 0.17669999599456787
0.029816629365086555 -0.04388166591525078 0.17679999768733978
0.030330101028084755 -0.043956127017736435 0.17710000276565552
0.03074081800878048 -0.04388166591525078 0.17679999768733978
0.03114996664226055 -0.04380720481276512 0.17649999260902405
0.03146800026297569 -0.0436086431145668 0.17569999396800995
0.03180001676082611 -0.043434906750917435 0.17499999701976776
0.03640880063176155 -0.041896067559719086 0.1687999963760376
0.03693731129169464 -0.041995350271463394 0.16920000314712524
0.03744581714272499 -0.04206980764865875 0.16949999332427979
0.03793353587388992 -0.04211944714188576 0.1696999967098236
0.038444921374320984 -0.042193908244371414 0.17000000178813934
0.038934994488954544 -0.04224354773759842 0.17019999027252197
0.03954179957509041 -0.042417287826538086 0.17090000212192535
0.04008207097649574 -0.042516566812992096 0.1712999939918518
0.040624432265758514 -0.042615849524736404 0.17170000076293945
0.041097115725278854 -0.04264066740870476 0.17180000245571136
0.04164287447929382 -0.04273994639515877 0.17219999432563782
0.042215168476104736 -0.04286404699087143 0.17270000278949738
0.04279007390141487 -0.04298814758658409 0.17319999635219574
0.04341752827167511 -0.04316188395023346 0.17389999330043793
0.043897274881601334 -0.04318670555949211 0.17399999499320984
0.04445401206612587 -0.04328598827123642 0.17440000176429749
0.044987086206674576 -0.04336044564843178 0.17469999194145203
0.045547738671302795 -0.04345972463488579 0.17509999871253967
0.04618930444121361 -0.043633464723825455 0.17579999566078186
0.046754930168390274 -0.04373274743556976 0.1762000024318695
0.047349438071250916 -0.043856844305992126 0.17669999599456787
0.059472572058439255 -0.042615849524736404 0.17170000076293945
0.059677042067050934 -0.04244210571050644 0.17099998891353607
0.05998333916068077 -0.04234282672405243 0.17059999704360962
0.06028754264116287 -0.04224354773759842 0.17019999027252197
0.06066102534532547 -0.042193908244371414 0.17000000178813934
0.06099751219153404 -0.04211944714188576 0.1696999967098236
0.06126002222299576 -0.041995350271463394 0.16920000314712524
0.06148344650864601 -0.04184642806649208 0.16859999299049377
0.06177720054984093 -0.04174714908003807 0.16820000112056732
0.06203186511993408 -0.04162304848432541 0.16769999265670776
0.062470175325870514 -0.04162304848432541 0.16769999265670776
0.06593414396047592 -0.04244210571050644 0.17099998891353607
0.06768779456615448 -0.04298814758658409 0.17319999635219574
0.06833717972040176 -0.043112244457006454 0.1736999899148941
-0.0020714288111776114 -0.04349324479699135 0.17710000276565552
-0.0016167241847142577 -0.04371426999568939 0.17799998819828033
-0.0011540804989635944 -0.04381250590085983 0.17839999496936798
-0.0006878037820570171 -0.04381250590085983 0.17839999496936798
-0.00022165117843542248 -0.043837063014507294 0.1784999966621399
0.0002448869636282325 -0.043837063014507294 0.1784999966621399
0.0007122222450561821 -0.043886180967092514 0.17870000004768372
0.0011792831355705857 -0.043886180967092514 0.17870000004768372
0.0016463438514620066 -0.043886180967092514 0.17870000004768372
0.0021134046837687492 -0.043886180967092514 0.17870000004768372
0.002580465516075492 -0.043886180967092514 0.17870000004768372
0.0030475265812128782 -0.043886180967092514 0.17870000004768372
0.003514587413519621 -0.043886180967092514 0.17870000004768372
0.003977192100137472 -0.043837063014507294 0.1784999966621399
0.004443730227649212 -0.043837063014507294 0.1784999966621399
0.0049075172282755375 -0.04381250590085983 0.17839999496936798
0.005373794119805098 -0.04381250590085983 0.17839999496936798
0.0058302502147853374 -0.04373882710933685 0.17809998989105225
0.006295742932707071 -0.04373882710933685 0.17809998989105225
0.0067460499703884125 -0.04364059492945671 0.1776999980211258
0.0071902088820934296 -0.04351780191063881 0.17719998955726624
0.007649030536413193 -0.04349324479699135 0.17710000276565552
0.008098168298602104 -0.04341956973075867 0.17679999768733978
0.00855542067438364 -0.04339500889182091 0.17669999599456787
0.00901725422590971 -0.04339500889182091 0.17669999599456787
0.00946835894137621 -0.04334589093923569 0.17649999260902405
0.00992967002093792 -0.04334589093923569 0.17649999260902405
0.010390980169177055 -0.04334589093923569 0.17649999260902405
0.010864588432013988 -0.04339500889182091 0.17669999599456787
0.011352062225341797 -0.04349324479699135 0.17710000276565552
0.01181494165211916 -0.04349324479699135 0.17710000276565552
0.012284751981496811 -0.04351780191063881 0.17719998955726624
0.012769476510584354 -0.04359147697687149 0.17749999463558197
0.013233399949967861 -0.04359147697687149 0.17749999463558197
0.01371275819838047 -0.04364059492945671 0.1776999980211258
0.014177205972373486 -0.04364059492945671 0.1776999980211258
0.014641652815043926 -0.04364059492945671 0.1776999980211258
0.015089097432792187 -0.04359147697687149 0.17749999463558197
0.015553022734820843 -0.04359147697687149 0.17749999463558197
0.015989875420928 -0.04351780191063881 0.17719998955726624
0.01645301654934883 -0.04351780191063881 0.17719998955726624
0.016906611621379852 -0.04349324479699135 0.17710000276565552
0.01733025722205639 -0.04339500889182091 0.17669999599456787
0.017771953716874123 -0.04334589093923569 0.17649999260902405
0.018160950392484665 -0.043173983693122864 0.17579999566078186
0.018514513969421387 -0.04292839765548706 0.17479999363422394
0.01891711726784706 -0.04280560463666916 0.17430000007152557
0.019328217953443527 -0.04270736873149872 0.17389999330043793
0.019703103229403496 -0.042535457760095596 0.17319999635219574
0.020890919491648674 -0.04219163954257965 0.17180000245571136
0.02133994735777378 -0.04219163954257965 0.17180000245571136
0.021839704364538193 -0.04228987172245979 0.17219999432563782
0.022354496642947197 -0.04241266846656799 0.17270000278949738
0.02288510836660862 -0.042560018599033356 0.17329999804496765
0.023391922935843468 -0.0426582507789135 0.1736999899148941
0.02388710156083107 -0.04273192957043648 0.17399999499320984
0.024369854480028152 -0.0427810475230217 0.17419999837875366
0.0248536579310894 -0.04283016547560692 0.17440000176429749
0.02533850446343422 -0.04287927970290184 0.17459999024868011
0.025794846937060356 -0.04287927970290184 0.17459999024868011
0.02631133422255516 -0.04297751560807228 0.17499999701976776
0.026814615353941917 -0.04305119067430496 0.1753000020980835
0.027288343757390976 -0.04307574778795242 0.1753999888896942
0.027810057625174522 -0.043173983693122864 0.17579999566078186
0.028333863243460655 -0.043272219598293304 0.1762000024318695
0.028843412175774574 -0.04334589093923569 0.17649999260902405
0.0293379295617342 -0.04339500889182091 0.17669999599456787
0.029867224395275116 -0.04349324479699135 0.17710000276565552
0.030330101028084755 -0.04349324479699135 0.17710000276565552
0.03072343021631241 -0.04339500889182091 0.17669999599456787
0.03109702281653881 -0.043272219598293304 0.1762000024318695
0.03146800026297569 -0.043149422854185104 0.17569999396800995
0.0359249971807003 -0.04140576347708702 0.16859999299049377
0.03636566177010536 -0.04140576347708702 0.16859999299049377
0.03687181696295738 -0.04147944226861 0.1688999980688095
0.037401631474494934 -0.04157767444849014 0.16929998993873596
0.03791118413209915 -0.041651349514722824 0.1695999950170517
0.038377076387405396 -0.041675910353660583 0.1696999967098236
0.03888924419879913 -0.041749585419893265 0.17000000178813934
0.03937983512878418 -0.04179869964718819 0.17019999027252197
0.03987148031592369 -0.04184781759977341 0.1703999936580658
0.04034050926566124 -0.041872378438711166 0.1704999953508377
0.04085790365934372 -0.04194605350494385 0.17080000042915344
0.04135267809033394 -0.04199516773223877 0.17099998891353607
0.04189739376306534 -0.04209340363740921 0.17139999568462372
0.042518310248851776 -0.04226531460881233 0.1720999926328659
0.043217793107032776 -0.042510900646448135 0.17309999465942383
0.04382158815860748 -0.0426582507789135 0.1736999899148941
0.04435205087065697 -0.04273192957043648 0.17399999499320984
0.04490983486175537 -0.04283016547560692 0.17440000176429749
0.04546969756484032 -0.04292839765548706 0.17479999363422394
0.0460842102766037 -0.04307574778795242 0.1753999888896942
0.04672839492559433 -0.043247658759355545 0.1761000007390976
0.04729584604501724 -0.04334589093923569 0.17649999260902405
0.0598166398704052 -0.04209340363740921 0.17139999568462372
0.06008882075548172 -0.04197061434388161 0.17090000212192535
0.0603938065469265 -0.041872378438711166 0.1704999953508377
0.060732387006282806 -0.04179869964718819 0.17019999027252197
0.06106940284371376 -0.041725028306245804 0.16990000009536743
0.061404839158058167 -0.041651349514722824 0.1695999950170517
0.06170225143432617 -0.04155311733484268 0.16920000314712524
0.06192411109805107 -0.04140576347708702 0.16859999299049377
0.06634226441383362 -0.04197061434388161 0.17090000212192535
-0.0020714288111776114 -0.04303036630153656 0.17710000276565552
-0.0016167241847142577 -0.043249037116765976 0.17799998819828033
-0.0011540804989635944 -0.04334622621536255 0.17839999496936798
-0.000688189291395247 -0.043370526283979416 0.1784999966621399
-0.00022165117843542248 -0.043370526283979416 0.1784999966621399
0.00024516135454177856 -0.04341911897063255 0.17870000004768372
0.0007122222450561821 -0.04341911897063255 0.17870000004768372
0.0011792831355705857 -0.04341911897063255 0.17870000004768372
0.0016463438514620066 -0.04341911897063255 0.17870000004768372
0.0021134046837687492 -0.04341911897063255 0.17870000004768372
0.002580465516075492 -0.04341911897063255 0.17870000004768372
0.003049232065677643 -0.04344341903924942 0.17880000174045563
0.003516554133966565 -0.04344341903924942 0.17880000174045563
0.003983876667916775 -0.04344341903924942 0.17880000174045563
0.004448709078133106 -0.04341911897063255 0.17870000004768372
0.0049157701432704926 -0.04341911897063255 0.17870000004768372
0.005376806482672691 -0.043370526283979416 0.1784999966621399
0.005843344610184431 -0.043370526283979416 0.1784999966621399
0.009522004052996635 -0.043127551674842834 0.17749999463558197
0.009969050996005535 -0.04305465891957283 0.17719998955726624
0.01043219119310379 -0.04305465891957283 0.17719998955726624
0.010895331390202045 -0.04305465891957283 0.17719998955726624
0.011377701535820961 -0.043127551674842834 0.17749999463558197
0.011841626837849617 -0.043127551674842834 0.17749999463558197
0.012305551208555698 -0.043127551674842834 0.17749999463558197
0.012783864513039589 -0.04317614808678627 0.1776999980211258
0.01324831135571003 -0.04317614808678627 0.1776999980211258
0.01371275819838047 -0.04317614808678627 0.1776999980211258
0.014177205972373486 -0.04317614808678627 0.1776999980211258
0.014641652815043926 -0.04317614808678627 0.1776999980211258
0.015089097432792187 -0.043127551674842834 0.17749999463558197
0.015553022734820843 -0.043127551674842834 0.17749999463558197
0.015989875420928 -0.04305465891957283 0.17719998955726624
0.016443733125925064 -0.04303036630153656 0.17710000276565552
0.01686842553317547 -0.04293317720293999 0.17669999599456787
0.017281219363212585 -0.042811691761016846 0.1762000024318695
0.017701471224427223 -0.042714498937129974 0.17579999566078186
0.01808863878250122 -0.042544420808553696 0.17509999871253967
0.01847214624285698 -0.04237434267997742 0.17440000176429749
0.018873702734708786 -0.04225285351276398 0.17389999330043793
0.020939558744430542 -0.04183980077505112 0.17219999432563782
0.021451739594340324 -0.04196128994226456 0.17270000278949738
0.02196653187274933 -0.0420827716588974 0.17319999635219574
0.022458048537373543 -0.042155664414167404 0.17350000143051147
0.022964339703321457 -0.04225285351276398 0.17389999330043793
0.023432323709130287 -0.042277149856090546 0.17399999499320984
0.023928286507725716 -0.04235004261136055 0.17430000007152557
0.0243978351354599 -0.04237434267997742 0.17440000176429749
0.024882158264517784 -0.042422931641340256 0.17459999024868011
0.025353016331791878 -0.04244723170995712 0.17469999194145203
0.025853943079710007 -0.04252012446522713 0.17499999701976776
0.026326369494199753 -0.042544420808553696 0.17509999871253967
0.026829909533262253 -0.0426173098385334 0.1753999888896942
0.027350574731826782 -0.042714498937129974 0.17579999566078186
0.027857515960931778 -0.04278739169239998 0.1761000007390976
0.02838210202753544 -0.04288458079099655 0.17649999260902405
0.02887609601020813 -0.04293317720293999 0.17669999599456787
0.029354533180594444 -0.042957473546266556 0.17679999768733978
0.029867224395275116 -0.04303036630153656 0.17710000276565552
0.030330101028084755 -0.04303036630153656 0.17710000276565552
0.03072343021631241 -0.04293317720293999 0.17669999599456787
0.031079374253749847 -0.04278739169239998 0.1761000007390976
0.0359249971807003 -0.04096509888768196 0.16859999299049377
0.03636566177010536 -0.04096509888768196 0.16859999299049377
0.036849986761808395 -0.0410136952996254 0.1687999963760376
0.037357449531555176 -0.0410865880548954 0.16910000145435333
0.03784412145614624 -0.04113518074154854 0.16929998993873596
0.03835446015000343 -0.04120807349681854 0.1695999950170517
0.03882061317563057 -0.04123236984014511 0.1696999967098236
0.03931042551994324 -0.04128096625208855 0.16990000009536743
0.039777886122465134 -0.041305262595415115 0.17000000178813934
0.040245868265628815 -0.041329558938741684 0.17009998857975006
0.04069044813513756 -0.041329558938741684 0.17009998857975006
0.041159216314554214 -0.04135385528206825 0.17019999027252197
0.04165295138955116 -0.04140245169401169 0.1703999936580658
0.04222184792160988 -0.04152393713593483 0.17090000212192535
0.04286825656890869 -0.041718315333127975 0.17170000076293945
0.04359453171491623 -0.04198558256030083 0.1727999895811081
0.044250089675188065 -0.04217996075749397 0.1735999882221222
0.0448068268597126 -0.042277149856090546 0.17399999499320984
0.045417673885822296 -0.042422931641340256 0.17459999024868011
0.04600539058446884 -0.042544420808553696 0.17509999871253967
0.0466487891972065 -0.042714498937129974 0.17579999566078186
0.060229457914829254 -0.0416211262345314 0.1712999939918518
0.06050007417798042 -0.04149964079260826 0.17080000042915344
0.06080375239253044 -0.04140245169401169 0.1703999936580658
0.06114128604531288 -0.041329558938741684 0.17009998857975006
0.06151345744729042 -0.04128096625208855 0.16990000009536743
0.06184811890125275 -0.04120807349681854 0.1695999950170517
0.06210775673389435 -0.0410865880548954 0.16910000145435333
0.06229079142212868 -0.040916506201028824 0.16839998960494995
0.06283345818519592 -0.04069783166050911 0.16749998927116394
0.06327124685049057 -0.04069783166050911 0.16749998927116394
0.06603170186281204 -0.041329558938741684 0.17009998857975006
0.06755034625530243 -0.041718315333127975 0.17170000076293945
0.06900598108768463 -0.04205847531557083 0.17309999465942383
-0.0020714288111776114 -0.04256748780608177 0.17710000276565552
-0.0016176324570551515 -0.042807843536138535 0.17809998989105225
-0.0011547274189069867 -0.04290398955345154 0.1784999966621399
-0.0006889604264870286 -0.04295206069946289 0.17870000004768372
-0.00022189953597262502 -0.04295206069946289 0.17870000004768372
0.00024516135454177856 -0.04295206069946289 0.17870000004768372
0.0007122222450561821 -0.04295206069946289 0.17870000004768372
0.0011799430940300226 -0.04297609627246857 0.17880000174045563
0.001647265162318945 -0.04297609627246857 0.17880000174045563
0.002114587463438511 -0.04297609627246857 0.17880000174045563
0.002581909764558077 -0.04297609627246857 0.17880000174045563
0.0030526425689458847 -0.04302416741847992 0.17899999022483826
0.00352048734202981 -0.04302416741847992 0.17899999022483826
0.0039883325807750225 -0.04302416741847992 0.17899999022483826
0.004456177353858948 -0.04302416741847992 0.17899999022483826
0.00492402259260416 -0.04302416741847992 0.17899999022483826
0.0053918673656880856 -0.04302416741847992 0.17899999022483826
0.010932223871350288 -0.042735740542411804 0.1777999997138977
0.011396931484341621 -0.042735740542411804 0.1777999997138977
0.011861640959978104 -0.042735740542411804 0.1777999997138977
0.012326349504292011 -0.042735740542411804 0.1777999997138977
0.012783864513039589 -0.04271170124411583 0.1776999980211258
0.01324831135571003 -0.04271170124411583 0.1776999980211258
0.01371275819838047 -0.04271170124411583 0.1776999980211258
0.014161249622702599 -0.04266363009810448 0.17749999463558197
0.014625173062086105 -0.04266363009810448 0.17749999463558197
0.015063594095408916 -0.04259151965379715 0.17719998955726624
0.015517974272370338 -0.04256748780608177 0.17710000276565552
0.015953781083226204 -0.04249538108706474 0.17679999768733978
0.016388021409511566 -0.042423270642757416 0.17649999260902405
0.016811147332191467 -0.04232712835073471 0.1761000007390976
0.01719295047223568 -0.0421348437666893 0.1753000020980835
0.017620917409658432 -0.04206273332238197 0.17499999701976776
0.018016325309872627 -0.041918519884347916 0.17440000176429749
0.018429778516292572 -0.04182237386703491 0.17399999499320984
0.02051328495144844 -0.04143780097365379 0.17239999771118164
0.02101251855492592 -0.0415339432656765 0.1727999895811081
0.021513845771551132 -0.0416300892829895 0.17319999635219574
0.022017261013388634 -0.04172623157501221 0.1735999882221222
0.022509824484586716 -0.041798338294029236 0.17389999330043793
0.0230039581656456 -0.04187044873833656 0.17419999837875366
0.023472724482417107 -0.04189448431134224 0.17430000007152557
0.023942014202475548 -0.041918519884347916 0.17440000176429749
0.02442581206560135 -0.04196659103035927 0.17459999024868011
0.02489640936255455 -0.041990626603364944 0.17469999194145203
0.025367528200149536 -0.04201466217637062 0.17479999363422394
0.025853943079710007 -0.04206273332238197 0.17499999701976776
0.02637147344648838 -0.04215887561440468 0.1753999888896942
0.026875799521803856 -0.042230986058712006 0.17569999396800995
0.02739724889397621 -0.04232712835073471 0.1761000007390976
0.027873335406184196 -0.042351167649030685 0.1762000024318695
0.02841426432132721 -0.04247134178876877 0.17669999599456787
0.028892438858747482 -0.04249538108706474 0.17679999768733978
0.02940434403717518 -0.04256748780608177 0.17710000276565552
0.029867224395275116 -0.04256748780608177 0.17710000276565552
0.030330101028084755 -0.04256748780608177 0.17710000276565552
0.03072343021631241 -0.04247134178876877 0.17669999599456787
0.03554747626185417 -0.04059654846787453 0.1688999980688095
0.035967614501714706 -0.04057251289486885 0.1687999963760376
0.03636566177010536 -0.0405244380235672 0.16859999299049377
0.036849986761808395 -0.04057251289486885 0.1687999963760376
0.03731326758861542 -0.04059654846787453 0.1688999980688095
0.0377994179725647 -0.04064461961388588 0.16910000145435333
0.03826400265097618 -0.040668655186891556 0.16920000314712524
0.03872910887002945 -0.04069269075989723 0.16929998993873596
0.03921787440776825 -0.040740761905908585 0.16949999332427979
0.03968429192900658 -0.04076479747891426 0.1695999950170517
0.04012756794691086 -0.04076479747891426 0.1695999950170517
0.040594764053821564 -0.04078883305191994 0.1696999967098236
0.041038304567337036 -0.04078883305191994 0.1696999967098236
0.041530732065439224 -0.04083690792322159 0.16990000009536743
0.04202419891953468 -0.04088497534394264 0.17009998857975006
0.04256865382194519 -0.040981121361255646 0.1704999953508377
0.043241336941719055 -0.04119744524359703 0.17139999568462372
0.04402068629860878 -0.04150991141796112 0.17270000278949738
0.04470382258296013 -0.04172623157501221 0.1735999882221222
0.045313626527786255 -0.04187044873833656 0.17419999837875366
0.04587401822209358 -0.04196659103035927 0.17459999024868011
0.046516112983226776 -0.0421348437666893 0.1753000020980835
0.0606771782040596 -0.041173405945301056 0.1712999939918518
0.060875121504068375 -0.04100515693426132 0.17059999704360962
0.06117723137140274 -0.04090901091694832 0.17019999027252197
0.06154966354370117 -0.040860943496227264 0.17000000178813934
0.06188458576798439 -0.04078883305191994 0.1696999967098236
0.062144484370946884 -0.040668655186891556 0.16920000314712524
0.06236477196216583 -0.0405244380235672 0.16859999299049377
0.06254468113183975 -0.040356189012527466 0.1678999960422516
0.0627584382891655 -0.04021197557449341 0.1673000007867813
0.06312015652656555 -0.04016390070319176 0.1670999974012375
0.06355689465999603 -0.04016390070319176 0.1670999974012375
0.0657987892627716 -0.040740761905908585 0.16949999332427979
0.06639812886714935 -0.04083690792322159 0.16990000009536743
-0.0020725983195006847 -0.04212838038802147 0.17719998955726624
-0.0016185407293960452 -0.04236612468957901 0.17819999158382416
-0.0011547274189069867 -0.04243744909763336 0.1784999966621399
-0.0006889604264870286 -0.04248499870300293 0.17870000004768372
-0.00022189953597262502 -0.04248499870300293 0.17870000004768372
0.00024516135454177856 -0.04248499870300293 0.17870000004768372
0.0007126207929104567 -0.042508773505687714 0.17880000174045563
0.0011799430940300226 -0.042508773505687714 0.17880000174045563
0.001647265162318945 -0.042508773505687714 0.17880000174045563
0.002114587463438511 -0.042508773505687714 0.17880000174045563
0.002584797563031316 -0.04255631938576698 0.17899999022483826
0.0030526425689458847 -0.04255631938576698 0.17899999022483826
0.00352048734202981 -0.04255631938576698 0.17899999022483826
0.00399056077003479 -0.04258009418845177 0.17909999191761017
0.004458666779100895 -0.04258009418845177 0.17909999191761017
0.004926773253828287 -0.04258009418845177 0.17909999191761017
0.005394879262894392 -0.04258009418845177 0.17909999191761017
0.0163230262696743 -0.04179554060101509 0.17579999566078186
0.01673477701842785 -0.04167666658759117 0.1753000020980835
0.017134103924036026 -0.04153401777148247 0.17469999194145203
0.020548980683088303 -0.041058532893657684 0.17270000278949738
0.021061159670352936 -0.041177403181791306 0.17319999635219574
0.021551109850406647 -0.04124872758984566 0.17350000143051147
0.022055311128497124 -0.041343823075294495 0.17389999330043793
0.022548656910657883 -0.041415147483348846 0.17419999837875366
0.023017162457108498 -0.04143892228603363 0.17430000007152557
0.023486191406846046 -0.041462697088718414 0.17440000176429749
0.023969469591975212 -0.041510242968797684 0.17459999024868011
0.024439802393317223 -0.04153401777148247 0.17469999194145203
0.02489640936255455 -0.04153401777148247 0.17469999194145203
0.025396553799510002 -0.04160534217953682 0.17499999701976776
0.025868715718388557 -0.0416291169822216 0.17509999871253967
0.026416579261422157 -0.04177176579833031 0.17569999396800995
0.02689109556376934 -0.04179554060101509 0.17579999566078186
0.027412807568907738 -0.04189063981175423 0.1762000024318695
0.027920791879296303 -0.04196196049451828 0.17649999260902405
0.02843034453690052 -0.04203328490257263 0.17679999768733978
0.02894146367907524 -0.042104609310626984 0.17710000276565552
0.029420945793390274 -0.04212838038802147 0.17719998955726624
0.029884086921811104 -0.04212838038802147 0.17719998955726624
0.0356106162071228 -0.04022642597556114 0.16920000314712524
0.03603154048323631 -0.04020265117287636 0.16910000145435333
0.03640880063176155 -0.040131326764822006 0.1687999963760376
0.036849986761808395 -0.040131326764822006 0.1687999963760376
0.03729117289185524 -0.040131326764822006 0.1687999963760376
0.037754710763692856 -0.04015510156750679 0.1688999980688095
0.03819615766406059 -0.04015510156750679 0.1688999980688095
0.03863760828971863 -0.04015510156750679 0.1688999980688095
0.039079051464796066 -0.04015510156750679 0.1688999980688095
0.03956729918718338 -0.04020265117287636 0.16910000145435333
0.0400092676281929 -0.04020265117287636 0.16910000145435333
0.04045123606920242 -0.04020265117287636 0.16910000145435333
0.04089320823550224 -0.04020265117287636 0.16910000145435333
0.04138406366109848 -0.04025019705295563 0.16929998993873596
0.041900672018527985 -0.04032152146100998 0.1695999950170517
0.04241885244846344 -0.04039284586906433 0.16990000009536743
0.04293859750032425 -0.040464166551828384 0.17019999027252197
0.04358735680580139 -0.04065436124801636 0.17099998891353607
0.04439481347799301 -0.04098720848560333 0.17239999771118164
0.045157548040151596 -0.04127249866724014 0.1735999882221222
0.04576892778277397 -0.041415147483348846 0.17419999837875366
0.04635690152645111 -0.04153401777148247 0.17469999194145203
0.060982171446084976 -0.04063059017062187 0.17090000212192535
0.06124912202358246 -0.04051171615719795 0.1703999936580658
0.061585865914821625 -0.0404403917491436 0.17009998857975006
0.06195751950144768 -0.04039284586906433 0.16990000009536743
0.062144484370946884 -0.04022642597556114 0.16920000314712524
0.06236477196216583 -0.04008377715945244 0.16859999299049377
0.06258193403482437 -0.039941128343343735 0.1679999977350235
0.06268341839313507 -0.03972715884447098 0.1670999974012375
0.06293127685785294 -0.03960828483104706 0.16659998893737793
0.06332868337631226 -0.03958451375365257 0.1665000021457672
0.06387874484062195 -0.039655834436416626 0.16679999232292175
0.06450749933719635 -0.039774708449840546 0.1673000007867813
0.06529413908720016 -0.0399886779487133 0.16820000112056732
0.0662418082356453 -0.040297746658325195 0.16949999332427979
0.06816881895065308 -0.04065436124801636 0.17099998891353607
0.06991083174943924 -0.04115362837910652 0.17309999465942383
-0.0016185407293960452 -0.04190037027001381 0.17819999158382416
-0.0011547274189069867 -0.041970912367105484 0.1784999966621399
-0.0006889604264870286 -0.04201793670654297 0.17870000004768372
-0.00022189953597262502 -0.04201793670654297 0.17870000004768372
0.00024516135454177856 -0.04201793670654297 0.17870000004768372
0.0007126207929104567 -0.04204145073890686 0.17880000174045563
0.0011799430940300226 -0.04204145073890686 0.17880000174045563
