ply
format ascii 1.0
element vertex 770
property float x
property float y
property float z
end_header
-0.02989816851913929 -0.03392636403441429 -0.11469999700784683
-0.029145069420337677 -0.033748894929885864 -0.11409999430179596
-0.028448287397623062 -0.033630579710006714 -0.11369999498128891
-0.027902677655220032 -0.03368973731994629 -0.11389999836683273
-0.02725907415151596 -0.033630579710006714 -0.11369999498128891
-0.026734821498394012 -0.03371931612491608 -0.11400000005960464
-0.026230357587337494 -0.03383763134479523 -0.1143999993801117
-0.0258337389677763 -0.03410383686423302 -0.1152999997138977
-0.025296412408351898 -0.03419256955385208 -0.11559999734163284
-0.02471322752535343 -0.03422214835882187 -0.11569999903440475
-0.020530853420495987 -0.03431088477373123 -0.11599999666213989
-0.01994139328598976 -0.03434046357870102 -0.1160999983549118
-0.019367540255188942 -0.034399617463350296 -0.11629999428987503
-0.018807725980877876 -0.03448835387825966 -0.11659999936819077
-0.018244773149490356 -0.03457709029316902 -0.1168999969959259
-0.01766359992325306 -0.0346362479031086 -0.11710000038146973
-0.01706577092409134 -0.034665822982788086 -0.11719999462366104
-0.01384984701871872 -0.03153051808476448 -0.10659999400377274
-0.010406434535980225 -0.031234735623002052 -0.10559999942779541
-0.009863517247140408 -0.03126431256532669 -0.10569999366998672
-0.009310746565461159 -0.03126431256532669 -0.10569999366998672
-0.00875797588378191 -0.03126431256532669 -0.10569999366998672
-0.008205204270780087 -0.03126431256532669 -0.10569999366998672
-0.007666913326829672 -0.031323470175266266 -0.10589999705553055
-0.00785866193473339 -0.03460666909813881 -0.11699999868869781
-0.007252989336848259 -0.0346362479031086 -0.11710000038146973
-0.006646271329373121 -0.034665822982788086 -0.11719999462366104
0.008772764354944229 -0.035050343722105026 -0.1184999942779541
0.009368696250021458 -0.03496160730719566 -0.11819999665021896
0.009969939477741718 -0.03490245342254639 -0.11800000071525574
0.010587034747004509 -0.03490245342254639 -0.11800000071525574
0.011204130947589874 -0.03490245342254639 -0.11800000071525574
0.011841261759400368 -0.03496160730719566 -0.11819999665021896
0.012459402903914452 -0.03496160730719566 -0.11819999665021896
0.013088608160614967 -0.03499118611216545 -0.11829999834299088
0.01369568519294262 -0.03496160730719566 -0.11819999665021896
0.014301716350018978 -0.034932028502225876 -0.11809999495744705
0.014906703494489193 -0.03490245342254639 -0.11800000071525574
0.015510642901062965 -0.0348728746175766 -0.11789999902248383
0.0161408931016922 -0.03490245342254639 -0.11800000071525574
0.016772190108895302 -0.034932028502225876 -0.11809999495744705
0.01740453392267227 -0.03496160730719566 -0.11819999665021896
0.01806841790676117 -0.035050343722105026 -0.1184999942779541
0.018719669431447983 -0.0351095013320446 -0.11869999766349792
0.019307836890220642 -0.035050343722105026 -0.1184999942779541
0.01986028254032135 -0.034932028502225876 -0.11809999495744705
0.020443221554160118 -0.0348728746175766 -0.11789999902248383
0.02102407068014145 -0.034813717007637024 -0.11769999563694
0.021621212363243103 -0.034784138202667236 -0.11759999394416809
-0.03523516282439232 -0.03446599841117859 -0.11449999362230301
-0.03472712263464928 -0.034556303173303604 -0.11479999870061874
-0.03421594202518463 -0.03464660793542862 -0.11509999632835388
-0.03367242217063904 -0.03470681235194206 -0.1152999997138977
-0.03309812396764755 -0.034736912697553635 -0.11539999395608902
-0.03249462693929672 -0.034736912697553635 -0.11539999395608902
-0.03183585777878761 -0.03467670828104019 -0.1151999980211258
-0.03117918036878109 -0.03461650758981705 -0.11499999463558197
-0.030444826930761337 -0.03446599841117859 -0.11449999362230301
-0.029689637944102287 -0.03428539261221886 -0.11389999836683273
-0.029042895883321762 -0.034225188195705414 -0.11369999498128891
-0.028373226523399353 -0.0341348871588707 -0.11339999735355377
-0.02697177045047283 -0.033141542226076126 -0.11009999364614487
-0.02610829472541809 -0.032780326902866364 -0.10889999568462372
-0.025702951475977898 -0.032991036772727966 -0.1096000000834465
-0.024969281628727913 -0.032780326902866364 -0.10889999568462372
-0.019924217835068703 -0.03491751849651337 -0.11599999666213989
-0.019350888207554817 -0.03497772291302681 -0.11620000004768372
-0.018807725980877876 -0.0350981280207634 -0.11659999936819077
-0.018244773149490356 -0.03518843278288841 -0.1168999969959259
-0.01767868362367153 -0.03527873381972313 -0.11719999462366104
-0.01706577092409134 -0.03527873381972313 -0.11719999462366104
-0.013267429545521736 -0.032027795910835266 -0.10639999806880951
-0.012699051760137081 -0.031997691839933395 -0.1062999963760376
-0.012108872644603252 -0.03190739080309868 -0.10599999874830246
-0.011532731354236603 -0.031847186386585236 -0.10579999536275864
-0.01097943726927042 -0.031847186386585236 -0.10579999536275864
-0.010416288860142231 -0.031817082315683365 -0.10569999366998672
-0.009863517247140408 -0.031817082315683365 -0.10569999366998672
-0.009319555014371872 -0.031847186386585236 -0.10579999536275864
-0.00876626092940569 -0.031847186386585236 -0.10579999536275864
-0.008220730349421501 -0.03187728673219681 -0.10589999705553055
-0.007666913326829672 -0.03187728673219681 -0.10589999705553055
-0.007119813002645969 -0.03190739080309868 -0.10599999874830246
0.009936142712831497 -0.03539913892745972 -0.11759999394416809
0.01054217480123043 -0.03536904230713844 -0.11749999970197678
0.01117564458400011 -0.03542924299836159 -0.11769999563694
0.011791171506047249 -0.03542924299836159 -0.11769999563694
0.012417239136993885 -0.03545934334397316 -0.11779999732971191
0.013033288531005383 -0.03545934334397316 -0.11779999732971191
0.01364933792501688 -0.03545934334397316 -0.11779999732971191
0.014253277331590652 -0.03542924299836159 -0.11769999563694
0.014856170862913132 -0.03539913892745972 -0.11759999394416809
0.015458019450306892 -0.03536904230713844 -0.11749999970197678
0.016058821231126785 -0.03533893823623657 -0.11739999800920486
0.016672778874635696 -0.03533893823623657 -0.11739999800920486
0.017301460728049278 -0.03536904230713844 -0.11749999970197678
0.017946437001228333 -0.03542924299836159 -0.11769999563694
0.018593505024909973 -0.03548944741487503 -0.11789999902248383
0.019210077822208405 -0.03548944741487503 -0.11789999902248383
0.019776199012994766 -0.03539913892745972 -0.11759999394416809
0.020356524735689163 -0.03533893823623657 -0.11739999800920486
-0.03412675857543945 -0.03515666723251343 -0.11479999870061874
-0.033614009618759155 -0.0352485366165638 -0.11509999632835388
-0.033040761947631836 -0.03527916222810745 -0.1151999980211258
-0.032438311725854874 -0.03527916222810745 -0.1151999980211258
-0.031780585646629333 -0.03521791100502014 -0.11499999463558197
-0.03104361891746521 -0.03506479039788246 -0.11449999362230301
-0.030311880633234978 -0.03491167351603508 -0.11400000005960464
-0.029585372656583786 -0.0347585491836071 -0.11349999904632568
-0.027638006955385208 -0.033135462552309036 -0.10819999873638153
-0.026897018775343895 -0.032921090722084045 -0.10749999433755875
-0.02643282525241375 -0.03304358944296837 -0.1078999936580658
-0.018775464966893196 -0.03564665466547012 -0.11639999598264694
-0.018213558942079544 -0.03573852404952049 -0.11669999361038208
-0.017633430659770966 -0.0357997752726078 -0.1168999969959259
-0.017022088170051575 -0.0357997752726078 -0.1168999969959259
-0.016298439353704453 -0.035554781556129456 -0.1160999983549118
-0.012722944840788841 -0.032614849507808685 -0.10649999976158142
-0.012165989726781845 -0.032614849507808685 -0.10649999976158142
-0.01158723421394825 -0.03255360201001167 -0.1062999963760376
-0.0110001927241683 -0.032461728900671005 -0.10599999874830246
-0.010445852763950825 -0.032461728900671005 -0.10599999874830246
-0.009900844655930996 -0.03249235451221466 -0.10610000044107437
-0.009337172843515873 -0.032461728900671005 -0.10599999874830246
-0.008774546906352043 -0.03243110328912735 -0.10589999705553055
-0.008220730349421501 -0.03243110328912735 -0.10589999705553055
-0.007659673225134611 -0.03240048140287399 -0.10579999536275864
-0.0071130963042378426 -0.03243110328912735 -0.10589999705553055
0.011147160083055496 -0.03595289587974548 -0.11739999800920486
0.011771135963499546 -0.03598352149128914 -0.11749999970197678
0.012385617010295391 -0.03598352149128914 -0.11749999970197678
0.013011160306632519 -0.036014143377542496 -0.11759999394416809
0.013626163825392723 -0.036014143377542496 -0.11759999394416809
0.014229058288037777 -0.03598352149128914 -0.11749999970197678
0.014830905944108963 -0.03595289587974548 -0.11739999800920486
0.016004106029868126 -0.03583040088415146 -0.11699999868869781
0.016544964164495468 -0.03567727655172348 -0.11649999767541885
0.017198387533426285 -0.03576914966106415 -0.11679999530315399
0.01787019893527031 -0.03589164838194847 -0.11719999462366104
0.018546191975474358 -0.036014143377542496 -0.11759999394416809
-0.018057487905025482 -0.03603735193610191 -0.11569999903440475
-0.01745242066681385 -0.03603735193610191 -0.11569999903440475
-0.016818230971693993 -0.03597505763173103 -0.11549999564886093
-0.016115941107273102 -0.03575702756643295 -0.11479999870061874
-0.015366911888122559 -0.035414405167102814 -0.11369999498128891
-0.012949926778674126 -0.03376360237598419 -0.10839999467134476
-0.011641736142337322 -0.03326524794101715 -0.10679999738931656
-0.011072834953665733 -0.03323410078883171 -0.10669999569654465
-0.010504979640245438 -0.03320294991135597 -0.10659999400377274
-0.00993817113339901 -0.03317180648446083 -0.10649999976158142
-0.0093547897413373 -0.03307836130261421 -0.10619999468326569
-0.008782832883298397 -0.03301607072353363 -0.10599999874830246
-0.015877291560173035 -0.03581899404525757 -0.11309999972581863
-0.015096605755388737 -0.03537560999393463 -0.11169999837875366
-0.014356548897922039 -0.03499556705355644 -0.11050000041723251
-0.013703858479857445 -0.0348055474460125 -0.10989999771118164
-0.013057444244623184 -0.03461552411317825 -0.10929999500513077
-0.012383035384118557 -0.03433049097657204 -0.10839999467134476
-0.01179434359073639 -0.03426715359091759 -0.10819999873638153
-0.011155855841934681 -0.03404546156525612 -0.10749999433755875
-0.010534544475376606 -0.03385544195771217 -0.10689999908208847
-0.009947502054274082 -0.0337604284286499 -0.10659999400377274
0.08305589854717255 -0.05131331831216812 -0.12489999830722809
0.0839569941163063 -0.051066815853118896 -0.12429999560117722
0.08325539529323578 -0.0520913191139698 -0.12520000338554382
0.08357502520084381 -0.0518832802772522 -0.12469999492168427
0.08757451921701431 -0.051550429314374924 -0.12389999628067017
0.08894214779138565 -0.051592037081718445 -0.12399999797344208
0.08959061652421951 -0.051592037081718445 -0.12399999797344208
0.08332188427448273 -0.05278819054365158 -0.12529999017715454
0.08384311944246292 -0.05270393565297127 -0.1251000016927719
0.08422716706991196 -0.052535414695739746 -0.12469999492168427
0.08474316447973251 -0.05245115980505943 -0.12449999898672104
0.08518848568201065 -0.05232476815581322 -0.1241999939084053
0.08583799749612808 -0.05232476815581322 -0.1241999939084053
0.08641789108514786 -0.05228264257311821 -0.12409999966621399
0.08764520287513733 -0.052240509539842606 -0.12399999797344208
0.08959061652421951 -0.052240509539842606 -0.12399999797344208
0.09023909270763397 -0.052240509539842606 -0.12399999797344208
0.09074096381664276 -0.052156250923871994 -0.12379999458789825
0.08293051272630692 -0.05361407622694969 -0.1256999969482422
0.08338838070631027 -0.053486116230487823 -0.12539999186992645
0.08397714793682098 -0.053443461656570435 -0.12529999017715454
0.0844973474740982 -0.05335816368460655 -0.1251000016927719
0.08487929403781891 -0.053187549114227295 -0.12469999492168427
0.08539425581693649 -0.053102247416973114 -0.12449999898672104
0.08590711653232574 -0.053016941994428635 -0.12429999560117722
0.08648752421140671 -0.052974287420511246 -0.1241999939084053
0.0870668813586235 -0.052931636571884155 -0.12409999966621399
0.08894214779138565 -0.052888985723257065 -0.12399999797344208
0.08959061652421951 -0.052888985723257065 -0.12399999797344208
0.09023909270763397 -0.052888985723257065 -0.12399999797344208
0.09088756144046783 -0.052888985723257065 -0.12399999797344208
0.09138839691877365 -0.05280367657542229 -0.12379999458789825
0.09203582257032394 -0.05280367657542229 -0.12379999458789825
0.08240405470132828 -0.05435778945684433 -0.125900000333786
0.08299648761749268 -0.054314613342285156 -0.1257999986410141
0.0835878774523735 -0.05427143722772598 -0.1256999969482422
0.08469997346401215 -0.05414190888404846 -0.12539999186992645
0.08528769016265869 -0.05409873276948929 -0.12529999017715454
0.08566861599683762 -0.05392603576183319 -0.12489999830722809
0.086183562874794 -0.053839683532714844 -0.12469999492168427
0.08771587908267975 -0.0535806342959404 -0.12409999966621399
0.08836487680673599 -0.0535806342959404 -0.12409999966621399
0.08966286480426788 -0.0535806342959404 -0.12409999966621399
0.09023909270763397 -0.053537458181381226 -0.12399999797344208
0.09088756144046783 -0.053537458181381226 -0.12399999797344208
0.09138839691877365 -0.05345110595226288 -0.12379999458789825
0.09203582257032394 -0.05345110595226288 -0.12379999458789825
0.08555996417999268 -0.05492880195379257 -0.1256999969482422
0.08601155877113342 -0.0547977052628994 -0.12539999186992645
0.08646001666784286 -0.054666612297296524 -0.1251000016927719
0.08778656274080276 -0.0542733259499073 -0.1241999939084053
0.08836487680673599 -0.054229628294706345 -0.12409999966621399
0.08901387453079224 -0.054229628294706345 -0.12409999966621399
0.08966286480426788 -0.054229628294706345 -0.12409999966621399
0.09031186997890472 -0.054229628294706345 -0.12409999966621399
0.09088756144046783 -0.054185930639505386 -0.12399999797344208
0.09138839691877365 -0.05409853160381317 -0.12379999458789825
0.09203582257032394 -0.05409853160381317 -0.12379999458789825
0.08503769338130951 -0.055674608796834946 -0.125900000333786
0.08555996417999268 -0.05558616667985916 -0.1256999969482422
0.08601155877113342 -0.05545349791646004 -0.12539999186992645
0.08652913570404053 -0.05536506325006485 -0.12520000338554382
0.08683569729328156 -0.05514395236968994 -0.12469999492168427
0.0872773602604866 -0.055011287331581116 -0.12439999729394913
0.08778656274080276 -0.05492284521460533 -0.1241999939084053
0.08836487680673599 -0.05487862601876259 -0.12409999966621399
0.08901387453079224 -0.05487862601876259 -0.12409999966621399
0.08966286480426788 -0.05487862601876259 -0.12409999966621399
0.09023909270763397 -0.05483440309762955 -0.12399999797344208
0.09088756144046783 -0.05483440309762955 -0.12399999797344208
0.09146221727132797 -0.054790180176496506 -0.12389999628067017
0.09203582257032394 -0.05474596098065376 -0.12379999458789825
0.09268324822187424 -0.05474596098065376 -0.12379999458789825
0.09317990392446518 -0.05465751886367798 -0.12359999865293503
0.09375037252902985 -0.05461329594254494 -0.12349999696016312
0.09431979060173035 -0.054569073021411896 -0.1233999952673912
0.0949651300907135 -0.054569073021411896 -0.1233999952673912
0.09561046212911606 -0.054569073021411896 -0.1233999952673912
0.09625580161809921 -0.054569073021411896 -0.1233999952673912
0.09690113365650177 -0.054569073021411896 -0.1233999952673912
0.09762552380561829 -0.05461329594254494 -0.12349999696016312
0.09835094958543777 -0.05465751886367798 -0.12359999865293503
0.0989973396062851 -0.05465751886367798 -0.12359999865293503
0.09980494529008865 -0.05474596098065376 -0.12379999458789825
0.10045237839221954 -0.05474596098065376 -0.12379999458789825
0.10118146985769272 -0.054790180176496506 -0.12389999628067017
0.1018294170498848 -0.054790180176496506 -0.12389999628067017
0.10247736424207687 -0.054790180176496506 -0.12389999628067017
0.10320855677127838 -0.05483440309762955 -0.12399999797344208
0.07593763619661331 -0.056914690881967545 -0.12719999253749847
0.07672328501939774 -0.0570041798055172 -0.1273999959230423
0.08121604472398758 -0.056422509253025055 -0.12610000371932983
0.08181057125329971 -0.05637776479125023 -0.12600000202655792
0.08246950805187225 -0.05637776479125023 -0.12600000202655792
0.08306246250867844 -0.0563330203294754 -0.125900000333786
0.08372087776660919 -0.0563330203294754 -0.125900000333786
0.08431226015090942 -0.05628827214241028 -0.1257999986410141
0.08490260690450668 -0.05624352768063545 -0.1256999969482422
0.08549189567565918 -0.056198783218860626 -0.12559999525547028
0.08601155877113342 -0.056109294295310974 -0.12539999186992645
0.08632179349660873 -0.05588557571172714 -0.12489999830722809
0.08683569729328156 -0.05579608678817749 -0.12469999492168427
0.08720719814300537 -0.055617108941078186 -0.12429999560117722
0.08771587908267975 -0.055527620017528534 -0.12409999966621399
0.08836487680673599 -0.055527620017528534 -0.12409999966621399
0.08901387453079224 -0.055527620017528534 -0.12409999966621399
0.08966286480426788 -0.055527620017528534 -0.12409999966621399
0.09023909270763397 -0.05548287555575371 -0.12399999797344208
0.09088756144046783 -0.05548287555575371 -0.12399999797344208
0.09146221727132797 -0.05543813109397888 -0.12389999628067017
0.09203582257032394 -0.055393386632204056 -0.12379999458789825
0.09260839223861694 -0.05534864589571953 -0.12370000034570694
0.09317990392446518 -0.0553039014339447 -0.12359999865293503
0.09375037252902985 -0.05525915324687958 -0.12349999696016312
0.09439622610807419 -0.05525915324687958 -0.12349999696016312
0.0949651300907135 -0.05521440878510475 -0.1233999952673912
0.09553298354148865 -0.055169664323329926 -0.1232999935746193
0.09617780148983002 -0.055169664323329926 -0.1232999935746193
0.09674408286809921 -0.0551249235868454 -0.12319999933242798
0.0973883792757988 -0.0551249235868454 -0.12319999933242798
0.09803266078233719 -0.0551249235868454 -0.12319999933242798
0.0987570509314537 -0.055169664323329926 -0.1232999935746193
0.09956309199333191 -0.05525915324687958 -0.12349999696016312
0.10020896047353745 -0.05525915324687958 -0.12349999696016312
0.10109980404376984 -0.055393386632204056 -0.12379999458789825
0.10174722969532013 -0.055393386632204056 -0.12379999458789825
0.10239465534687042 -0.055393386632204056 -0.12379999458789825
0.0758182480931282 -0.05748936906456947 -0.12700000405311584
0.07660283893346786 -0.057579897344112396 -0.12719999253749847
0.08246950805187225 -0.05703669786453247 -0.12600000202655792
0.08306246250867844 -0.05699142813682556 -0.125900000333786
0.08372087776660919 -0.05699142813682556 -0.125900000333786
0.0842452347278595 -0.05690089240670204 -0.1256999969482422
0.08483505994081497 -0.05685562267899513 -0.12559999525547028
0.08535575866699219 -0.05676508694887161 -0.12539999186992645
0.08594296872615814 -0.056719820946455 -0.12529999017715454
0.08632179349660873 -0.05653875321149826 -0.12489999830722809
0.08683569729328156 -0.05644821748137474 -0.12469999492168427
0.08734751492738724 -0.05635768547654152 -0.12449999898672104
0.08778656274080276 -0.05622188374400139 -0.1241999939084053
0.08836487680673599 -0.05617661774158478 -0.12409999966621399
0.08901387453079224 -0.05617661774158478 -0.12409999966621399
0.08966286480426788 -0.05617661774158478 -0.12409999966621399
0.09023909270763397 -0.05613134801387787 -0.12399999797344208
0.09088756144046783 -0.05613134801387787 -0.12399999797344208
0.09146221727132797 -0.05608608201146126 -0.12389999628067017
0.09203582257032394 -0.05604081228375435 -0.12379999458789825
0.09268324822187424 -0.05604081228375435 -0.12379999458789825
0.09325528889894485 -0.055995550006628036 -0.12370000034570694
0.09375037252902985 -0.05590501427650452 -0.12349999696016312
0.09431979060173035 -0.05585974454879761 -0.1233999952673912
0.09488817304372787 -0.055814478546381 -0.1232999935746193
0.09545550495386124 -0.055769212543964386 -0.12319999933242798
0.09602179378271103 -0.055723946541547775 -0.12309999763965607
0.09666556119918823 -0.055723946541547775 -0.12309999763965607
0.09730932861566544 -0.055723946541547775 -0.12309999763965607
0.09795308858156204 -0.055723946541547775 -0.12309999763965607
0.09859686344861984 -0.055723946541547775 -0.12309999763965607
0.09924062341451645 -0.055723946541547775 -0.12309999763965607
0.09988439083099365 -0.055723946541547775 -0.12309999763965607
0.10052815824747086 -0.055723946541547775 -0.12309999763965607
0.10125411301851273 -0.055769212543964386 -0.12319999933242798
0.10189840197563171 -0.055769212543964386 -0.12319999933242798
0.10262592136859894 -0.055814478546381 -0.1232999935746193
0.07563914358615875 -0.058016158640384674 -0.1266999989748001
0.07636195421218872 -0.05806194990873337 -0.12680000066757202
0.0769035816192627 -0.05797036737203598 -0.1265999972820282
0.08246950805187225 -0.057695627212524414 -0.12600000202655792
0.08306246250867844 -0.05764983594417572 -0.125900000333786
0.08365437388420105 -0.057604044675827026 -0.1257999986410141
0.0842452347278595 -0.05755825713276863 -0.1256999969482422
0.08469997346401215 -0.05742088332772255 -0.12539999186992645
0.08528769016265869 -0.057375092059373856 -0.12529999017715454
0.08580579608678818 -0.057283516973257065 -0.1251000016927719
0.08632179349660873 -0.05719193443655968 -0.12489999830722809
0.08683569729328156 -0.05710035189986229 -0.12469999492168427
0.08734751492738724 -0.0570087730884552 -0.12449999898672104
0.0879279226064682 -0.056962981820106506 -0.12439999729394913
0.088507279753685 -0.05691719427704811 -0.12429999560117722
0.08908560127019882 -0.05687140300869942 -0.1241999939084053
0.08973511308431625 -0.05687140300869942 -0.1241999939084053
0.09031186997890472 -0.05682561546564102 -0.12409999966621399
0.09088756144046783 -0.05677982419729233 -0.12399999797344208
0.09146221727132797 -0.056734032928943634 -0.12389999628067017
0.09203582257032394 -0.05668824166059494 -0.12379999458789825
0.09268324822187424 -0.05668824166059494 -0.12379999458789825
0.09325528889894485 -0.056642454117536545 -0.12370000034570694
0.09375037252902985 -0.05655087158083916 -0.12349999696016312
0.0942433550953865 -0.05645928904414177 -0.1232999935746193
0.09481122344732285 -0.056413501501083374 -0.12319999933242798
0.09537802636623383 -0.05636771023273468 -0.12309999763965607
0.09602179378271103 -0.05636771023273468 -0.12309999763965607
0.09666556119918823 -0.05636771023273468 -0.12309999763965607
0.09730932861566544 -0.05636771023273468 -0.12309999763965607
0.09795308858156204 -0.05636771023273468 -0.12309999763965607
0.09843666851520538 -0.05627612769603729 -0.12289999425411224
0.09907938539981842 -0.05627612769603729 -0.12289999425411224
0.09972210973501205 -0.05627612769603729 -0.12289999425411224
0.10052815824747086 -0.05636771023273468 -0.12309999763965607
0.10117192566394806 -0.05636771023273468 -0.12309999763965607
0.10181569308042526 -0.05636771023273468 -0.12309999763965607
0.10262592136859894 -0.05645928904414177 -0.1232999935746193
0.07431396096944809 -0.058678749948740005 -0.1266999989748001
0.07563914358615875 -0.058678749948740005 -0.1266999989748001
0.07630173116922379 -0.058678749948740005 -0.1266999989748001
0.07684283703565598 -0.05858612433075905 -0.1264999955892563
0.07750438153743744 -0.05858612433075905 -0.1264999955892563
0.0819404274225235 -0.058447182178497314 -0.12619999051094055
0.08260040730237961 -0.058447182178497314 -0.12619999051094055
0.08319441229104996 -0.058400873094797134 -0.12610000371932983
0.0842452347278595 -0.05821561813354492 -0.1256999969482422
0.0851515680551529 -0.05793774127960205 -0.1251000016927719
0.08566861599683762 -0.057845115661621094 -0.12489999830722809
0.086183562874794 -0.05775248631834984 -0.12469999492168427
0.08669643104076385 -0.05765986070036888 -0.12449999898672104
0.08734751492738724 -0.05765986070036888 -0.12449999898672104
0.08785724639892578 -0.057567235082387924 -0.12429999560117722
0.0884360745549202 -0.057520922273397446 -0.1241999939084053
0.08908560127019882 -0.057520922273397446 -0.1241999939084053
0.08966286480426788 -0.05747460946440697 -0.12409999966621399
0.09031186997890472 -0.05747460946440697 -0.12409999966621399
0.09088756144046783 -0.05742829665541649 -0.12399999797344208
0.09146221727132797 -0.05738198384642601 -0.12389999628067017
0.09203582257032394 -0.05733566731214523 -0.12379999458789825
0.09268324822187424 -0.05733566731214523 -0.12379999458789825
0.09325528889894485 -0.05728935822844505 -0.12370000034570694
0.09375037252902985 -0.0571967288851738 -0.12349999696016312
0.09431979060173035 -0.05715041607618332 -0.1233999952673912
0.09488817304372787 -0.05710410326719284 -0.1232999935746193
0.09545550495386124 -0.05705779045820236 -0.12319999933242798
0.09602179378271103 -0.057011477649211884 -0.12309999763965607
0.09666556119918823 -0.057011477649211884 -0.12309999763965607
0.09730932861566544 -0.057011477649211884 -0.12309999763965607
0.09795308858156204 -0.057011477649211884 -0.12309999763965607
0.09843666851520538 -0.05691884830594063 -0.12289999425411224
0.09907938539981842 -0.05691884830594063 -0.12289999425411224
0.09972210973501205 -0.05691884830594063 -0.12289999425411224
0.10052815824747086 -0.057011477649211884 -0.12309999763965607
0.10125411301851273 -0.05705779045820236 -0.12319999933242798
0.10198110342025757 -0.05710410326719284 -0.1232999935746193
0.10270915925502777 -0.05715041607618332 -0.1233999952673912
0.07551974058151245 -0.05924767255783081 -0.1264999955892563
0.07798055559396744 -0.059107158333063126 -0.12619999051094055
0.07864052802324295 -0.059107158333063126 -0.12619999051094055
0.07996048778295517 -0.059107158333063126 -0.12619999051094055
0.0806843563914299 -0.05915399640798569 -0.12629999220371246
0.0814092606306076 -0.05920083448290825 -0.12639999389648438
0.0819404274225235 -0.059107158333063126 -0.12619999051094055
0.08260040730237961 -0.059107158333063126 -0.12619999051094055
0.08326037973165512 -0.059107158333063126 -0.12619999051094055
0.08385387808084488 -0.05906033143401146 -0.12610000371932983
0.08437928557395935 -0.058966655284166336 -0.125900000333786
0.08490260690450668 -0.05887298285961151 -0.1256999969482422
0.08528769016265869 -0.05868563428521156 -0.12529999017715454
0.08566861599683762 -0.05849829316139221 -0.12489999830722809
0.08669643104076385 -0.05831095203757286 -0.12449999898672104
0.08713703602552414 -0.058170437812805176 -0.1241999939084053
0.08771587908267975 -0.05812360718846321 -0.12409999966621399
0.08829367160797119 -0.05807676911354065 -0.12399999797344208
0.08894214779138565 -0.05807676911354065 -0.12399999797344208
0.08959061652421951 -0.05807676911354065 -0.12399999797344208
0.09023909270763397 -0.05807676911354065 -0.12399999797344208
0.09088756144046783 -0.05807676911354065 -0.12399999797344208
0.09146221727132797 -0.05802993103861809 -0.12389999628067017
0.09203582257032394 -0.057983096688985825 -0.12379999458789825
0.09268324822187424 -0.057983096688985825 -0.12379999458789825
0.09325528889894485 -0.05793626233935356 -0.12370000034570694
0.09375037252902985 -0.05784258991479874 -0.12349999696016312
0.09439622610807419 -0.05784258991479874 -0.12349999696016312
0.0949651300907135 -0.057795751839876175 -0.1233999952673912
0.09553298354148865 -0.05774891376495361 -0.1232999935746193
0.09609980136156082 -0.05770207941532135 -0.12319999933242798
0.09674408286809921 -0.05770207941532135 -0.12319999933242798
0.09730932861566544 -0.05765524506568909 -0.12309999763965607
0.09795308858156204 -0.05765524506568909 -0.12309999763965607
0.09859686344861984 -0.05765524506568909 -0.12309999763965607
0.09924062341451645 -0.05765524506568909 -0.12309999763965607
0.09988439083099365 -0.05765524506568909 -0.12309999763965607
0.10052815824747086 -0.05765524506568909 -0.12309999763965607
0.10133630037307739 -0.05774891376495361 -0.1232999935746193
0.10206381976604462 -0.057795751839876175 -0.1233999952673912
0.10279238969087601 -0.05784258991479874 -0.12349999696016312
0.07864052802324295 -0.059767138212919235 -0.12619999051094055
0.07930051535367966 -0.059767138212919235 -0.12619999051094055
0.08207028359174728 -0.05986185744404793 -0.12639999389648438
0.08266586065292358 -0.05981449782848358 -0.12629999220371246
0.08326037973165512 -0.059767138212919235 -0.12619999051094055
0.08392036706209183 -0.059767138212919235 -0.12619999051094055
0.08451332896947861 -0.059719786047935486 -0.12610000371932983
0.08490260690450668 -0.0595303475856781 -0.1256999969482422
0.08521963655948639 -0.05929355323314667 -0.12520000338554382
0.08553143590688705 -0.059056755155324936 -0.12469999492168427
0.08597622811794281 -0.058914680033922195 -0.12439999729394913
0.08641789108514786 -0.058772601187229156 -0.12409999966621399
0.08699671924114227 -0.05872524157166481 -0.12399999797344208
0.0875038355588913 -0.05863052234053612 -0.12379999458789825
0.08815125375986099 -0.05863052234053612 -0.12379999458789825
0.08879868686199188 -0.05863052234053612 -0.12379999458789825
0.08944611251354218 -0.05863052234053612 -0.12379999458789825
0.09009354561567307 -0.05863052234053612 -0.12379999458789825
0.09074096381664276 -0.05863052234053612 -0.12379999458789825
0.09138839691877365 -0.05863052234053612 -0.12379999458789825
0.09196148067712784 -0.05858316645026207 -0.12370000034570694
0.09268324822187424 -0.05863052234053612 -0.12379999458789825
0.09325528889894485 -0.05858316645026207 -0.12370000034570694
0.09390220046043396 -0.05858316645026207 -0.12370000034570694
0.09447266161441803 -0.05853580683469772 -0.12359999865293503
0.09504208713769913 -0.05848844721913338 -0.12349999696016312
0.09568794816732407 -0.05848844721913338 -0.12349999696016312
0.09625580161809921 -0.05844108760356903 -0.1233999952673912
0.09690113365650177 -0.05844108760356903 -0.1233999952673912
0.09746742248535156 -0.058393727988004684 -0.1232999935746193
0.09803266078233719 -0.05834637209773064 -0.12319999933242798
0.09867695719003677 -0.05834637209773064 -0.12319999933242798
0.09924062341451645 -0.05829900875687599 -0.12309999763965607
0.09988439083099365 -0.05829900875687599 -0.12309999763965607
0.10060982406139374 -0.05834637209773064 -0.12319999933242798
0.10141848772764206 -0.05844108760356903 -0.1233999952673912
0.10214652866125107 -0.05848844721913338 -0.12349999696016312
0.10287562757730484 -0.05853580683469772 -0.12359999865293503
0.07857822626829147 -0.06037924066185951 -0.12610000371932983
0.0792376846075058 -0.06037924066185951 -0.12610000371932983
0.08207028359174728 -0.06052288040518761 -0.12639999389648438
0.08273131400346756 -0.06052288040518761 -0.12639999389648438
0.08339233696460724 -0.06052288040518761 -0.12639999389648438
0.08392036706209183 -0.060427118092775345 -0.12619999051094055
0.08451332896947861 -0.06037924066185951 -0.12610000371932983
0.08490260690450668 -0.06018770858645439 -0.1256999969482422
0.0851515680551529 -0.05990041792392731 -0.1251000016927719
0.08539425581693649 -0.05961312726140022 -0.12449999898672104
0.08576889336109161 -0.0594215989112854 -0.12409999966621399
0.08620897680521011 -0.05927794799208641 -0.12379999458789825
0.08678624778985977 -0.05923007056117058 -0.12370000034570694
0.08722110837697983 -0.05908642336726189 -0.1233999952673912
0.08772403001785278 -0.058990661054849625 -0.12319999933242798
0.08836832642555237 -0.058990661054849625 -0.12319999933242798
0.08908485621213913 -0.05903853848576546 -0.1232999935746193
0.08980245143175125 -0.05908642336726189 -0.1233999952673912
0.09044778347015381 -0.05908642336726189 -0.1233999952673912
0.09116694331169128 -0.05913430452346802 -0.12349999696016312
0.09181279689073563 -0.05913430452346802 -0.12349999696016312
0.09253352135419846 -0.05918218940496445 -0.12359999865293503
0.09317990392446518 -0.05918218940496445 -0.12359999865293503
0.09390220046043396 -0.05923007056117058 -0.12370000034570694
0.09454909712076187 -0.05923007056117058 -0.12370000034570694
0.09519600868225098 -0.05923007056117058 -0.12370000034570694
0.09576542675495148 -0.05918218940496445 -0.12359999865293503
0.096333809196949 -0.05913430452346802 -0.12349999696016312
0.09697966277599335 -0.05913430452346802 -0.12349999696016312
0.09762552380561829 -0.05913430452346802 -0.12349999696016312
0.09827137738466263 -0.05913430452346802 -0.12349999696016312
0.09883714467287064 -0.05908642336726189 -0.1233999952673912
0.09940185397863388 -0.05903853848576546 -0.1232999935746193
0.10004667192697525 -0.05903853848576546 -0.1232999935746193
0.1007731482386589 -0.05908642336726189 -0.1233999952673912
0.10150067508220673 -0.05913430452346802 -0.12349999696016312
0.10222923755645752 -0.05918218940496445 -0.12359999865293503
0.10295885801315308 -0.05923007056117058 -0.12370000034570694
0.07600061595439911 -0.061087094247341156 -0.12619999051094055
0.07666059583425522 -0.061087094247341156 -0.12619999051094055
0.07725931704044342 -0.06103869527578354 -0.12610000371932983
0.07785698026418686 -0.060990288853645325 -0.12600000202655792
0.0785159096121788 -0.060990288853645325 -0.12600000202655792
0.07917484641075134 -0.060990288853645325 -0.12600000202655792
0.08128044009208679 -0.061087094247341156 -0.12619999051094055
0.08200535178184509 -0.06113550066947937 -0.12629999220371246
0.08273131400346756 -0.061183907091617584 -0.12639999389648438
0.08339233696460724 -0.061183907091617584 -0.12639999389648438
0.08392036706209183 -0.061087094247341156 -0.12619999051094055
0.08444630354642868 -0.060990288853645325 -0.12600000202655792
0.08469997346401215 -0.06069985404610634 -0.12539999186992645
0.08487929403781891 -0.060361020267009735 -0.12469999492168427
0.08511989563703537 -0.060070592910051346 -0.12409999966621399
0.08556155115365982 -0.059925377368927 -0.12379999458789825
0.08600007742643356 -0.05978016182780266 -0.12349999696016312
0.08643545210361481 -0.05963495001196861 -0.12319999933242798
0.08686769753694534 -0.05948973074555397 -0.12289999425411224
0.08736801147460938 -0.05939292535185814 -0.12269999831914902
0.08800968527793884 -0.05939292535185814 -0.12269999831914902
0.08879585564136505 -0.05948973074555397 -0.12289999425411224
0.08958412706851959 -0.0595865435898304 -0.12309999763965607
0.0902278944849968 -0.0595865435898304 -0.12309999763965607
0.090871661901474 -0.0595865435898304 -0.12309999763965607
0.09158977121114731 -0.05963495001196861 -0.12319999933242798
0.09230892360210419 -0.05968335270881653 -0.1232999935746193
0.09310451149940491 -0.05978016182780266 -0.12349999696016312
0.09375037252902985 -0.05978016182780266 -0.12349999696016312
0.09439622610807419 -0.05978016182780266 -0.12349999696016312
0.09511905163526535 -0.05982856824994087 -0.12359999865293503
0.09576542675495148 -0.05982856824994087 -0.12359999865293503
0.096333809196949 -0.05978016182780266 -0.12349999696016312
0.09697966277599335 -0.05978016182780266 -0.12349999696016312
0.09762552380561829 -0.05978016182780266 -0.12349999696016312
0.09827137738466263 -0.05978016182780266 -0.12349999696016312
0.09891723841428757 -0.05978016182780266 -0.12349999696016312
0.0994824767112732 -0.05973175913095474 -0.1233999952673912
0.10020896047353745 -0.05978016182780266 -0.12349999696016312
0.10085481405258179 -0.05978016182780266 -0.12349999696016312
0.10158286243677139 -0.05982856824994087 -0.12359999865293503
0.10231195390224457 -0.059876974672079086 -0.12370000034570694
0.10295885801315308 -0.059876974672079086 -0.12370000034570694
0.07666059583425522 -0.061747074127197266 -0.12619999051094055
0.07725931704044342 -0.061698149889707565 -0.12610000371932983
0.07785698026418686 -0.061649221926927567 -0.12600000202655792
0.0785159096121788 -0.061649221926927567 -0.12600000202655792
0.07911200821399689 -0.06160029396414757 -0.125900000333786
0.07977041602134705 -0.06160029396414757 -0.125900000333786
0.08049271255731583 -0.061649221926927567 -0.12600000202655792
0.08121604472398758 -0.061698149889707565 -0.12610000371932983
0.0819404274225235 -0.061747074127197266 -0.12619999051094055
0.08260040730237961 -0.061747074127197266 -0.12619999051094055
0.08326037973165512 -0.061747074127197266 -0.12619999051094055
0.08392036706209183 -0.061747074127197266 -0.12619999051094055
0.08437928557395935 -0.06160029396414757 -0.125900000333786
0.08456488698720932 -0.061257798224687576 -0.12520000338554382
0.08460702747106552 -0.06081744283437729 -0.12429999560117722
0.08498271554708481 -0.06062173470854759 -0.12389999628067017
0.08542332798242569 -0.060474950820207596 -0.12359999865293503
0.08579117059707642 -0.0602792389690876 -0.12319999933242798
0.08622497320175171 -0.060132451355457306 -0.12289999425411224
0.08672633767127991 -0.06003459915518761 -0.12269999831914902
0.08722560107707977 -0.05993673950433731 -0.1224999949336052
0.08786623179912567 -0.05993673950433731 -0.1224999949336052
0.08865135908126831 -0.06003459915518761 -0.12269999831914902
0.08929304033517838 -0.06003459915518761 -0.12269999831914902
0.09008129686117172 -0.060132451355457306 -0.12289999425411224
0.09072402119636536 -0.060132451355457306 -0.12289999425411224
0.0913667380809784 -0.060132451355457306 -0.12289999425411224
0.0921591967344284 -0.0602303110063076 -0.12309999763965607
0.09287834912538528 -0.0602792389690876 -0.12319999933242798
0.09352264553308487 -0.0602792389690876 -0.12319999933242798
0.09431979060173035 -0.0603770911693573 -0.1233999952673912
0.0949651300907135 -0.0603770911693573 -0.1233999952673912
0.09561046212911606 -0.0603770911693573 -0.1233999952673912
0.096333809196949 -0.0604260228574276 -0.12349999696016312
0.09697966277599335 -0.0604260228574276 -0.12349999696016312
0.09762552380561829 -0.0604260228574276 -0.12349999696016312
0.09827137738466263 -0.0604260228574276 -0.12349999696016312
0.09891723841428757 -0.0604260228574276 -0.12349999696016312
0.09956309199333191 -0.0604260228574276 -0.12349999696016312
0.10020896047353745 -0.0604260228574276 -0.12349999696016312
0.10093647986650467 -0.060474950820207596 -0.12359999865293503
0.10166504979133606 -0.060523878782987595 -0.12370000034570694
0.10239465534687042 -0.060572803020477295 -0.12379999458789825
0.10304208844900131 -0.060572803020477295 -0.12379999458789825
0.07779518514871597 -0.062258701771497726 -0.125900000333786
0.07845359295606613 -0.062258701771497726 -0.125900000333786
0.07911200821399689 -0.062258701771497726 -0.125900000333786
0.07977041602134705 -0.062258701771497726 -0.125900000333786
0.0804288238286972 -0.062258701771497726 -0.125900000333786
0.08115164190530777 -0.06230815500020981 -0.12600000202655792
0.08181057125329971 -0.06230815500020981 -0.12600000202655792
0.08246950805187225 -0.06230815500020981 -0.12600000202655792
0.0831284373998642 -0.06230815500020981 -0.12600000202655792
0.08372087776660919 -0.062258701771497726 -0.125900000333786
0.08404417335987091 -0.062011443078517914 -0.12539999186992645
0.08422716706991196 -0.06166528910398483 -0.12469999492168427
0.08440282940864563 -0.06131913512945175 -0.12399999797344208
0.08491412550210953 -0.061220232397317886 -0.12379999458789825
0.0852159857749939 -0.06097297742962837 -0.1232999935746193
0.08572153002023697 -0.06087407469749451 -0.12309999763965607
0.08608466386795044 -0.060676272958517075 -0.12269999831914902
0.08672633767127991 -0.060676272958517075 -0.12269999831914902
0.08715439587831497 -0.06052791699767113 -0.12239999324083328
0.08779450505971909 -0.06052791699767113 -0.12239999324083328
0.0884346067905426 -0.06052791699767113 -0.12239999324083328
0.08914748579263687 -0.06057737022638321 -0.1224999949336052
0.08978811651468277 -0.06057737022638321 -0.1224999949336052
0.09057638794183731 -0.060676272958517075 -0.12269999831914902
0.09121805429458618 -0.060676272958517075 -0.12269999831914902
0.09200946241617203 -0.06077517196536064 -0.12289999425411224
0.09265217930078506 -0.06077517196536064 -0.12289999425411224
0.09344673156738281 -0.06087407469749451 -0.12309999763965607
0.09409049153327942 -0.06087407469749451 -0.12309999763965607
0.09473425894975662 -0.06087407469749451 -0.12309999763965607
0.09545550495386124 -0.06092352792620659 -0.12319999933242798
0.09617780148983002 -0.06097297742962837 -0.1232999935746193
0.09690113365650177 -0.061022426933050156 -0.1233999952673912
0.09762552380561829 -0.06107188016176224 -0.12349999696016312
0.09827137738466263 -0.06107188016176224 -0.12349999696016312
0.09891723841428757 -0.06107188016176224 -0.12349999696016312
0.09964371472597122 -0.06112133339047432 -0.12359999865293503
0.10037124156951904 -0.0611707828938961 -0.12370000034570694
0.10101814568042755 -0.0611707828938961 -0.12370000034570694
0.10174722969532013 -0.061220232397317886 -0.12379999458789825
0.10239465534687042 -0.061220232397317886 -0.12379999458789825
0.10304208844900131 -0.061220232397317886 -0.12379999458789825
0.07839127629995346 -0.06286713480949402 -0.1257999986410141
0.07904917001724243 -0.06286713480949402 -0.1257999986410141
0.07970704883337021 -0.06286713480949402 -0.1257999986410141
0.08036494255065918 -0.06286713480949402 -0.1257999986410141
0.08102282136678696 -0.06286713480949402 -0.1257999986410141
0.08174564689397812 -0.06291711330413818 -0.125900000333786
0.08240405470132828 -0.06291711330413818 -0.125900000333786
0.08293051272630692 -0.06281716376543045 -0.1256999969482422
0.08338838070631027 -0.06266723573207855 -0.12539999186992645
0.08370906859636307 -0.062417373061180115 -0.12489999830722809
0.0838894471526146 -0.06206755340099335 -0.1241999939084053
0.08433476090431213 -0.061917632818222046 -0.12389999628067017
0.08470835536718369 -0.06171773746609688 -0.12349999696016312
0.08514687418937683 -0.06156781688332558 -0.12319999933242798
0.08558225631713867 -0.06141789257526398 -0.12289999425411224
0.08608466386795044 -0.06131794676184654 -0.12269999831914902
0.08672633767127991 -0.06131794676184654 -0.12269999831914902
0.08722560107707977 -0.06121799722313881 -0.1224999949336052
0.08779450505971909 -0.06116802245378494 -0.12239999324083328
0.08850685507059097 -0.06121799722313881 -0.1224999949336052
0.08907471597194672 -0.06116802245378494 -0.12239999324083328
0.08971481770277023 -0.06116802245378494 -0.12239999324083328
0.09035492688417435 -0.06116802245378494 -0.12239999324083328
0.09099502861499786 -0.06116802245378494 -0.12239999324083328
0.09163513779640198 -0.06116802245378494 -0.12239999324083328
0.09235062450170517 -0.06121799722313881 -0.1224999949336052
0.09314308315515518 -0.06131794676184654 -0.12269999831914902
0.09378475695848465 -0.06131794676184654 -0.12269999831914902
0.09458034485578537 -0.06141789257526398 -0.12289999425411224
0.09522306174039841 -0.06141789257526398 -0.12289999425411224
0.09602179378271103 -0.06151784211397171 -0.12309999763965607
0.09674408286809921 -0.06156781688332558 -0.12319999933242798
0.09754647314548492 -0.06166776269674301 -0.1233999952673912
0.09827137738466263 -0.06171773746609688 -0.12349999696016312
0.09891723841428757 -0.06171773746609688 -0.12349999696016312
0.09964371472597122 -0.061767712235450745 -0.12359999865293503
0.10037124156951904 -0.06181768700480461 -0.12370000034570694
0.10101814568042755 -0.06181768700480461 -0.12370000034570694
0.10174722969532013 -0.06186765804886818 -0.12379999458789825
0.10239465534687042 -0.06186765804886818 -0.12379999458789825
0.10295885801315308 -0.06181768700480461 -0.12370000034570694
0.07845359295606613 -0.06357552111148834 -0.125900000333786
0.07904917001724243 -0.06352502107620239 -0.1257999986410141
0.07964368909597397 -0.06347452849149704 -0.1256999969482422
0.08036494255065918 -0.06352502107620239 -0.1257999986410141
0.08102282136678696 -0.06352502107620239 -0.1257999986410141
0.08161578327417374 -0.06347452849149704 -0.1256999969482422
0.082076795399189 -0.06332303583621979 -0.12539999186992645
0.08260063827037811 -0.06322204321622849 -0.12520000338554382
0.08292289823293686 -0.06296955794095993 -0.12469999492168427
0.08323992043733597 -0.06271707266569138 -0.1241999939084053
0.08375436067581177 -0.06261608004570007 -0.12399999797344208
0.08419863134622574 -0.06246459111571312 -0.12370000034570694
0.0846397653222084 -0.06231309846043587 -0.1233999952673912
0.08507776260375977 -0.062161609530448914 -0.12309999763965607
0.08558225631713867 -0.06206061318516731 -0.12289999425411224
0.08622497320175171 -0.06206061318516731 -0.12289999425411224
0.08672633767127991 -0.06195962056517601 -0.12269999831914902
0.08736801147460938 -0.06195962056517601 -0.12269999831914902
0.08786623179912567 -0.06185862794518471 -0.1224999949336052
0.08850685507059097 -0.06185862794518471 -0.1224999949336052
0.08907471597194672 -0.06180812790989876 -0.12239999324083328
0.08971481770277023 -0.06180812790989876 -0.12239999324083328
0.09028110653162003 -0.061757635325193405 -0.12229999899864197
0.09084634482860565 -0.061707139015197754 -0.12219999730587006
0.0914854109287262 -0.061707139015197754 -0.12219999730587006
0.09219985455274582 -0.061757635325193405 -0.12229999899864197
0.09283944219350815 -0.061757635325193405 -0.12229999899864197
0.09355545043945312 -0.06180812790989876 -0.12239999324083328
0.09427251666784286 -0.06185862794518471 -0.1224999949336052
0.09506810456514359 -0.06195962056517601 -0.12269999831914902
0.09570978581905365 -0.06195962056517601 -0.12269999831914902
0.09650850296020508 -0.06206061318516731 -0.12289999425411224
0.09730932861566544 -0.062161609530448914 -0.12309999763965607
0.09811223298311234 -0.062262602150440216 -0.1232999935746193
0.09883714467287064 -0.06231309846043587 -0.1233999952673912
0.09956309199333191 -0.06236359477043152 -0.12349999696016312
0.10020896047353745 -0.06236359477043152 -0.12349999696016312
0.10085481405258179 -0.06236359477043152 -0.12349999696016312
0.10150067508220673 -0.06236359477043152 -0.12349999696016312
0.10214652866125107 -0.06236359477043152 -0.12349999696016312
0.10270915925502777 -0.06231309846043587 -0.1233999952673912
0.07911200821399689 -0.0642339363694191 -0.125900000333786
0.07977041602134705 -0.0642339363694191 -0.125900000333786
0.0804288238286972 -0.0642339363694191 -0.125900000333786
0.08102282136678696 -0.06418291479349136 -0.1257999986410141
0.08155085146427155 -0.0640808716416359 -0.12559999525547028
0.08194589614868164 -0.06387680023908615 -0.12520000338554382
0.08227076381444931 -0.06362169235944748 -0.12469999492168427
0.08259040862321854 -0.0633665919303894 -0.1241999939084053
0.08310588449239731 -0.06326455622911453 -0.12399999797344208
0.08361927419900894 -0.06316251307725906 -0.12379999458789825
0.08406249433755875 -0.06300945580005646 -0.12349999696016312
0.08450259268283844 -0.06285639852285385 -0.12319999933242798
0.08507776260375977 -0.06280537694692612 -0.12309999763965607
0.08558225631713867 -0.06270334124565125 -0.12289999425411224
0.08622497320175171 -0.06270334124565125 -0.12289999425411224
0.08672633767127991 -0.06260129809379578 -0.12269999831914902
0.08736801147460938 -0.06260129809379578 -0.12269999831914902
0.08800968527793884 -0.06260129809379578 -0.12269999831914902
0.08850685507059097 -0.062499258667230606 -0.1224999949336052
0.08907471597194672 -0.06244823709130287 -0.12239999324083328
0.0896415263414383 -0.062397222965955734 -0.12229999899864197
0.0902072861790657 -0.062346201390028 -0.12219999730587006
0.09084634482860565 -0.062346201390028 -0.12219999730587006
0.0914854109287262 -0.062346201390028 -0.12219999730587006
0.09212446212768555 -0.062346201390028 -0.12219999730587006
0.09276352822780609 -0.062346201390028 -0.12219999730587006
0.09340258687734604 -0.062346201390028 -0.12219999730587006
0.09404164552688599 -0.062346201390028 -0.12219999730587006
0.09475818276405334 -0.062397222965955734 -0.12229999899864197
0.09555377811193466 -0.062499258667230606 -0.1224999949336052
0.09635145217180252 -0.06260129809379578 -0.12269999831914902
0.09715122729539871 -0.06270334124565125 -0.12289999425411224
0.09779394418001175 -0.06270334124565125 -0.12289999425411224
0.09859686344861984 -0.06280537694692612 -0.12309999763965607
0.09924062341451645 -0.06280537694692612 -0.12309999763965607
0.09988439083099365 -0.06280537694692612 -0.12309999763965607
0.10052815824747086 -0.06280537694692612 -0.12309999763965607
0.10117192566394806 -0.06280537694692612 -0.12309999763965607
0.10189840197563171 -0.06285639852285385 -0.12319999933242798
