ply
format ascii 1.0
element vertex 752
property float x
property float y
property float z
end_header
-0.006096134965132051 -0.02733748837779205 0.001068700016453266
0.0024537787811531155 0.007109620868268769 0.006412227617008586
0.013968013481493641 0.0125985301724346 0.0014743185769838679
0.02103605331585185 -0.02419506779577525 0.002137405511084433
-0.005557028924096118 0.013134491341399922 0.000534343542702715
0.02272153114566321 0.011855944568197923 0.002137405511084433
0.03434191762519502 -0.015127535512628399 0.002179735901323208
0.014742993318855365 0.033887160525891656 0.012760967483727402
0.03433238735104468 -0.011465512941271041 6.348794138899882e-05
0.01642511673695476 -0.0429424618847381 -5.5737275155265225e-09
-0.004300096334922717 0.009674878618154005 0.007681973450040984
0.022139152463067115 0.012610004600275835 0.002137405511084433
0.02799789413482185 -0.006563164385211014 0.002137405511084433
0.03247956365944934 -0.01661645581544244 0.003237859722040955
0.001599575673416378 -0.011249945395687376 0.002137405511084433
0.01330478610856977 -0.00868484060059049 6.348794138899882e-05
0.014067366006540833 0.010659060009390138 0.004295983542758702
0.009871727705157818 0.03990081324037905 6.348794138899882e-05
0.02067086926154814 -0.03750154149880807 0.012760967483727402
0.012498066938524195 0.034264519561308784 0.002137405511084433
0.004951917608713854 0.027103026487579764 0.009586596276373134
0.03175181459925301 -0.007331219865118504 0.012760967483727402
-0.03378323525195983 -0.015461458149994816 -5.5737275155265225e-09
-0.03435170766487454 0.006690228924720144 6.348794138899882e-05
-0.009112081622323843 0.015646542656876587 0.0016030563946542022
0.015346031891770414 -0.02267046329429276 6.348794138899882e-05
0.012653096912021301 0.02958074034699279 -5.5737275155265225e-09
-0.004907923472070132 -0.015458608894261998 -5.5737275155265225e-09
0.025720824610139883 0.027306565077831756 0.006412227617008586
-0.008342809745887702 -0.026689081968291284 6.348794138899882e-05
0.004209980819525918 -0.0052256047501278375 0.001068700016453266
0.039759358997066896 0.014331505828344861 -5.5737275155265225e-09
0.028104930708237892 0.013501975242685284 0.0017811715777357425
-0.004679068844392734 -0.038560104205989744 6.348794138899882e-05
0.022584584448420347 -0.03878164243640445 0.002137405511084433
0.028228476868748888 0.025402859007048487 0.002137405511084433
0.014048477796997255 -0.020341894506620974 0.0017811715777357425
0.006023291553880265 0.04502303595626495 -5.5737275155265225e-09
0.034642132873549177 -0.014302038918061845 0.0008015254582381506
0.023194365661629593 -0.02595189998004967 0.000534343542702715
0.05055667011877047 0.007411930055813058 6.348794138899882e-05
0.03391109804215872 -0.014894432529880791 0.010221468683291388
0.037910656872736676 0.015222315677904405 0.00035622839147104627
0.023086945781392077 -0.018432077679838683 0.0016030563946542022
0.012149802733345743 0.03674753107666859 0.009586596276373134
-0.017776126847316654 -0.01507458367157211 6.348794138899882e-05
-0.0035556648535714245 0.009241442763932227 0.001333237405306749
0.038783017090024616 -0.012182798756047407 0.001424933949801956
0.008126359853382082 0.027148260647798877 0.000534343542702715
0.004319017886240499 -0.0416944911854716 0.002137405511084433
0.025616964426955737 -0.007015195269417555 0.004295983542758702
-0.004265437255342602 -0.014486875901079343 0.002137405511084433
0.02485759029529363 0.027405700124949518 0.002137405511084433
0.01624178665260554 0.013853172455904542 0.001424933949801956
0.01335849872956419 -0.023295563651493743 0.003237859722040955
-0.04426148391431251 -0.015324469748335642 0.002137405511084433
-0.016390260590465312 0.03207475519688494 0.012760967483727402
0.026084240460293926 -0.0033627786807624554 0.004825039974939675
0.013698418462789436 0.02577436076455758 0.0018702309528693174
0.004163637917021027 0.022018857061390645 0.012760967483727402
0.013938047161839658 0.013601562346396992 0.007999411691891887
-0.01881844359898141 0.0295027567313768 0.000534343542702715
-0.008536917476231722 -0.014101922048856349 0.002137405511084433
0.015137036823205635 0.03397432985647064 -5.5737275155265225e-09
0.019392697961834342 -0.010902085477805017 0.0007124660194048326
0.022633783422909903 -0.018656705451214735 0.0016030563946542022
0.014343775159481577 -0.006711970573617968 0.0016030563946542022
0.0005676527724841299 0.04597157324509128 0.0016030563946542022
0.038552802575112684 -0.012371327194732447 0.00045800847788914263
0.021251719645187368 0.01866124760946121 0.001068700016453266
-0.014775060094062414 0.021550721514777504 6.348794138899882e-05
0.023798027472555033 -0.019068707447804294 0.0002671689844875997
-0.010788792267000535 -0.015042101208576873 -5.5737275155265225e-09
0.04070185504982058 -0.010431814693169913 0.002179735901323208
0.010876319850905357 0.038759538122400176 0.012760967483727402
0.03570383740436238 -0.014537575324888842 0.005354104051089811
0.032441373679919554 0.024627840906261276 0.0002671689844875997
0.02667232750945509 -0.009175975732378555 0.011173779841658491
0.019513196375095344 0.016849300204609646 0.009586596276373134
0.017941559227769084 -0.009538246501819628 -5.5737275155265225e-09
-0.0008278282010130918 0.010294914727580148 0.001068700016453266
0.0016033440666069934 0.0063324393594262176 0.0016030563946542022
-0.01586999342771008 0.034314532181981994 6.348794138899882e-05
0.02890147139676905 -0.005049515840502804 0.0008015254582381506
0.003511743535253166 -0.009137555779574936 0.0016030563946542022
0.012066386062009177 0.04003558105249499 6.348794138899882e-05
0.0016088642613468179 0.006900507247534811 0.012760967483727402
0.013940013904163419 0.013408166159466578 0.003237859722040955
-0.00798116511377448 0.011393549597255522 -5.5737275155265225e-09
-0.014133994622055555 0.016654212267034584 0.002137405511084433
-0.03432811810061874 -0.01590861631829525 6.348794138899882e-05
0.010800210620128384 -0.012710903432531817 0.0016030563946542022
0.03652125144942481 0.021567058606966043 0.006412227617008586
0.008600178958599887 0.04308431871243489 0.012760967483727402
-0.024869957707009362 0.009715547626119436 0.001068700016453266
-0.006325451265112804 0.010145537702700245 0.001424933949801956
0.04275733678389317 -0.00018148321822746415 6.348794138899882e-05
0.04176639186730057 -0.0002678444290735612 0.000534343542702715
0.027177521498585995 -0.007856333651455593 6.348794138899882e-05
0.018639247010579545 -0.004349175999869629 0.000534343542702715
0.02527893460766147 -0.026305213011535718 0.010644719332693965
0.01104480583002343 0.013789967632422013 0.012760967483727402
-0.04938506337291042 -0.00997726802966837 -5.5737275155265225e-09
0.051980894599129496 0.00654353849042004 6.348794138899882e-05
0.010411706979036213 -0.014922239243150604 -5.5737275155265225e-09
-0.016164739983091793 0.02044947043683391 0.006412227617008586
-0.04787731875155301 -0.004764779841818387 0.012760967483727402
0.013168944617252033 0.030116475194100604 0.001068700016453266
0.016501903470866417 0.014819846569142602 0.0017811715777357425
0.018930192742937224 -0.005975757458747735 6.348794138899882e-05
0.02368293596315033 -0.009387575650380344 0.008528472200856414
-0.013313091503079147 0.040986626583656496 0.012760967483727402
0.004066000117650843 0.024236307558986248 0.012760967483727402
0.04295101797507511 -0.002629001151085571 6.348794138899882e-05
0.02953694112480762 -0.004771349558133376 6.348794138899882e-05
0.02853463195994016 0.021781624889428454 0.010644719332693965
-0.01830905633679692 0.03412799249532214 0.001068700016453266
0.03169860619350979 -0.015592403502305887 0.001424933949801956
0.03687744041604065 0.018652926073272447 0.0016030563946542022
0.03408366651541698 -0.015208851357886062 0.005354104051089811
0.018766259621566913 -0.0097187844376991 0.012760967483727402
0.01913595001814593 -0.01007751624006593 0.008528472200856414
-0.010591729368839778 0.04096210234935237 0.009586596276373134
0.02512985424435532 -0.008264344824203048 0.008528472200856414
0.034656938287822216 -0.01433706624472665 -5.5737275155265225e-09
0.04300869936477217 0.01637140899798566 0.0016030563946542022
0.004269063761721954 -0.008276848705535758 0.0016030563946542022
-0.012304365250052149 0.039681350352482214 0.003237859722040955
0.019384357422375053 -0.00742947505481139 0.004295983542758702
0.04128467434726341 -0.001386018522830757 0.004825039974939675
0.018501614282911777 -0.004260379503081143 0.0016030563946542022
0.02315816560148634 0.01217294505231435 0.010644719332693965
0.017074061824368526 -0.007116158287035517 0.010644719332693965
0.00046463992247896375 0.006410523234343832 0.000534343542702715
0.012143918577936319 -0.010576847639600255 0.012760967483727402
0.02403427846202374 -0.028991828198425877 0.008528472200856414
0.013240746305551093 0.013318934901409878 0.00203053428640404
-0.007193958410086716 0.04423743782206688 0.003237859722040955
0.024198594664042124 -0.008555213670213108 0.002137405511084433
-0.003391294799189043 0.006836972828238543 0.002137405511084433
-0.006459170736135303 0.04230988881760258 0.001068700016453266
0.013052799231005729 0.03401747203682238 0.010644719332693965
0.02731403787629242 -0.0048497901621150155 0.01149121859310734
0.00688319786275514 0.0288751724512479 0.006412227617008586
0.0027814900467683793 0.045245909356447886 0.009586596276373134
0.006847484519634128 0.025928801802992354 0.002137405511084433
0.007057128560121668 0.043978474677416717 0.012760967483727402
0.013089483368422965 0.013313924011296219 0.000534343542702715
-0.024673388014059588 0.00773290855480117 6.348794138899882e-05
0.010614937619778298 -0.018395535907106873 0.000534343542702715
0.036577853404272484 0.025156002937332642 -5.5737275155265225e-09
-0.006161629341538998 -0.03737326277354863 0.002137405511084433
0.013163462332164127 0.029556714555342044 0.001068700016453266
0.021847095527416593 0.015129541976120653 0.012760967483727402
0.0018148244166100872 0.04373349769834758 0.012760967483727402
0.041177984304640154 -0.007603136007325382 0.0016030563946542022
-0.045749149619333095 -0.012302786734750581 6.348794138899882e-05
0.013299029680172197 0.026466395417005323 0.004825039974939675
0.016658233587612776 0.017942161042293573 0.010644719332693965
0.04099632172936807 -0.0009177911521204186 0.0013358745746683812
0.013527492272029712 0.025856572631668445 0.0002671689844875997
-0.04970732968404473 -0.009750284599476378 0.002137405511084433
0.012907491871514118 -0.04391485132920201 0.001068700016453266
0.013384480589678812 -0.017565094265134713 0.000534343542702715
0.02340389351589547 -0.011455878732781836 0.002137405511084433
0.022200103246196357 -0.01973495964053661 0.002179735901323208
-0.017745009040492372 0.02556934484857593 0.003237859722040955
0.025933748811301133 -0.0027871397707412925 0.0002671689844875997
0.027704500086765272 0.02535945874113043 0.0017099240521489853
0.028723025856121256 0.02803274256465706 0.0017811715777357425
-0.039315606071387885 -0.014058421259286127 0.002137405511084433
0.04053912704467508 -0.009755637372512765 -5.5737275155265225e-09
0.045782818298453445 -0.0008516438824829719 0.002137405511084433
0.017631741464335406 0.016097944287905053 0.0018702309528693174
0.010232423388278589 0.014937402827615682 0.000534343542702715
0.012465301892791452 0.039537427455130746 0.012760967483727402
0.017403373232444855 -0.004906779540908291 0.010644719332693965
-0.0028674593923844346 0.007308507973687364 0.012760967483727402
-0.013525762242893485 0.037687816899645926 0.000534343542702715
0.025708549064712757 -0.00451072636968075 0.0016506719525725573
0.0022053890643271646 -0.006057020174692834 0.002137405511084433
0.025714506831634575 -0.005259385397583895 0.003237859722040955
0.013946369040564779 0.013803853608065124 0.0016506719525725573
-0.05247555816649573 -0.009681360133263331 0.01149121859310734
0.0024788264194781544 -0.005926491468533962 0.002137405511084433
0.025175105562408692 0.025086521474272372 6.348794138899882e-05
0.01580038118016416 0.011201745996951454 0.007681973450040984
0.034698681175801764 -0.013627410066388365 -5.5737275155265225e-09
0.04973572895215368 0.009863368320899913 0.0016030563946542022
-0.009927349857177437 0.013480118031103322 0.012760967483727402
0.017330558584905686 -0.0070540752679948875 0.008528472200856414
-0.0017048106041784327 0.045820258911056476 0.000534343542702715
0.016250472543323947 0.01107002051773023 0.001068700016453266
0.02148367994471719 -0.03568819355358807 0.000534343542702715
-0.018717283366440716 0.028237367355379933 0.002137405511084433
0.016796843337963194 -0.007355508914785891 0.004295983542758702
0.005444409730005547 -0.005853487740105094 0.002137405511084433
0.04127116680170073 -0.001754894448898736 0.0016506719525725573
0.013730290631911876 0.01248980094333848 0.002179735901323208
0.012980266554691734 -0.018090517307317883 0.008528472200856414
0.023236524599664517 0.016159905543458603 0.008528472200856414
0.011635564524371523 0.014036700579837176 0.0013358745746683812
-0.0045272391732793385 -0.03441170079801352 0.000534343542702715
0.020487291433917903 -0.0217050377919308 6.348794138899882e-05
0.04428112451275195 0.015460556185553122 0.012760967483727402
-0.0010779473382707518 0.04371481163283593 0.003237859722040955
0.03540567978672031 -0.014119635222203653 0.0006106823021013832
0.030541694700337567 -0.006414022566282573 0.001068700016453266
0.022001547593637268 -0.0199237385689975 0.008528472200856414
-0.048073191516720556 -0.00495778682271346 6.348794138899882e-05
0.03833536663149944 0.014753123458955877 0.0002671689844875997
0.004896744649240009 0.04303062469986593 6.348794138899882e-05
0.022692244229982828 -0.019393235912296053 0.004295983542758702
0.02794339469220615 -0.005778820758157511 0.002137405511084433
0.046630789760346264 0.003247365433083684 0.000534343542702715
0.018732256021694482 0.018475247650472947 0.006412227617008586
0.0029942723573187545 0.007837835165088111 0.0008905848333717257
0.001749519266265604 0.045354583332670215 0.003237859722040955
0.0015674852700262327 0.043758529216174874 0.009586596276373134
-0.028506345455438873 0.006493143105381817 0.002137405511084433
0.02777415741083794 0.025385770563689042 0.0016030563946542022
-0.016238597383336627 0.03861299025634279 0.002137405511084433
0.024900629570643356 0.026705249531103835 6.348794138899882e-05
0.026420124932497967 0.0150200950896009 6.348794138899882e-05
0.025783855317502994 -0.03297964831951956 0.001068700016453266
0.019385448545772774 -0.01028033238223184 0.012760967483727402
0.003493882097538876 0.023898543121299593 -5.5737275155265225e-09
0.05038626444558318 0.009913925849145824 0.004295983542758702
-3.14030364164953e-05 0.009295860201001406 0.012760967483727402
0.005646705343946508 -0.04409271201397388 0.012760967483727402
-0.005838895783243279 -0.031877103259104 6.348794138899882e-05
0.041384161435010954 0.016158407304810923 0.012760967483727402
0.03980994173792471 -0.011032059294836638 -5.5737275155265225e-09
0.04998309728982239 0.007407940208626708 0.0016030563946542022
0.026744874031116646 -0.009043721096190198 0.011173779841658491
0.02178169978633426 0.017723352353645756 6.348794138899882e-05
0.0023234486442849545 0.007880906043385354 0.012760967483727402
0.028314543429292478 0.02393367177409622 0.00035622839147104627
0.020805760604378134 -0.02062110953490058 0.001424933949801956
0.034648034931630524 -0.014328162770127127 0.00038167341307557035
0.022747059613616182 -0.019371178365552393 0.004295983542758702
-0.005800327968132046 -0.02991432513440064 0.0016030563946542022
-0.011019179544486809 -0.015134050456044806 0.002137405511084433
0.017278137700136177 -0.007017660979222574 0.010644719332693965
-0.004275174812855936 -0.01986820445012139 0.001068700016453266
0.028703035567347823 -0.00445086615201321 0.012760967483727402
0.037709873103338225 -0.013503162147563053 0.008528472200856414
-0.005324846362195999 -0.03367821507485402 0.003237859722040955
0.017493024231096 -0.007309607532103924 0.0017564847423226875
0.017457742243447462 -0.007241889972003292 0.00895172285025899
0.025460366066825644 -0.007583153289962779 0.010644719332693965
0.013938047161839658 0.013601562346396992 0.0016506719525725573
0.012121613210103736 0.029737939382049963 0.0018320579900594376
0.01571923950718013 0.030680594014488836 0.001068700016453266
0.036104598955623665 0.02482510636534991 6.348794138899882e-05
0.017423647778404362 -0.007181922578794771 0.007258726367824017
0.03483865650823044 -0.014327504922018935 7.633315382128124e-05
0.014097157500803736 -0.020437835673013872 0.00035622839147104627
0.015669432559147472 -0.022293435981777538 0.001068700016453266
-0.01443041549073917 0.039928133533500415 6.348794138899882e-05
0.031132825820733064 -0.003187801369201875 0.001068700016453266
0.02843745117827958 0.02804461770104578 0.001068700016453266
0.015346031891770414 -0.02267046329429276 0.012760967483727402
0.006987690423980849 0.026857953764619816 0.010644719332693965
-0.010743618617657078 0.010210049487463945 -5.5737275155265225e-09
0.05000984478895808 0.0065180755690421276 0.009586596276373134
0.015487252944054161 -0.041043654254790396 0.003237859722040955
0.02510567687388705 -0.022200296491911117 0.002137405511084433
0.03391109804215872 -0.014894432529880791 0.012760967483727402
0.0050718172134361665 0.018179785463440096 0.012760967483727402
-0.006192512485744703 -0.013072113682790355 0.001068700016453266
0.0001309382156754416 -0.007079217597783704 0.001068700016453266
-0.030460100400949968 -0.0159267349702793 0.001068700016453266
0.013989823372284738 0.012702393485589474 6.348794138899882e-05
-0.007680740865176681 0.04241405107929256 0.006412227617008586
0.04476803630087884 0.012971478439050324 -5.5737275155265225e-09
0.027801408474524048 0.025013623109932912 0.001246815199534806
-0.005940096179254099 -0.024983916259645172 -5.5737275155265225e-09
0.016689665516024722 0.015122569014776334 0.002137405511084433
0.010358805247864011 0.04172994820719008 6.348794138899882e-05
0.0052330240667754074 0.01660338917266306 0.002137405511084433
-0.027722926197640264 0.009204518258081659 -5.5737275155265225e-09
0.02009506881282878 -0.011281927233028715 -5.5737275155265225e-09
-0.043153479388949985 -0.015108642971626176 6.348794138899882e-05
0.029646347629852937 0.0183959346297126 0.002137405511084433
0.005725429463165595 0.04270692839104039 6.348794138899882e-05
0.0297422753949256 -0.004901719948929696 0.012760967483727402
0.04301204849636112 -0.009548074619821498 6.348794138899882e-05
0.011900214355042774 0.02738516426142966 0.002179735901323208
0.0316300793751972 0.02766906686230123 0.001068700016453266
0.024664817210419347 -0.008081102035317042 0.001424933949801956
0.03947143639232911 -0.011474441200464109 0.001424933949801956
0.03940675261921556 0.014925018478506387 0.002179735901323208
0.003990954710353974 -0.00528563277193315 -5.5737275155265225e-09
0.02993743722367247 -0.005695597532375954 -5.5737275155265225e-09
0.016375734410839303 0.018443421251498886 0.00035622839147104627
-0.017727744942420413 0.010481503598491223 -5.5737275155265225e-09
-0.018030221516841197 -0.014650212232070197 -5.5737275155265225e-09
0.02085814185805381 0.018818723053285163 -5.5737275155265225e-09
0.013814035787370237 -0.0072742995479941975 0.0016030563946542022
0.013286508262198779 -0.01212697595837351 0.004295983542758702
0.031786722853410256 -0.01634786397684893 0.0017811715777357425
-0.0054056136823706115 -0.03173842874094313 0.000534343542702715
0.040181942323131506 -0.011232702511542993 6.348794138899882e-05
0.014319255426199384 0.03566096607983887 6.348794138899882e-05
0.0015971648091131555 0.00898341984660038 0.0002671689844875997
-0.008195683589580114 -0.02844498182733777 0.009586596276373134
0.0007873217204788459 0.009440044424493397 0.0013358745746683812
0.034328368406586575 -0.011666047817974326 0.012760967483727402
0.013160234319022664 0.013299263746372561 0.000534343542702715
-0.01703585706166742 0.03731166782967286 0.002137405511084433
0.03653530951458948 -0.013577671484528254 0.0017557265879810898
-0.010679924285915883 0.042811379360983684 6.348794138899882e-05
0.016328315937347928 0.014413447030632234 0.00035622839147104627
0.02935797973183332 0.025307770702458408 0.000961832358958483
-0.006419046162914192 0.010220230391538566 0.001068700016453266
-0.04402865098815776 -0.0013720336498031908 0.009586596276373134
0.010769115331858677 0.01145577956616235 0.0017811715777357425
0.003935232947047476 0.04289419750092273 0.002137405511084433
0.01060662675128181 0.011534347050125087 0.002137405511084433
0.032053095523015364 -0.009843671607226975 0.001068700016453266
-0.03905588921816677 0.00227927606389161 0.009586596276373134
0.02879889124866749 -0.0028932172002001837 0.002179735901323208
0.03383860671145935 0.023904425798866535 0.000534343542702715
0.033516145479991724 -0.0169236503479911 6.348794138899882e-05
0.013917217375085464 -0.02003511341142078 0.0007124660194048326
0.03189746335729694 -0.0037760846879642544 0.001068700016453266
-0.006311024877491682 0.010133918602648352 0.002137405511084433
-0.0011693640859199524 0.04587327169415887 0.0016030563946542022
0.04307237172685225 -0.0019262986840332137 0.012760967483727402
-0.04980140095567693 -0.009677967218039641 0.0016030563946542022
0.018944907199478157 -0.004679730398634935 0.0016030563946542022
0.007837665066444626 0.017585567886358528 -5.5737275155265225e-09
0.042048244435160136 -6.623775580985857e-05 0.0013358745746683812
0.01716170346915532 -0.005060880084713465 0.002179735901323208
0.006501990391664398 0.025118114368155548 0.001068700016453266
0.01472562914363067 0.009999266589261417 -5.5737275155265225e-09
0.02572139713169007 -0.03318751118523182 0.001068700016453266
0.022064709117210344 0.014685274681545676 0.003237859722040955
0.023510715221942594 -0.029844745480518967 0.001068700016453266
0.02062005527398719 -0.009039890955505211 0.008528472200856414
0.043333624004164656 -0.007899180919900502 6.348794138899882e-05
0.02775745026893668 -0.007808555713848217 0.000534343542702715
0.014603957508345096 0.01700753049499947 0.002137405511084433
0.019447670211925342 -0.007585379250820239 0.008528472200856414
0.01925338389492353 -0.010176464701068522 0.010644719332693965
0.047835683373292553 0.01187784156133934 0.012760967483727402
0.04783093513535665 0.014534951161300366 0.000534343542702715
0.027052666208048772 -0.0025239397913633783 -5.5737275155265225e-09
-0.013254096764468546 0.016474747969127665 0.012760967483727402
-0.008342724408399286 -0.02659861503290576 0.012760967483727402
0.023355961938394745 -0.01855700857059963 0.0016030563946542022
0.02292988145287903 0.011734376538332125 0.0007124660194048326
0.025616093155795203 -0.024407714262067205 0.002137405511084433
0.026355321813577158 0.02142557594227746 0.002137405511084433
0.028470545020826455 0.025391093014575684 0.0012824425932135377
0.005384606286360757 0.027720246234647222 0.012760967483727402
0.010232423388278589 0.014937402827615682 0.0016030563946542022
-0.006519788539064642 0.009923048077240556 0.0016030563946542022
0.04132397868956196 -0.009215510068826368 6.348794138899882e-05
0.014872073894229345 0.01655452491320697 0.006412227617008586
-0.01710663720207963 0.022804481369345576 0.012760967483727402
-0.04076061819025018 -0.014162468083565418 0.012760967483727402
0.03902436270290137 0.014513414588141952 0.002137405511084433
0.047057369300249105 0.01430509334143718 0.009586596276373134
-0.0034839327410406446 0.009195401870281542 0.010221468683291388
0.04089416187149034 -0.013832697246277267 -5.5737275155265225e-09
0.016307886550705874 0.012235086437223168 0.0007124660194048326
0.010790233841371556 0.04216372584336873 0.001068700016453266
-0.008329614170074419 0.04162551605237045 0.001068700016453266
0.0376407331357755 0.022952229541990304 6.348794138899882e-05
0.03653530951458948 -0.013577671484528254 0.00015266821863485353
0.017631741464335406 0.016097944287905053 0.000534343542702715
0.024708461015116638 0.013731895405239381 0.006412227617008586
-0.008867442925071162 0.0413830160023516 0.002137405511084433
-0.006922891322196378 -0.03431306842663993 0.012760967483727402
0.025053787518879073 0.0269424970591209 0.012760967483727402
-0.047789509842295845 -0.0053245141083881785 0.0016030563946542022
0.03658382818710707 0.021431539817115746 0.003237859722040955
0.030217150657677008 -0.005284438942118723 0.004295983542758702
0.003062982453634578 0.00732843855358773 0.0008905848333717257
0.014930786883668156 -0.006148350095846194 0.002137405511084433
-0.006430323701041644 0.009917846376338569 0.002137405511084433
0.025053906864033217 -0.007239815469566564 0.0007124660194048326
0.004861817335248267 -0.006673432770687736 0.003237859722040955
0.012294899223055242 0.013669249493928018 -5.5737275155265225e-09
0.0346460988883019 -0.01432469564625089 0.0019083966539084913
0.02731345189700224 -0.0048913554310660405 0.0026029832383391463
0.026983841996989114 0.0280467056660082 0.001068700016453266
0.029011773697388724 0.017210832541887253 0.004295983542758702
0.013636851003360591 -0.020764277912572682 0.004295983542758702
0.013932658262718172 0.012522389409974077 0.005706810547468218
-0.006267277974078932 -0.029871843623047102 0.009586596276373134
0.02530192646029346 0.012197634991671698 0.006412227617008586
0.027657046967365928 0.028060928620828183 0.001068700016453266
-0.022641213882887395 -0.016008093715247102 6.348794138899882e-05
-0.005954574174406136 -0.025076625022173296 0.001068700016453266
0.022840062862793407 -0.01852218941707098 0.002137405511084433
0.025163399666803754 -0.0049518182734702935 -5.5737275155265225e-09
0.034999704502126076 -0.014860087527630048 0.003237859722040955
0.009692580289239422 0.012598724566640865 6.348794138899882e-05
0.01935713463123583 -0.02213862878539441 0.0017811715777357425
0.02780037203173137 0.025390570914645607 -5.5737275155265225e-09
0.014884836896455455 0.017344673415182296 0.0017811715777357425
0.013132795305882823 -0.01539288238410963 0.002137405511084433
-0.010297374484782398 0.016639854051706694 0.001068700016453266
0.025736086376368896 -0.0041675838419818765 0.0016506719525725573
0.013507957693060135 0.03174654472957108 0.004295983542758702
-0.0033254530746125114 0.009079248181283625 0.0026029832383391463
-0.026765573453804186 -0.016516905869637093 0.003237859722040955
0.013298984375360047 0.013434636179645177 -5.5737275155265225e-09
-0.0008667894622967043 0.04373390854952285 0.006412227617008586
0.0526653829712578 0.008545929199021944 0.003237859722040955
-0.004322077524875398 0.007477976533791058 0.012760967483727402
0.013179898638527811 -0.016162790067490582 0.002137405511084433
0.03542229038787436 -0.014112510764936647 -5.5737275155265225e-09
0.007310749365176976 0.02653933338320097 0.0017811715777357425
0.039322097820717335 0.014947923521389166 0.002179735901323208
0.03156573196873156 -0.007003934421677257 0.009586596276373134
-0.010877817411524894 0.014251826417989551 6.348794138899882e-05
-0.008050566526155324 -0.029426429623981936 0.003237859722040955
0.02141747886875726 0.017936912887869735 0.002179735901323208
-0.04343377585732734 0.0011548722239623328 0.012760967483727402
0.02904158468844737 0.02534282066739775 0.000961832358958483
0.010320726455755443 0.038602184245984876 -5.5737275155265225e-09
-0.007456358544033444 0.011007763289089458 0.001068700016453266
0.005009134621399003 -0.006065990832050224 0.012760967483727402
0.018481188098900043 -0.02252223140546925 0.0017811715777357425
0.02315632076180189 0.01629593117072292 0.012760967483727402
0.04112098363519424 -0.0051950414335915065 0.000534343542702715
0.01275424350403826 -0.0138367784846198 0.008528472200856414
0.02622248264807752 -0.0032554044490587706 0.011173779841658491
-0.008219841353053607 -0.02825600355645597 0.003237859722040955
0.034708292834179984 -0.014348111242214004 0.002137405511084433
0.02396927305993209 -0.020269297488074902 0.012760967483727402
0.01962573428101268 -0.011044026456115677 -5.5737275155265225e-09
0.02692381710693011 -0.0025446956062340743 0.0018702309528693174
0.023151219826132233 0.016304270456729317 0.004295983542758702
0.017680378990798346 -0.007745523475973899 0.0009099863737057147
0.025737128353999817 0.014977976657657968 0.001923666628909257
0.015291692564930116 0.026111785904980443 0.006412227617008586
0.03068259377362046 0.02511110780438357 0.001923666628909257
0.02740919705974729 0.018958602907854245 0.009586596276373134
0.004081372875825161 -0.0416475776959869 0.001068700016453266
0.0029439811577782623 0.04356191134310105 0.012760967483727402
0.025044505845948358 -0.011117872614943352 0.0013358745746683812
-0.0175280741575376 -0.015018363136154908 0.008528472200856414
-0.0172606783470854 0.035493634019950294 0.006412227617008586
0.03861823340195724 -0.012320634863219387 0.0007633560626138807
0.027022968050000925 0.012477654977342042 0.0017811715777357425
0.027946688306818474 0.02468454220275791 0.001068700016453266
-0.01757454896742007 0.03460265132449769 0.003237859722040955
0.038547905959071684 -0.012989674799627982 0.009586596276373134
0.004057237047724813 0.023203269346021328 0.012760967483727402
0.017184797008510437 0.018740265063581375 0.001068700016453266
0.0030631219724347528 0.007520941460619343 0.0019592867608172826
0.051980894599129496 0.00654353849042004 0.012760967483727402
0.013997022363497156 0.01282203892447762 0.009939302263153597
0.026145632497562965 -0.02812694929678169 0.001424933949801956
0.009547435830024277 0.014795956819401322 0.003237859722040955
0.0015630712943869595 -0.041396036841804144 0.003237859722040955
0.011561020248876128 0.02990896123889208 0.001068700016453266
0.01767363024527471 -0.004218405227953067 0.0016030563946542022
0.034506217557277064 -0.015065851223843896 0.002179735901323208
0.0026749474394353744 -0.009300071466898072 0.003237859722040955
0.036096917608190136 -0.013799247741837564 0.00045800847788914263
0.02770358281398194 0.02527961447634878 -5.5737275155265225e-09
-0.028575418432806542 -0.016566489953356845 0.003237859722040955
0.0020655230617544883 0.0063381950187780135 -5.5737275155265225e-09
0.014229963831048846 -0.021636158402626844 0.003237859722040955
0.0334199730117488 0.02474752244890074 0.003237859722040955
0.022246582235037452 -0.009592775735893526 0.010644719332693965
-0.012704009880277022 0.04148025987884001 0.012760967483727402
0.02487837491141947 0.01448404272651909 0.001068700016453266
0.033961234730958835 -0.015228297103222438 0.004295983542758702
0.017118727657977617 -0.007084122320084635 0.002179735901323208
0.017718234903642143 -0.023285771761862525 6.348794138899882e-05
0.040664553324304124 -0.009465988660484419 0.0007124660194048326
0.0252021822781073 -0.00603016447843693 0.0017811715777357425
-0.02146949683196159 -0.015410625492597297 0.002137405511084433
0.024897574283841182 0.013758398294957404 6.348794138899882e-05
0.04026461155474126 0.014714296078682685 0.012760967483727402
0.005828104412506973 0.021872540113542466 0.012760967483727402
-0.0062055932463484405 0.010794807487154983 6.348794138899882e-05
0.013140395599399942 0.02949659193543401 0.002137405511084433
0.041713955343060875 -0.0076728114133505715 6.348794138899882e-05
0.0024441681732876724 -0.041192502297141574 0.001068700016453266
-0.0033210758460920993 0.00907045425189425 0.012760967483727402
0.027195346897239694 0.020355926977849097 0.012760967483727402
0.037709873103338225 -0.013503162147563053 0.003237859722040955
0.04493212457573068 0.013444593012193308 0.008528472200856414
0.02612924300894352 -0.010492330596546239 0.0016030563946542022
0.030355161588222587 0.02516731514684691 0.0011755675465485627
0.015808435547668965 0.011333250296196737 0.0038727288165725715
0.039322097820717335 0.014947923521389166 0.010644719332693965
-0.018377189041184936 -0.015206854086585135 0.010644719332693965
0.017680378990798346 -0.007745523475973899 0.00895172285025899
0.007645195740146763 0.027396306218682467 6.348794138899882e-05
0.004258536497187765 0.04323861396177979 0.012760967483727402
0.021647336380728348 -0.01164906082249849 0.0016030563946542022
0.014744669054654847 -0.006320936556154235 -5.5737275155265225e-09
0.03867789414865558 -0.012272059036099845 0.001068700016453266
-1.573010845338292e-05 -0.007152387898323609 0.000534343542702715
0.028222988988253372 -0.002405294837388457 0.002137405511084433
-0.015692267108274628 0.025940300357883556 0.002137405511084433
0.01313746726493882 0.02949455840035138 0.002137405511084433
-0.03379827978936544 0.004669676282758231 0.002137405511084433
0.008281756526022357 0.027231836657023438 0.002137405511084433
0.04820334721205367 0.004880193403868454 0.002137405511084433
-0.034340346137152415 0.007339409318327808 0.001068700016453266
0.01904921098738016 0.0184888247843259 6.348794138899882e-05
0.012043881027933804 0.010889205658509732 0.002137405511084433
0.023825924294127936 -0.00877912627756569 -5.5737275155265225e-09
0.03792965401496542 -0.013377214878755447 0.005354104051089811
-0.050959322622775395 -0.008821323876517888 0.010221468683291388
0.0346460988883019 -0.01432469564625089 0.0018320579900594376
0.007313891317507841 0.044481572042148185 0.002137405511084433
0.034791115772527886 -0.014338253460389548 0.0006106823021013832
-0.0062055932463484405 0.010794807487154983 0.012760967483727402
0.02642630886233806 -0.0031489176074560236 6.348794138899882e-05
0.015780247379866327 0.010100559615540648 0.001424933949801956
-0.001127193058575774 0.04371010237119311 6.348794138899882e-05
0.012804333028474476 0.03498929469577019 6.348794138899882e-05
0.013681567626702279 0.015329998187651487 0.0017811715777357425
0.006674221441670338 0.025587889100247313 0.001068700016453266
0.003942754830312872 -0.005943823095786126 0.012760967483727402
0.01530673168351679 -0.0058153618364907966 0.0016030563946542022
0.010020092717013493 0.01509453928760141 0.0008015254582381506
0.024830412826784762 0.026308774934594135 0.006412227617008586
0.041563141930418 0.014422137023422911 0.006412227617008586
0.01534907645425497 -0.008962107368736505 0.002179735901323208
0.0206657033283757 0.016400163528303206 0.003237859722040955
0.024434850455072384 0.013741983669761884 0.002179735901323208
0.025176260091474178 -0.004321445064365419 0.001424933949801956
0.024347515297591788 0.013765651268420559 0.008528472200856414
0.019275516776898514 -0.01019440196462137 0.012760967483727402
0.02911721747179103 0.022020876899138318 0.000534343542702715
0.005474949521516204 0.016190410777751733 0.002137405511084433
0.02966264791395958 -0.005445202024085237 0.0018702309528693174
0.0366451189955653 0.02129115267320156 0.006412227617008586
0.04296029773785554 -0.0021400558489403742 0.010644719332693965
-0.0024753398384435694 -0.04154047309562765 0.002137405511084433
-0.04180904376593301 -0.015540822659961075 0.012760967483727402
-0.013157314227697638 0.041878176860494304 0.0016030563946542022
0.017604041249012953 -0.007553889915319341 0.008528472200856414
0.036096917608190136 -0.013799247741837564 0.0015267177308051485
0.04607680341845999 0.014775279136507426 0.012760967483727402
0.020084028898328554 -0.04036981068216109 6.348794138899882e-05
0.036759171326550336 -0.013460018784135793 0.0015267177308051485
0.03209106635823061 -0.011823049336511893 -5.5737275155265225e-09
0.02587736120711971 0.027908387164397613 0.002137405511084433
0.01312726237441864 0.013304859880805727 0.001068700016453266
-0.01700135685839734 -0.014895422209131048 0.002179735901323208
0.005731577044306528 0.022857020839616743 0.006412227617008586
-0.03670384854081059 0.0055633824258492694 0.012760967483727402
0.0364317585988894 -0.015993275839934113 0.012760967483727402
0.04708371717203431 7.348960871552494e-05 -5.5737275155265225e-09
0.017493024231096 -0.007309607532103924 0.004295983542758702
-0.00943062548640457 0.04344927481105932 6.348794138899882e-05
-0.002722912714946363 0.0072912838436561675 0.006412227617008586
0.006957265547906391 0.02610435321925316 0.00035622839147104627
0.03170066518182123 -0.0153905314410632 0.00035622839147104627
-0.01573322175546809 0.02616193050479912 0.002137405511084433
-0.008263587577252374 -0.013983864431051419 -5.5737275155265225e-09
-0.007871614116691728 0.04462273660766143 -5.5737275155265225e-09
0.04133527793697099 -0.0028917338264405684 0.007999411691891887
0.0158536971533825 0.01462622689822713 0.003237859722040955
0.008369356230861415 0.041195618059591356 0.006412227617008586
0.035495749644682544 -0.014080515413224082 0.0009923649197898221
0.017529299039004527 -0.007384557978744679 0.00048673897299003323
0.01313746726493882 0.02949455840035138 0.001374043970292651
0.016304203079277053 0.011597955776119395 0.001068700016453266
0.010266718446536073 0.014263840642000194 0.002179735901323208
0.03760559679201347 -0.01545094146329556 0.003237859722040955
0.002571169387780626 0.008373185862295584 0.002137405511084433
0.0020968736601734237 0.0069427737213720265 0.006412227617008586
0.032441373679919554 0.024627840906261276 0.0013358745746683812
0.015919964700561753 -0.009032722365952312 0.001068700016453266
-0.01621878797428983 0.038641714505779336 0.000534343542702715
0.031292355784689085 0.02498883610626792 0.001923666628909257
0.02777415741083794 0.025385770563689042 0.0017099240521489853
0.025743792797113533 -0.02991165870351686 0.010644719332693965
0.01035460729387042 0.014207169836404954 0.004295983542758702
0.022692244229982828 -0.019393235912296053 0.008528472200856414
0.023546961400964 -0.0187596352522076 0.001068700016453266
0.03764245577576989 0.01589923477113544 0.0017811715777357425
-0.04914043586111848 -0.010134481555830547 0.002137405511084433
0.03221367889493939 -0.015603801200901228 0.003237859722040955
0.02487837491141947 0.01448404272651909 0.0006412184938180753
-0.012128175890091691 0.03983278660613797 0.009586596276373134
0.01390200454506945 0.012489864289847852 0.007117641119363344
-0.04729989944842019 -0.011117168510525716 0.000534343542702715
0.03467455526053469 -0.014344582301916438 0.00038167341307557035
0.042420400731353135 -0.01104183119259411 6.348794138899882e-05
0.012117150371697732 0.027266284238969925 0.006412227617008586
0.011072346249192134 -0.01409817270969465 6.348794138899882e-05
-0.03781195364025857 0.0025463262522076625 0.0016030563946542022
0.027635874870105194 -0.002449534101029367 0.002137405511084433
0.045008737270767006 0.0019157568966805332 -5.5737275155265225e-09
-0.03251104765467501 -0.016223315252330024 0.009586596276373134
0.017290408126921217 -0.007022787338730928 0.0030262305753550847
-0.004007357072380061 0.006910081313341588 0.0016030563946542022
0.024588252804725767 0.02505640060157689 0.002137405511084433
0.007073826156742846 0.026941829367646667 0.002179735901323208
0.01341636326988253 0.013998580662067614 0.0008549574396929941
0.02025594677227603 0.01662180754899058 0.006412227617008586
-0.017086478224113206 0.022735212856889415 0.006412227617008586
-0.008748768393867594 0.01006831101534487 0.002137405511084433
0.023389420639955073 0.01157825202227179 0.00035622839147104627
0.018825871170790303 0.018481102109623976 0.012760967483727402
-0.008067287488676397 0.009500505083399781 0.006412227617008586
-0.008141746872389105 -0.028834738795839258 0.003237859722040955
0.010288537084815277 -0.04438066334330361 0.0016030563946542022
-0.016340713853885237 0.03238976130243453 0.006412227617008586
0.025582776859301094 0.014806543378904817 0.001068700016453266
0.037887064997154316 0.022521536189412814 6.348794138899882e-05
0.02149630611340764 -0.020493634979425274 0.004295983542758702
0.019257329626525082 -0.00526454398460107 0.001068700016453266
0.03274452729912514 -0.01726352225683658 0.002137405511084433
0.013225223639442793 -0.016542938068833897 -5.5737275155265225e-09
-0.004635338885278978 0.04278747907548844 -5.5737275155265225e-09
0.02256176372882019 0.012923014192000088 0.010644719332693965
0.03183319610308792 -0.008821331319729675 0.000534343542702715
0.024866800839108753 0.013752629548295882 0.008528472200856414
-0.02504803293474014 -0.016357083924969013 0.012760967483727402
0.04085654595699941 0.014128290356757889 0.001068700016453266
0.0037234264447814623 0.025527117176292823 0.0016030563946542022
0.04310811007461307 -0.003652537765449644 0.010644719332693965
0.04380314303699003 -0.004638079321089822 -5.5737275155265225e-09
0.025163399666803754 -0.0049518182734702935 0.002137405511084433
0.04846865591062214 0.014151474847886408 0.000534343542702715
0.01904921098738016 0.0184888247843259 0.012760967483727402
0.0032993090122207143 0.04348796425129459 0.006412227617008586
-0.008306205783938234 -0.027431250580595642 6.348794138899882e-05
-0.012427001608062893 0.041688659385820906 0.003237859722040955
0.012774081912774436 0.03293260699864777 0.002137405511084433
0.001262647344577475 0.045967085347852224 -5.5737275155265225e-09
0.018073370030703043 0.016250453651055864 0.000534343542702715
-0.04905340375301099 -0.006669705088648717 0.001068700016453266
0.0062568182990979365 0.015875732330489625 6.348794138899882e-05
0.038718349399570307 0.020357469866086123 0.003237859722040955
-0.0214363571292504 -0.015802235323514945 0.008528472200856414
-0.05159520623751084 -0.006409571722286919 6.348794138899882e-05
0.023728171712758733 -0.01898099173827275 0.0016030563946542022
0.013905725257836973 0.012492721623817907 0.012760967483727402
0.030300798437361047 -0.003336950066244046 0.012760967483727402
0.011272402887427509 0.029443256196345458 6.348794138899882e-05
0.02244023920925737 -0.01879738153046485 0.000534343542702715
0.018648107531253805 -0.023027787771641994 6.348794138899882e-05
0.016111653130026236 0.010557474249854367 0.00035622839147104627
0.02874367410666899 0.02537083457113141 0.0012824425932135377
0.013645528000098162 -0.007465590757977519 0.0016030563946542022
0.0022438767908238497 0.008591874169591575 0.000534343542702715
0.0018787117055115178 0.008817035763828734 0.000534343542702715
0.01097106604129739 0.030023418066262457 0.001068700016453266
0.027379280456753682 -0.005427948616786496 0.0026029832383391463
0.007294613593268887 0.027137324709582963 0.012760967483727402
0.001809202564587045 0.045935160987115815 0.001068700016453266
0.0009595381640613817 0.00934520637440785 0.0008015254582381506
0.048441101061115655 0.01084344156155668 0.001068700016453266
0.007969245698732176 0.029255937905752323 6.348794138899882e-05
0.010230705794310794 0.027504050634003768 0.0016030563946542022
0.012910951536000168 0.011062519772218508 0.004295983542758702
0.04077173383552536 -0.009191399743569886 0.00035622839147104627
0.0470633221700106 0.0007380772476256935 0.009586596276373134
-0.008464613672192374 0.042115073033978954 0.009586596276373134
0.010586234117650481 0.02955453912609944 0.009586596276373134
-0.009580324734402162 0.01602050827736451 -5.5737275155265225e-09
0.025072102746588654 -0.008350653480952614 0.002179735901323208
-0.006598421079482393 -0.027436141288735345 6.348794138899882e-05
0.007750330792362 0.016707973648867787 0.012760967483727402
0.02577498454787887 -0.003946496888856374 0.0016506719525725573
0.029867762550029382 -0.005626892395224261 0.0013358745746683812
-0.011647419626864072 0.018035814921462185 0.000534343542702715
0.0035917713385349615 0.024816930053184326 0.002137405511084433
0.025067908529567803 0.01448116284627418 0.001923666628909257
0.01580736909631132 0.011741240885887938 0.01149121859310734
0.025187026303576117 -0.0064341576312166885 0.001424933949801956
0.02402422882990546 -0.011345083180989821 -5.5737275155265225e-09
0.013103038351935159 0.030805618242692925 0.001424933949801956
0.014979785569237715 0.009955146527041103 0.001424933949801956
0.013975806202392825 0.010191771747432148 0.0017811715777357425
0.005723713698319451 0.023020322990665375 0.006412227617008586
-0.008192029474270428 0.04452382776971309 -5.5737275155265225e-09
0.007626919581352816 0.04432783385850096 -5.5737275155265225e-09
0.027408582379878876 0.01805770962878012 0.009586596276373134
0.014459213299975567 0.03705514190034362 0.001068700016453266
0.015251548090340721 0.016987900103706665 0.010644719332693965
-0.0231094650395706 0.007950768743556215 0.006412227617008586
-0.010523702189391956 0.04100541401419264 0.012760967483727402
0.01053181818856442 0.04238976837593822 0.002137405511084433
0.01998854292948405 -0.007474715805020142 0.0017811715777357425
-0.00513510046457656 0.012860350887054301 0.001068700016453266
0.015637999879201833 0.03115119902784029 0.001068700016453266
0.03783933084799583 0.023718122735807683 0.001424933949801956
0.022413133802786 0.013408365968782388 0.012760967483727402
-0.016352996945781312 -0.014735917420786133 0.004295983542758702
0.012651069233752676 -0.015149162509417837 6.348794138899882e-05
0.04051847052083276 0.014655663683254232 0.006412227617008586
0.03733976107636863 0.02340461947996711 0.009586596276373134
0.042575195438489664 -0.00029774371077106825 0.012760967483727402
0.023626502406458458 -0.02562904217662968 6.348794138899882e-05
0.022633783422909903 -0.018656705451214735 0.000534343542702715
-0.00732465307482467 0.010909976586406156 0.001424933949801956
0.033945681656638256 -0.006648612516128831 0.000534343542702715
0.02871297421291369 0.02107663265903814 6.348794138899882e-05
0.010519661857503783 -0.014020940929633472 -5.5737275155265225e-09
0.009355270419289716 -0.04451377018969057 0.000534343542702715
0.04298709559920999 -0.002058670100510668 0.012760967483727402
0.03333156103184293 -0.005503098773588723 0.0016030563946542022
0.03464432998617387 -0.014198732989950174 0.002137405511084433
-0.0033254530746125114 0.009079248181283625 0.005142481783976189
0.038028437703195264 0.015011895731120713 0.002137405511084433
0.013957695059258094 0.012569813221055406 0.012055550414187035
0.030221617638446236 -0.006008620071122984 0.0013358745746683812
0.010827922826252518 0.027820044844354165 0.002179735901323208
-0.027197459652864575 0.006800194001061904 -5.5737275155265225e-09
0.03501514839433466 -0.014273548126178034 0.001374043970292651
-0.02263742634699574 0.008006152240717062 0.012760967483727402
-0.050783932870401546 -0.008388943292886128 0.006412227617008586
0.04307237172685225 -0.0019262986840332137 0.004295983542758702
-0.01736073471005811 0.02162260167723041 0.000534343542702715
0.01589105730887571 0.014734036787889095 6.348794138899882e-05
0.04333985300589269 0.0001819338726846694 0.009586596276373134
0.034685106911471045 -0.01374810512379544 0.002137405511084433
0.028268183453655886 -0.0024032616095499724 0.0018702309528693174
0.014889151968117213 -0.041243852045239754 6.348794138899882e-05
0.015808435547668965 0.011333250296196737 0.005142481783976189
-0.003321510663455715 0.00907342645213934 0.0038727288165725715
-0.01515530117868824 0.0347444700523495 0.0016030563946542022
0.04295072033538003 -0.0021857058768804676 0.002179735901323208
0.004549701387721825 0.02745217010748089 0.00035622839147104627
0.014827270928095146 0.03345129318142036 0.012760967483727402
0.009882835303072008 0.014528339867571443 0.006412227617008586
0.0037867163159413155 -0.042097256965937344 6.348794138899882e-05
-0.006139301522410626 0.009990241695948728 -5.5737275155265225e-09
0.022383453255489683 -0.018844289275326186 0.001068700016453266
0.029197864988585894 0.025326132259682773 0.0011755675465485627
0.029061588520225116 0.025784457915595485 0.006412227617008586
-0.045984308108370654 -0.003636249033442323 -5.5737275155265225e-09
0.031685452298073215 0.0248913041860745 -5.5737275155265225e-09
0.006347598128982364 0.02929584595569337 0.002137405511084433
0.03873798254041568 0.02230630138090888 -5.5737275155265225e-09
0.0060830327147601395 0.01614314994764016 0.003237859722040955
0.03844504758010561 0.014705650892680893 -5.5737275155265225e-09
0.03229950385298548 -0.014414250565517641 0.003237859722040955
0.01764212385774275 -0.007647192564866614 0.008105224609041504
0.02781173958834165 -0.007622542869947517 0.000534343542702715
0.038241791825369825 0.014801026164679404 0.000534343542702715
0.027838088517602506 0.024927095073109813 0.0007124660194048326
0.03495095971603995 -0.01429501266424594 0.0009160261922410253
0.04996565071384626 0.007377877109688751 -5.5737275155265225e-09
