ply
format ascii 1.0
element vertex 749
property float x
property float y
property float z
end_header
-0.05317997932434082 0.0017818881897255778 -0.1395999938249588
-0.052111778408288956 0.001770400325767696 -0.1386999934911728
-0.051275286823511124 0.0017665711930021644 -0.13840000331401825
-0.05047845467925072 0.0017640183214098215 -0.13819999992847443
-0.049683716148138046 0.0017614654498174787 -0.1379999965429306
-0.048962026834487915 0.0017614654498174787 -0.1379999965429306
-0.048240337520837784 0.0017614654498174787 -0.1379999965429306
-0.04748421534895897 0.0017601889558136463 -0.1378999948501587
-0.043719299137592316 0.001753806951455772 -0.13740000128746033
-0.04300075024366379 0.001753806951455772 -0.13740000128746033
-0.04228219762444496 0.001753806951455772 -0.13740000128746033
-0.041654396802186966 0.0017576360842213035 -0.13769999146461487
-0.04099372774362564 0.0017601889558136463 -0.1378999948501587
-0.040301769971847534 0.0017614654498174787 -0.1379999965429306
-0.039694808423519135 0.0017665711930021644 -0.13840000331401825
-0.039027340710163116 0.0017691239481791854 -0.13859999179840088
-0.03860776498913765 0.0018533680122345686 -0.1451999992132187
-0.03850008174777031 0.0018852786161005497 -0.1476999968290329
-0.03800864517688751 0.0018993192352354527 -0.14880000054836273
-0.037430644035339355 0.001909530721604824 -0.14959999918937683
-0.03674628213047981 0.0019146362319588661 -0.14999999105930328
-0.022115349769592285 0.001808693166822195 -0.14169999957084656
-0.021630743518471718 0.0018303924007341266 -0.14339999854564667
-0.021230285987257957 0.0018610265105962753 -0.14579999446868896
-0.020818762481212616 0.0018929371144622564 -0.14829999208450317
-0.02031351625919342 0.0019184655975550413 -0.15029999613761902
0.0040124161168932915 0.0018993192352354527 -0.14880000054836273
0.006938341073691845 0.0018495386466383934 -0.14489999413490295
0.008436382748186588 0.0018457092810422182 -0.14459998905658722
0.00918622873723507 0.0018444330198690295 -0.1445000022649765
0.009928149171173573 0.0018418801482766867 -0.14429999887943268
0.010771621949970722 0.0018571971450001001 -0.14549998939037323
-0.05843101069331169 0.0010955337202176452 -0.1454000025987625
-0.057630959898233414 0.0010947801638394594 -0.1453000009059906
-0.056831955909729004 0.0010940267238765955 -0.1451999992132187
-0.05653602257370949 0.0011030682362616062 -0.14639998972415924
-0.055351369082927704 0.0010947801638394594 -0.1453000009059906
-0.05278806760907173 0.0010586139978840947 -0.1404999941587448
-0.05164576694369316 0.001050325925461948 -0.13939999043941498
-0.050624553114175797 0.0010442981729283929 -0.13859999179840088
-0.042374514043331146 0.001037516980431974 -0.13769999146461487
-0.0417451485991478 0.0010397774167358875 -0.1379999965429306
-0.04108291119337082 0.0010412844130769372 -0.13819999992847443
-0.04038938134908676 0.0010420378530398011 -0.13830000162124634
-0.03975216671824455 0.0010442981729283929 -0.13859999179840088
-0.039027340710163116 0.0010442981729283929 -0.13859999179840088
-0.03838542103767395 0.0010465586092323065 -0.1388999968767166
-0.038102567195892334 0.0010797108989208937 -0.14329999685287476
-0.038187284022569656 0.0011038216762244701 -0.14649999141693115
-0.0379064716398716 0.001118137501180172 -0.14839999377727509
-0.037430644035339355 0.0011271790135651827 -0.14959999918937683
-0.03669729083776474 0.0011286860099062324 -0.14980000257492065
-0.03596183657646179 0.0011301928898319602 -0.14999999105930328
-0.022193385288119316 0.0010714228264987469 -0.14219999313354492
-0.021841922774910927 0.001091012847609818 -0.14479999244213104
-0.021536072716116905 0.0011143701849505305 -0.14790000021457672
-0.020931068807840347 0.0011234116973355412 -0.14909999072551727
-0.02035406418144703 0.0011347136460244656 -0.15060000121593475
0.00841888040304184 0.0010872455313801765 -0.14429999887943268
0.009160799905657768 0.0010857386514544487 -0.14409999549388885
0.009914387948811054 0.0010857386514544487 -0.14409999549388885
0.010742009617388248 0.0010932732839137316 -0.14509999752044678
-0.0619230717420578 0.00034183100797235966 -0.14829999208450317
-0.06114751845598221 0.00034183100797235966 -0.14829999208450317
-0.060371965169906616 0.00034183100797235966 -0.14829999208450317
-0.05963660031557083 0.000342061510309577 -0.14839999377727509
-0.0589398518204689 0.00034252251498401165 -0.1485999971628189
-0.05816273018717766 0.00034252251498401165 -0.1485999971628189
-0.0573083721101284 0.000342061510309577 -0.14839999377727509
-0.056303732097148895 0.00034067852539010346 -0.1477999985218048
-0.05242379009723663 0.00032615705276839435 -0.14149999618530273
-0.04047699272632599 0.00031947254319675267 -0.13859999179840088
-0.03978084772825241 0.00031970304553397 -0.1386999934911728
-0.03905550017952919 0.00031970304553397 -0.1386999934911728
-0.03838542103767395 0.00032016405020840466 -0.1388999968767166
-0.03793015331029892 0.0003224690444767475 -0.13989999890327454
-0.037810083478689194 0.0003277705400250852 -0.14219999313354492
-0.037822358310222626 0.00033445502049289644 -0.14509999752044678
-0.03780429810285568 0.0003411395300645381 -0.14800000190734863
-0.03738060221076012 0.00034436650457791984 -0.149399995803833
-0.03669729083776474 0.0003452885430306196 -0.14980000257492065
-0.03598581254482269 0.00034598002093844116 -0.1500999927520752
-0.03520084545016289 0.00034598002093844116 -0.1500999927520752
-0.022411886602640152 0.0003309975436422974 -0.1436000019311905
-0.021992763504385948 0.00033606853685341775 -0.14579999446868896
-0.02156519517302513 0.00034137003240175545 -0.14810000360012054
-0.021001262590289116 0.00034482753835618496 -0.14959999918937683
0.008401377126574516 0.00033191952388733625 -0.14399999380111694
0.009135371074080467 0.0003312280459795147 -0.1437000036239624
0.009886868298053741 0.0003312280459795147 -0.1437000036239624
0.01073460653424263 0.0003342245181556791 -0.14499999582767487
-0.06110628694295883 -0.00043342955177649856 -0.14819999039173126
-0.06041267514228821 -0.000434014480561018 -0.14839999377727509
-0.05967678874731064 -0.0004343069449532777 -0.148499995470047
-0.05901918187737465 -0.00043518433813005686 -0.14880000054836273
-0.058436714112758636 -0.000436646630987525 -0.1492999941110611
-0.05769455060362816 -0.00043693912448361516 -0.149399995803833
-0.03838542103767395 -0.0004062305379193276 -0.1388999968767166
-0.03779458999633789 -0.00040769283077679574 -0.13939999043941498
-0.03765054792165756 -0.0004141270474065095 -0.14159999787807465
-0.03763989359140396 -0.0004223159921821207 -0.1444000005722046
-0.03765103593468666 -0.0004310898366384208 -0.14739999175071716
-0.03730553761124611 -0.00043606170220300555 -0.14909999072551727
-0.03669729083776474 -0.00043810898205265403 -0.14980000257492065
-0.03598581254482269 -0.0004389863461256027 -0.1500999927520752
-0.03520084545016289 -0.0004389863461256027 -0.1500999927520752
-0.03441587835550308 -0.0004389863461256027 -0.1500999927520752
-0.022614778950810432 -0.0004237782850395888 -0.14489999413490295
-0.022264279425144196 -0.0004316747945267707 -0.147599995136261
-0.021710805594921112 -0.00043606170220300555 -0.14909999072551727
-0.021113567054271698 -0.0004398637393023819 -0.15039999783039093
0.008378040976822376 -0.0004199763061478734 -0.1436000019311905
0.009109941311180592 -0.0004190988838672638 -0.14329999685287476
0.00985934678465128 -0.0004190988838672638 -0.14329999685287476
0.010727203451097012 -0.0004237782850395888 -0.14489999413490295
-0.06420640647411346 -0.0012084596091881394 -0.14819999039173126
-0.06343137472867966 -0.0012084596091881394 -0.14819999039173126
-0.06265634298324585 -0.0012084596091881394 -0.14819999039173126
-0.0619230717420578 -0.0012092749821022153 -0.14829999208450317
-0.06114751845598221 -0.0012092749821022153 -0.14829999208450317
-0.0604533851146698 -0.0012109059607610106 -0.148499995470047
-0.05979735031723976 -0.00121335219591856 -0.14880000054836273
-0.05925716087222099 -0.0012182447826489806 -0.149399995803833
-0.03735806420445442 -0.0011456719366833568 -0.1404999941587448
-0.037118565291166306 -0.0011611649533733726 -0.14239999651908875
-0.037140171974897385 -0.0011856277706101537 -0.1454000025987625
-0.03708035498857498 -0.0012084596091881394 -0.14819999039173126
-0.036672789603471756 -0.00122069101780653 -0.14970000088214874
-0.03598581254482269 -0.001223952742293477 -0.1500999927520752
-0.03524775058031082 -0.0012255836045369506 -0.15029999613761902
-0.03441587835550308 -0.001223952742293477 -0.1500999927520752
-0.022848885506391525 -0.0011937819654121995 -0.14639998972415924
-0.022354785352945328 -0.0012084596091881394 -0.14819999039173126
-0.021841857582330704 -0.0012231372529640794 -0.14999999105930328
0.008360537700355053 -0.0011685037752613425 -0.14329999685287476
0.009097226895391941 -0.001166872913017869 -0.14309999346733093
0.00985246617347002 -0.0011676884023472667 -0.14319999516010284
-0.06498143821954727 -0.0019834896083921194 -0.14819999039173126
-0.06424973160028458 -0.001984827918931842 -0.14829999208450317
-0.06351698189973831 -0.001986166462302208 -0.14839999377727509
-0.06282546371221542 -0.001988843083381653 -0.1485999971628189
-0.06209009513258934 -0.001990181626752019 -0.14869999885559082
-0.06135368347167969 -0.0019915199372917414 -0.14880000054836273
-0.06069764122366905 -0.0019955351017415524 -0.14909999072551727
-0.060118839144706726 -0.002002227120101452 -0.14959999918937683
-0.037092167884111404 -0.001867049839347601 -0.1394999921321869
-0.036675434559583664 -0.0018831106135621667 -0.14069999754428864
-0.03711462765932083 -0.0019446765072643757 -0.1453000009059906
-0.036855168640613556 -0.0019714441150426865 -0.14729999005794525
-0.03637881949543953 -0.0019875047728419304 -0.148499995470047
-0.03591389209032059 -0.0020049039740115404 -0.14980000257492065
-0.03517739474773407 -0.0020075805950909853 -0.14999999105930328
-0.03441587835550308 -0.0020089189056307077 -0.1500999927520752
-0.02306738682091236 -0.001978136133402586 -0.1477999985218048
-0.022490542382001877 -0.0019955351017415524 -0.14909999072551727
-0.021900102496147156 -0.0020129340700805187 -0.15039999783039093
0.006150710862129927 -0.0019299541600048542 -0.14419999718666077
0.008348868228495121 -0.0019152318127453327 -0.14309999346733093
0.00908451247960329 -0.001912555075250566 -0.1428999900817871
0.00985246617347002 -0.001916570239700377 -0.14319999516010284
-0.0643363818526268 -0.0027641039341688156 -0.148499995470047
-0.06368818879127502 -0.00276968814432621 -0.14880000054836273
-0.06303685158491135 -0.002775271888822317 -0.14909999072551727
-0.06238238140940666 -0.0027808560989797115 -0.149399995803833
-0.06172477453947067 -0.002786440309137106 -0.14970000088214874
-0.06106402352452278 -0.002792024053633213 -0.14999999105930328
-0.03627169132232666 -0.0026431160513311625 -0.1419999897480011
-0.03670504689216614 -0.0027305996045470238 -0.14669999480247498
-0.03620733693242073 -0.0027510744985193014 -0.1477999985218048
-0.03579401597380638 -0.002778994617983699 -0.1492999941110611
-0.035130493342876434 -0.002788301557302475 -0.14980000257492065
-0.03441587835550308 -0.0027938855346292257 -0.1500999927520752
-0.03360850736498833 -0.002792024053633213 -0.14999999105930328
-0.010859650559723377 -0.002792024053633213 -0.14999999105930328
-0.010095357894897461 -0.0027976082637906075 -0.15029999613761902
-0.009210243821144104 -0.0027678266633301973 -0.14869999885559082
-0.004519925452768803 -0.002752935979515314 -0.14790000021457672
-0.0037565967068076134 -0.002760381205007434 -0.14829999208450317
0.008331365883350372 -0.002658007200807333 -0.1428000032901764
0.00907815620303154 -0.002658007200807333 -0.1428000032901764
0.009866226464509964 -0.0026691751554608345 -0.14339999854564667
-0.06575646251440048 -0.0035335496068000793 -0.14819999039173126
-0.06506913155317307 -0.003538318444043398 -0.14839999377727509
-0.06446635723114014 -0.0035478558856993914 -0.14880000054836273
-0.0639449954032898 -0.003562161698937416 -0.149399995803833
-0.06333280354738235 -0.003571698907762766 -0.14980000257492065
-0.0627581775188446 -0.0035836203023791313 -0.15029999613761902
-0.06205463409423828 -0.00358838913962245 -0.15049999952316284
-0.06138969957828522 -0.0035955416969954967 -0.15079998970031738
-0.03571738675236702 -0.0034763263538479805 -0.14579999446868896
-0.03550632297992706 -0.0035311656538397074 -0.14810000360012054
-0.03496633097529411 -0.0035550084430724382 -0.14909999072551727
-0.03434709459543228 -0.003571698907762766 -0.14980000257492065
-0.03360850736498833 -0.003576467279344797 -0.14999999105930328
-0.032780300825834274 -0.003571698907762766 -0.14980000257492065
-0.012254538014531136 -0.0035263970494270325 -0.14790000021457672
-0.01150436419993639 -0.0035335496068000793 -0.14819999039173126
-0.008103687316179276 -0.003407181240618229 -0.1428999900817871
-0.0073409308679401875 -0.0034000284504145384 -0.14259999990463257
-0.00659056194126606 -0.003397644031792879 -0.14249999821186066
-0.005849442444741726 -0.0034000284504145384 -0.14259999990463257
-0.005125171970576048 -0.003414334263652563 -0.14319999516010284
-0.004379346501082182 -0.0034167186822742224 -0.14329999685287476
-0.0037008686922490597 -0.0034834793768823147 -0.1460999995470047
0.005389114376157522 -0.0034334086813032627 -0.14399999380111694
0.006116587668657303 -0.003419102868065238 -0.14339999854564667
0.0075686415657401085 -0.003397644031792879 -0.14249999821186066
0.008313863538205624 -0.003397644031792879 -0.14249999821186066
0.009065440855920315 -0.0034000284504145384 -0.14259999990463257
-0.06648661196231842 -0.004305672831833363 -0.14810000360012054
-0.0657121017575264 -0.004305672831833363 -0.14810000360012054
-0.06502528488636017 -0.004311487078666687 -0.14829999208450317
-0.06446635723114014 -0.004326023627072573 -0.14880000054836273
-0.06407339870929718 -0.004352189134806395 -0.14970000088214874
-0.06358647346496582 -0.004372539930045605 -0.15039999783039093
-0.06305046379566193 -0.004389983601868153 -0.1509999930858612
-0.06230202689766884 -0.004392890725284815 -0.15109999477863312
-0.03529055416584015 -0.004279507324099541 -0.14720000326633453
-0.034778717905282974 -0.004311487078666687 -0.14829999208450317
-0.03432416543364525 -0.004352189134806395 -0.14970000088214874
-0.03360850736498833 -0.004360910505056381 -0.14999999105930328
-0.032824061810970306 -0.004360910505056381 -0.14999999105930328
-0.03199690207839012 -0.004355096258223057 -0.14980000257492065
-0.010309427976608276 -0.004139957949519157 -0.14239999651908875
-0.009537862613797188 -0.004128328524529934 -0.1419999897480011
-0.0087890625 -0.004125421866774559 -0.14190000295639038
-0.008046979084610939 -0.004125421866774559 -0.14190000295639038
-0.007304895669221878 -0.004125421866774559 -0.14190000295639038
-0.006562812253832817 -0.004125421866774559 -0.14190000295639038
-0.005816626362502575 -0.0041225142776966095 -0.14180000126361847
-0.005078644957393408 -0.004125421866774559 -0.14190000295639038
-0.00433961721137166 -0.004128328524529934 -0.1419999897480011
-0.003617276204749942 -0.004151587374508381 -0.1428000032901764
-0.0029046584386378527 -0.004201010800898075 -0.1445000022649765
0.007563330233097076 -0.004139957949519157 -0.14239999651908875
0.008308028802275658 -0.004139957949519157 -0.14239999651908875
0.00905908364802599 -0.00414286507293582 -0.14249999821186066
-0.06639682501554489 -0.005073319189250469 -0.14790000021457672
-0.0657121017575264 -0.005080179776996374 -0.14810000360012054
-0.06498143821954727 -0.005083609838038683 -0.14819999039173126
-0.06446635723114014 -0.005104191601276398 -0.14880000054836273
-0.06407339870929718 -0.005135063547641039 -0.14970000088214874
-0.06362874805927277 -0.005162505432963371 -0.15049999952316284
-0.06309222429990768 -0.005183086730539799 -0.15109999477863312
-0.06238448992371559 -0.005189947318285704 -0.15129999816417694
-0.03425537794828415 -0.005124772433191538 -0.149399995803833
-0.03356369584798813 -0.005138493608683348 -0.14980000257492065
-0.032824061810970306 -0.005145353730767965 -0.14999999105930328
-0.03199690207839012 -0.005138493608683348 -0.14980000257492065
-0.013963937759399414 -0.004860644694417715 -0.14169999957084656
-0.013222900219261646 -0.004860644694417715 -0.14169999957084656
-0.011765681207180023 -0.0048709348775446415 -0.1419999897480011
-0.011023075319826603 -0.0048709348775446415 -0.1419999897480011
-0.010273230262100697 -0.00486750528216362 -0.14190000295639038
-0.009531146846711636 -0.00486750528216362 -0.14190000295639038
-0.0087890625 -0.00486750528216362 -0.14190000295639038
-0.0043304492719471455 -0.004860644694417715 -0.14169999957084656
-0.0035919451620429754 -0.004864074755460024 -0.14180000126361847
-0.002864455571398139 -0.0048880865797400475 -0.14249999821186066
-0.0021445162128657103 -0.004946400411427021 -0.14419999718666077
0.006809054873883724 -0.004877795465290546 -0.14219999313354492
0.007558018434792757 -0.0048812259919941425 -0.14229999482631683
0.008308028802275658 -0.004884656053036451 -0.14239999651908875
-0.06639682501554489 -0.005846780259162188 -0.14790000021457672
-0.06562335789203644 -0.005846780259162188 -0.14790000021457672
-0.06498143821954727 -0.005858639720827341 -0.14819999039173126
-0.06442303210496902 -0.00587840611115098 -0.14869999885559082
-0.06407339870929718 -0.005917937960475683 -0.14970000088214874
-0.06367103010416031 -0.005953516811132431 -0.15060000121593475
-0.06309222429990768 -0.005973282270133495 -0.15109999477863312
-0.01388510037213564 -0.0055700563825666904 -0.14090000092983246
-0.013157579116523266 -0.005574009846895933 -0.14100000262260437
-0.012446627020835876 -0.005585868842899799 -0.1412999927997589
-0.011732539162039757 -0.00559772877022624 -0.14159999787807465
-0.011007550172507763 -0.005605635233223438 -0.14180000126361847
-0.003584345569834113 -0.0055937753058969975 -0.14149999618530273
-0.002850384684279561 -0.005605635233223438 -0.14180000126361847
-0.002120721386745572 -0.005637260619550943 -0.14259999990463257
0.006069668103009462 -0.00562540115788579 -0.14229999482631683
0.00681384326890111 -0.00562540115788579 -0.14229999482631683
0.007563330233097076 -0.005629354156553745 -0.14239999651908875
-0.06635192781686783 -0.006615765858441591 -0.1477999985218048
-0.06557898968458176 -0.006615765858441591 -0.1477999985218048
-0.06493759155273438 -0.006629194598644972 -0.14810000360012054
-0.06442303210496902 -0.006656051147729158 -0.14869999885559082
-0.06403059512376785 -0.006696336902678013 -0.14959999918937683
-0.06367103010416031 -0.006741098593920469 -0.15060000121593475
-0.06313397735357285 -0.006767955143004656 -0.15119999647140503
-0.014621954411268234 -0.006306910887360573 -0.14090000092983246
-0.01389495562762022 -0.006311386823654175 -0.14100000262260437
-0.01317624095827341 -0.006320338696241379 -0.141199991106987
-0.012464244849979877 -0.006333767436444759 -0.14149999618530273
-0.002846364164724946 -0.006338243838399649 -0.14159999787807465
-0.0021103110630065203 -0.006351672578603029 -0.14190000295639038
0.005329235456883907 -0.006374053191393614 -0.14239999651908875
0.006069668103009462 -0.0063695767894387245 -0.14229999482631683
0.0068186321295797825 -0.006374053191393614 -0.14239999651908875
0.0075739528983831406 -0.006383005529642105 -0.14259999990463257
-0.06707944720983505 -0.007383704651147127 -0.1476999968290329
-0.06635192781686783 -0.007388703990727663 -0.1477999985218048
-0.06557898968458176 -0.007388703990727663 -0.1477999985218048
-0.06498143821954727 -0.007408699952065945 -0.14819999039173126
-0.06446635723114014 -0.007438695058226585 -0.14880000054836273
-0.06411620229482651 -0.007488686591386795 -0.14980000257492065
-0.06379786133766174 -0.007543676532804966 -0.1508999913930893
-0.063175730407238 -0.007563673425465822 -0.15129999816417694
-0.015369708649814129 -0.0070487638004124165 -0.14100000262260437
-0.014642708003520966 -0.007053762208670378 -0.1410999894142151
-0.01392451860010624 -0.007063760422170162 -0.1412999927997589
-0.013204236514866352 -0.007073759101331234 -0.14149999618530273
-0.0035767462104558945 -0.007058761548250914 -0.141199991106987
-0.0028423438780009747 -0.007068759761750698 -0.14139999449253082
-0.002107336651533842 -0.0070837573148310184 -0.14169999957084656
0.0038452320732176304 -0.007128749508410692 -0.14259999990463257
0.004587756935507059 -0.007123750168830156 -0.14249999821186066
0.00533297797665 -0.007123750168830156 -0.14249999821186066
0.006073933560401201 -0.007118751294910908 -0.14239999651908875
0.0068282089196145535 -0.007128749508410692 -0.14259999990463257
0.0075898864306509495 -0.007143746595829725 -0.1428999900817871
-0.0671248659491539 -0.008161641657352448 -0.1477999985218048
-0.06635192781686783 -0.008161641657352448 -0.1477999985218048
-0.06562335789203644 -0.008167164400219917 -0.14790000021457672
-0.06502528488636017 -0.008189252577722073 -0.14829999208450317
-0.06459632515907288 -0.008233428932726383 -0.14909999072551727
-0.06433020532131195 -0.008299694396555424 -0.15029999613761902
-0.06388241797685623 -0.008343870751559734 -0.15109999477863312
-0.015402409248054028 -0.007802706211805344 -0.1412999927997589
-0.014673841185867786 -0.007808228489011526 -0.14139999449253082
-0.013944228179752827 -0.007813750766217709 -0.14149999618530273
-0.002840333851054311 -0.007802706211805344 -0.1412999927997589
-0.002105849562212825 -0.007819272577762604 -0.14159999787807465
-0.0013720846036449075 -0.00785792712122202 -0.14229999482631683
0.0031103556975722313 -0.00790210347622633 -0.14309999346733093
0.003850625129416585 -0.007885538041591644 -0.1428000032901764
0.004597415681928396 -0.007885538041591644 -0.1428000032901764
0.0053442055359482765 -0.007885538041591644 -0.1428000032901764
0.006095260381698608 -0.00789105985313654 -0.1428999900817871
-0.0671248659491539 -0.00893457978963852 -0.1477999985218048
-0.06635192781686783 -0.00893457978963852 -0.1477999985218048
-0.06566773355007172 -0.008946670219302177 -0.14800000190734863
-0.06511297821998596 -0.008976895362138748 -0.148499995470047
-0.06472630053758621 -0.00903130043298006 -0.149399995803833
-0.06445860862731934 -0.009103842079639435 -0.15060000121593475
-0.06396697461605072 -0.009146156720817089 -0.15129999816417694
-0.01614135503768921 -0.008541652001440525 -0.1412999927997589
-0.015424210578203201 -0.008553742431104183 -0.14149999618530273
-0.014684218913316727 -0.008553742431104183 -0.14149999618530273
-0.004315168596804142 -0.008535606786608696 -0.141199991106987
-0.0035742130130529404 -0.008529561571776867 -0.1410999894142151
-0.002840333851054311 -0.008541652001440525 -0.1412999927997589
-0.002107336651533842 -0.008565831929445267 -0.14169999957084656
-0.0013701560674235225 -0.008590011857450008 -0.142099991440773
0.0016260416014119983 -0.008716958574950695 -0.14419999718666077
0.0023702497128397226 -0.008680688217282295 -0.1436000019311905
0.00311252917163074 -0.008656507357954979 -0.14319999516010284
0.0038587143644690514 -0.008650463074445724 -0.14309999346733093
0.004600634798407555 -0.008638372644782066 -0.1428999900817871
0.005355432629585266 -0.008650463074445724 -0.14309999346733093
-0.0671248659491539 -0.009707518853247166 -0.1477999985218048
-0.06639682501554489 -0.009714087471365929 -0.14790000021457672
-0.0657121017575264 -0.009727222844958305 -0.14810000360012054
-0.06520067900419235 -0.009766630828380585 -0.14869999885559082
-0.06485627591609955 -0.009832311421632767 -0.14970000088214874
-0.0645442083477974 -0.009904558770358562 -0.15079998970031738
-0.06405153125524521 -0.009950535371899605 -0.15150000154972076
-0.016868354752659798 -0.009274030104279518 -0.141199991106987
-0.016152778640389442 -0.00928716640919447 -0.14139999449253082
-0.015424210578203201 -0.009293734095990658 -0.14149999618530273
-0.014704974368214607 -0.009306870400905609 -0.14169999957084656
-0.0035742130130529404 -0.009267461486160755 -0.1410999894142151
-0.0028383235912770033 -0.009274030104279518 -0.141199991106987
-0.002105849562212825 -0.009300301782786846 -0.14159999787807465
-0.00136919179931283 -0.009326573461294174 -0.1419999897480011
-0.0006327630835585296 -0.009418526664376259 -0.14339999854564667
0.0001177367230411619 -0.009464502334594727 -0.14409999549388885
0.0008725346997380257 -0.009477638639509678 -0.14429999887943268
0.001623786287382245 -0.009457934647798538 -0.14399999380111694
0.0023719004821032286 -0.009438230656087399 -0.1437000036239624
0.003121223533526063 -0.00943166296929121 -0.1436000019311905
0.0038614110089838505 -0.009405390359461308 -0.14319999516010284
-0.06717028468847275 -0.01048754807561636 -0.14790000021457672
-0.06639682501554489 -0.01048754807561636 -0.14790000021457672
-0.0657121017575264 -0.010501730255782604 -0.14810000360012054
-0.06524452567100525 -0.010551366955041885 -0.14880000054836273
-0.06485627591609955 -0.010615185834467411 -0.14970000088214874
-0.06458701193332672 -0.010700277052819729 -0.1508999913930893
-0.06405153125524521 -0.010742823593318462 -0.15150000154972076
-0.01685640774667263 -0.010005361400544643 -0.1410999894142151
-0.01614135503768921 -0.010019543580710888 -0.1412999927997589
-0.015424210578203201 -0.010033725760877132 -0.14149999618530273
-0.014736106619238853 -0.010069180279970169 -0.1419999897480011
-0.004312112461775541 -0.010005361400544643 -0.1410999894142151
-0.0035716802813112736 -0.009998271241784096 -0.14100000262260437
-0.0028383235912770033 -0.010012452490627766 -0.141199991106987
-0.002105849562212825 -0.010040816850960255 -0.14159999787807465
-0.00136919179931283 -0.010069180279970169 -0.1419999897480011
-0.0006292330217547715 -0.010111726820468903 -0.14259999990463257
0.00011732820712495595 -0.01018263678997755 -0.1436000019311905
0.0008695112774148583 -0.01019681803882122 -0.14379999041557312
0.0016215310897678137 -0.01019681803882122 -0.14379999041557312
0.0023719004821032286 -0.010189727880060673 -0.1437000036239624
-0.06717028468847275 -0.011261009611189365 -0.14790000021457672
-0.06639682501554489 -0.011261009611189365 -0.14790000021457672
-0.0657121017575264 -0.011276237666606903 -0.14810000360012054
-0.06520067900419235 -0.011321920901536942 -0.14869999885559082
-0.06485627591609955 -0.011398060247302055 -0.14970000088214874
-0.06458701193332672 -0.011489426717162132 -0.1508999913930893
-0.06400925666093826 -0.011527497321367264 -0.15139999985694885
-0.016844462603330612 -0.01073564775288105 -0.14100000262260437
-0.01614135503768921 -0.01075848937034607 -0.1412999927997589
-0.015424210578203201 -0.010773717425763607 -0.14149999618530273
-0.014787995256483555 -0.01084985677152872 -0.14249999821186066
-0.014249718748033047 -0.01100974902510643 -0.14459998905658722
-0.004306000657379627 -0.010728034190833569 -0.14090000092983246
-0.0035716802813112736 -0.01073564775288105 -0.14100000262260437
-0.002840333851054311 -0.01075848937034607 -0.1412999927997589
-0.002105849562212825 -0.010781330987811089 -0.14159999787807465
-0.0013682277640327811 -0.010804173536598682 -0.14190000295639038
-0.0006270267185755074 -0.010819400660693645 -0.142099991440773
0.00011651115346467122 -0.010857470333576202 -0.14259999990463257
-0.067215695977211 -0.012042607180774212 -0.14800000190734863
-0.06644171476364136 -0.012042607180774212 -0.14800000190734863
-0.06575646251440048 -0.012058880180120468 -0.14819999039173126
-0.06524452567100525 -0.012107702903449535 -0.14880000054836273
-0.06485627591609955 -0.0121809346601367 -0.14970000088214874
-0.06458701193332672 -0.012278576381504536 -0.1508999913930893
-0.06400925666093826 -0.012319262139499187 -0.15139999985694885
-0.06330100446939468 -0.012335536070168018 -0.15160000324249268
-0.04103840887546539 -0.012083291076123714 -0.148499995470047
-0.0388389453291893 -0.012123974971473217 -0.14899998903274536
-0.03813636302947998 -0.012148386798799038 -0.1492999941110611
-0.037430644035339355 -0.012172797694802284 -0.14959999918937683
-0.03669729083776474 -0.012189071625471115 -0.14980000257492065
-0.03598581254482269 -0.012213481590151787 -0.1500999927520752
-0.016820568591356277 -0.011456750333309174 -0.14079999923706055
-0.016129931434988976 -0.01148929726332426 -0.141199991106987
-0.015413310378789902 -0.011505571193993092 -0.14139999449253082
-0.014860637485980988 -0.011652035638689995 -0.14319999516010284
-0.014456666074693203 -0.011936827562749386 -0.14669999480247498
-0.013820123858749866 -0.012050744146108627 -0.14810000360012054
-0.013248215429484844 -0.012237892486155033 -0.15039999783039093
-0.06726111471652985 -0.012825251556932926 -0.14810000360012054
-0.06648661196231842 -0.012825251556932926 -0.14810000360012054
-0.06575646251440048 -0.012833910062909126 -0.14819999039173126
-0.06520067900419235 -0.012877210043370724 -0.14869999885559082
-0.06489960104227066 -0.012972469441592693 -0.14980000257492065
-0.06458701193332672 -0.013067726045846939 -0.1508999913930893
-0.06396697461605072 -0.013102366589009762 -0.15129999816417694
-0.06325924396514893 -0.013119686394929886 -0.15150000154972076
-0.044055622071027756 -0.012833910062909126 -0.14819999039173126
-0.04328059405088425 -0.012833910062909126 -0.14819999039173126
-0.04250556230545044 -0.012833910062909126 -0.14819999039173126
-0.041702378541231155 -0.012825251556932926 -0.14810000360012054
-0.04092787206172943 -0.012825251556932926 -0.14810000360012054
-0.04015336558222771 -0.012825251556932926 -0.14810000360012054
-0.03943203389644623 -0.012842570431530476 -0.14829999208450317
-0.03873468190431595 -0.012868550606071949 -0.1485999971628189
-0.038085274398326874 -0.012911848723888397 -0.14909999072551727
-0.037430644035339355 -0.012955148704349995 -0.14959999918937683
-0.03669729083776474 -0.012972469441592693 -0.14980000257492065
-0.03598581254482269 -0.012998447753489017 -0.1500999927520752
-0.03524775058031082 -0.013015767559409142 -0.15029999613761902
-0.03446173667907715 -0.013015767559409142 -0.15029999613761902
-0.017482083290815353 -0.012141121551394463 -0.14019998908042908
-0.01680862344801426 -0.01218442153185606 -0.14069999754428864
-0.016118507832288742 -0.012219060212373734 -0.1410999894142151
-0.015402409248054028 -0.012236380018293858 -0.1412999927997589
-0.014860637485980988 -0.012400917708873749 -0.14319999516010284
-0.01447637565433979 -0.012721332721412182 -0.1468999981880188
-0.013829453848302364 -0.012833910062909126 -0.14819999039173126
-0.013257023878395557 -0.013033087365329266 -0.15049999952316284
-0.012486537918448448 -0.013050408102571964 -0.15070000290870667
-0.011698433198034763 -0.013050408102571964 -0.15070000290870667
-0.0673065260052681 -0.013608939945697784 -0.14819999039173126
-0.06648661196231842 -0.013599758967757225 -0.14810000360012054
-0.06575646251440048 -0.013608939945697784 -0.14819999039173126
-0.06520067900419235 -0.013654855079948902 -0.14869999885559082
-0.06485627591609955 -0.013746683485805988 -0.14970000088214874
-0.0645442083477974 -0.013847693800926208 -0.15079998970031738
-0.06392469257116318 -0.013884425163269043 -0.15119999647140503
-0.06321749091148376 -0.01390279084444046 -0.15139999985694885
-0.04554414376616478 -0.013590575195848942 -0.14800000190734863
-0.04480041190981865 -0.013599758967757225 -0.14810000360012054
-0.0439961738884449 -0.013590575195848942 -0.14800000190734863
-0.04322218894958496 -0.013590575195848942 -0.14800000190734863
-0.04241952300071716 -0.013581392355263233 -0.14790000021457672
-0.04161790385842323 -0.013572209514677525 -0.1477999985218048
-0.04084496572613716 -0.013572209514677525 -0.1477999985218048
-0.040044914931058884 -0.013563026674091816 -0.1476999968290329
-0.0392724983394146 -0.013563026674091816 -0.1476999968290329
-0.03857828304171562 -0.013590575195848942 -0.14800000190734863
-0.037880927324295044 -0.013618122786283493 -0.14829999208450317
-0.03728051856160164 -0.013682402670383453 -0.14899998903274536
-0.036672789603471756 -0.013746683485805988 -0.14970000088214874
-0.03596183657646179 -0.01377423107624054 -0.14999999105930328
-0.03524775058031082 -0.013801779597997665 -0.15029999613761902
-0.03446173667907715 -0.013801779597997665 -0.15029999613761902
-0.033675722777843475 -0.013801779597997665 -0.15029999613761902
-0.0328897126019001 -0.013801779597997665 -0.15029999613761902
-0.016772782430052757 -0.012892680242657661 -0.1403999924659729
-0.016095662489533424 -0.01293859537690878 -0.14090000092983246
-0.015369708649814129 -0.012947778217494488 -0.14100000262260437
-0.014787995256483555 -0.013085519894957542 -0.14249999821186066
-0.014318701811134815 -0.013342639431357384 -0.1453000009059906
-0.013792128302156925 -0.013572209514677525 -0.1477999985218048
-0.013239406049251556 -0.013801779597997665 -0.15029999613761902
-0.012494822032749653 -0.013847693800926208 -0.15079998970031738
-0.011706194840371609 -0.013847693800926208 -0.15079998970031738
-0.06653149425983429 -0.014383969828486443 -0.14819999039173126
-0.06580083817243576 -0.014393676072359085 -0.14829999208450317
-0.06520067900419235 -0.01443250011652708 -0.14869999885559082
-0.06481295078992844 -0.01451985165476799 -0.14959999918937683
-0.06445860862731934 -0.014616910368204117 -0.15060000121593475
-0.06384013593196869 -0.014655732549726963 -0.1509999930858612
-0.063175730407238 -0.014684850350022316 -0.15129999816417694
-0.04628683254122734 -0.014354853890836239 -0.14790000021457672
-0.045513372868299484 -0.014354853890836239 -0.14790000021457672
-0.0446491576731205 -0.014325736090540886 -0.147599995136261
-0.043817806988954544 -0.014306323602795601 -0.14739999175071716
-0.04304695874452591 -0.014306323602795601 -0.14739999175071716
-0.042190071195364 -0.014277207665145397 -0.14710000157356262
-0.041139211505651474 -0.014180149883031845 -0.1460999995470047
-0.04007117450237274 -0.01407338585704565 -0.14499999582767487
-0.0392044298350811 -0.014034561812877655 -0.14459998905658722
-0.03847481682896614 -0.014044268056750298 -0.14469999074935913
-0.037848424166440964 -0.014092797413468361 -0.1451999992132187
-0.037472233176231384 -0.014238383620977402 -0.14669999480247498
-0.03700529411435127 -0.014354853890836239 -0.14790000021457672
-0.0364278145134449 -0.01443250011652708 -0.14869999885559082
-0.03581799194216728 -0.01450044009834528 -0.149399995803833
-0.035130493342876434 -0.014539264142513275 -0.14980000257492065
-0.03439294919371605 -0.014558673836290836 -0.14999999105930328
-0.03363091126084328 -0.014568380080163479 -0.1500999927520752
-0.03284594416618347 -0.014568380080163479 -0.1500999927520752
-0.032060980796813965 -0.014568380080163479 -0.1500999927520752
-0.01535880845040083 -0.0136754484847188 -0.14090000092983246
-0.014725729823112488 -0.013772507198154926 -0.14190000295639038
-0.014072338119149208 -0.013859858736395836 -0.1428000032901764
-0.013568170368671417 -0.014112208969891071 -0.1454000025987625
-0.013063233345746994 -0.014393676072359085 -0.14829999208450317
-0.012378823012113571 -0.01450044009834528 -0.149399995803833
-0.011690670624375343 -0.014616910368204117 -0.15060000121593475
-0.010924807749688625 -0.01464602630585432 -0.1508999913930893
-0.06653149425983429 -0.0151589997112751 -0.14819999039173126
-0.06580083817243576 -0.015169229358434677 -0.14829999208450317
-0.06515682488679886 -0.015199915505945683 -0.1485999971628189
-0.06472630053758621 -0.015281745232641697 -0.149399995803833
-0.06437300890684128 -0.01538403332233429 -0.15039999783039093
-0.06379786133766174 -0.015435175970196724 -0.1508999913930893
-0.06309222429990768 -0.015455634333193302 -0.15109999477863312
-0.062343258410692215 -0.015465863049030304 -0.15119999647140503
-0.043639443814754486 -0.01501579862087965 -0.1467999964952469
-0.04278412088751793 -0.01498511154204607 -0.14649999141693115
-0.036280833184719086 -0.015148772858083248 -0.14810000360012054
-0.03565017133951187 -0.015210144221782684 -0.14869999885559082
-0.03501323610544205 -0.015271516516804695 -0.1492999941110611
-0.03432416543364525 -0.015312432311475277 -0.14970000088214874
-0.03356369584798813 -0.015322661027312279 -0.14980000257492065
-0.032824061810970306 -0.015343117527663708 -0.14999999105930328
-0.032060980796813965 -0.01535334624350071 -0.1500999927520752
-0.03127601370215416 -0.01535334624350071 -0.1500999927520752
-0.012237966060638428 -0.015107857063412666 -0.1476999968290329
-0.01157422922551632 -0.015251059085130692 -0.14909999072551727
-0.010924807749688625 -0.015435175970196724 -0.1508999913930893
-0.06653149425983429 -0.01593402959406376 -0.14819999039173126
-0.06575646251440048 -0.01593402959406376 -0.14819999039173126
-0.06511297821998596 -0.01596628502011299 -0.148499995470047
-0.06455300003290176 -0.016020042821764946 -0.14899998903274536
-0.06420179456472397 -0.016127560287714005 -0.14999999105930328
-0.06371330469846725 -0.01620282419025898 -0.15070000290870667
-0.06305046379566193 -0.016235077753663063 -0.1509999930858612
-0.062260791659355164 -0.016235077753663063 -0.1509999930858612
-0.04693301394581795 -0.015858767554163933 -0.14749999344348907
-0.04606775939464569 -0.01582651399075985 -0.14720000326633453
-0.04514409229159355 -0.015772754326462746 -0.14669999480247498
-0.04413490742444992 -0.01568674109876156 -0.14589999616146088
-0.043223265558481216 -0.015632983297109604 -0.1454000025987625
-0.03418659046292305 -0.016030795872211456 -0.14909999072551727
-0.03354129195213318 -0.01609530672430992 -0.14970000088214874
-0.032780300825834274 -0.016106057912111282 -0.14980000257492065
-0.032039619982242584 -0.016127560287714005 -0.14999999105930328
-0.03127601370215416 -0.016138313338160515 -0.1500999927520752
-0.03053167462348938 -0.016159815713763237 -0.15029999613761902
-0.029745662584900856 -0.016159815713763237 -0.15029999613761902
-0.012481862679123878 -0.015235169790685177 -0.14169999957084656
-0.011773967184126377 -0.015278175473213196 -0.142099991440773
-0.010953767225146294 -0.016267333179712296 -0.15129999816417694
-0.06648661196231842 -0.01669778674840927 -0.14810000360012054
-0.06575646251440048 -0.016709059476852417 -0.14819999039173126
-0.06498143821954727 -0.016709059476852417 -0.14819999039173126
-0.06437970697879791 -0.016754159703850746 -0.1485999971628189
-0.0639449954032898 -0.016844356432557106 -0.149399995803833
-0.06345963478088379 -0.01692327857017517 -0.1500999927520752
-0.06288344413042068 -0.016979653388261795 -0.15060000121593475
-0.06217832490801811 -0.017002200707793236 -0.15079998970031738
-0.047607362270355225 -0.016596315428614616 -0.14720000326633453
-0.04696483537554741 -0.016641411930322647 -0.147599995136261
-0.04613034799695015 -0.016618862748146057 -0.14739999175071716
-0.04520564153790474 -0.016562489792704582 -0.1468999981880188
-0.04419540986418724 -0.016472293063998222 -0.1460999995470047
-0.03398023545742035 -0.016709059476852417 -0.14819999039173126
-0.03347407281398773 -0.016844356432557106 -0.149399995803833
-0.03275841847062111 -0.01687818206846714 -0.14970000088214874
-0.032039619982242584 -0.016912003979086876 -0.14999999105930328
-0.03127601370215416 -0.01692327857017517 -0.1500999927520752
-0.03053167462348938 -0.01694582775235176 -0.15029999613761902
-0.029745662584900856 -0.01694582775235176 -0.15029999613761902
-0.011641396209597588 -0.015840910375118256 -0.1404999941587448
-0.010961007326841354 -0.017069850116968155 -0.15139999985694885
-0.06644171476364136 -0.017460495233535767 -0.14800000190734863
-0.0657121017575264 -0.017472293227910995 -0.14810000360012054
-0.06493759155273438 -0.017472293227910995 -0.14810000360012054
-0.06424973160028458 -0.017495887354016304 -0.14829999208450317
-0.06368818879127502 -0.01755487732589245 -0.14880000054836273
-0.06316369026899338 -0.017625661566853523 -0.149399995803833
-0.06263291090726852 -0.017696447670459747 -0.14999999105930328
-0.06197216734290123 -0.017731841653585434 -0.15029999613761902
-0.06118615344166756 -0.017731841653585434 -0.15029999613761902
-0.04837716370820999 -0.017366115003824234 -0.14720000326633453
-0.04776906967163086 -0.01742510311305523 -0.1476999968290329
-0.04699665307998657 -0.01742510311305523 -0.1476999968290329
-0.04616164788603783 -0.01740150712430477 -0.14749999344348907
-0.04520564153790474 -0.017330721020698547 -0.1468999981880188
-0.04422565922141075 -0.017248138785362244 -0.1462000012397766
-0.033819735050201416 -0.01740150712430477 -0.14749999344348907
-0.033384449779987335 -0.017578471451997757 -0.14899998903274536
-0.032736532390117645 -0.01764925755560398 -0.14959999918937683
-0.03199690207839012 -0.01767285354435444 -0.14980000257492065
-0.03127601370215416 -0.017708245664834976 -0.1500999927520752
-0.03053167462348938 -0.017731841653585434 -0.15029999613761902
-0.029765455052256584 -0.017743637785315514 -0.15039999783039093
-0.015446011908352375 -0.016717245802283287 -0.14169999957084656
-0.012340923771262169 -0.016528483480215073 -0.14010000228881836
-0.011608254164457321 -0.016528483480215073 -0.14010000228881836
-0.010975487530231476 -0.01788520999252796 -0.15160000324249268
-0.010182676836848259 -0.01788520999252796 -0.15160000324249268
-0.06639682501554489 -0.018222158774733543 -0.14790000021457672
-0.06562335789203644 -0.018222158774733543 -0.14790000021457672
-0.06489374488592148 -0.018234480172395706 -0.14800000190734863
-0.06416308879852295 -0.01824680157005787 -0.14810000360012054
-0.06351698189973831 -0.01828376203775406 -0.14839999377727509
-0.06286773830652237 -0.018320724368095398 -0.14869999885559082
-0.06225711479783058 -0.0183700043708086 -0.14909999072551727
-0.06155984476208687 -0.018394647166132927 -0.1492999941110611
-0.060779061168432236 -0.018394647166132927 -0.1492999941110611
-0.04857435077428818 -0.01820983923971653 -0.1477999985218048
-0.04783375561237335 -0.018222158774733543 -0.14790000021457672
-0.0470602922141552 -0.018222158774733543 -0.14790000021457672
-0.046224240213632584 -0.018197517842054367 -0.1476999968290329
-0.04529796168208122 -0.01813591457903385 -0.14720000326633453
-0.04422565922141075 -0.01801270991563797 -0.1462000012397766
-0.03365923464298248 -0.0180866327136755 -0.1467999964952469
-0.03320520371198654 -0.018259119242429733 -0.14819999039173126
-0.03267088532447815 -0.018394647166132927 -0.1492999941110611
-0.03197554126381874 -0.01844393089413643 -0.14970000088214874
-0.031255174428224564 -0.01848089136183262 -0.14999999105930328
-0.014673841185867786 -0.01742132008075714 -0.14139999449253082
-0.013129583559930325 -0.01733507588505745 -0.14069999754428864
-0.012367349117994308 -0.01729811355471611 -0.1403999924659729
-0.011616538278758526 -0.017273472622036934 -0.14019998908042908
-0.010946528054773808 -0.018628738820552826 -0.15119999647140503
-0.010182676836848259 -0.018678022548556328 -0.15160000324249268
-0.06635192781686783 -0.0189827773720026 -0.1477999985218048
-0.06562335789203644 -0.01899562031030655 -0.14790000021457672
-0.06484989821910858 -0.01899562031030655 -0.14790000021457672
-0.06411976367235184 -0.019008463248610497 -0.14800000190734863
-0.06338857859373093 -0.019021308049559593 -0.14810000360012054
-0.06269862502813339 -0.019046993926167488 -0.14829999208450317
-0.06200658529996872 -0.019072681665420532 -0.148499995470047
-0.06122998520731926 -0.019072681665420532 -0.148499995470047
-0.06041267514228821 -0.019059836864471436 -0.14839999377727509
-0.04860721528530121 -0.01899562031030655 -0.14790000021457672
-0.04783375561237335 -0.01899562031030655 -0.14790000021457672
-0.0470602922141552 -0.01899562031030655 -0.14790000021457672
-0.04625553637742996 -0.0189827773720026 -0.1477999985218048
-0.04529796168208122 -0.01890571601688862 -0.14720000326633453
-0.04419540986418724 -0.0187644362449646 -0.1460999995470047
-0.04310435801744461 -0.01862315647304058 -0.14499999582767487
-0.03330126777291298 -0.018237849697470665 -0.1419999897480011
-0.03365923464298248 -0.01885434053838253 -0.1467999964952469
-0.03318279981613159 -0.019021308049559593 -0.14810000360012054
-0.03267088532447815 -0.01917542889714241 -0.1492999941110611
-0.03197554126381874 -0.0192268043756485 -0.14970000088214874
-0.01392451860010624 -0.018147945404052734 -0.1412999927997589
-0.013157579116523266 -0.018109414726495743 -0.14100000262260437
-0.01240258477628231 -0.0180837269872427 -0.14079999923706055
-0.011657968163490295 -0.01807088404893875 -0.14069999754428864
-0.010932047851383686 -0.019393770024180412 -0.1509999930858612
-0.06557898968458176 -0.019755715504288673 -0.1477999985218048
-0.06480605155229568 -0.019755715504288673 -0.1477999985218048
-0.06407643854618073 -0.019769081845879555 -0.14790000021457672
-0.0633457824587822 -0.019782448187470436 -0.14800000190734863
-0.0626140758395195 -0.019795814529061317 -0.14810000360012054
-0.06183956563472748 -0.019795814529061317 -0.14810000360012054
-0.061065059155225754 -0.019795814529061317 -0.14810000360012054
-0.060209132730960846 -0.019769081845879555 -0.14790000021457672
-0.05931511148810387 -0.01972898095846176 -0.147599995136261
-0.04860721528530121 -0.019769081845879555 -0.14790000021457672
-0.04783375561237335 -0.019769081845879555 -0.14790000021457672
-0.0470602922141552 -0.019769081845879555 -0.14790000021457672
-0.04625553637742996 -0.019755715504288673 -0.1477999985218048
-0.04529796168208122 -0.019675515592098236 -0.14720000326633453
-0.04419540986418724 -0.019528483971953392 -0.1460999995470047
-0.04310435801744461 -0.019381452351808548 -0.14499999582767487
-0.03380412980914116 -0.018846791237592697 -0.14100000262260437
-0.03367649391293526 -0.01919432170689106 -0.1436000019311905
-0.03349873423576355 -0.019528483971953392 -0.1460999995470047
-0.03320520371198654 -0.01980917900800705 -0.14819999039173126
-0.01392451860010624 -0.01888689026236534 -0.1412999927997589
-0.013166909106075764 -0.01886015757918358 -0.1410999894142151
-0.012429009191691875 -0.01886015757918358 -0.1410999894142151
-0.011732539162039757 -0.018926991149783134 -0.14159999787807465
-0.011131754145026207 -0.019167587161064148 -0.14339999854564667
-0.003045368706807494 -0.02025027573108673 -0.15150000154972076
-0.06480605155229568 -0.020528653636574745 -0.1477999985218048
-0.06403311342000961 -0.020528653636574745 -0.1477999985218048
-0.06326017528772354 -0.020528653636574745 -0.1477999985218048
-0.06248723715543747 -0.020528653636574745 -0.1477999985218048
-0.0617142990231514 -0.020528653636574745 -0.1477999985218048
-0.06090012565255165 -0.02051476389169693 -0.1476999968290329
-0.06004629284143448 -0.0204869844019413 -0.14749999344348907
-0.05863194167613983 -0.020264752209186554 -0.14589999616146088
-0.0571153350174427 -0.020000852644443512 -0.14399999380111694
-0.04783375561237335 -0.02054254338145256 -0.14790000021457672
-0.047028474509716034 -0.020528653636574745 -0.1477999985218048
-0.046224240213632584 -0.02051476389169693 -0.1476999968290329
-0.04526718705892563 -0.020431427285075188 -0.14710000157356262
-0.04413490742444992 -0.020264752209186554 -0.14589999616146088
-0.043074630200862885 -0.02012585662305355 -0.14489999413490295
-0.041966408491134644 -0.019959185272455215 -0.1437000036239624
-0.03416374698281288 -0.01979251019656658 -0.14249999821186066
-0.03435659036040306 -0.020348088815808296 -0.14649999141693115
-0.033819735050201416 -0.0204869844019413 -0.14749999344348907
-0.03322761133313179 -0.020598098635673523 -0.14829999208450317
-0.014684218913316727 -0.01965361461043358 -0.14149999618530273
-0.013934372924268246 -0.019639724865555763 -0.14139999449253082
-0.013185572810471058 -0.019625835120677948 -0.1412999927997589
-0.01247305329889059 -0.019667504355311394 -0.14159999787807465
-0.011757396161556244 -0.01970917358994484 -0.14190000295639038
-0.004617719445377588 -0.020987005904316902 -0.15109999477863312
-0.0038325900677591562 -0.021014785394072533 -0.15129999816417694
-0.0030433584470301867 -0.021028675138950348 -0.15139999985694885
-0.0022545678075402975 -0.02105645462870598 -0.15160000324249268
-0.06476220488548279 -0.021287178620696068 -0.1476999968290329
-0.0639897882938385 -0.021287178620696068 -0.1476999968290329
-0.06326017528772354 -0.021301591768860817 -0.1477999985218048
-0.06248723715543747 -0.021301591768860817 -0.1477999985218048
-0.06167254224419594 -0.021287178620696068 -0.1476999968290329
-0.06077642738819122 -0.02124394103884697 -0.14739999175071716
