ply
format ascii 1.0
element vertex 744
property float x
property float y
property float z
end_header
0.005641758441925049 -0.005845560692250729 -0.09669999778270721
0.006153819616883993 -0.005851605907082558 -0.09679999947547913
0.006666927598416805 -0.005857651121914387 -0.09690000116825104
0.007188484538346529 -0.005869741085916758 -0.09709999710321426
0.007704207208007574 -0.005875786300748587 -0.09719999879598618
0.008212526328861713 -0.005875786300748587 -0.09719999879598618
0.008693929761648178 -0.005857651121914387 -0.09690000116825104
0.009162699803709984 -0.005833470728248358 -0.09649999439716339
0.009647322818636894 -0.005821380764245987 -0.09629999846220016
0.010140393860638142 -0.005815335549414158 -0.09619999676942825
0.010643483139574528 -0.005815335549414158 -0.09619999676942825
0.011134985834360123 -0.005809290334582329 -0.09609999507665634
0.01163755264133215 -0.005809290334582329 -0.09609999507665634
0.01215275190770626 -0.005815335549414158 -0.09619999676942825
0.012655842117965221 -0.005815335549414158 -0.09619999676942825
0.019073404371738434 -0.006649552378803492 -0.10999999940395355
0.019577214494347572 -0.006625371985137463 -0.1096000000834465
0.019984913989901543 -0.00657096691429615 -0.10869999974966049
0.02026974782347679 -0.006480291020125151 -0.10719999670982361
0.020713774487376213 -0.0064440201967954636 -0.10659999400377274
0.021271253004670143 -0.0064440201967954636 -0.10659999400377274
0.02158300392329693 -0.006371479947119951 -0.10539999604225159
0.022470176219940186 -0.0063110291957855225 -0.10439999401569366
0.022905919700860977 -0.006280804518610239 -0.1039000004529953
0.028231145814061165 -0.006776498164981604 -0.11209999769926071
0.028791679069399834 -0.0067704529501497746 -0.1119999960064888
0.029377397149801254 -0.0067704529501497746 -0.1119999960064888
0.02988285757601261 -0.006752318236976862 -0.11169999837875366
0.03049428202211857 -0.006758362986147404 -0.11180000007152557
0.030995555222034454 -0.006740227807313204 -0.11149999499320984
0.03160697966814041 -0.006746273022145033 -0.11159999668598175
0.03195985034108162 -0.006697912700474262 -0.11079999804496765
0.03248055651783943 -0.006685822270810604 -0.11059999465942383
-0.018015485256910324 -0.006141089368611574 -0.09349999576807022
-0.01752651482820511 -0.006141089368611574 -0.09349999576807022
-0.017037544399499893 -0.006141089368611574 -0.09349999576807022
-0.01656627468764782 -0.00614765752106905 -0.09359999746084213
-0.01607678271830082 -0.00614765752106905 -0.09359999746084213
-0.015620596706867218 -0.006160793360322714 -0.09380000084638596
-0.017210843041539192 -0.007008066400885582 -0.10669999569654465
-0.016668450087308884 -0.007014634553343058 -0.10679999738931656
-0.016094841063022614 -0.007008066400885582 -0.10669999569654465
-0.015551403164863586 -0.007014634553343058 -0.10679999738931656
0.0017743860371410847 -0.007060610689222813 -0.10749999433755875
0.004214217886328697 -0.006489193998277187 -0.09879999607801437
0.004678232595324516 -0.006416945718228817 -0.09769999980926514
0.005173232406377792 -0.006397241726517677 -0.0973999947309494
0.0056475927121937275 -0.006357833743095398 -0.09679999947547913
0.006160177290439606 -0.006364401895552874 -0.09690000116825104
0.006680687889456749 -0.006377537734806538 -0.09709999710321426
0.007195888087153435 -0.006384105887264013 -0.09719999879598618
0.007712133694440126 -0.006390674039721489 -0.09730000048875809
0.008212526328861713 -0.006384105887264013 -0.09719999879598618
0.008684957399964333 -0.006357833743095398 -0.09679999947547913
0.009162699803709984 -0.006338129285722971 -0.09649999439716339
0.009647322818636894 -0.006324993446469307 -0.09629999846220016
0.010140393860638142 -0.006318425759673119 -0.09619999676942825
0.010632419027388096 -0.006311857607215643 -0.09609999507665634
0.011134985834360123 -0.006311857607215643 -0.09609999507665634
0.01163755264133215 -0.006311857607215643 -0.09609999507665634
0.012140119448304176 -0.006311857607215643 -0.09609999507665634
0.012655842117965221 -0.006318425759673119 -0.09619999676942825
0.020095225423574448 -0.007178834639489651 -0.10929999500513077
0.020458830520510674 -0.007106586825102568 -0.10819999873638153
0.020985813811421394 -0.007093450520187616 -0.10799999535083771
0.02139097824692726 -0.007040906697511673 -0.10719999670982361
0.021869685500860214 -0.007014634553343058 -0.10679999738931656
0.022302206605672836 -0.006975226569920778 -0.10619999468326569
0.022599315270781517 -0.0068964106030762196 -0.10499999672174454
0.023126378655433655 -0.006889842450618744 -0.10489999502897263
0.027669565752148628 -0.0073693073354661465 -0.11219999939203262
0.028231145814061165 -0.007362739183008671 -0.11209999769926071
0.02881738729774952 -0.007362739183008671 -0.11209999769926071
0.029377397149801254 -0.007356171030551195 -0.1119999960064888
0.02993636205792427 -0.0073496028780937195 -0.11189999431371689
0.030521556735038757 -0.0073496028780937195 -0.11189999431371689
0.03107895329594612 -0.007343035191297531 -0.11180000007152557
0.03163530305027962 -0.0073364670388400555 -0.11169999837875366
0.032161761075258255 -0.0073233311995863914 -0.11149999499320984
-0.016982879489660263 -0.0066087860614061356 -0.09319999814033508
-0.016530876979231834 -0.006622967775911093 -0.09339999407529831
-0.016042429953813553 -0.006622967775911093 -0.09339999407529831
-0.01717858389019966 -0.007551885675638914 -0.10649999976158142
-0.016621628776192665 -0.007551885675638914 -0.10649999976158142
-0.01606467366218567 -0.007551885675638914 -0.10649999976158142
-0.015507719479501247 -0.007551885675638914 -0.10649999976158142
0.001769434311427176 -0.007601521909236908 -0.10719999670982361
0.0033353797625750303 -0.007346246857196093 -0.10359999537467957
0.0038621986750513315 -0.007317883428186178 -0.10319999605417252
0.004337914753705263 -0.007211518939584494 -0.10170000046491623
0.005764278117567301 -0.0070058805868029594 -0.09879999607801437
0.0062046777456998825 -0.006920788902789354 -0.09759999811649323
0.0067013283260166645 -0.00690660672262311 -0.0973999947309494
0.007203291170299053 -0.006899516098201275 -0.09730000048875809
0.007712133694440126 -0.006899516098201275 -0.09730000048875809
0.008204077370464802 -0.00688533391803503 -0.09709999710321426
0.008684957399964333 -0.006864061113446951 -0.09679999947547913
0.009162699803709984 -0.006842787843197584 -0.09649999439716339
0.009647322818636894 -0.006828606128692627 -0.09629999846220016
0.010140393860638142 -0.006821515038609505 -0.09619999676942825
0.010632419027388096 -0.0068144239485263824 -0.09609999507665634
0.011134985834360123 -0.0068144239485263824 -0.09609999507665634
0.01163755264133215 -0.0068144239485263824 -0.09609999507665634
0.012140119448304176 -0.0068144239485263824 -0.09609999507665634
0.012642686255276203 -0.0068144239485263824 -0.09609999507665634
0.02066682279109955 -0.007750432472676039 -0.10929999500513077
0.021102402359247208 -0.007700795773416758 -0.10859999805688858
0.021590521559119225 -0.007672431878745556 -0.10819999873638153
0.02207445725798607 -0.007644067984074354 -0.10779999941587448
0.022428208962082863 -0.0075731584802269936 -0.10679999738931656
0.023008255288004875 -0.007580249570310116 -0.10689999908208847
0.02354525588452816 -0.0075731584802269936 -0.10679999738931656
0.027010386809706688 -0.007934797555208206 -0.11189999431371689
0.027620242908596992 -0.007941888645291328 -0.1119999960064888
0.028205960988998413 -0.007941888645291328 -0.1119999960064888
0.028791679069399834 -0.007941888645291328 -0.1119999960064888
0.029377397149801254 -0.007941888645291328 -0.1119999960064888
0.029963115230202675 -0.007941888645291328 -0.1119999960064888
0.030521556735038757 -0.007934797555208206 -0.11189999431371689
0.031106751412153244 -0.007934797555208206 -0.11189999431371689
-0.016909992322325706 -0.0070657311007380486 -0.09279999881982803
-0.01644238270819187 -0.007073345128446817 -0.09290000051259995
-0.01597372628748417 -0.007080958690494299 -0.09299999475479126
-0.01711406372487545 -0.008078384213149548 -0.10610000044107437
-0.01655920036137104 -0.008078384213149548 -0.10610000044107437
-0.016019420698285103 -0.008085997775197029 -0.10619999468326569
-0.015464034862816334 -0.008085997775197029 -0.10619999468326569
0.002308314200490713 -0.008085997775197029 -0.10619999468326569
0.0028313419315963984 -0.007994631305336952 -0.10499999672174454
0.003351476974785328 -0.00792610552161932 -0.10409999638795853
0.003869683714583516 -0.0078728087246418 -0.10339999943971634
0.004384834319353104 -0.007827124558389187 -0.10279999673366547
0.0048841326497495174 -0.007766213268041611 -0.10199999809265137
0.0053750635124742985 -0.007705301977694035 -0.10119999945163727
0.00627460703253746 -0.007514953147619963 -0.09869999438524246
0.006742609664797783 -0.007461655884981155 -0.09799999743700027
0.00721809733659029 -0.007423585746437311 -0.09749999642372131
0.007704207208007574 -0.007400744128972292 -0.09719999879598618
0.00819562841206789 -0.007385516073554754 -0.09699999541044235
0.00865804124623537 -0.007347446400672197 -0.09649999439716339
0.009143710136413574 -0.007332218810915947 -0.09629999846220016
0.009637304581701756 -0.007324604783207178 -0.09619999676942825
0.010129853151738644 -0.007316990755498409 -0.09609999507665634
0.010621355846524239 -0.007309377193450928 -0.09600000083446503
0.011123400181531906 -0.007309377193450928 -0.09600000083446503
0.011625443585216999 -0.007309377193450928 -0.09600000083446503
0.012127486988902092 -0.007309377193450928 -0.09600000083446503
0.012642686255276203 -0.007316990755498409 -0.09609999507665634
0.022722212597727776 -0.008238277398049831 -0.10819999873638153
0.023137394338846207 -0.008184979669749737 -0.10749999433755875
0.025285787880420685 -0.008337258361279964 -0.10949999839067459
0.027595581486821175 -0.008519992232322693 -0.11189999431371689
0.028205960988998413 -0.008527606725692749 -0.1119999960064888
0.028791679069399834 -0.008527606725692749 -0.1119999960064888
0.029377397149801254 -0.008527606725692749 -0.1119999960064888
-0.016389284282922745 -0.007534766104072332 -0.09259999543428421
-0.015905020758509636 -0.007534766104072332 -0.09259999543428421
-0.017602313309907913 -0.008600699715316296 -0.10569999366998672
-0.01706567220389843 -0.008608836680650711 -0.10579999536275864
-0.016512377187609673 -0.008608836680650711 -0.10579999536275864
-0.015959084033966064 -0.008608836680650711 -0.10579999536275864
-0.015405789948999882 -0.008608836680650711 -0.10579999536275864
0.002310487674549222 -0.008649520576000214 -0.1062999963760376
0.0028394313994795084 -0.008568151853978634 -0.10529999434947968
0.0033740135841071606 -0.008527467958629131 -0.10480000078678131
0.0038846535608172417 -0.008446098305284977 -0.10379999876022339
0.004406161140650511 -0.008405414409935474 -0.10329999774694443
0.004903285764157772 -0.008332181721925735 -0.10239999741315842
0.005412242375314236 -0.008291497826576233 -0.10189999639987946
0.005898467265069485 -0.00822640210390091 -0.10109999775886536
0.006331822369247675 -0.008104348555207253 -0.09959999471902847
0.006756370421499014 -0.007990432903170586 -0.0982000008225441
0.00721809733659029 -0.007933474145829678 -0.09749999642372131
0.007680429145693779 -0.00788465328514576 -0.09690000116825104
0.008161831647157669 -0.007860242389142513 -0.0965999960899353
0.0086490698158741 -0.007843968458473682 -0.09640000015497208
0.009627286344766617 -0.007819557562470436 -0.09609999507665634
0.010119312442839146 -0.007811421062797308 -0.09600000083446503
0.010610291734337807 -0.0078032840974628925 -0.09589999914169312
0.01110022608190775 -0.007795147132128477 -0.0957999974489212
0.011601223610341549 -0.007795147132128477 -0.0957999974489212
0.012114854529500008 -0.0078032840974628925 -0.09589999914169312
0.02451002411544323 -0.008836669847369194 -0.10859999805688858
0.025170328095555305 -0.008869217708706856 -0.10899999737739563
0.025952892377972603 -0.00894244946539402 -0.10989999771118164
0.02667245641350746 -0.008991271257400513 -0.11050000041723251
0.027373632416129112 -0.009031955152750015 -0.11099999397993088
-0.016336187720298767 -0.007993049919605255 -0.09229999780654907
-0.01585349440574646 -0.007993049919605255 -0.09229999780654907
-0.017569007351994514 -0.00913615059107542 -0.1054999977350235
-0.01701728254556656 -0.00913615059107542 -0.1054999977350235
-0.016449948772788048 -0.009127491153776646 -0.10539999604225159
-0.01592891663312912 -0.00914481095969677 -0.10559999942779541
-0.01537666842341423 -0.00914481095969677 -0.10559999942779541
0.0028502175118774176 -0.009153470396995544 -0.10569999366998672
0.0033836718648672104 -0.009101511910557747 -0.10509999841451645
0.003907107748091221 -0.009040892124176025 -0.10439999401569366
0.00441042659804225 -0.00895429402589798 -0.10339999943971634
0.004922439344227314 -0.008902334608137608 -0.10279999673366547
0.005422865506261587 -0.00884171575307846 -0.10209999978542328
0.005933472886681557 -0.008807077072560787 -0.10170000046491623
0.006357251666486263 -0.008659858256578445 -0.09999999403953552
0.006756370421499014 -0.008503981865942478 -0.0982000008225441
0.007195888087153435 -0.008417382836341858 -0.09719999879598618
0.007656650152057409 -0.008365423418581486 -0.0965999960899353
0.008136484771966934 -0.008339444175362587 -0.09629999846220016
0.00912471953779459 -0.008322124369442463 -0.09609999507665634
0.009617269039154053 -0.008313464932143688 -0.09600000083446503
0.010098230093717575 -0.008296145126223564 -0.0957999974489212
0.010588163509964943 -0.008287484757602215 -0.09569999575614929
0.011077051982283592 -0.008278824388980865 -0.09559999406337738
0.011564894579350948 -0.00827016495168209 -0.09549999982118607
0.012089588679373264 -0.008287484757602215 -0.09569999575614929
-0.016300790011882782 -0.008457377552986145 -0.09209999442100525
-0.015836317092180252 -0.008466560393571854 -0.09219999611377716
-0.017535699531435966 -0.009669510647654533 -0.10529999434947968
-0.01698502153158188 -0.009669510647654533 -0.10529999434947968
-0.016449948772788048 -0.009678693488240242 -0.10539999604225159
-0.015898747369647026 -0.009678693488240242 -0.10539999604225159
-0.01534754503518343 -0.009678693488240242 -0.10539999604225159
-0.0015897974371910095 -0.009816436097025871 -0.10689999908208847
0.003929562866687775 -0.009641962125897408 -0.10499999672174454
0.004423222970217466 -0.009522585198283195 -0.10369999706745148
0.004951169714331627 -0.00949503667652607 -0.10339999943971634
0.005454733036458492 -0.00943075679242611 -0.10269999504089355
0.005945141427218914 -0.00935729406774044 -0.10189999639987946
0.006369966082274914 -0.009201186709105968 -0.10019999742507935
0.0071514686569571495 -0.008870605379343033 -0.0965999960899353
0.007624945603311062 -0.008833874017000198 -0.09619999676942825
0.008604208938777447 -0.008806325495243073 -0.09589999914169312
0.009086739271879196 -0.008787959814071655 -0.09569999575614929
0.009567178785800934 -0.008769594132900238 -0.09549999982118607
0.010056066326797009 -0.00876041129231453 -0.09539999812841415
0.01054390799254179 -0.00875122845172882 -0.09529999643564224
0.011042291298508644 -0.00875122845172882 -0.09529999643564224
0.011540674604475498 -0.00875122845172882 -0.09529999643564224
-0.016247693449258804 -0.008909909054636955 -0.09179999679327011
-0.015784788876771927 -0.008919614367187023 -0.09189999848604202
-0.017485741525888443 -0.010191072709858418 -0.10499999672174454
-0.016952762380242348 -0.010200778022408485 -0.10509999841451645
-0.01640312746167183 -0.010200778022408485 -0.10509999841451645
-0.01586857996881008 -0.010210484266281128 -0.10520000010728836
-0.015318423509597778 -0.010210484266281128 -0.10520000010728836
-0.0027028245385736227 -0.010356070473790169 -0.10669999569654465
-0.002144823782145977 -0.010356070473790169 -0.10669999569654465
-0.0015883102314546704 -0.010365776717662811 -0.10679999738931656
-0.0010297865374013782 -0.010365776717662811 -0.10679999738931656
-0.00047126287245191634 -0.010365776717662811 -0.10679999738931656
8.726080704946071e-05 -0.010365776717662811 -0.10679999738931656
0.0006457844865508378 -0.010365776717662811 -0.10679999738931656
0.0012031805235892534 -0.010356070473790169 -0.10669999569654465
0.0017595307435840368 -0.010346364229917526 -0.10659999400377274
0.005491912364959717 -0.010035780258476734 -0.10339999943971634
0.007577388547360897 -0.009278728626668453 -0.09559999406337738
0.008068892173469067 -0.009269023314118385 -0.09549999982118607
0.008550376631319523 -0.0092496108263731 -0.09529999643564224
0.009029769338667393 -0.009230200201272964 -0.09510000050067902
0.009517088532447815 -0.009220493957400322 -0.0949999988079071
0.010013902559876442 -0.009220493957400322 -0.0949999988079071
0.010510716587305069 -0.009220493957400322 -0.0949999988079071
0.011007530614733696 -0.009220493957400322 -0.0949999988079071
-0.016176896169781685 -0.00934907328337431 -0.09139999747276306
-0.015716085210442543 -0.009359301999211311 -0.09149999916553497
-0.01746908761560917 -0.010729953646659851 -0.10489999502897263
-0.016920501366257668 -0.010729953646659851 -0.10489999502897263
-0.016387520357966423 -0.010740182362496853 -0.10499999672174454
-0.015838410705327988 -0.010740182362496853 -0.10499999672174454
-0.015289300121366978 -0.010740182362496853 -0.10499999672174454
-0.0032577691599726677 -0.010903841815888882 -0.10659999400377274
-0.0027028245385736227 -0.010914071463048458 -0.10669999569654465
-0.002144823782145977 -0.010914071463048458 -0.10669999569654465
-0.0015868230257183313 -0.010914071463048458 -0.10669999569654465
-0.0010297865374013782 -0.01092430017888546 -0.10679999738931656
-0.00047126287245191634 -0.01092430017888546 -0.10679999738931656
8.726080704946071e-05 -0.01092430017888546 -0.10679999738931656
0.0006451798253692687 -0.010914071463048458 -0.10669999569654465
0.0012031805235892534 -0.010914071463048458 -0.10669999569654465
0.0017595307435840368 -0.010903841815888882 -0.10659999400377274
0.0023148348554968834 -0.010893614031374454 -0.10649999976158142
0.002863700035959482 -0.010862926952540874 -0.10619999468326569
0.0055397143587470055 -0.01066858135163784 -0.10429999977350235
0.00752983195707202 -0.009717307984828949 -0.0949999988079071
0.008018197491765022 -0.009707079268991947 -0.09489999711513519
0.00850551575422287 -0.009696850553154945 -0.09479999542236328
0.009001283906400204 -0.009696850553154945 -0.09479999542236328
0.009497052058577538 -0.009696850553154945 -0.09479999542236328
0.009992820210754871 -0.009696850553154945 -0.09479999542236328
0.010488588362932205 -0.009696850553154945 -0.09479999542236328
-0.0161414984613657 -0.009805557318031788 -0.09119999408721924
-0.015681732445955276 -0.009816308505833149 -0.09129999577999115
-0.017452435567975044 -0.011267789639532566 -0.10480000078678131
-0.016904370859265327 -0.011267789639532566 -0.10480000078678131
-0.016371913254261017 -0.011278540827333927 -0.10489999502897263
-0.015823327004909515 -0.011278540827333927 -0.10489999502897263
-0.015274738892912865 -0.011278540827333927 -0.10489999502897263
-0.003307024482637644 -0.009934578090906143 -0.09239999949932098
-0.002823807531967759 -0.009934578090906143 -0.09239999949932098
-0.002340590348467231 -0.009934578090906143 -0.09239999949932098
-0.0018553631380200386 -0.009923825971782207 -0.09229999780654907
-0.0013726688921451569 -0.009923825971782207 -0.09229999780654907
-0.0008899747626855969 -0.009923825971782207 -0.09229999780654907
-0.00040728054591454566 -0.009923825971782207 -0.09229999780654907
7.541359809692949e-05 -0.009923825971782207 -0.09229999780654907
0.0006451798253692687 -0.011472071520984173 -0.10669999569654465
0.0012020529247820377 -0.011461320333182812 -0.10659999400377274
0.0017578802071511745 -0.01145056914538145 -0.10649999976158142
0.0023126613814383745 -0.011439817026257515 -0.10639999806880951
0.0028610036242753267 -0.011407562531530857 -0.10610000044107437
0.0034062082413583994 -0.01137530617415905 -0.10579999536275864
0.0039445324800908566 -0.011332299560308456 -0.10539999604225159
0.004491468891501427 -0.01132154744118452 -0.10529999434947968
0.006026674527674913 -0.01019261870533228 -0.09479999542236328
0.006522442679852247 -0.01019261870533228 -0.09479999542236328
0.007010808680206537 -0.010181867517530918 -0.09470000118017197
0.0074981278739869595 -0.010171115398406982 -0.09459999948740005
0.00797595176845789 -0.010149612091481686 -0.09439999610185623
0.008478599600493908 -0.010160363279283047 -0.09449999779462814
0.00896330364048481 -0.010149612091481686 -0.09439999610185623
0.009456980042159557 -0.010149612091481686 -0.09439999610185623
0.009961198084056377 -0.010160363279283047 -0.09449999779462814
-0.01564738154411316 -0.010271224193274975 -0.09109999984502792
-0.017419129610061646 -0.011793304234743118 -0.10459999740123749
-0.016872111707925797 -0.011793304234743118 -0.10459999740123749
-0.0163250919431448 -0.011793304234743118 -0.10459999740123749
-0.01579315774142742 -0.011804579757153988 -0.1046999990940094
-0.015260178595781326 -0.011815854348242283 -0.10480000078678131
-0.0037861396558582783 -0.01040652021765709 -0.09229999780654907
-0.0033034454099833965 -0.01040652021765709 -0.09229999780654907
-0.0028207513969391584 -0.01040652021765709 -0.09229999780654907
-0.0023380571510642767 -0.01040652021765709 -0.09229999780654907
-0.0018553631380200386 -0.01040652021765709 -0.09229999780654907
-0.0013726688921451569 -0.01040652021765709 -0.09229999780654907
-0.0008899747626855969 -0.01040652021765709 -0.09229999780654907
-0.00040728054591454566 -0.01040652021765709 -0.09229999780654907
7.541359809692949e-05 -0.01040652021765709 -0.09229999780654907
0.0005581077421084046 -0.01040652021765709 -0.09229999780654907
0.0010408019879832864 -0.01040652021765709 -0.09229999780654907
0.0015234961174428463 -0.01040652021765709 -0.09229999780654907
0.002006190363317728 -0.01040652021765709 -0.09229999780654907
0.002855610568076372 -0.011939874850213528 -0.10589999705553055
0.0033997693099081516 -0.011906051076948643 -0.10559999942779541
0.003940789960324764 -0.011872227303683758 -0.10529999434947968
0.00547256413847208 -0.010575640946626663 -0.09380000084638596
0.005975816398859024 -0.010598189197480679 -0.09399999678134918
0.006481161806732416 -0.010620739310979843 -0.094200000166893
0.006966389250010252 -0.010609464719891548 -0.0940999984741211
0.007450570818036795 -0.010598189197480679 -0.09399999678134918
0.007942155003547668 -0.010598189197480679 -0.09399999678134918
0.008424767293035984 -0.010586914606392384 -0.09389999508857727
0.008915828540921211 -0.010586914606392384 -0.09389999508857727
0.009416908025741577 -0.010598189197480679 -0.09399999678134918
-0.015613028779625893 -0.01072404719889164 -0.0908999964594841
-0.017335863783955574 -0.012281334958970547 -0.10409999638795853
-0.016807589679956436 -0.012293132953345776 -0.10419999808073044
-0.016293877735733986 -0.012316727079451084 -0.10439999401569366
-0.015762990340590477 -0.012328525073826313 -0.10449999570846558
-0.015231055207550526 -0.012340323068201542 -0.10459999740123749
-0.004250334110110998 -0.010842024348676205 -0.09189999848604202
-0.003777935402467847 -0.010865618474781513 -0.09209999442100525
-0.0032998663373291492 -0.010877416469156742 -0.09219999611377716
-0.0028176952619105577 -0.010877416469156742 -0.09219999611377716
-0.0023380571510642767 -0.010889214463531971 -0.09229999780654907
-0.0018553631380200386 -0.010889214463531971 -0.09229999780654907
-0.0013711816864088178 -0.010877416469156742 -0.09219999611377716
-0.0008890104945749044 -0.010877416469156742 -0.09219999611377716
-0.00040683927363716066 -0.010877416469156742 -0.09219999611377716
7.533189636887982e-05 -0.010877416469156742 -0.09219999611377716
0.0005575030809268355 -0.010877416469156742 -0.09219999611377716
0.0010408019879832864 -0.010889214463531971 -0.09229999780654907
0.0015234961174428463 -0.010889214463531971 -0.09229999780654907
0.002006190363317728 -0.010889214463531971 -0.09229999780654907
0.002486187731847167 -0.010877416469156742 -0.09219999611377716
0.002968359040096402 -0.010877416469156742 -0.09219999611377716
0.0034505303483456373 -0.010877416469156742 -0.09219999611377716
0.003932701423764229 -0.010877416469156742 -0.09219999611377716
0.0044196611270308495 -0.010889214463531971 -0.09229999780654907
0.004934223368763924 -0.010960000567138195 -0.09290000051259995
0.005460895132273436 -0.011042583733797073 -0.09359999746084213
0.005956744775176048 -0.011054381728172302 -0.09369999915361404
0.0064536407589912415 -0.011066178791224957 -0.09380000084638596
0.006944180000573397 -0.011066178791224957 -0.09380000084638596
0.007426792290061712 -0.011054381728172302 -0.09369999915361404
0.007908359169960022 -0.011042583733797073 -0.09359999746084213
0.008397851139307022 -0.011042583733797073 -0.09359999746084213
0.008896838873624802 -0.011054381728172302 -0.09369999915361404
0.009396872483193874 -0.011066178791224957 -0.09380000084638596
-0.0155786769464612 -0.011174779385328293 -0.09070000052452087
-0.015121002681553364 -0.011187098920345306 -0.09079999476671219
-0.016743069514632225 -0.012788777239620686 -0.10379999876022339
-0.016215842217206955 -0.012801097705960274 -0.1039000004529953
-0.015687568113207817 -0.012813417240977287 -0.10399999469518661
-0.01515824906527996 -0.01282573863863945 -0.10409999638795853
-0.005183184519410133 -0.01126102264970541 -0.09139999747276306
-0.004715492948889732 -0.011285664513707161 -0.09160000085830688
-0.004241084214299917 -0.011297984980046749 -0.0916999951004982
-0.0037697316147387028 -0.011322625912725925 -0.09189999848604202
-0.0032927084248512983 -0.011334947310388088 -0.09200000017881393
-0.0028176952619105577 -0.01135958731174469 -0.09219999611377716
-0.0023355241864919662 -0.01135958731174469 -0.09219999611377716
-0.001853352994658053 -0.01135958731174469 -0.09219999611377716
-0.0013711816864088178 -0.01135958731174469 -0.09219999611377716
-0.0008890104945749044 -0.01135958731174469 -0.09219999611377716
-0.00040683927363716066 -0.01135958731174469 -0.09219999611377716
7.533189636887982e-05 -0.01135958731174469 -0.09219999611377716
0.0005575030809268355 -0.01135958731174469 -0.09219999611377716
0.0010396742727607489 -0.01135958731174469 -0.09219999611377716
0.001521845581009984 -0.01135958731174469 -0.09219999611377716
0.0020040166564285755 -0.01135958731174469 -0.09219999611377716
0.0024834913201630116 -0.011347266845405102 -0.09209999442100525
0.0029651396907866 -0.011347266845405102 -0.09209999442100525
0.003446787828579545 -0.011347266845405102 -0.09209999442100525
0.00392843596637249 -0.011347266845405102 -0.09209999442100525
0.0044196611270308495 -0.011371908709406853 -0.09229999780654907
0.004923600237816572 -0.011421190574765205 -0.09269999712705612
0.005443392787128687 -0.011495114304125309 -0.093299999833107
0.005944030359387398 -0.011519755236804485 -0.09349999576807022
0.006432999856770039 -0.011519755236804485 -0.09349999576807022
0.006921970285475254 -0.011519755236804485 -0.09349999576807022
0.007410939782857895 -0.011519755236804485 -0.09349999576807022
0.007899909280240536 -0.011519755236804485 -0.09349999576807022
0.008388878777623177 -0.011519755236804485 -0.09349999576807022
0.008887344039976597 -0.011532075703144073 -0.09359999746084213
-0.015054390765726566 -0.011610575020313263 -0.09039999544620514
-0.016694677993655205 -0.013293080031871796 -0.10349999368190765
-0.01615341380238533 -0.013293080031871796 -0.10349999368190765
-0.015612146817147732 -0.013293080031871796 -0.10349999368190765
-0.015085442923009396 -0.013305923901498318 -0.10359999537467957
-0.005654977634549141 -0.011726167052984238 -0.09129999577999115
-0.005177513230592012 -0.011726167052984238 -0.09129999577999115
-0.004710345063358545 -0.011751853860914707 -0.09149999916553497
-0.004236459266394377 -0.01176469773054123 -0.09160000085830688
-0.003757425816729665 -0.01176469773054123 -0.09160000085830688
-0.003289129352197051 -0.01180322840809822 -0.09189999848604202
-0.002814639126881957 -0.01182891521602869 -0.09209999442100525
-0.0023380571510642767 -0.011854602955281734 -0.09229999780654907
-0.0018553631380200386 -0.011854602955281734 -0.09229999780654907
-0.0013726688921451569 -0.011854602955281734 -0.09229999780654907
-0.0008899747626855969 -0.011854602955281734 -0.09229999780654907
-0.00040728054591454566 -0.011854602955281734 -0.09229999780654907
7.533189636887982e-05 -0.011841759085655212 -0.09219999611377716
0.0005575030809268355 -0.011841759085655212 -0.09219999611377716
0.0010396742727607489 -0.011841759085655212 -0.09219999611377716
0.001521845581009984 -0.011841759085655212 -0.09219999611377716
0.0020018431823700666 -0.01182891521602869 -0.09209999442100525
0.002480794908478856 -0.011816072277724743 -0.09200000017881393
0.002961920341476798 -0.011816072277724743 -0.09200000017881393
0.003446787828579545 -0.01182891521602869 -0.09209999442100525
0.003932701423764229 -0.011841759085655212 -0.09219999611377716
0.004424449522048235 -0.011867445893585682 -0.09239999949932098
0.004928911570459604 -0.011918820440769196 -0.09279999881982803
0.005437558051198721 -0.01197019498795271 -0.09319999814033508
0.005937672685831785 -0.011995880864560604 -0.09339999407529831
0.006426119711250067 -0.011995880864560604 -0.09339999407529831
0.006914566736668348 -0.011995880864560604 -0.09339999407529831
0.00740301376208663 -0.011995880864560604 -0.09339999407529831
0.007891460321843624 -0.011995880864560604 -0.09339999407529831
0.008388878777623177 -0.012008724734187126 -0.09349999576807022
0.008877849206328392 -0.012008724734187126 -0.09349999576807022
-0.015004431828856468 -0.012043233029544353 -0.09009999781847
-0.016662418842315674 -0.013807613402605057 -0.10329999774694443
-0.016122199594974518 -0.013807613402605057 -0.10329999774694443
-0.015581979416310787 -0.013807613402605057 -0.10329999774694443
-0.01505632046610117 -0.013820980675518513 -0.10339999943971634
-0.01451557781547308 -0.013820980675518513 -0.10339999943971634
-0.006119009107351303 -0.012176898308098316 -0.09109999984502792
-0.005648783873766661 -0.012190264649689198 -0.09119999408721924
-0.005171842407435179 -0.012190264649689198 -0.09119999408721924
-0.004700048826634884 -0.012203630991280079 -0.09129999577999115
-0.004222584422677755 -0.012203630991280079 -0.09129999577999115
-0.003753323806449771 -0.012230364605784416 -0.09149999916553497
-0.003289129352197051 -0.012283830903470516 -0.09189999848604202
-0.0028207513969391584 -0.012337296269834042 -0.09229999780654907
-0.0023481897078454494 -0.012390762567520142 -0.09269999712705612
-0.0018734544282779098 -0.012457595206797123 -0.09319999814033508
-0.001386053510941565 -0.012457595206797123 -0.09319999814033508
-0.0008976885001175106 -0.012444228865206242 -0.09309999644756317
-0.00040904557681642473 -0.012390762567520142 -0.09269999712705612
7.549530710093677e-05 -0.012350663542747498 -0.09239999949932098
0.0005581077421084046 -0.012337296269834042 -0.09229999780654907
0.0010396742727607489 -0.01232392992824316 -0.09219999611377716
0.0015201949281618 -0.012310563586652279 -0.09209999442100525
0.0019996697083115578 -0.012297197245061398 -0.09200000017881393
0.002478098263964057 -0.012283830903470516 -0.09189999848604202
0.0029587007593363523 -0.012283830903470516 -0.09189999848604202
0.0034430455416440964 -0.012297197245061398 -0.09200000017881393
0.003936966881155968 -0.012337296269834042 -0.09229999780654907
0.0044196611270308495 -0.012337296269834042 -0.09229999780654907
0.004939534235745668 -0.012430861592292786 -0.09299999475479126
0.005449226591736078 -0.012484327889978886 -0.09339999407529831
0.005944030359387398 -0.012497694231569767 -0.09349999576807022
0.006432999856770039 -0.012497694231569767 -0.09349999576807022
0.006921970285475254 -0.012497694231569767 -0.09349999576807022
0.007410939782857895 -0.012497694231569767 -0.09349999576807022
0.007899909280240536 -0.012497694231569767 -0.09349999576807022
0.008388878777623177 -0.012497694231569767 -0.09349999576807022
-0.01495447289198637 -0.012472754344344139 -0.08980000019073486
-0.016630157828330994 -0.014320054091513157 -0.1030999943614006
-0.016090985387563705 -0.014320054091513157 -0.1030999943614006
-0.015551810152828693 -0.014320054091513157 -0.1030999943614006
-0.015027198009192944 -0.014333943836390972 -0.10319999605417252
-0.014487501233816147 -0.014333943836390972 -0.10319999605417252
-0.013947803527116776 -0.014333943836390972 -0.10319999605417252
-0.0070485579781234264 -0.012611648067831993 -0.09079999476671219
-0.006573708262294531 -0.012611648067831993 -0.09079999476671219
-0.006112292408943176 -0.012639427557587624 -0.09099999815225601
-0.0056363963522017 -0.012639427557587624 -0.09099999815225601
-0.005166171584278345 -0.012653317302465439 -0.09109999984502792
-0.004694900941103697 -0.01266720611602068 -0.09119999408721924
-0.004217959474772215 -0.01266720611602068 -0.09119999408721924
-0.003753323806449771 -0.012708875350654125 -0.09149999916553497
-0.0032998663373291492 -0.012806100770831108 -0.09219999611377716
-0.002829919569194317 -0.012861658819019794 -0.09259999543428421
-0.0023684545885771513 -0.012986664660274982 -0.09349999576807022
-0.001891545718535781 -0.013070001266896725 -0.0940999984741211
-0.0013979509240016341 -0.01305611152201891 -0.09399999678134918
-0.0009054022375494242 -0.013042221777141094 -0.09389999508857727
-0.0004130168817937374 -0.013000554405152798 -0.09359999746084213
7.623065175721422e-05 -0.012958886101841927 -0.093299999833107
0.0005593171226792037 -0.012847770005464554 -0.0925000011920929
0.0010396742727607489 -0.012806100770831108 -0.09219999611377716
0.0015201949281618 -0.012792211025953293 -0.09209999442100525
0.0019974960014224052 -0.012764433398842812 -0.09189999848604202
0.0044531794264912605 -0.01291721686720848 -0.09299999475479126
0.004955468699336052 -0.012958886101841927 -0.093299999833107
0.005460895132273436 -0.013000554405152798 -0.09359999746084213
0.005950387567281723 -0.013000554405152798 -0.09359999746084213
0.0064398800022900105 -0.013000554405152798 -0.09359999746084213
0.0069293733686208725 -0.013000554405152798 -0.09359999746084213
0.007418866269290447 -0.013000554405152798 -0.09359999746084213
0.007899909280240536 -0.012986664660274982 -0.09349999576807022
0.008388878777623177 -0.012986664660274982 -0.09349999576807022
-0.01445259153842926 -0.01291354838758707 -0.08959999680519104
-0.016044164076447487 -0.01481599174439907 -0.10279999673366547
-0.015506558120250702 -0.01481599174439907 -0.10279999673366547
-0.014968953095376492 -0.01481599174439907 -0.10279999673366547
-0.014445386826992035 -0.014830403961241245 -0.10289999842643738
-0.01392077375203371 -0.014844817109405994 -0.10300000011920929
-0.013395114801824093 -0.014859228394925594 -0.1030999943614006
-0.011260218918323517 -0.014888053759932518 -0.10329999774694443
-0.007945405319333076 -0.013000023551285267 -0.09019999951124191
-0.007490264717489481 -0.013028847984969616 -0.09039999544620514
-0.007033032830804586 -0.01305767334997654 -0.09059999883174896
-0.0065664686262607574 -0.013072086498141289 -0.09070000052452087
-0.006098858546465635 -0.013086497783660889 -0.09079999476671219
-0.0056363963522017 -0.013115323148667812 -0.09099999815225601
-0.0051605007611215115 -0.013115323148667812 -0.09099999815225601
-0.00468975305557251 -0.013129736296832561 -0.09109999984502792
-0.004213334526866674 -0.013129736296832561 -0.09109999984502792
-0.0037492215633392334 -0.013172972947359085 -0.09139999747276306
-0.0033034454099833965 -0.013302684761583805 -0.09229999780654907
-0.002884928835555911 -0.013605345971882343 -0.09439999610185623
-0.002406451152637601 -0.01369182113558054 -0.0949999988079071
-0.0019216978689655662 -0.013778295367956161 -0.09559999406337738
-0.0014232329558581114 -0.013792707584798336 -0.09569999575614929
-0.0009208297706209123 -0.013763883151113987 -0.09549999982118607
-0.0004200770054012537 -0.013720645569264889 -0.09519999474287033
7.7129399869591e-05 -0.013605345971882343 -0.09439999610185623
0.0005665731150656939 -0.013504459522664547 -0.09369999915361404
0.005963102448731661 -0.013518871739506721 -0.09380000084638596
0.00644676061347127 -0.013504459522664547 -0.09369999915361404
0.006951583083719015 -0.013533283956348896 -0.09389999508857727
0.007418866269290447 -0.013490046374499798 -0.09359999746084213
0.007908359169960022 -0.013490046374499798 -0.09359999746084213
-0.01442033238708973 -0.013352252542972565 -0.08940000087022781
-0.01602855511009693 -0.015338661149144173 -0.10269999504089355
-0.015491473488509655 -0.015338661149144173 -0.10269999504089355
-0.014954391866922379 -0.015338661149144173 -0.10269999504089355
-0.014417309314012527 -0.015338661149144173 -0.10269999504089355
-0.01389374304562807 -0.015353596769273281 -0.10279999673366547
-0.013369129970669746 -0.01536853238940239 -0.10289999842643738
-0.012843471020460129 -0.015383468009531498 -0.10300000011920929
-0.012316765263676643 -0.015398402698338032 -0.1030999943614006
-0.011789015494287014 -0.01541333831846714 -0.10319999605417252
-0.008389121852815151 -0.013426928780972958 -0.08989999443292618
-0.00792778842151165 -0.013441864401102066 -0.08999999612569809
-0.007465407717972994 -0.013456800021231174 -0.09009999781847
-0.007009744644165039 -0.013486671261489391 -0.09030000120401382
-0.00654474925249815 -0.013501605950295925 -0.09039999544620514
-0.006085425149649382 -0.013531477190554142 -0.09059999883174896
-0.005624008364975452 -0.013561347499489784 -0.09079999476671219
-0.005154829937964678 -0.013576283119618893 -0.0908999964594841
-0.004684605170041323 -0.013591218739748001 -0.09099999815225601
-0.004208709578961134 -0.013591218739748001 -0.09099999815225601
-0.0037451195530593395 -0.013636024668812752 -0.09129999577999115
-0.0029063213150948286 -0.014203570783138275 -0.09510000050067902
-0.0024444477166980505 -0.014412665739655495 -0.09649999439716339
-0.0019438094459474087 -0.014442536979913712 -0.09669999778270721
-0.0014381048968061805 -0.014442536979913712 -0.09669999778270721
-0.0009333646739833057 -0.01445747260004282 -0.09679999947547913
-0.00042713712900877 -0.01445747260004282 -0.09679999947547913
7.97439570305869e-05 -0.014576955698430538 -0.09759999811649323
0.0027881977148354053 -0.015443209558725357 -0.10339999943971634
0.0033289408311247826 -0.015443209558725357 -0.10339999943971634
0.003869683714583516 -0.015443209558725357 -0.10339999943971634
0.00441042659804225 -0.015443209558725357 -0.10339999943971634
0.004951169714331627 -0.015443209558725357 -0.10339999943971634
-0.014371940866112709 -0.013773404993116856 -0.08909999579191208
-0.013890374451875687 -0.013757945969700813 -0.08899999409914017
-0.015476390719413757 -0.015860285609960556 -0.10260000079870224
-0.01493983156979084 -0.015860285609960556 -0.10260000079870224
-0.014417309314012527 -0.015875743702054024 -0.10269999504089355
-0.013880227692425251 -0.015875743702054024 -0.10269999504089355
-0.013369129970669746 -0.01590665988624096 -0.10289999842643738
-0.00974504929035902 -0.013819781132042408 -0.08940000087022781
-0.009298276156187057 -0.013850697316229343 -0.08959999680519104
-0.008849411271512508 -0.013881614431738853 -0.08980000019073486
-0.008379790931940079 -0.013881614431738853 -0.08980000019073486
-0.007918979041278362 -0.013897071592509747 -0.08989999443292618
-0.007457122206687927 -0.013912530615925789 -0.08999999612569809
-0.006994219031184912 -0.013927988708019257 -0.09009999781847
-0.006530269980430603 -0.013943447731435299 -0.09019999951124191
-0.006065275054425001 -0.013958905823528767 -0.09030000120401382
-0.005605427082628012 -0.013989822007715702 -0.09049999713897705
-0.0051434882916510105 -0.014020740054547787 -0.09070000052452087
-0.004679457284510136 -0.014051655307412148 -0.0908999964594841
-0.0030041153077036142 -0.0151955746114254 -0.09829999506473541
-0.002472311956807971 -0.015087367035448551 -0.09759999811649323
-0.0014529767213389277 -0.015102825127542019 -0.09769999980926514
-0.0009430067730136216 -0.015118283219635487 -0.09779999405145645
-0.0004328734939917922 -0.015164658427238464 -0.09809999912977219
8.064271241892129e-05 -0.015257407911121845 -0.09869999438524246
0.0005980157875455916 -0.015288325026631355 -0.09889999777078629
0.0011265018256381154 -0.015442909672856331 -0.09989999979734421
0.0016571941087022424 -0.015520201064646244 -0.10040000081062317
0.0027828046586364508 -0.015953034162521362 -0.10319999605417252
0.0033289408311247826 -0.015983952209353447 -0.10339999943971634
0.003869683714583516 -0.015983952209353447 -0.10339999943971634
0.004414692055433989 -0.015999410301446915 -0.10349999368190765
0.0049607460387051105 -0.016014868393540382 -0.10359999537467957
0.005497223697602749 -0.015999410301446915 -0.10349999368190765
-0.013859161175787449 -0.014191420748829842 -0.08879999816417694
-0.013394770212471485 -0.014191420748829842 -0.08879999816417694
-0.01155020110309124 -0.014207402244210243 -0.08889999985694885
-0.011085286736488342 -0.014207402244210243 -0.08889999985694885
-0.010632319375872612 -0.01422338280826807 -0.08899999409914017
-0.010189730674028397 -0.014255345799028873 -0.08919999748468399
-0.00973414909094572 -0.014271327294409275 -0.0892999991774559
-0.009277521632611752 -0.014287308789789677 -0.08940000087022781
-0.008829701691865921 -0.014319270849227905 -0.08959999680519104
-0.008370459079742432 -0.014335252344608307 -0.08969999849796295
-0.007910171523690224 -0.014351234771311283 -0.08980000019073486
-0.007448836229741573 -0.014367214404046535 -0.08989999443292618
-0.006986455991864204 -0.014383195899426937 -0.08999999612569809
-0.006523029878735542 -0.014399178326129913 -0.09009999781847
-0.00605184119194746 -0.014399178326129913 -0.09009999781847
-0.005593039561063051 -0.014431141316890717 -0.09030000120401382
-0.005132146179676056 -0.014463103376328945 -0.09049999713897705
-0.0046691615134477615 -0.014495066367089748 -0.09070000052452087
0.0011310123372823 -0.016029274091124535 -0.10029999911785126
0.0016588446451351047 -0.01606123521924019 -0.10049999505281448
0.002755839377641678 -0.016332918778061867 -0.1021999940276146
0.003325721248984337 -0.016508713364601135 -0.10329999774694443
0.003869683714583516 -0.016524694859981537 -0.10339999943971634
0.0044189575128257275 -0.01655665785074234 -0.10359999537467957
0.0049703228287398815 -0.016588620841503143 -0.10379999876022339
0.005523780360817909 -0.016620581969618797 -0.10399999469518661
0.006085164379328489 -0.016668526455760002 -0.10429999977350235
-0.013859161175787449 -0.01465581264346838 -0.08879999816417694
-0.013394770212471485 -0.01465581264346838 -0.08879999816417694
-0.012930380180478096 -0.01465581264346838 -0.08879999816417694
-0.012465989217162132 -0.01465581264346838 -0.08879999816417694
-0.012001599185168743 -0.01465581264346838 -0.08879999816417694
-0.01153720822185278 -0.01465581264346838 -0.08879999816417694
-0.011085286736488342 -0.014672316610813141 -0.08889999985694885
-0.01062037330120802 -0.014672316610813141 -0.08889999985694885
-0.01016688346862793 -0.014688820578157902 -0.08899999409914017
-0.009712347760796547 -0.014705324545502663 -0.08909999579191208
-0.009256766177713871 -0.014721829444169998 -0.08919999748468399
-0.008809993043541908 -0.014754838310182095 -0.08940000087022781
-0.008361127227544785 -0.014787846244871616 -0.08959999680519104
-0.007901362143456936 -0.014804351143538952 -0.08969999849796295
-0.007440551184117794 -0.014820856042206287 -0.08980000019073486
-0.006978693418204784 -0.014837359078228474 -0.08989999443292618
-0.006508550141006708 -0.014837359078228474 -0.08989999443292618
-0.00605184119194746 -0.01487036794424057 -0.09009999781847
-0.005586845800280571 -0.014886872842907906 -0.09019999951124191
-0.005115133710205555 -0.014886872842907906 -0.09019999951124191
-0.013843553140759468 -0.015103175304830074 -0.08869999647140503
-0.013379685580730438 -0.015103175304830074 -0.08869999647140503
-0.012915818020701408 -0.015103175304830074 -0.08869999647140503
-0.012451950460672379 -0.015103175304830074 -0.08869999647140503
-0.012001599185168743 -0.015120202675461769 -0.08879999816417694
-0.01153720822185278 -0.015120202675461769 -0.08879999816417694
-0.011072817258536816 -0.015120202675461769 -0.08879999816417694
-0.01062037330120802 -0.015137230046093464 -0.08889999985694885
-0.010155459865927696 -0.015137230046093464 -0.08889999985694885
-0.009690546430647373 -0.015137230046093464 -0.08889999985694885
-0.00923601072281599 -0.015154256485402584 -0.08899999409914017
-0.008780429139733315 -0.015171283856034279 -0.08909999579191208
-0.008333132602274418 -0.015205339528620243 -0.0892999991774559
-0.007874936796724796 -0.015222366899251938 -0.08940000087022781
-0.00743226520717144 -0.015273448079824448 -0.08969999849796295
-0.006970930844545364 -0.015290475450456142 -0.08980000019073486
-0.006508550141006708 -0.015307501889765263 -0.08989999443292618
-0.006045124027878046 -0.015324529260396957 -0.08999999612569809
-0.005580652039498091 -0.015341557562351227 -0.09009999781847
-0.005109462887048721 -0.015341557562351227 -0.09009999781847
-0.013379685580730438 -0.015567042864859104 -0.08869999647140503
-0.012915818020701408 -0.015567042864859104 -0.08869999647140503
-0.012451950460672379 -0.015567042864859104 -0.08869999647140503
-0.011988083831965923 -0.015567042864859104 -0.08869999647140503
-0.01153720822185278 -0.015584593638777733 -0.08879999816417694
-0.011072817258536816 -0.015584593638777733 -0.08879999816417694
-0.010608427226543427 -0.015584593638777733 -0.08879999816417694
-0.010144036263227463 -0.015584593638777733 -0.08879999816417694
-0.009690546430647373 -0.015602143481373787 -0.08889999985694885
-0.00922563299536705 -0.015602143481373787 -0.08889999985694885
-0.008770573884248734 -0.015619693323969841 -0.08899999409914017
-0.008314469829201698 -0.015637243166565895 -0.08909999579191208
-0.007866127416491508 -0.015672344714403152 -0.0892999991774559
-0.00741569371894002 -0.01570744439959526 -0.08949999511241913
-0.006963168270885944 -0.015742545947432518 -0.08969999849796295
-0.006501310970634222 -0.015760095790028572 -0.08980000019073486
-0.006038407329469919 -0.015777645632624626 -0.08989999443292618
-0.012915818020701408 -0.01603090949356556 -0.08869999647140503
-0.012451950460672379 -0.01603090949356556 -0.08869999647140503
-0.011988083831965923 -0.01603090949356556 -0.08869999647140503
-0.01153720822185278 -0.016048984602093697 -0.08879999816417694
-0.011072817258536816 -0.016048984602093697 -0.08879999816417694
-0.010608427226543427 -0.016048984602093697 -0.08879999816417694
-0.010144036263227463 -0.016048984602093697 -0.08879999816417694
-0.009679646231234074 -0.016048984602093697 -0.08879999816417694
-0.00922563299536705 -0.016067057847976685 -0.08889999985694885
-0.008770573884248734 -0.016085129231214523 -0.08899999409914017
-0.008305137977004051 -0.016085129231214523 -0.08899999409914017
-0.007857318967580795 -0.0161212757229805 -0.08919999748468399
-0.007399122696369886 -0.016139348968863487 -0.0892999991774559
-0.00694764219224453 -0.016175495460629463 -0.08949999511241913
-0.006494070868939161 -0.01621164195239544 -0.08969999849796295
-0.012915818020701408 -0.01649477705359459 -0.08869999647140503
-0.012451950460672379 -0.01649477705359459 -0.08869999647140503
-0.011988083831965923 -0.01649477705359459 -0.08869999647140503
-0.011524216271936893 -0.01649477705359459 -0.08869999647140503
-0.011072817258536816 -0.01651337370276451 -0.08879999816417694
-0.010608427226543427 -0.01651337370276451 -0.08879999816417694
-0.010144036263227463 -0.01651337370276451 -0.08879999816417694
-0.009679646231234074 -0.01651337370276451 -0.08879999816417694
-0.00921525526791811 -0.01651337370276451 -0.08879999816417694
-0.008760720491409302 -0.016531970351934433 -0.08889999985694885
-0.008305137977004051 -0.016550565138459206 -0.08899999409914017
-0.007839701138436794 -0.016550565138459206 -0.08899999409914017
-0.0073908367194235325 -0.01658775843679905 -0.08919999748468399
-0.013645204715430737 -0.01909208856523037 -0.09719999879598618
-0.013150401413440704 -0.01911173202097416 -0.09730000048875809
