ply
format ascii 1.0
element vertex 772
property float x
property float y
property float z
end_header
0.01152140274643898 -0.0022399446461349726 0.17270000278949738
0.011972781270742416 -0.0022399446461349726 0.17270000278949738
0.012388190254569054 -0.0022334593813866377 0.17219999432563782
0.012838262133300304 -0.0022334593813866377 0.17219999432563782
0.013280616141855717 -0.002232162281870842 0.1720999926328659
0.01373042818158865 -0.002232162281870842 0.1720999926328659
0.014188477769494057 -0.0022334593813866377 0.17219999432563782
0.014638549648225307 -0.0022334593813866377 0.17219999432563782
0.015132434666156769 -0.0022399446461349726 0.17270000278949738
0.015619906596839428 -0.002245132578536868 0.17309999465942383
0.016081616282463074 -0.00224642944522202 0.17319999635219574
0.016572486609220505 -0.0022516173776239157 0.1735999882221222
0.01705564185976982 -0.002255508676171303 0.17389999330043793
0.017520226538181305 -0.002256805542856455 0.17399999499320984
0.017995664849877357 -0.0022593997418880463 0.17419999837875366
0.03046942688524723 -0.002143965335562825 0.16529999673366547
0.030826685950160027 -0.002138777170330286 0.16489998996257782
0.031276632100343704 -0.0021400742698460817 0.16499999165534973
0.03170788660645485 -0.0021400742698460817 0.16499999165534973
0.03349369019269943 -0.002143965335562825 0.16529999673366547
0.03394624963402748 -0.002145262435078621 0.16539999842643738
0.03439933806657791 -0.0021465595345944166 0.1655000001192093
0.03489503636956215 -0.0021504503674805164 0.16579999029636383
0.03537099435925484 -0.002153044333681464 0.16599999368190765
0.06317795068025589 -0.002199736889451742 0.1695999950170517
0.06362123042345047 -0.002199736889451742 0.1695999950170517
0.06410227715969086 -0.002201033988967538 0.1696999967098236
0.06719626486301422 -0.002215301152318716 0.17080000042915344
0.0677218809723854 -0.002217895118519664 0.17099998891353607
0.06816881895065308 -0.002217895118519664 0.17099998891353607
0.06873613595962524 -0.0022217861842364073 0.1712999939918518
0.06922424584627151 -0.002223083283752203 0.17139999568462372
0.0697941780090332 -0.0022269743494689465 0.17170000076293945
0.0011555259115993977 -0.0018134211422875524 0.17509999871253967
0.0016131774755194783 -0.0018134211422875524 0.17509999871253967
0.002070829039439559 -0.0018134211422875524 0.17509999871253967
0.002528480952605605 -0.0018134211422875524 0.17509999871253967
0.0029861326329410076 -0.0018134211422875524 0.17509999871253967
0.003441817359998822 -0.00181238551158458 0.17499999701976776
0.009167946875095367 -0.00176992395427078 0.17090000212192535
0.009614621289074421 -0.00176992395427078 0.17090000212192535
0.010067181661725044 -0.0017709594685584307 0.17099998891353607
0.010538713075220585 -0.0017751021077856421 0.17139999568462372
0.011031562462449074 -0.0017823516391217709 0.1720999926328659
0.011488045565783978 -0.0017833872698247433 0.17219999432563782
0.01193118467926979 -0.0017823516391217709 0.1720999926328659
0.012359414249658585 -0.0017792447470128536 0.17180000245571136
0.012830805964767933 -0.0017823516391217709 0.1720999926328659
0.013257467187941074 -0.0017792447470128536 0.17180000245571136
0.01373042818158865 -0.0017823516391217709 0.1720999926328659
0.014204957522451878 -0.00178545864764601 0.17239999771118164
0.014681054279208183 -0.001788565656170249 0.17270000278949738
0.015167483128607273 -0.0017927081789821386 0.17309999465942383
0.015628930181264877 -0.001793743809685111 0.17319999635219574
0.016109472140669823 -0.0017968508182093501 0.17350000143051147
0.01660112664103508 -0.0018009933410212398 0.17389999330043793
0.01705564185976982 -0.0018009933410212398 0.17389999330043793
0.029838180169463158 -0.0017253909027203918 0.16659998893737793
0.030128244310617447 -0.0017171057406812906 0.16579999029636383
0.03048785962164402 -0.001712963217869401 0.16539999842643738
0.030901463702321053 -0.0017119275871664286 0.16529999673366547
0.03129559010267258 -0.001709856209345162 0.16509999334812164
0.031765539199113846 -0.0017119275871664286 0.16529999673366547
0.03308165445923805 -0.001712963217869401 0.16539999842643738
0.033513955771923065 -0.001712963217869401 0.16539999842643738
0.033925727009773254 -0.0017119275871664286 0.16529999673366547
0.034378550946712494 -0.001712963217869401 0.16539999842643738
0.03483189642429352 -0.0017139988485723734 0.1655000001192093
0.03528576344251633 -0.0017150344792753458 0.1656000018119812
0.0358048640191555 -0.0017191770020872355 0.16599999368190765
0.03636971488595009 -0.0017253909027203918 0.16659998893737793
0.06410227715969086 -0.0017574960365891457 0.1696999967098236
0.06719626486301422 -0.0017688882071524858 0.17080000042915344
0.06768228113651276 -0.00176992395427078 0.17090000212192535
0.06816881895065308 -0.0017709594685584307 0.17099998891353607
0.06873613595962524 -0.0017740664770826697 0.1712999939918518
0.06922424584627151 -0.0017751021077856421 0.17139999568462372
0.06967222690582275 -0.0017751021077856421 0.17139999568462372
0.0011601452715694904 -0.0013611892936751246 0.17579999566078186
0.0016196264186874032 -0.0013611892936751246 0.17579999566078186
0.0020791077986359596 -0.0013611892936751246 0.17579999566078186
0.0025385890621691942 -0.0013611892936751246 0.17579999566078186
0.002998070325702429 -0.0013611892936751246 0.17579999566078186
0.0034575513564050198 -0.0013611892936751246 0.17579999566078186
0.010067181661725044 -0.0013240237021818757 0.17099998891353607
0.010532563552260399 -0.0013263465370982885 0.1712999939918518
0.01100592315196991 -0.0013294437667354941 0.17170000076293945
0.011461361311376095 -0.001330218045040965 0.17180000245571136
0.011910387314856052 -0.001330218045040965 0.17180000245571136
0.012359414249658585 -0.001330218045040965 0.17180000245571136
0.012830805964767933 -0.001332540879957378 0.1720999926328659
0.01328833308070898 -0.0013333151582628489 0.17219999432563782
0.013754363171756268 -0.0013348637148737907 0.17239999771118164
0.014229676686227322 -0.0013371866662055254 0.17270000278949738
0.014715057797729969 -0.0013402836630120873 0.17309999465942383
0.015185007825493813 -0.0013418322196230292 0.17329999804496765
0.015665024518966675 -0.001344155054539442 0.1735999882221222
0.016128040850162506 -0.001344929332844913 0.1736999899148941
0.01661067269742489 -0.0013472522841766477 0.17399999499320984
0.017065448686480522 -0.0013472522841766477 0.17399999499320984
0.029838180169463158 -0.0012899552239105105 0.16659998893737793
0.030128244310617447 -0.001283760997466743 0.16579999029636383
0.03050629235804081 -0.001281438278965652 0.1655000001192093
0.030920159071683884 -0.0012806638842448592 0.16539999842643738
0.0313524566590786 -0.0012806638842448592 0.16539999842643738
0.03178475797176361 -0.0012806638842448592 0.16539999842643738
0.033101655542850494 -0.001281438278965652 0.1655000001192093
0.0335342176258564 -0.001281438278965652 0.1655000001192093
0.03394624963402748 -0.0012806638842448592 0.16539999842643738
0.034357767552137375 -0.0012798896059393883 0.16529999673366547
0.03481085225939751 -0.0012806638842448592 0.16539999842643738
0.03526445850729942 -0.001281438278965652 0.1655000001192093
0.035718586295843124 -0.001282212557271123 0.1656000018119812
0.03623872995376587 -0.0012853095540776849 0.16599999368190765
0.06410227715969086 -0.0013139580842107534 0.1696999967098236
0.06454581022262573 -0.0013139580842107534 0.1696999967098236
0.06711757928133011 -0.001320926588959992 0.17059999704360962
0.0676426813006401 -0.0013224752619862556 0.17080000042915344
0.06812895834445953 -0.0013232495402917266 0.17090000212192535
0.06861575692892075 -0.0013240237021818757 0.17099998891353607
0.06918385624885559 -0.0013263465370982885 0.1712999939918518
0.06967222690582275 -0.0013271209318190813 0.17139999568462372
0.07024294137954712 -0.0013294437667354941 0.17170000076293945
0.07073287665843964 -0.001330218045040965 0.17180000245571136
0.001164764747954905 -0.0009052985114976764 0.17649999260902405
0.00162607547827065 -0.0009052985114976764 0.17649999260902405
0.0020873863250017166 -0.0009052985114976764 0.17649999260902405
0.0025486969389021397 -0.0009052985114976764 0.17649999260902405
0.00301000801846385 -0.0009052985114976764 0.17649999260902405
0.003471318632364273 -0.0009052985114976764 0.17649999260902405
0.01100592315196991 -0.0008806785335764289 0.17170000076293945
0.01145468931645155 -0.0008806785335764289 0.17170000076293945
0.011910387314856052 -0.0008811914594843984 0.17180000245571136
0.012359414249658585 -0.0008811914594843984 0.17180000245571136
0.012830805964767933 -0.000882730120792985 0.1720999926328659
0.013303766958415508 -0.0008842688985168934 0.17239999771118164
0.013778298161923885 -0.0008858076762408018 0.17270000278949738
0.01426263339817524 -0.0008878593216650188 0.17309999465942383
0.01473206002265215 -0.0008888851734809577 0.17329999804496765
0.01521129347383976 -0.0008904238929972053 0.1735999882221222
0.029838180169463158 -0.0008545196615159512 0.16659998893737793
0.030128244310617447 -0.0008504163706675172 0.16579999029636383
0.0305247250944376 -0.0008493905770592391 0.1656000018119812
0.030938854441046715 -0.0008488776511512697 0.1655000001192093
0.03137141093611717 -0.0008488776511512697 0.1655000001192093
0.03180397301912308 -0.0008488776511512697 0.1655000001192093
0.03225601464509964 -0.0008493905770592391 0.1656000018119812
0.033121656626462936 -0.0008493905770592391 0.1656000018119812
0.0335342176258564 -0.0008488776511512697 0.1655000001192093
0.03394624963402748 -0.0008483647252433002 0.16539999842643738
0.034357767552137375 -0.0008478517993353307 0.16529999673366547
0.034747712314128876 -0.0008468259475193918 0.16509999334812164
0.035179223865270615 -0.0008468259475193918 0.16509999334812164
0.035675447434186935 -0.0008483647252433002 0.16539999842643738
0.03615140914916992 -0.0008493905770592391 0.1656000018119812
0.0680890902876854 -0.0008760622586123645 0.17080000042915344
0.06857563555240631 -0.000876575184520334 0.17090000212192535
0.06906268745660782 -0.0008770880522206426 0.17099998891353607
0.06963157653808594 -0.000878626829944551 0.1712999939918518
0.07012020796537399 -0.0008791397558525205 0.17139999568462372
0.07069170475006104 -0.0008806785335764289 0.17170000076293945
0.0007046496612019837 -0.00044474235619418323 0.17679999768733978
0.0011667445069178939 -0.00044474235619418323 0.17679999768733978
0.001628839410841465 -0.00044474235619418323 0.17679999768733978
0.0020897516515105963 -0.0004444908117875457 0.17669999599456787
0.002553029218688607 -0.00044474235619418323 0.17679999768733978
0.0030151242390275 -0.00044474235619418323 0.17679999768733978
0.0034772190265357494 -0.00044474235619418323 0.17679999768733978
0.01107002329081297 -0.0004344287735875696 0.17270000278949738
0.01152140274643898 -0.0004344287735875696 0.17270000278949738
0.011972781270742416 -0.0004344287735875696 0.17270000278949738
0.012431354261934757 -0.0004346802888903767 0.1727999895811081
0.012905361130833626 -0.0004354349512141198 0.17309999465942383
0.013365501537919044 -0.0004356865247245878 0.17319999635219574
0.013826166279613972 -0.00043593806913122535 0.17329999804496765
0.014303830452263355 -0.000436692702351138 0.1735999882221222
0.01478306483477354 -0.0004374473646748811 0.17389999330043793
0.015237580984830856 -0.0004374473646748811 0.17389999330043793
0.029874000698328018 -0.0004195872461423278 0.16679999232292175
0.030146414414048195 -0.00041732328827492893 0.16589999198913574
0.0305247250944376 -0.0004165686550550163 0.1656000018119812
0.030957547947764397 -0.0004165686550550163 0.1656000018119812
0.031390368938446045 -0.0004165686550550163 0.1656000018119812
0.03182319179177284 -0.0004165686550550163 0.1656000018119812
0.03229496628046036 -0.0004170717147644609 0.16579999029636383
0.03316165506839752 -0.0004170717147644609 0.16579999029636383
0.033554479479789734 -0.0004165686550550163 0.1656000018119812
0.033966775983572006 -0.0004163170815445483 0.1655000001192093
0.034378550946712494 -0.0004160655371379107 0.16539999842643738
0.034747712314128876 -0.0004153108748141676 0.16509999334812164
0.03515791520476341 -0.0004150593013036996 0.16499999165534973
0.03561073914170265 -0.0004153108748141676 0.16509999334812164
0.03610774874687195 -0.0004160655371379107 0.16539999842643738
0.03658423200249672 -0.0004165686550550163 0.1656000018119812
0.0371064655482769 -0.0004175748326815665 0.16599999368190765
0.06740505248308182 -0.00042813995969481766 0.17019999027252197
0.06796949356794357 -0.00042889462201856077 0.1704999953508377
0.06845525652170181 -0.0004291461955290288 0.17059999704360962
0.06898192316293716 -0.00042964931344613433 0.17080000042915344
0.06950962543487549 -0.00043015237315557897 0.17099998891353607
0.07007929682731628 -0.0004309070354793221 0.1712999939918518
0.07056818157434464 -0.0004311586089897901 0.17139999568462372
0.0002425547136226669 1.7352531358483247e-05 0.17679999768733978
0.0007058453047648072 1.7381977158947848e-05 0.17710000276565552
0.0011667445069178939 1.7352531358483247e-05 0.17679999768733978
0.00163160334341228 1.7381977158947848e-05 0.17710000276565552
0.0020944823045283556 1.7381977158947848e-05 0.17710000276565552
0.002557361265644431 1.7381977158947848e-05 0.17710000276565552
0.030164586380124092 1.629253529245034e-05 0.16599999368190765
0.03056158870458603 1.6272904758807272e-05 0.16579999029636383
0.030957547947764397 1.6253277863143012e-05 0.1656000018119812
0.03142827749252319 1.6272904758807272e-05 0.16579999029636383
0.03188084065914154 1.6282720025628805e-05 0.16589999198913574
0.03233392536640167 1.629253529245034e-05 0.16599999368190765
0.03276779130101204 1.629253529245034e-05 0.16599999368190765
0.033201657235622406 1.629253529245034e-05 0.16599999368190765
0.0335950031876564 1.6272904758807272e-05 0.16579999029636383
0.03398729860782623 1.6253277863143012e-05 0.1656000018119812
0.03439933806657791 1.624346259632148e-05 0.1655000001192093
0.0347898043692112 1.622383206267841e-05 0.16529999673366547
0.03515791520476341 1.6194388081203215e-05 0.16499999165534973
0.03556760028004646 1.618457281438168e-05 0.16489998996257782
0.0360204242169857 1.6194388081203215e-05 0.16499999165534973
0.03651795536279678 1.622383206267841e-05 0.16529999673366547
0.03701705485582352 1.6253277863143012e-05 0.1656000018119812
0.06672415882349014 1.664586852712091e-05 0.1695999950170517
0.06732585281133652 1.668512777541764e-05 0.17000000178813934
0.06781003624200821 1.669494122324977e-05 0.17009998857975006
0.06837499886751175 1.6724385204724967e-05 0.1703999936580658
0.06890114396810532 1.6744015738368034e-05 0.17059999704360962
0.06942833214998245 1.67636462720111e-05 0.17080000042915344
0.06991565972566605 1.677345971984323e-05 0.17090000212192535
0.07040349394083023 1.678327316767536e-05 0.17099998891353607
0.07101616263389587 1.6822534234961495e-05 0.17139999568462372
0.07158923149108887 1.685197821643669e-05 0.17170000076293945
0.00024241751816589385 0.00047917626216076314 0.17669999599456787
0.0007046496612019837 0.000479447451652959 0.17679999768733978
0.0011687243822962046 0.0004802610201295465 0.17710000276565552
0.00163160334341228 0.0004802610201295465 0.17710000276565552
0.0020956648513674736 0.00048053215141408145 0.17719998955726624
0.0025588050484657288 0.00048053215141408145 0.17719998955726624
0.0030270619317889214 0.000481345719890669 0.17749999463558197
0.0034909863024950027 0.000481345719890669 0.17749999463558197
0.03056158870458603 0.00044961756793782115 0.16579999029636383
0.03099493496119976 0.00044961756793782115 0.16579999029636383
0.03144723176956177 0.000449888757430017 0.16589999198913574
0.03190005570650101 0.0004501599178183824 0.16599999368190765
0.034028343856334686 0.00044961756793782115 0.16579999029636383
0.03439933806657791 0.00044880405766889453 0.1655000001192093
0.0347898043692112 0.00044826167868450284 0.16529999673366547
0.03515791520476341 0.0004474481102079153 0.16499999165534973
0.03556760028004646 0.00044717692071571946 0.16489998996257782
0.035998594015836716 0.00044717692071571946 0.16489998996257782
0.03645167872309685 0.0004474481102079153 0.16499999165534973
0.03699469938874245 0.00044880405766889453 0.1655000001192093
0.06668481230735779 0.0004596512590069324 0.16949999332427979
0.06720703840255737 0.00046019363799132407 0.1696999967098236
0.06773030757904053 0.0004607359878718853 0.16990000009536743
0.06825461983680725 0.00046127833775244653 0.17009998857975006
0.06882036477327347 0.0004620918771252036 0.1703999936580658
0.0693063884973526 0.00046236306661739945 0.1704999953508377
0.06987474858760834 0.000463176635093987 0.17080000042915344
0.07036232948303223 0.0004634477954823524 0.17090000212192535
0.0708504319190979 0.00046371895587071776 0.17099998891353607
0.07146415114402771 0.0004648036847356707 0.17139999568462372
0.00024241751816589385 0.0009410097845830023 0.17669999599456787
0.0007046496612019837 0.0009415423846803606 0.17679999768733978
0.0011687243822962046 0.0009431400103494525 0.17710000276565552
0.0016325244214385748 0.0009436724940314889 0.17719998955726624
0.0020956648513674736 0.0009436724940314889 0.17719998955726624
0.0025631373282521963 0.0009452701779082417 0.17749999463558197
0.03056158870458603 0.000882962194737047 0.16579999029636383
0.031013628467917442 0.0008834947366267443 0.16589999198913574
0.03146618977189064 0.0008840273367241025 0.16599999368190765
0.03191927447915077 0.0008845598786137998 0.16609999537467957
0.032392360270023346 0.0008856249623931944 0.1662999987602234
0.03284675255417824 0.0008861575042828918 0.1664000004529953
0.03483189642429352 0.0008813646272756159 0.1655000001192093
0.03522184118628502 0.0008802994852885604 0.16529999673366547
0.03556760028004646 0.0008781692595221102 0.16489998996257782
0.03597676753997803 0.0008776367758400738 0.1648000031709671
0.03642958775162697 0.0008781692595221102 0.16489998996257782
0.036905284970998764 0.0008792344015091658 0.16509999334812164
0.037449877709150314 0.0008818971691653132 0.1656000018119812
0.03797420114278793 0.0008840273367241025 0.16599999368190765
0.06652744859457016 0.000900536309927702 0.16910000145435333
0.06712783128023148 0.0009026664192788303 0.16949999332427979
0.0676107108592987 0.0009031990193761885 0.1695999950170517
0.06817436963319778 0.0009047966450452805 0.16990000009536743
0.06869920343160629 0.0009058616706170142 0.17009998857975006
0.06918443739414215 0.0009063942707143724 0.17019999027252197
0.0697111040353775 0.000907459354493767 0.1703999936580658
0.07032115757465363 0.0009095895802602172 0.17080000042915344
0.070809006690979 0.0009101221221499145 0.17090000212192535
0.07142245024442673 0.0009122522897087038 0.1712999939918518
0.0002425547136226669 0.0014036372303962708 0.17679999768733978
0.0007046496612019837 0.0014036372303962708 0.17679999768733978
0.0011687243822962046 0.001406018971465528 0.17710000276565552
0.0016325244214385748 0.0014068128075450659 0.17719998955726624
0.0020992127247154713 0.0014091945486143231 0.17749999463558197
0.002566025359556079 0.0014107824536040425 0.1776999980211258
0.03058002144098282 0.0013171007158234715 0.16589999198913574
0.031013628467917442 0.0013171007158234715 0.16589999198913574
0.03146618977189064 0.0013178946683183312 0.16599999368190765
0.03191927447915077 0.0013186885043978691 0.16609999537467957
0.03483189642429352 0.0013139251386746764 0.1655000001192093
0.03522184118628502 0.001312337233684957 0.16529999673366547
0.03558916971087456 0.0013099554926156998 0.16499999165534973
0.03597676753997803 0.0013083677040413022 0.1648000031709671
0.03642958775162697 0.00130916154012084 0.16489998996257782
0.03688293322920799 0.0013099554926156998 0.16499999165534973
0.03740464523434639 0.0013131311861798167 0.16539999842643738
0.037928447127342224 0.0013163067633286119 0.16579999029636383
0.06640942394733429 0.0013401241740211844 0.1687999963760376
0.06696942448616028 0.0013425059150904417 0.16910000145435333
0.06757085025310516 0.0013456814922392368 0.16949999332427979
0.06809411942958832 0.0013472693972289562 0.1696999967098236
0.06861843168735504 0.0013488573022186756 0.16990000009536743
0.06914378702640533 0.0013504449743777514 0.17009998857975006
0.06962928175926208 0.001351238926872611 0.17019999027252197
0.07015646994113922 0.0013528267154470086 0.1703999936580658
0.07068470120429993 0.001354414620436728 0.17059999704360962
0.07125567644834518 0.0013567963615059853 0.17090000212192535
0.07187017053365707 0.0013599719386547804 0.1712999939918518
0.07236011326313019 0.00136076589114964 0.17139999568462372
0.00024241751816589385 0.0018646768294274807 0.17669999599456787
0.0007046496612019837 0.0018657321343198419 0.17679999768733978
0.0011687243822962046 0.0018688979325816035 0.17710000276565552
0.0016325244214385748 0.0018699531210586429 0.17719998955726624
0.0020992127247154713 0.0018731190357357264 0.17749999463558197
0.002566025359556079 0.0018752296455204487 0.1776999980211258
0.03056158870458603 0.0017496513901278377 0.16579999029636383
0.031013628467917442 0.0017507066950201988 0.16589999198913574
0.03146618977189064 0.00175176199991256 0.16599999368190765
0.03191927447915077 0.0017528173048049212 0.16609999537467957
0.03485294431447983 0.001747541013173759 0.1656000018119812
0.03524314984679222 0.0017454304033890367 0.16539999842643738
0.03561073914170265 0.0017422644887119532 0.16509999334812164
0.0360204242169857 0.001741209183819592 0.16499999165534973
0.03642958775162697 0.0017401538789272308 0.16489998996257782
0.03686057776212692 0.0017401538789272308 0.16489998996257782
0.037382032722234726 0.0017443750984966755 0.16529999673366547
0.03788270056247711 0.001747541013173759 0.1656000018119812
0.06633073836565018 0.0017791992286220193 0.16859999299049377
0.06685061007738113 0.0017813098384067416 0.1687999963760376
0.0674113929271698 0.0017844757530838251 0.16910000145435333
0.06801386177539825 0.0017886967398226261 0.16949999332427979
0.0685376524925232 0.0017908073496073484 0.1696999967098236
0.0690624937415123 0.0017929179593920708 0.16990000009536743
0.06958837062120438 0.0017950283363461494 0.17009998857975006
0.07007412612438202 0.0017960836412385106 0.17019999027252197
0.07064326852560043 0.001799249555915594 0.1704999953508377
0.07113059610128403 0.0018003048608079553 0.17059999704360962
0.07170235365629196 0.0018034707754850388 0.17090000212192535
0.07219123840332031 0.0018045258475467563 0.17099998891353607
0.00024241751816589385 0.0023265103809535503 0.17669999599456787
0.0007046496612019837 0.002327827038243413 0.17679999768733978
0.0011687243822962046 0.002331777010113001 0.17710000276565552
0.0016325244214385748 0.00233309343457222 0.17719998955726624
0.0020992127247154713 0.0023370434064418077 0.17749999463558197
0.002566025359556079 0.002339676721021533 0.1776999980211258
0.03056158870458603 0.0021829961333423853 0.16579999029636383
0.03099493496119976 0.0021829961333423853 0.16579999029636383
0.03146618977189064 0.0021856294479221106 0.16599999368190765
0.03191927447915077 0.002186946105211973 0.16609999537467957
0.03489503636956215 0.0021829961333423853 0.16579999029636383
0.03528576344251633 0.00218036281876266 0.1656000018119812
0.035675447434186935 0.0021777295041829348 0.16539999842643738
0.03604225441813469 0.002173779532313347 0.16509999334812164
0.03645167872309685 0.0021724628750234842 0.16499999165534973
0.03688293322920799 0.0021724628750234842 0.16499999165534973
0.037382032722234726 0.002176412846893072 0.16529999673366547
0.03785982355475426 0.0021790461614727974 0.1655000001192093
0.038361791521310806 0.0021829961333423853 0.16579999029636383
0.03891213238239288 0.0021895794197916985 0.1662999987602234
0.06625205278396606 0.0022172287572175264 0.16839998960494995
0.06677140295505524 0.0022198620717972517 0.16859999299049377
0.06729179620742798 0.002222495386376977 0.1687999963760376
0.06785336136817932 0.002226445358246565 0.16910000145435333
0.06845688074827194 0.0022317119874060154 0.16949999332427979
0.06898119300603867 0.0022343453019857407 0.1696999967098236
0.06950655579566956 0.002236978616565466 0.16990000009536743
0.07003294676542282 0.0022396116983145475 0.17009998857975006
0.07051897048950195 0.00224092835560441 0.17019999027252197
0.07104720175266266 0.0022435616701841354 0.1703999936580658
0.07157648354768753 0.0022461949847638607 0.17059999704360962
0.07214903086423874 0.0022501449566334486 0.17090000212192535
-0.00021916769037488848 0.0027851879131048918 0.17649999260902405
0.00024241751816589385 0.00278834393247962 0.17669999599456787
0.0007046496612019837 0.002789922058582306 0.17679999768733978
0.0011687243822962046 0.00279465620405972 0.17710000276565552
0.0016325244214385748 0.0027962340973317623 0.17719998955726624
0.0020992127247154713 0.002800968009978533 0.17749999463558197
0.002566025359556079 0.0028041242621839046 0.1776999980211258
0.0305247250944376 0.0026131849735975266 0.1656000018119812
0.03099493496119976 0.002616340760141611 0.16579999029636383
0.03146618977189064 0.002619497012346983 0.16599999368190765
0.031957708299160004 0.0026242309249937534 0.1662999987602234
0.03493712842464447 0.002619497012346983 0.16599999368190765
0.03532837703824043 0.002616340760141611 0.16579999029636383
0.035718586295843124 0.0026131849735975266 0.1656000018119812
0.03610774874687195 0.0026100289542227983 0.16539999842643738
0.036473773419857025 0.002605294808745384 0.16509999334812164
0.036905284970998764 0.002605294808745384 0.16509999334812164
0.037382032722234726 0.0026084508281201124 0.16529999673366547
0.0378369465470314 0.0026100289542227983 0.16539999842643738
0.03831551969051361 0.0026131849735975266 0.1656000018119812
0.038841936737298965 0.002619497012346983 0.16599999368190765
0.06713233143091202 0.0026573690120130777 0.16839998960494995
0.06777311116456985 0.00266525917686522 0.1688999980688095
0.0683761015534401 0.0026715712156146765 0.16929998993873596
0.06894054263830185 0.0026763053610920906 0.1695999950170517
0.06942473351955414 0.002677883254364133 0.1696999967098236
0.06999178230762482 0.002682617399841547 0.17000000178813934
0.07047753781080246 0.0026841952931135893 0.17009998857975006
0.07096381485462189 0.0026857731863856316 0.17019999027252197
0.07149257510900497 0.0026889294385910034 0.1703999936580658
0.07202237844467163 0.0026920854579657316 0.17059999704360962
0.07255322486162186 0.00269524147734046 0.17080000042915344
0.0730423778295517 0.0026968196034431458 0.17090000212192535
-0.00021941604791209102 0.0032501774840056896 0.17669999599456787
0.0002425547136226669 0.003252016846090555 0.17679999768733978
0.0007058453047648072 0.003257534932345152 0.17710000276565552
0.0011687243822962046 0.003257534932345152 0.17710000276565552
0.0016325244214385748 0.003259374061599374 0.17719998955726624
0.0020992127247154713 0.003264892380684614 0.17749999463558197
0.002566025359556079 0.0032685711048543453 0.1776999980211258
0.0305247250944376 0.0030460068956017494 0.1656000018119812
0.03099493496119976 0.003049685386940837 0.16579999029636383
0.03146618977189064 0.003053364111110568 0.16599999368190765
0.03197692707180977 0.003060721792280674 0.1664000004529953
0.03576172515749931 0.003049685386940837 0.16579999029636383
0.03615140914916992 0.0030460068956017494 0.1656000018119812
0.03654005005955696 0.0030423279386013746 0.16539999842643738
0.036949992179870605 0.003040488576516509 0.16529999673366547
0.037382032722234726 0.003040488576516509 0.16529999673366547
0.03785982355475426 0.00304416730068624 0.1655000001192093
0.03831551969051361 0.0030460068956017494 0.1656000018119812
0.03879513591527939 0.003049685386940837 0.16579999029636383
0.039299461990594864 0.0030552034731954336 0.16609999537467957
0.03992496058344841 0.003069918602705002 0.16689999401569366
0.06697287410497665 0.0030901518184691668 0.1679999977350235
0.06757247447967529 0.0030975090339779854 0.16839998960494995
0.06829532980918884 0.0031103850342333317 0.16910000145435333
0.068818598985672 0.003114063525572419 0.16929998993873596
0.06938382238149643 0.003119581611827016 0.1695999950170517
0.06986826658248901 0.003121421206742525 0.1696999967098236
0.07039467245340347 0.0031250999309122562 0.16990000009536743
0.0709221214056015 0.0031287784222513437 0.17009998857975006
0.07140865921974182 0.0031306177843362093 0.17019999027252197
0.0719379410147667 0.003134296741336584 0.1703999936580658
0.07246826589107513 0.0031379754655063152 0.17059999704360962
0.07299963384866714 0.00314165442250669 0.17080000042915344
-0.00021941604791209102 0.0037120110355317593 0.17669999599456787
0.0002425547136226669 0.003714111866429448 0.17679999768733978
0.0007058453047648072 0.003720414126291871 0.17710000276565552
0.0011687243822962046 0.003720414126291871 0.17710000276565552
0.0016325244214385748 0.0037225147243589163 0.17719998955726624
0.0020992127247154713 0.0037288169842213392 0.17749999463558197
0.002566025359556079 0.003733018646016717 0.1776999980211258
0.0305247250944376 0.0034788288176059723 0.1656000018119812
0.031013628467917442 0.0034851308446377516 0.16589999198913574
0.031485144048929214 0.0034893325064331293 0.16609999537467957
0.031996142119169235 0.003497735597193241 0.1665000021457672
0.0358048640191555 0.0034872316755354404 0.16599999368190765
0.036195069551467896 0.0034830300137400627 0.16579999029636383
0.03658423200249672 0.0034788288176059723 0.1656000018119812
0.03699469938874245 0.0034767279867082834 0.1655000001192093
0.03742726147174835 0.0034767279867082834 0.1655000001192093
0.03785982355475426 0.0034767279867082834 0.1655000001192093
0.038292381912469864 0.0034767279867082834 0.1655000001192093
0.03879513591527939 0.0034830300137400627 0.16579999029636383
0.03927580267190933 0.0034872316755354404 0.16599999368190765
0.039829280227422714 0.003497735597193241 0.1665000021457672
0.06693301349878311 0.0035271458327770233 0.1678999960422516
0.06741197407245636 0.003529246663674712 0.1679999977350235
0.06801261752843857 0.0035376492887735367 0.16839998960494995
0.06861535459756851 0.003546052612364292 0.1687999963760376
0.0692610889673233 0.0035565560683608055 0.16929998993873596
0.06982709467411041 0.0035628583282232285 0.1695999950170517
0.07031180709600449 0.0035649591591209173 0.1696999967098236
0.07083873450756073 0.003569160820916295 0.16990000009536743
0.07136670500040054 0.0035733620170503855 0.17009998857975006
0.07185350358486176 0.0035754628479480743 0.17019999027252197
0.07238330692052841 0.0035796642769128084 0.1703999936580658
0.07287140935659409 0.0035817651078104973 0.1704999953508377
-0.00021941604791209102 0.004173844587057829 0.17669999599456787
0.0002425547136226669 0.004176206421107054 0.17679999768733978
0.0007058453047648072 0.004183292854577303 0.17710000276565552
0.0011687243822962046 0.004183292854577303 0.17710000276565552
0.0016325244214385748 0.004185654688626528 0.17719998955726624
0.0020992127247154713 0.004192741122096777 0.17749999463558197
0.002566025359556079 0.004197465721517801 0.1776999980211258
0.03056158870458603 0.003916374407708645 0.16579999029636383
0.031032323837280273 0.003921099007129669 0.16599999368190765
0.031485144048929214 0.003923460841178894 0.16609999537467957
0.03205379098653793 0.003939995542168617 0.16679999232292175
0.032665055245161057 0.003961254842579365 0.16769999265670776
0.03328102082014084 0.003982513677328825 0.16859999299049377
0.03662841394543648 0.003916374407708645 0.16579999029636383
0.03701705485582352 0.003911650739610195 0.1656000018119812
0.037449877709150314 0.003911650739610195 0.1656000018119812
0.03785982355475426 0.003909288439899683 0.1655000001192093
0.03831551969051361 0.003911650739610195 0.1656000018119812
0.03874834254384041 0.003911650739610195 0.1656000018119812
0.0392521433532238 0.003918736707419157 0.16589999198913574
0.03978143632411957 0.003928185440599918 0.1662999987602234
0.06685327738523483 0.003961254842579365 0.16769999265670776
0.06729159504175186 0.003961254842579365 0.16769999265670776
0.06785106658935547 0.003968341276049614 0.1679999977350235
0.06837145984172821 0.003973065409809351 0.16820000112056732
0.06909745186567307 0.003989600110799074 0.1688999980688095
0.06970357894897461 0.003999048378318548 0.16929998993873596
0.07027037441730499 0.004006134811788797 0.1695999950170517
0.07075534760951996 0.0040084971114993095 0.1696999967098236
0.07128279656171799 0.0040132212452590466 0.16990000009536743
0.07181128859519958 0.004017945379018784 0.17009998857975006
0.07229834794998169 0.004020307213068008 0.17019999027252197
0.07274319231510162 0.004020307213068008 0.17019999027252197
0.0733170434832573 0.004027393646538258 0.1704999953508377
0.0737626701593399 0.004027393646538258 0.1704999953508377
-0.00021954021940473467 0.00463830167427659 0.17679999768733978
0.0002425547136226669 0.00463830167427659 0.17679999768733978
0.0007062438526190817 0.00464879535138607 0.17719998955726624
0.0011693842243403196 0.00464879535138607 0.17719998955726624
0.0016325244214385748 0.00464879535138607 0.17719998955726624
0.0020992127247154713 0.004656665958464146 0.17749999463558197
0.0025631373282521963 0.004656665958464146 0.17749999463558197
0.03058002144098282 0.004352342803031206 0.16589999198913574
0.031051017343997955 0.00435758987441659 0.16609999537467957
0.031542010605335236 0.004365460481494665 0.1664000004529953
0.03214987739920616 0.004389071837067604 0.1673000007867813
0.03284035995602608 0.004423176869750023 0.16859999299049377
0.03341919928789139 0.004441541153937578 0.16929998993873596
0.036694690585136414 0.00435758987441659 0.16609999537467957
0.03708411008119583 0.004352342803031206 0.16589999198913574
0.03749510273337364 0.004349719267338514 0.16579999029636383
0.03788270056247711 0.004344472661614418 0.1656000018119812
0.03831551969051361 0.004344472661614418 0.1656000018119812
0.03874834254384041 0.004344472661614418 0.1656000018119812
0.03922848403453827 0.004349719267338514 0.16579999029636383
0.0397096686065197 0.004354966338723898 0.16599999368190765
0.04026445373892784 0.004368084017187357 0.1665000021457672
0.04089518263936043 0.004389071837067604 0.1673000007867813
0.0677299052476883 0.004399565514177084 0.16769999265670776
0.06829016655683517 0.004407436121255159 0.1679999977350235
0.06889289617538452 0.004417929798364639 0.16839998960494995
0.069621242582798 0.004436294548213482 0.16910000145435333
0.07014606893062592 0.004441541153937578 0.16929998993873596
0.07071364670991898 0.004449411295354366 0.1695999950170517
0.07119888067245483 0.004452034831047058 0.1696999967098236
0.07176907360553741 0.0044599054381251335 0.17000000178813934
0.07225587218999863 0.004462528508156538 0.17009998857975006
0.07274319231510162 0.00446515204384923 0.17019999027252197
0.07318803668022156 0.00446515204384923 0.17019999027252197
0.07371940463781357 0.004470399115234613 0.1703999936580658
-0.00021954021940473467 0.00510039646178484 0.17679999768733978
0.0002425547136226669 0.00510039646178484 0.17679999768733978
0.0007062438526190817 0.005111935548484325 0.17719998955726624
0.0011693842243403196 0.005111935548484325 0.17719998955726624
0.0016325244214385748 0.005111935548484325 0.17719998955726624
0.0020956648513674736 0.005111935548484325 0.17719998955726624
0.0025631373282521963 0.005120590329170227 0.17749999463558197
0.030598454177379608 0.004788833670318127 0.16599999368190765
0.0311071015894413 0.0048003732226789 0.1664000004529953
0.03161783143877983 0.0048119123093783855 0.16679999232292175
0.03228439763188362 0.0048465305007994175 0.1679999977350235
0.03295723348855972 0.0048811486922204494 0.16920000314712524
0.03353763744235039 0.004901342559605837 0.16990000009536743
0.03754033148288727 0.004788833670318127 0.16599999368190765
0.037928447127342224 0.0047830636613070965 0.16579999029636383
0.038361791521310806 0.0047830636613070965 0.16579999029636383
0.03874834254384041 0.004777294583618641 0.1656000018119812
0.03922848403453827 0.0047830636613070965 0.16579999029636383
0.039685748517513275 0.004785948898643255 0.16589999198913574
0.04016771912574768 0.004791718441992998 0.16609999537467957
0.04072406888008118 0.004806142766028643 0.16659998893737793
0.06748758256435394 0.004820567090064287 0.1670999974012375
0.06808691471815109 0.004832106176763773 0.16749998927116394
0.06872925907373428 0.0048465305007994175 0.1679999977350235
0.0694153755903244 0.0048638395965099335 0.16859999299049377
0.07006321102380753 0.004878263920545578 0.16910000145435333
0.07058856636285782 0.004884033463895321 0.16929998993873596
0.07119888067245483 0.004895573016256094 0.1696999967098236
0.07172685861587524 0.004901342559605837 0.16990000009536743
0.07221339643001556 0.004904227331280708 0.17000000178813934
0.07270044833421707 0.00490711210295558 0.17009998857975006
0.07318803668022156 0.004909996874630451 0.17019999027252197
0.07371940463781357 0.004915766417980194 0.1703999936580658
-0.00021954021940473467 0.005562491249293089 0.17679999768733978
0.0002425547136226669 0.005562491249293089 0.17679999768733978
0.0007058453047648072 0.005571930203586817 0.17710000276565552
0.0011687243822962046 0.005571930203586817 0.17710000276565552
0.00163160334341228 0.005571930203586817 0.17710000276565552
0.0020956648513674736 0.005575075745582581 0.17719998955726624
0.0025588050484657288 0.005575075745582581 0.17719998955726624
0.030653754249215126 0.005232139490544796 0.1662999987602234
0.031181875616312027 0.005247870460152626 0.16679999232292175
0.031750522553920746 0.0052698939107358456 0.16749998927116394
0.032457347959280014 0.005313940811902285 0.1688999980688095
0.033054620027542114 0.0053391107358038425 0.1696999967098236
0.03359685465693474 0.005354841239750385 0.17019999027252197
0.037608176469802856 0.005232139490544796 0.1662999987602234
0.03797420114278793 0.005222701001912355 0.16599999368190765
0.03838492929935455 0.005219554528594017 0.16589999198913574
0.03879513591527939 0.005216408520936966 0.16579999029636383
0.03922848403453827 0.005216408520936966 0.16579999029636383
0.03966182470321655 0.005216408520936966 0.16579999029636383
0.040143538266420364 0.005222701001912355 0.16599999368190765
0.04065074026584625 0.005232139490544796 0.1662999987602234
0.041208915412425995 0.005247870460152626 0.16679999232292175
0.04186957702040672 0.005276186391711235 0.16769999265670776
0.06736641377210617 0.005247870460152626 0.16679999232292175
0.06792432069778442 0.005257309414446354 0.1670999974012375
0.06852470338344574 0.0052698939107358456 0.16749998927116394
0.06916835159063339 0.005285625346004963 0.1679999977350235
0.06993890553712845 0.0053107948042452335 0.1687999963760376
0.07050517946481705 0.005320233292877674 0.16910000145435333
0.07111497223377228 0.005332818254828453 0.16949999332427979
0.0716424211859703 0.0053391107358038425 0.1696999967098236
0.0721709206700325 0.005345403216779232 0.16990000009536743
0.07265771925449371 0.005348549224436283 0.17000000178813934
0.07314503192901611 0.005351695232093334 0.17009998857975006
0.07363288104534149 0.005354841239750385 0.17019999027252197
-0.00021941604791209102 0.0060211787931621075 0.17669999599456787
0.0002425547136226669 0.0060245865024626255 0.17679999768733978
0.0007058453047648072 0.006034809164702892 0.17710000276565552
0.0011687243822962046 0.006034809164702892 0.17710000276565552
0.001628839410841465 0.0060245865024626255 0.17679999768733978
0.030745917931199074 0.005683829076588154 0.16679999232292175
0.0313127338886261 0.005707681644707918 0.16749998927116394
0.03192112222313881 0.005738350097090006 0.16839998960494995
0.032591864466667175 0.00577924121171236 0.1695999950170517
0.033152010291814804 0.005799686070531607 0.17019999027252197
0.03371529281139374 0.005820131860673428 0.17080000042915344
0.037676021456718445 0.005677013657987118 0.16659998893737793
0.0380428321659565 0.005666791461408138 0.1662999987602234
0.0384080670773983 0.005656568333506584 0.16599999368190765
0.03881853446364403 0.005653160624206066 0.16589999198913574
0.03922848403453827 0.005649753380566835 0.16579999029636383
0.03966182470321655 0.005649753380566835 0.16579999029636383
0.04011935368180275 0.005653160624206066 0.16589999198913574
0.04060184955596924 0.005659976042807102 0.16609999537467957
0.041110094636678696 0.005670198705047369 0.1664000004529953
0.04166984185576439 0.005687236785888672 0.16689999401569366
0.06728564202785492 0.005677013657987118 0.16659998893737793
0.06772107630968094 0.005677013657987118 0.16659998893737793
0.0683610662817955 0.005694051738828421 0.1670999974012375
0.06904483586549759 0.005714497063308954 0.16769999265670776
0.06956601142883301 0.00572131248190999 0.1678999960422516
0.07029670476913452 0.005745165050029755 0.16859999299049377
0.07094714790582657 0.005762203596532345 0.16910000145435333
0.07155798375606537 0.005775833502411842 0.16949999332427979
0.07208596169948578 0.005782648455351591 0.1696999967098236
0.07261497527360916 0.005789463873952627 0.16990000009536743
0.07314503192901611 0.005796278826892376 0.17009998857975006
0.07363288104534149 0.005799686070531607 0.17019999027252197
0.07407772541046143 0.005799686070531607 0.17019999027252197
0.07465393096208572 0.005809909198433161 0.1704999953508377
-0.00021941604791209102 0.006483012344688177 0.17669999599456787
0.00024241751816589385 0.006483012344688177 0.17669999599456787
0.0007046496612019837 0.006486681289970875 0.17679999768733978
0.0011660846648737788 0.006483012344688177 0.17669999599456787
0.001628839410841465 0.006486681289970875 0.17679999768733978
0.030071012675762177 0.006160145625472069 0.1678999960422516
0.0304735004901886 0.006152807734906673 0.16769999265670776
0.0308749470859766 0.006145469844341278 0.16749998927116394
0.0320727676153183 0.006207842379808426 0.16920000314712524
0.03266873583197594 0.006237193942070007 0.17000000178813934
0.03326888382434845 0.0062665450386703014 0.17080000042915344
0.033892951905727386 0.0062995655462145805 0.17170000076293945
0.03843120485544205 0.006094105076044798 0.16609999537467957
0.03881853446364403 0.006086766719818115 0.16589999198913574
0.03922848403453827 0.0060830977745354176 0.16579999029636383
0.03966182470321655 0.0060830977745354176 0.16579999029636383
0.040095169097185135 0.0060830977745354176 0.16579999029636383
0.04057740420103073 0.0060904361307621 0.16599999368190765
0.0410359762609005 0.006094105076044798 0.16609999537467957
0.04154500737786293 0.006105111911892891 0.1664000004529953
0.042106062173843384 0.006123456172645092 0.16689999401569366
0.04279718175530434 0.006160145625472069 0.1678999960422516
0.06811560690402985 0.006108780857175589 0.1665000021457672
0.06867428869009018 0.006119787227362394 0.16679999232292175
0.06948314607143402 0.006152807734906673 0.16769999265670776
0.07012993097305298 0.006171152926981449 0.16820000112056732
0.07094714790582657 0.006204173434525728 0.16910000145435333
0.07155798375606537 0.006218848749995232 0.16949999332427979
0.07204347848892212 0.006222517695277929 0.1695999950170517
0.07252949476242065 0.006226186640560627 0.1696999967098236
0.07310204207897186 0.006237193942070007 0.17000000178813934
0.07358961552381516 0.006240862421691418 0.17009998857975006
0.07407772541046143 0.006244531366974115 0.17019999027252197
0.0746101438999176 0.006251869257539511 0.1703999936580658
0.00024214312725234777 0.006936985533684492 0.17649999260902405
0.0007034539594314992 0.006936985533684492 0.17649999260902405
0.0011660846648737788 0.006944845896214247 0.17669999599456787
0.0016279180999845266 0.006944845896214247 0.17669999599456787
0.03008892387151718 0.006602909881621599 0.1679999977350235
0.030564360320568085 0.006610770244151354 0.16820000112056732
0.031040841713547707 0.0066186306066811085 0.16839998960494995
0.0316118448972702 0.006646143272519112 0.16910000145435333
0.03216754272580147 0.006669724825769663 0.1696999967098236
0.0327455997467041 0.006697237025946379 0.1703999936580658
0.03344418853521347 0.006748331245034933 0.17170000076293945
0.034090347588062286 0.006787633989006281 0.17270000278949738
0.03854689002037048 0.00654788501560688 0.16659998893737793
0.038865335285663605 0.006528233643621206 0.16609999537467957
0.03927580267190933 0.006524303462356329 0.16599999368190765
0.03966182470321655 0.006516442634165287 0.16579999029636383
0.040095169097185135 0.006516442634165287 0.16579999029636383
0.040552958846092224 0.006520373281091452 0.16589999198913574
0.0410112701356411 0.006524303462356329 0.16599999368190765
0.041470106691122055 0.006528233643621206 0.16609999537467957
0.04197992384433746 0.006540025118738413 0.1664000004529953
0.04254228249192238 0.0065596760250627995 0.16689999401569366
0.06803378462791443 0.006536094471812248 0.1662999987602234
0.06850960105657578 0.006540025118738413 0.1664000004529953
0.06923454999923706 0.006567536853253841 0.1670999974012375
0.07000484317541122 0.006598979234695435 0.1678999960422516
0.07082127779722214 0.006634352263063192 0.1687999963760376
0.07147355377674103 0.006654003169387579 0.16929998993873596
0.07204347848892212 0.0066657946445047855 0.1695999950170517
0.07252949476242065 0.006669724825769663 0.1696999967098236
0.07305903732776642 0.006677585653960705 0.16990000009536743
0.07358961552381516 0.006685445550829172 0.17009998857975006
0.07407772541046143 0.006689376197755337 0.17019999027252197
0.0746101438999176 0.006697237025946379 0.1703999936580658
0.00024214312725234777 0.007398295681923628 0.17649999260902405
0.0007034539594314992 0.007398295681923628 0.17649999260902405
0.001164764747954905 0.007398295681923628 0.17649999260902405
0.0016233116621151567 0.00738572096452117 0.1762000024318695
0.030196383595466614 0.007067153695970774 0.16859999299049377
0.03067338839173317 0.007075537461787462 0.1687999963760376
0.03170531243085861 0.007109070662409067 0.1695999950170517
0.03224336355924606 0.007130028679966927 0.17009998857975006
0.032860901206731796 0.007167753763496876 0.17099998891353607
0.03927580267190933 0.00695817032828927 0.16599999368190765
0.039685748517513275 0.006953978445380926 0.16589999198913574
0.040095169097185135 0.006949787028133869 0.16579999029636383
0.040528517216444016 0.006949787028133869 0.16579999029636383
0.0409865640103817 0.006953978445380926 0.16589999198913574
0.04144513979554176 0.00695817032828927 0.16599999368190765
0.04190423712134361 0.006962362211197615 0.16609999537467957
0.0424148365855217 0.00697493739426136 0.1664000004529953
0.06882021576166153 0.006962362211197615 0.16609999537467957
0.06937943398952484 0.00697493739426136 0.1664000004529953
0.07027585059404373 0.007021045312285423 0.16749998927116394
0.07092472910881042 0.00704200379550457 0.1679999977350235
0.0716186985373497 0.007067153695970774 0.16859999299049377
0.07227306067943573 0.007088112644851208 0.16910000145435333
0.07293003052473068 0.007109070662409067 0.1695999950170517
0.07350309938192368 0.007121645845472813 0.16990000009536743
0.07407772541046143 0.007134220562875271 0.17019999027252197
0.07452256977558136 0.007134220562875271 0.17019999027252197
-0.00021879517589695752 0.007846248336136341 0.1762000024318695
0.0002417315699858591 0.007846248336136341 0.1762000024318695
0.0007022583158686757 0.007846248336136341 0.1762000024318695
0.0011627849889919162 0.007846248336136341 0.1762000024318695
0.0016233116621151567 0.007846248336136341 0.1762000024318695
0.03025011345744133 0.007521176245063543 0.1688999980688095
0.03074607439339161 0.007534535601735115 0.16920000314712524
0.03124360367655754 0.007547894027084112 0.16949999332427979
0.031761396676301956 0.007565706502646208 0.16990000009536743
0.03230023384094238 0.00758797163143754 0.1703999936580658
0.03301464021205902 0.0076503143645823 0.17180000245571136
0.039299461990594864 0.00739649124443531 0.16609999537467957
0.039685748517513275 0.0073875850066542625 0.16589999198913574
0.040095169097185135 0.007383131887763739 0.16579999029636383
0.040528517216444016 0.007383131887763739 0.16579999029636383
0.0409618578851223 0.007383131887763739 0.16579999029636383
0.04142017289996147 0.0073875850066542625 0.16589999198913574
0.04187900573015213 0.0073920381255447865 0.16599999368190765
