ply
format ascii 1.0
element vertex 738
property float x
property float y
property float z
end_header
-0.02625257536674592 -0.007758944194931953 -5.67697178155413e-09
-0.026253398412608125 -0.007760145292664517 0.002119054552167654
-0.026141095370660027 -0.007570130286813943 -5.443692607798312e-09
-0.02614423262760399 -0.0075753832044000175 0.0021190543193370104
-0.022836156487357904 -0.004367936609146489 -5.462490459962055e-09
-0.023092308331276235 -0.004473640556798907 -5.165559979758427e-09
-0.023100346338907948 -0.004477431602795613 0.002119053853675723
-0.02326494291783859 -0.004555319482786549 -5.064699326595701e-09
-0.023267080702121874 -0.004556295159305334 0.002119053853675723
-0.023416487020763724 -0.004637285810239979 0.002119053155183792
-0.023565747974566616 -0.004728922014440478 -5.126711055680744e-09
-0.02376781540334382 -0.004870831654054756 -5.428055782630281e-09
-0.02376584686629623 -0.0048689188582913615 0.002119053853675723
-0.024013053121516543 -0.005074173878189769 -5.052614326928051e-09
-0.024288433778798472 -0.005337148542398701 -5.467863939401241e-09
-0.02423113310786681 -0.005280304970763714 0.0021190543193370104
-0.024725091632631847 -0.0058075072571836415 0.0021190543193370104
-0.024443154973508303 -0.005498444372251363 0.0021190543193370104
-0.024555512337035082 -0.005619358897116329 -5.502416300373625e-09
-0.02341816784921806 -0.004638187794241909 -4.443835521783512e-09
-0.022767853347076518 -0.004340951709525045 0.0021190543193370104
-0.024010887162963075 -0.00507269663641077 0.0021190543193370104
-0.023566919771529315 -0.004729514378881062 0.002119053853675723
-0.02239176817387528 -0.0042208368523183335 -5.49117462611548e-09
-0.022246917386173383 -0.004183185235781702 0.0021190543193370104
-0.02216821230480881 -0.004164135928645678 -5.427489568887722e-09
-0.019269875741566224 -0.004318603646597797 0.0021190496627241373
-0.019056674651608964 -0.004398197711471302 -5.309186867918925e-09
-0.019471494201294053 -0.004252657883535148 -5.349916509800323e-09
-0.02247063343601366 -0.004242883537421294 0.0021190543193370104
-0.022604100280344732 -0.00428449251085411 -5.352467358221702e-09
-0.02201924781314646 -0.004132875815846324 0.0021190547849982977
-0.021721185483347775 -0.0040843319544107675 0.0021190540865063667
-0.02191231300084458 -0.004113665810002178 -5.067799069280454e-09
-0.021678446931462994 -0.00407893355492238 -5.5224984585322545e-09
-0.021189340006866838 -0.004038915390640258 -4.490475991048015e-09
-0.021438463974168112 -0.004053790937082342 -5.1560102853898115e-09
-0.021453298796890837 -0.004054667720649868 0.002119053853675723
-0.019057250868168337 -0.004398381658016269 0.002119053155183792
-0.018862657663907437 -0.004483260686087305 -5.3924118503800855e-09
-0.01885531815832842 -0.004486945200521721 0.0021190543193370104
-0.020862566032462684 -0.0040371786312107475 0.0021190540865063667
-0.0206228840378927 -0.00404822695586127 0.0021190543193370104
-0.02086106197249693 -0.0040369234247868094 -5.170821548716731e-09
-0.02111165750647046 -0.004037207892696985 0.0021190543193370104
-0.020385536494673024 -0.004069291632729332 -5.402785774322183e-09
-0.020149156178918902 -0.004100381951932514 0.002119053853675723
-0.02015049858813073 -0.004100369168692282 -5.1740154383139725e-09
-0.01993045217056496 -0.00413927501987441 0.002119052689522505
-0.019924612560315778 -0.004140406193320085 -3.98170874049697e-09
-0.019703759404811363 -0.004189522930896103 -5.136037373176805e-09
-0.01947739488319874 -0.004251040224496474 0.0021190540865063667
-0.020631162156211445 -0.004047716998272904 -5.495994770399193e-09
-0.020387752011786803 -0.0040688574583216675 0.0021190543193370104
-0.01969936466682377 -0.0041904751045459595 0.002119053853675723
-0.01786983983585413 -0.004982605288459783 -5.525873092437905e-09
-0.01786983983585413 -0.004982605288459783 0.0021190543193370104
-0.017842086363640427 -0.0029064966094772874 -5.526993085425147e-09
-0.017842025576590127 -0.0029082265739071704 0.0021190543193370104
-0.019042998268976916 0.002236459344428267 -5.449949380675889e-09
-0.01886400753233509 0.0018847811611675445 -5.525873092437905e-09
-0.018863682062871086 0.0018841287442137192 0.0021190543193370104
-0.0187238624761931 0.0015830909690887317 0.0021190543193370104
-0.018723413347925225 0.0015820527348537796 -5.524064317086186e-09
-0.018593327609500866 0.0012743929652560683 0.0021190543193370104
-0.018365341664556285 0.0006458789142454965 0.0021190543193370104
-0.018473639279119505 0.0009613865053292285 0.0021190543193370104
-0.018364299059321885 0.0006426965610609168 -5.519304124845803e-09
-0.018265327716137664 0.0003181071322056647 0.0021190543193370104
-0.018177933685638723 -7.817777563662236e-06 0.0021190543193370104
-0.01817675744541715 -1.2452026132628668e-05 -5.513427048242647e-09
-0.018099725801626065 -0.00034398035885739743 0.0021190543193370104
-0.018098548192231657 -0.00034937074032618783 -5.512160505816155e-09
-0.018031857927046 -0.0006866368364040478 0.0021190543193370104
-0.018030978840763625 -0.0006914107849010707 -5.5154494305043045e-09
-0.01797374023389426 -0.0010400959589703623 0.0021190543193370104
-0.01792720794297425 -0.0013923197466347965 0.0021190543193370104
-0.017926769512664625 -0.0013959482890004856 -5.521523682716634e-09
-0.017890124357910424 -0.0017588525084832056 0.0021190543193370104
-0.01786399277284389 -0.0021265463916069075 0.0021190543193370104
-0.017863840500536663 -0.002128936683815397 -5.5241335950029224e-09
-0.017847923190631224 -0.002504901630279593 0.0021190543193370104
-0.01784787873614438 -0.002506384465048201 -5.525204294087871e-09
-0.017890413446964737 -0.0017557371042433289 -5.525873092437905e-09
-0.017974351221670327 -0.0010360138218577094 -5.525873092437905e-09
-0.01826647932160877 0.0003220593388935707 -5.525873092437905e-09
-0.018474537309936128 0.000963845747310745 -5.525873092437905e-09
-0.018594043974741042 0.0012761660551525176 -5.525873092437905e-09
-0.01905164354072893 0.002252114457735184 0.0021190543193370104
-0.020356851639263235 0.003921729282375005 0.0021190543193370104
-0.02036447715443951 0.003928909579990465 -5.509497302824684e-09
-0.020133483809536806 0.0037019538181629784 -5.580690132234167e-09
-0.01982352542979726 0.0033692665981294194 0.002119054552167654
-0.019953055489610377 0.0035127537868563773 -4.936613340333906e-09
-0.019784997420632562 0.003323529194892429 -5.428788529826534e-09
-0.019652220389690625 0.003162702879696534 -5.454089624379321e-09
-0.019655527718199495 0.003166753385114737 0.0021190543193370104
-0.01950928507746769 0.002975796032460211 -5.1361719322073895e-09
-0.019512447991252152 0.0029802359767530265 0.002119053853675723
-0.019368230998952657 0.0027746823612096938 -5.215718967832572e-09
-0.019372076882167102 0.0027804758997875476 0.0021190540865063667
-0.019234439980918124 0.002564886831685354 -5.233589117636939e-09
-0.02062523372567628 0.004171864948598099 0.0021190543193370104
-0.02073007919990687 0.004266805809341096 -5.5149693700684566e-09
-0.019233498016332052 0.0025634970621967305 0.0021190540865063667
-0.020128531770386662 0.0036970873471011095 0.0021190543193370104
-0.021816591563347726 0.005199323820679549 0.0021190543193370104
-0.021227661342584404 0.004699507937893891 -5.51700196638194e-09
-0.021102746679753984 0.004593360838355255 0.0021190543193370104
-0.02412473824081649 0.006673920693413645 -5.0796584716295e-09
-0.024287708001608392 0.006718485131416711 0.002119054552167654
-0.024444452044937122 0.006756470005058065 -5.505991662602128e-09
-0.023238120182148405 0.006288903042821312 -5.6122511082890014e-09
-0.023073446366209165 0.006185003524654714 -5.152589910295546e-09
-0.023090264674446994 0.006196151749527257 0.0021190543193370104
-0.022861141063237663 0.0060376180475134765 -5.3120960963326525e-09
-0.02281702362016982 0.006006386112428251 0.0021190543193370104
-0.02195461271024735 0.005316861255121356 -5.524125157307935e-09
-0.022195665284024897 0.005517316905508777 0.0021190536208450794
-0.022495895312199407 0.005760199455173948 0.0021190540865063667
-0.022357893028612068 0.005649753544646283 -5.313391948646995e-09
-0.023574154928044128 0.006470027636907465 0.0021190536208450794
-0.02373005888059426 0.006538026079286039 0.002119053853675723
-0.023583513267643564 0.006474406803385617 -3.834760953225214e-09
-0.022631414305819587 0.005866085144505546 -5.233339095411793e-09
-0.02372805120844852 0.006537239885479187 -5.0502140247488114e-09
-0.023944851816561124 0.006618096322577812 0.0021190536208450794
-0.023904721450971868 0.006603724278400398 -4.797820807311837e-09
-0.02334227997786001 0.0063506790149999645 0.002119052689522505
-0.023403979359257216 0.00638413680567212 -3.7973681976666285e-09
-0.027074532649834494 0.006647985627956437 0.0021190540865063667
-0.026927779752265384 0.006725885049950253 -5.525648383297721e-09
-0.02692535684607599 0.006726828159179976 0.0021190543193370104
-0.026751243988788864 0.006801584228580074 0.0021190540865063667
-0.026622679058227943 0.006845507078238606 0.002119053853675723
-0.026733826766063836 0.006808026324823798 -5.5494213668794146e-09
-0.025283431334495062 0.006919424235354387 0.0021190540865063667
-0.025014491785244817 0.006877279065192512 -5.204377373502211e-09
-0.025014586336279846 0.006877317067251695 0.0021190540865063667
-0.02479721719419271 0.006835388633563034 -5.035051486856901e-09
-0.026481347514065248 0.0068851658331250155 -5.382957191102378e-09
-0.024785452934325797 0.006833166779654435 0.0021190540865063667
-0.025316831601701277 0.00692380151558803 -5.168286243417697e-09
-0.025681181331685815 0.0069552479859847915 -5.5834767920259765e-09
-0.02560476051982873 0.006950711124363369 0.0021190543193370104
-0.02617590042507925 0.00693907376278508 -5.505678579709183e-09
-0.025960344393102845 0.006955301452974395 -5.4766018386942505e-09
-0.026061151450539135 0.006949944610740166 0.0021190543193370104
-0.026319749919760795 0.006918077895844636 -5.453400397925634e-09
-0.026467643541198706 0.006888556189432082 0.0021190543193370104
-0.02707213886003834 0.00664923887123123 -5.2618749357691286e-09
-0.027242971171708145 0.006542720960534222 -5.342900788463112e-09
-0.02720039315320484 0.006570634902429558 0.0021190540865063667
-0.027356451421789444 0.006460822457392322 0.0021190540865063667
-0.027455079244048795 0.006382599223098096 -5.529012803151545e-09
-0.02761794468143712 0.006238107633304965 -5.505928601934329e-09
-0.027530607156475196 0.00631780488217058 0.0021190543193370104
-0.027733340369993996 0.006125913739641363 0.0021190543193370104
-0.027787086083424627 0.006069329623803829 -5.531658242574622e-09
-0.027951725060203464 0.005886354608241472 0.0021190543193370104
-0.02795099047248793 0.005886859142326265 -5.528424829037704e-09
-0.025842328708254057 0.006957636915861164 0.0021190543193370104
-0.026273770455662468 0.006925927454285691 0.0021190543193370104
-0.028960256261008958 0.0030456513084302266 0.0021190543193370104
-0.02895476434996985 0.0027326253860544053 0.0021190543193370104
-0.028959402032606132 0.002937901862561126 -5.497768462703334e-09
-0.02896007605074513 0.0032334120927947994 -5.417609916236188e-09
-0.028953457640832077 0.0035064100051761457 -5.4627138368346095e-09
-0.028958946286572737 0.0033326593635444263 0.0021190543193370104
-0.028944274147936367 0.0036780353376554605 0.0021190543193370104
-0.028911107828625136 0.004001970907625984 0.0021190543193370104
-0.028888395488096564 0.00414600656155838 -5.337636999058759e-09
-0.02885900669828807 0.004290838529388543 0.0021190543193370104
-0.02816592398367417 0.005626289374244278 0.0021190543193370104
-0.02816388138445046 0.005629259735073703 -5.481982423560794e-09
-0.02893859043132259 0.0023106962481926454 0.0021190543193370104
-0.028945500505590936 0.0024628203626667405 -5.5218705163895265e-09
-0.028355547154454413 0.005375598965193406 -5.462736485384312e-09
-0.02834664511369058 0.005387995923063384 0.0021190543193370104
-0.028508644788140185 0.005144916866590714 -5.3727187143692845e-09
-0.028508316370659398 0.005146081961607695 0.0021190540865063667
-0.028606937302194345 0.004971849614056411 -5.377479794788087e-09
-0.028698977393053913 0.004783170426028551 -5.318372409135463e-09
-0.02864466298914372 0.00489988275448392 0.0021190543193370104
-0.028786074896189097 0.004554967867395829 0.0021190543193370104
-0.028769065133320792 0.0046026985008053795 -5.359694466022802e-09
-0.028829162159247367 0.00441086112316806 -5.441263439820432e-09
-0.028930745536922712 0.003837881280317285 -5.522573065519509e-09
-0.028719811189161448 0.00473210534259548 0.0021190543193370104
-0.028931129442672034 0.000775686693031577 0.0021190543193370104
-0.028917136512811057 0.0010907742905189109 -5.602816433025737e-09
-0.028914630149647312 0.001174150955682271 0.0021190543193370104
-0.02891075064426607 0.0014198507353676425 -5.112881229507593e-09
-0.028910860296935636 0.0015105967529134483 0.0021190543193370104
-0.028915684894737597 0.0018520220237110746 -5.407390979428328e-09
-0.029026940274788707 -5.583705473692074e-05 0.0021190529223531485
-0.028992980795541815 0.00013852279567195692 -5.686730641940585e-09
-0.028982517466355395 0.00021727010546791723 0.0021190543193370104
-0.028956706049971425 0.0004460378906058116 -5.522965640381017e-09
-0.02895549803671406 0.0004607463943773132 0.0021190543193370104
-0.028916599294056634 0.0018668409953411943 0.0021190543193370104
-0.028931531334395844 0.0007725128189870233 -5.473777875408814e-09
-0.02903812564179039 -0.00010419249856664102 -5.480878417785107e-09
-0.02919839169251356 -0.0006050767486424593 0.00211905175819993
-0.029173165611853277 -0.0005499942041186062 -4.688116561624156e-09
-0.02914775577612097 -0.0004833508305527413 0.002119053853675723
-0.029117689792653507 -0.00039185938500782287 -5.524366741838094e-09
-0.029096764337829987 -0.0003194763509939242 0.0021190543193370104
-0.029326239624462264 -0.0007482743614144722 1.0368505343194556e-07
-0.029357611214760423 -0.0007633372127266763 0.002119047101587057
-0.02941828634174809 -0.0007824643975935378 -4.799421304824136e-09
-0.02945668370278367 -0.0007886411692882837 0.0021190533880144358
-0.029650318838887142 -0.0007862526529582622 0.0021190547849982977
-0.02953204669473986 -0.0007914123275766773 -5.134029201769863e-09
-0.029655106323894977 -0.0007847253428624899 -5.639322342432251e-09
-0.030451262253638704 -0.0006354461303693299 -4.992013025173492e-09
-0.0299129325275339 -0.0007464065157835311 -5.367553956858728e-09
-0.03039881462216849 -0.0006477674730361474 0.0021190543193370104
-0.029953241520606726 -0.0007382891841530523 0.0021190543193370104
-0.02921241852533993 -0.000628797166455627 -1.69857317100508e-09
-0.029244801388771405 -0.0006765638730064845 0.0021190433762967587
-0.02926081745298348 -0.0006967696109861501 -7.743629737433366e-09
-0.029291227242048527 -0.000724911343130647 0.0021190266124904156
-0.03943702277089 0.006567813370429305 0.00211904663592577
-0.03964665404207837 0.006856313283559003 0.0021190319675952196
-0.039642972306785935 0.006850605203965025 -5.258664170781913e-09
-0.03526772703713768 0.002423442668031097 -4.625110072709049e-09
-0.03485128248514594 0.0020858821271114154 -5.101899791526421e-09
-0.034834492197434654 0.0020725909383476366 0.002119053853675723
-0.0344473779106592 0.0017678574863194403 -5.721738194353065e-09
-0.0318640605058491 2.726884684191363e-07 0.0021190543193370104
-0.031567599746557984 -0.00016416507076592746 -5.350974330298186e-09
-0.03155786387045625 -0.00016899840833029006 0.0021190543193370104
-0.030845818786864102 -0.0005031693288370741 0.0021190536208450794
-0.03074227473023175 -0.0005421985493300897 -5.21036502831862e-09
-0.030595960128744736 -0.0005923345626568498 0.0021190543193370104
-0.037782330561155854 0.004700850196299376 -5.5265827469952455e-09
-0.0374775263184089 0.0043987931076572605 -5.437302608157779e-09
-0.03778169760648423 0.0047002193923350935 0.0021190543193370104
-0.03397251605303045 0.0014070311340759777 -5.246171053130411e-09
-0.03350516144486358 0.0010656415636171271 -5.536183067533784e-09
-0.03391176835343003 0.0013618739349945455 0.0021190543193370104
-0.03347587408202605 0.001044699225031537 0.0021190543193370104
-0.03442466520613298 0.0017503578625943613 0.002119054552167654
-0.035272414434921844 0.0024271959300018776 0.0021190533880144358
-0.03573558404752601 0.0028151094964334296 0.002119053853675723
-0.03573024586902249 0.00281056701354553 -5.134465297373936e-09
-0.03698198888476646 0.00392574277685121 0.002119054552167654
-0.037433723803624946 0.004356139589050379 0.0021190543193370104
-0.03699933874063509 0.003941893673925234 -5.6783915347580205e-09
-0.039834845443019753 0.007141363442592332 0.0021189867984503508
-0.03995290691361882 0.0073392550940356545 0.0021189076360315084
-0.03986998151963223 0.0071968778635233335 -5.675627079426704e-09
-0.030935815370934983 -0.0004660710951088596 -5.2033879427426655e-09
-0.03119440521803004 -0.00035185138038154996 0.002119053853675723
-0.031192748169342286 -0.00035226434208108056 -5.134731750899846e-09
-0.031958462375616135 5.4190258266168476e-05 -5.327527752285732e-09
-0.032164987062233155 0.00017641846195424454 0.0021190543193370104
-0.032371679311663994 0.000303523850099217 -5.53456569463151e-09
-0.03660701045299821 0.003581054768634423 0.002119053853675723
-0.03659782920010583 0.003572526500640456 -5.145373904724693e-09
-0.03618655008459902 0.0032051642988850525 -4.657766616844583e-09
-0.03813386454538186 0.005059963049746522 -5.579385842224838e-09
-0.03809594342329795 0.0050205352536647225 0.0021190543193370104
-0.03852171158755078 0.005474578577886728 -5.499297017763638e-09
-0.03840357276956833 0.005346707884526936 0.0021190543193370104
-0.0388739406108716 0.0058716177774894435 -5.466576968871095e-09
-0.03869008874345531 0.0056617682750773795 0.0021190543193370104
-0.03895832202220304 0.005971111581657214 0.0021190536208450794
-0.03913018760799367 0.006177470909587723 -5.325810903400452e-09
-0.03937081008299618 0.006480002772433573 -5.359328536513885e-09
-0.03258354220233043 0.00043822857705251843 0.0021190543193370104
-0.03282930283540166 0.0005990304794696068 -5.51703305262663e-09
-0.03301264557559317 0.000722211957041683 0.0021190543193370104
-0.036194336881470356 0.0032120799444250144 0.0021190533880144358
-0.03921459979245499 0.006280897972939711 0.002119053155183792
-0.033153310970095204 0.0008189101640760221 -5.444428907708243e-09
-0.04119404992869681 0.019136090776644372 0.0021190543193370104
-0.04119404992869681 0.019136090776644372 -5.525873092437905e-09
-0.04129782753015167 0.018813267690101602 -5.4714188735260905e-09
-0.04146242816202417 0.018219143126172125 0.0010595243657007813
-0.041384475013406925 0.018515310445036067 -4.5024912687097185e-09
-0.041540130835759796 0.01789597160336387 -5.562474036935328e-09
-0.04153842718513124 0.017897625226133838 0.0010595243657007813
-0.0416064377208372 0.017572825324614853 0.0010595243657007813
-0.04164978250314129 0.017341270198887725 -5.525873092437905e-09
-0.04166357535345127 0.017262739287849986 0.0021190536208450794
-0.04171270922150932 0.016955173388042227 -5.518300039142332e-09
-0.04176081467854591 0.016599304562237543 -5.522707624550094e-09
-0.04179719150896911 0.016270175110715747 -5.272609460149624e-09
-0.041761201400493886 0.016596032856370253 0.0021190543193370104
-0.04181998399836977 0.01603160879152053 0.0021190543193370104
-0.04182688670400851 0.01592829532339643 -4.596947711377197e-09
-0.04184708595837296 0.015612395030376144 0.0010595243657007813
-0.04186307255026817 0.015258332752014386 0.0021190543193370104
-0.04186155335379088 0.015270111559226435 0.0010595243657007813
-0.04186826747778675 0.014927302621096704 0.0010471674613654613
-0.04186799978125709 0.014631389292945659 0.0021190543193370104
-0.04181379926480195 0.01348496787886392 0.0021190543193370104
-0.04184358835168668 0.013910946727858097 0.0021190543193370104
-0.04181349731281352 0.01348153166374498 -5.38298028374129e-09
-0.04177205182878376 0.013055349656282668 -5.058685470515911e-09
-0.04186307255026817 0.015258332752014386 -5.545363279679805e-09
-0.04186812362914317 0.014647040292151432 -5.47550671470276e-09
-0.04185989795991382 0.01427124394375638 -5.5195426007514925e-09
-0.0418601384911005 0.014277529412795637 0.0021190543193370104
-0.041843225590944985 0.013904065099401597 -5.502966970993839e-09
-0.04171865755962298 0.012626786096809586 -4.78027706307671e-09
-0.04164704177656191 0.01215409515655807 -5.4874629284995535e-09
-0.04164795219385299 0.012168611711071708 0.0010595243657007813
-0.04156902138397201 0.011735940099383781 0.0010595243657007813
-0.04153660518528125 0.011574539748453083 -5.525873092437905e-09
-0.04147394219007925 0.011285300329948575 -4.679829856968354e-09
-0.04085411505132333 0.009235929357808708 -4.289180566274808e-09
-0.04075452990262037 0.008984235835897761 -5.525873092437905e-09
-0.04067175768760416 0.008784068556377044 0.001062665251083672
-0.040605137460246465 0.008629973425909217 -5.528926649844834e-09
-0.04047635130555516 0.008343696307881397 0.0021190447732806206
-0.040603510364518765 0.008626215524097857 0.0021190543193370104
-0.040277542176937985 0.007936212021157518 0.0021190529223531485
-0.04028673844552442 0.00795416040315307 -5.2739150824265835e-09
-0.040437158620930176 0.008261732131620653 -5.463029584262813e-09
-0.04010025892716801 0.007600514317153235 -5.280543113883596e-09
-0.04011115937393446 0.007620940655480417 0.002119054552167654
-0.04075452990262037 0.008984235835897761 0.0021190543193370104
-0.04085654599827138 0.009241893622532396 0.0021190501283854246
-0.04147237032353192 0.011277987703789766 0.0021190543193370104
-0.04153660518528125 0.011574539748453083 0.0021190543193370104
-0.04164704177656191 0.01215409515655807 0.0021190543193370104
-0.041719638921892975 0.012633046415129925 0.0021190536208450794
-0.041540130835759796 0.01789597160336387 0.0021190543193370104
-0.04140673584900265 0.01843352070358668 0.0021190543193370104
-0.04129870018841655 0.018809921078373374 0.0021190543193370104
-0.04171469630432699 0.016941927078511058 0.0021190543193370104
-0.04100020815553358 0.009634704017107748 -4.69755390142268e-09
-0.041002117954503245 0.009639910027361686 0.002119052689522505
-0.041135875893029826 0.010041301499476171 -5.226053367834993e-09
-0.041135207969664626 0.01003937939931584 0.0021190536208450794
-0.04125987631148317 0.010451968548903763 -5.378530953947802e-09
-0.04125978204415817 0.010451495544516179 0.0021190540865063667
-0.04137158554917913 0.010862551437997027 -5.056064455999376e-09
-0.04137254855129983 0.010866561792122583 0.0021190533880144358
-0.04177270829911895 0.013060646808902645 0.002119053853675723
-0.037829116392170604 0.02507491969350157 0.0021190543193370104
-0.03754030413275361 0.02543675431289158 -5.520957024884865e-09
-0.03795147140233014 0.024919192326448465 -5.51137446791472e-09
-0.038144918074606245 0.024668697574514623 0.0021190543193370104
-0.03840295468067658 0.02432699952826744 -5.5021831535384536e-09
-0.03878440848097169 0.023799208932914487 -5.5510209762132945e-09
-0.038576700680976725 0.02409047846541545 0.0021190543193370104
-0.03894079576179026 0.023574502240839304 0.0021190543193370104
-0.03907002873879033 0.023384527156751836 -5.449226847531463e-09
-0.039213491420667684 0.02316786888336386 0.0021190543193370104
-0.03934968316054083 0.02295741847953013 -5.4845425978555795e-09
-0.03942110787395211 0.022845765916980836 0.0021190543193370104
-0.039536439716196095 0.022659723320303214 -5.530209623572091e-09
-0.03967866765032874 0.022424327573695866 0.0021190543193370104
-0.03977322049778733 0.022263326603802445 -5.5224274042586785e-09
-0.039907416182036644 0.02202798707128238 0.0021190543193370104
-0.04025382726551533 0.021378217851681102 -5.066902009076557e-09
-0.04045824912636466 0.02096058099463559 -5.490293109033928e-09
-0.04044997847838253 0.020975404332188915 0.0010595243657007813
-0.040255320846123974 0.021374971604336466 0.002119053853675723
-0.04045824912636466 0.02096058099463559 0.0021190543193370104
-0.04062626264003369 0.020590193734380216 0.0010595243657007813
-0.040686680242595454 0.020451965399529665 0.0021190543193370104
-0.04078021389692327 0.020230949357491708 0.0010595243657007813
-0.040865922604155995 0.020020655445280082 0.0021190543193370104
-0.04092921970064827 0.019860188991449697 0.0010595243657007813
-0.04104779430978545 0.01954692990671438 0.0021190543193370104
-0.0410503054968954 0.019540633742413226 -5.443261841264757e-09
-0.040686680242595454 0.020451965399529665 -5.525873092437905e-09
-0.040865922604155995 0.020020655445280082 -5.525873092437905e-09
-0.03647726374973564 0.02670899157156645 -5.5100026763454935e-09
-0.037155250501072115 0.025905113246174213 -5.5168740686895035e-09
-0.037155732278266074 0.025904805680524928 0.0021190543193370104
-0.03755165199749183 0.02542254658262179 0.0021190543193370104
-0.04002751372601528 0.021810921110890127 -5.213464326914163e-09
-0.04007159953988572 0.0217277117767504 0.002119053853675723
-0.029481175888969105 0.03199480377148651 0.0021190543193370104
-0.029414351762300846 0.032025365176773554 -5.505090605595342e-09
-0.03001345796965204 0.031751606119728076 0.0021190543193370104
-0.030247273881206533 0.03164285671585656 -5.533815183866864e-09
-0.03139233807619749 0.03107310728823399 -5.409640291276219e-09
-0.0317883215700276 0.030854937915077863 -5.487343024412894e-09
-0.03166554298597158 0.03092437632720361 0.0021190543193370104
-0.031126952347080145 0.03121252550814844 0.0021190543193370104
-0.033529765130281906 0.029687707344460718 -5.211822529105348e-09
-0.03376502245076011 0.029496740323532653 -5.4978355201740214e-09
-0.03376497398020897 0.029496021488420274 0.002119053853675723
-0.033998649668730355 0.02929671028517696 -5.3352899875847015e-09
-0.03496932796730564 0.028375738148123546 -5.424516835716986e-09
-0.03537568951411761 0.027949758274983885 -5.503458133659933e-09
-0.035384099158052996 0.02794049526510864 0.0021190543193370104
-0.035659616602075735 0.02764018510106217 -5.462152952162569e-09
-0.03569796882821834 0.027597608280127545 0.0021190543193370104
-0.0365001346516843 0.02668202486814722 0.0021190543193370104
-0.03599426985567716 0.02726583537692856 0.0021190543193370104
-0.032034396750100086 0.03071256916886339 0.0021190543193370104
-0.03212893400814846 0.030656740744827427 -5.559733562421343e-09
-0.030965946048228436 0.03129351960398581 -5.308062434039584e-09
-0.030527487165667857 0.03150982491906347 0.0021190543193370104
-0.030660770713034528 0.03144488862986866 -5.429222849073767e-09
-0.035966553497537544 0.02729710460735977 -5.52686607591113e-09
-0.03500833909397587 0.028335836007276904 0.0021190543193370104
-0.03465672375796608 0.028687432347431503 -5.5057669534619436e-09
-0.03465536412064639 0.028688803492608054 0.0021190543193370104
-0.03432128624964647 0.029007282533602602 -5.512331480161947e-09
-0.034434842801863326 0.028900540418899095 0.0021190543193370104
-0.03421284043435997 0.029105928658292333 0.0021190540865063667
-0.03400329209299685 0.02929272506398779 0.0021190543193370104
-0.033526319786299885 0.02969053253497269 0.0021190540865063667
-0.03331353485620586 0.02985583653984194 -5.362299937416992e-09
-0.03330953001728667 0.02985895180146817 0.0021190543193370104
-0.03308881290326677 0.030022882978289693 -5.480376152888766e-09
-0.033088708372363995 0.030022926416048302 0.0021190543193370104
-0.032860987480561286 0.030184413106602973 -5.467343910936506e-09
-0.03286059704022996 0.030184721936152792 0.0021190543193370104
-0.03255243800426824 0.030391980369744873 -5.509354750188322e-09
-0.03262870141912111 0.030341592284990934 0.0021190543193370104
-0.03234499408886021 0.030524393092955487 0.0021190543193370104
-0.027678068885409385 0.03268334773434746 0.0021190536208450794
-0.027960295014169315 0.032597596345251445 -5.216848730782431e-09
-0.027954522418574133 0.03259934681904242 0.0021190536208450794
-0.028262293248025386 0.03249542735858411 -5.393888002913627e-09
-0.026015939268266185 0.033005662916954545 0.002119054552167654
-0.02617948475279125 0.032984512569663206 -5.317025930651198e-09
-0.026515171823196126 0.03293676033782987 0.0021190540865063667
-0.025494987386770317 0.0330595042124007 0.0021190543193370104
-0.025405728135137324 0.033068039228958436 -5.5464419723705305e-09
-0.024977589434146165 0.033103198667009295 0.0021190543193370104
-0.02911146533451186 0.03215893223402444 0.0021190543193370104
-0.028966383266069456 0.032220884820310554 -5.524839252757374e-09
-0.027683431203982835 0.03268188336637032 -5.089892507470495e-09
-0.027400298311774145 0.0327581733379466 -5.05196462441404e-09
-0.027085837104830732 0.03283152005714685 0.0021190536208450794
-0.027113752892051885 0.03282560618542619 -5.3659241494585785e-09
-0.026799219984238513 0.03288838618334368 0.002119053853675723
-0.026803558840298513 0.032887498227454216 -5.273330216937211e-09
-0.026514740380605684 0.0329366949587991 -5.392505109114154e-09
-0.025860554057510563 0.03302255340673976 -5.5114419694746175e-09
-0.028611934273056396 0.03236533001726593 0.0021190543193370104
-0.028587361593578487 0.03237415060502662 -5.5435096513178905e-09
-0.028241616140910714 0.03250253212303975 0.0021190543193370104
-0.02738326243242754 0.03276271788165213 0.0021190540865063667
-0.01550285392179402 0.030494152353622638 -3.9924699102300565e-09
-0.015857754474510637 0.030713742171012845 -4.348899018680186e-09
-0.01565142017320897 0.030587592429105682 0.002119054552167654
-0.016260457904865664 0.030952701364607135 0.002119053853675723
-0.016649507806628886 0.03117217382378708 0.002119053155183792
-0.016998491476731662 0.03135995612638366 -4.861267832723115e-09
-0.017036493454301006 0.031379808810252915 0.0021190543193370104
-0.017345203835849088 0.0315376371664437 -5.1662407685171274e-09
-0.01748851297003077 0.03160907766519388 0.002119054552167654
-0.017689444536172327 0.03170539775395935 -4.638765815911938e-09
-0.018086423566486185 0.03188840191803969 0.0021190543193370104
-0.01807130797416664 0.03188068965342953 0.0010595244821161032
-0.018464249159540855 0.03204960093809079 -4.218992266658006e-09
-0.018540328138934706 0.032080726454385526 0.0021190543193370104
-0.018806438438444765 0.03218666751462908 0.002119053853675723
-0.019435274765359244 0.03241449063078073 0.0021190543193370104
-0.019149264675794597 0.032314716373548116 0.002119053853675723
-0.019488016100746325 0.03243229224676603 -4.499743688768376e-09
-0.01987900435261128 0.032557369607219507 0.0021190543193370104
-0.01986932751789368 0.03255344535024008 0.0010595244821161032
-0.02025802523055069 0.03266533796319707 0.0021190533880144358
-0.02059928445455396 0.03275340484519018 -4.9584323313922596e-09
-0.02077934110658449 0.032796629723024606 0.002119054552167654
-0.020944213452350705 0.03283306457715692 -5.102332778506025e-09
-0.021274320606984407 0.03290063987502269 0.002119053853675723
-0.02180527446382479 0.03299139837592762 -5.473238307018846e-09
-0.021534124436709268 0.032947720569752835 0.0021190543193370104
-0.02138372151561545 0.03292219058140913 -5.322102314408994e-09
-0.01626723251277869 0.030957099666524605 -5.513071332785557e-09
-0.01673269824025154 0.031217577461780163 -5.525873092437905e-09
-0.018086423566486185 0.03188840191803969 -5.413909320850507e-09
-0.01898985366871369 0.032256826295911534 -5.724085205827123e-09
-0.01987900435261128 0.032557369607219507 -5.401933123039271e-09
-0.020329123132937613 0.03268430607348067 -5.525873092437905e-09
-0.021992475844376785 0.03301857431813541 0.0021190543193370104
-0.02227469042078727 0.03305399789790776 -5.427128524360114e-09
-0.022469943575381995 0.03307466132764515 0.0021190543193370104
-0.02273498316081074 0.033098486636531664 -5.525873092437905e-09
-0.022740831208562667 0.03309895865599064 0.0021190543193370104
-0.023014319293807272 0.03311816902189898 -5.457715612777747e-09
-0.02320651165331336 0.03312872159386401 0.0021190543193370104
-0.0234948707814183 0.033139157628343546 -5.460129681722492e-09
-0.023692823791046938 0.03314262469495994 0.0021190543193370104
-0.024247121515739496 0.033138856589146386 -5.4643756186578685e-09
-0.023969054586171396 0.033143254655068434 0.0021190543193370104
-0.023966129075055666 0.03314328121629185 -5.525873092437905e-09
-0.02444346111457807 0.033132881423501875 0.0021190543193370104
-0.02465907219964448 0.0331229197323404 -5.348656184622769e-09
-0.024943613993594863 0.03310540959172858 -5.455853546720846e-09
-0.006096209925271101 0.014649842065930126 0.0021190543193370104
-0.00603779405752731 0.014140873501689506 -5.525372603898404e-09
-0.00609866088952017 0.014670024972439265 -5.520077728249362e-09
-0.0061894422415069384 0.015362138275588789 0.0021190543193370104
-0.00620032611045093 0.015439105207475714 -5.530581770329945e-09
-0.006268443378873549 0.01589756617885532 -5.393608226711422e-09
-0.006311018784900763 0.016168195773826412 0.0021190543193370104
-0.006367124901847389 0.01650634687716572 -5.531135993663838e-09
-0.006410460079703433 0.016753835038923144 0.0021190543193370104
-0.006492731866969685 0.017193994368587505 -5.445392137204408e-09
-0.00655883536368465 0.01752615553193472 0.0021190543193370104
-0.006611298253560869 0.017776338824683227 -5.327968732871113e-09
-0.006702096835925715 0.018188810654468552 -5.52982726276241e-09
-0.006681874989593227 0.018097950120650606 0.0021190543193370104
-0.006775020750642823 0.0184982011716042 0.0021190543193370104
-0.006831485848362218 0.01872729752411065 -5.4094781987146234e-09
-0.0069398702273516565 0.019147464482705195 -5.554683824016138e-09
-0.006930967371919097 0.019112733219405178 0.002119053853675723
-0.0070537913757424365 0.019556135759641328 0.0021190529223531485
-0.007074108156818836 0.019626048249886112 -5.525873092437905e-09
-0.0071988251668101905 0.020042427626196086 0.0021190533880144358
-0.007211196518539138 0.020083051551155154 -5.4068003407792276e-09
-0.007337954650710281 0.02047394961828351 0.002119052689522505
-0.007356516135579677 0.02052939038470005 -5.525873092437905e-09
-0.007498447647030181 0.020939821363808453 -5.504478206574959e-09
-0.00748066687686389 0.02088830972377398 0.0021190533880144358
-0.007606238688699566 0.02123172186813009 0.0021190543193370104
-0.007684784058343493 0.021436384624419356 -5.446854522972444e-09
-0.0077801273210237635 0.021676624882315566 -5.525873092437905e-09
-0.007822863289084542 0.021782080528220883 0.0021190543193370104
-0.007961232575467317 0.02211057737663635 -5.473192565830232e-09
-0.00819619095737987 0.02262970663294568 -5.528103308449772e-09
-0.008079744196797037 0.022378255433946496 0.0021190543193370104
-0.008327817308186526 0.022903323202681066 0.0021190543193370104
-0.008444466114733234 0.023136312488744447 -5.4581144048881924e-09
-0.008605409860682381 0.02344306995475627 0.0021190543193370104
-0.009354982584759112 0.02470432494010037 0.0021190540865063667
-0.009508751375688775 0.02493452013552812 -5.330756724930552e-09
-0.009599987533830463 0.025067224803916575 0.0021190540865063667
-0.010132391448222925 0.02579062443460702 0.0021190543193370104
-0.010181402915535927 0.025854114972839966 -5.51217471667087e-09
-0.010436356639094417 0.02616884360255759 0.0021190543193370104
-0.00873265918430867 0.023676570282396937 -5.5266777820861535e-09
-0.008776807323324589 0.023754312377480775 0.0021190543193370104
-0.008915996537769881 0.023996469817193024 0.0021190543193370104
-0.009019653324870688 0.02417193328963427 -5.5246633934302736e-09
-0.009057775284477192 0.024233982176874346 0.0021190540865063667
-0.009204061054967133 0.024469823716129237 0.0021190540865063667
-0.009321344909686585 0.024653666462970656 -5.528305369040254e-09
-0.00979858503636409 0.02534756411285327 -5.531946012382605e-09
-0.009758933280192408 0.025291913931478883 0.0021190540865063667
-0.00992328065167682 0.025516082881755404 0.0021190540865063667
-0.010496478246449056 0.026241919258341767 -5.52760637262395e-09
-0.010706474283256344 0.026488111807931806 0.0021190543193370104
-0.010876620033713907 0.026680548294743853 -5.5308184698787954e-09
-0.011096816138837307 0.0269217075738921 0.0021190543193370104
-0.011264968955464374 0.02710005406625638 -5.7266604791550435e-09
-0.01507854764271615 0.03022060124390779 0.0021190543193370104
-0.015075533290726766 0.030218169162687464 -3.016577210246396e-09
-0.014604645113432508 0.029900956312250013 -2.4708113333105075e-09
-0.014539494780478177 0.029856154545974865 0.0021190543193370104
-0.014222724782728393 0.029632899529390678 6.223525694792897e-09
-0.014147144047151653 0.02957849945044881 0.0021190543193370104
-0.013812474496297756 0.029333535839919243 5.560544025229319e-09
-0.013765462040485727 0.02929861396248522 0.0021190543193370104
-0.013446631158383737 0.029054832866253877 5.465061647669245e-08
-0.0133921588421859 0.029012266677460277 0.0021190543193370104
-0.013061706858835145 0.02874923683922843 2.0812318268781382e-07
-0.013028568158384357 0.028722597292968992 0.0021190543193370104
-0.0127231654037031 0.028467950908674666 5.139127097208984e-07
-0.0125643681655799 0.028332396701216588 0.002119054552167654
-0.012400136337470958 0.028188523215987468 5.037678718622374e-08
-0.012125903842621903 0.02794219543954404 0.0021190543193370104
-0.012077242012856397 0.02789746560471533 -2.367737783615098e-09
-0.011700429595342617 0.02753956744907071 0.0021190543193370104
-0.011664519385733986 0.02750446884512352 -5.084277443501151e-09
-0.01137855650517576 0.027216735883595588 0.0021190543193370104
-0.006033822171308627 0.01410470800640085 0.0021190543193370104
-0.005578055988342104 0.009879375069126008 -5.525873092437905e-09
-0.005578055988342104 0.009879375069126008 0.0021190543193370104
-0.003335171352448736 0.014472756944053292 -5.5252855624132735e-09
-0.003341139557901237 0.014460450076383372 0.0021190543193370104
0.004788464150466491 0.027208982173508246 -5.525822910357192e-09
0.004140179022675393 0.026430213811571367 -5.5233990714498304e-09
0.004617571270852444 0.02700558656433188 0.0021190543193370104
0.0040450518909587695 0.026314682531680202 0.0021190543193370104
0.0036631261105585806 0.02584759247581763 -5.515472079054007e-09
0.003441766406154003 0.02557475972595339 0.0021190543193370104
0.0031693342148051886 0.02523469767216918 -5.517289736189923e-09
0.002823063927323031 0.024796495188128258 0.0021190543193370104
0.002581493347952095 0.024486157971067114 -5.489920074097654e-09
0.002414350817914554 0.024268389160710745 0.0021190543193370104
0.0014851330649472251 0.023010059211845006 0.002119053853675723
0.0012177504993881685 0.022628774311867186 -5.3711430858527365e-09
0.0010751608186882569 0.02242188884486714 0.002119054552167654
0.0009017434088705841 0.022165464908660563 -5.533403513169333e-09
0.0006999580992602073 0.02186085473369817 0.002119053853675723
0.00040407172765870124 0.021403703036691552 0.0021190543193370104
0.00044676900822330443 0.02146974876205064 -5.035749595094785e-09
0.0001303581656777371 0.02096546921419872 0.002119053853675723
-0.00045453592675623767 0.019988032181353393 0.0021190543193370104
-0.0007389215983995479 0.01949105034224187 -5.524864121753126e-09
-0.0007923927304041451 0.019394817391864657 0.0021190543193370104
0.002052285093752315 0.023789748005681437 -5.511984646489054e-09
0.0021169245542730824 0.023875481394822224 0.002119053853675723
0.0017934634795339847 0.023438450116449124 0.0021190540865063667
0.0015354953497356348 0.023081650855982065 -5.495999655380501e-09
0.00017287944860043728 0.021035241802651542 -5.488504761785862e-09
-0.00011962960185386041 0.020554500822616357 0.0021190540865063667
-0.0002735908696453272 0.02029674150738455 -5.602928787595829e-09
-0.0011798961686495728 0.018693836241249116 -5.529483981803196e-09
-0.0015050872578137881 0.018087567007874387 -5.518148160632563e-09
-0.001506337582536522 0.018085514763174868 0.0021190543193370104
-0.0025024276881580793 0.01615235734547906 0.0021190543193370104
-0.0024069002953317677 0.016341880396828733 -5.520713663997867e-09
-0.002889266934039712 0.0153780401131117 -5.53130874436647e-09
-0.0029481615463157885 0.015258612036084081 0.0021190543193370104
-0.002175361341210614 0.016797813677932365 0.0021190543193370104
-0.0019105943119169444 0.017314377140646056 -5.524002588686017e-09
-0.0018593110452636754 0.017412481184935682 0.0021190543193370104
-0.0011084334250029396 0.0188252171710468 0.0021190543193370104
0.009293028729479942 0.03200058477421417 0.002119054552167654
0.009270587641135856 0.031982375882878854 -5.682171622112264e-09
0.008859593268975547 0.03163379861372404 0.0021190543193370104
0.008941056199187288 0.031703579645182806 -5.449375173327553e-09
0.008690776142506927 0.03148288635774147 -5.386480594893328e-09
0.008451301508492647 0.03126317081423003 0.0021190543193370104
0.008365480133815249 0.031183250561024445 -5.3212985129391654e-09
0.008073286073899353 0.03090096290418266 0.0021190543193370104
0.007897094928942167 0.030724835225573136 -5.5178723812332464e-09
0.007660335191409813 0.030480926408790597 0.0021190543193370104
0.007421340810800575 0.03022921526817981 -5.5228301931720125e-09
0.00723153759181265 0.03002529893665515 0.0021190543193370104
0.00699878151385123 0.029769697863930456 -5.552876380932048e-09
0.006791800500853934 0.029538884048689876 0.0021190543193370104
0.006452355477435016 0.029155486943363642 -5.518151713346242e-09
0.006341894486093551 0.029029134523599006 0.0021190543193370104
0.005782534310871802 0.028381486669369713 -5.522109880473636e-09
0.00562139309577729 0.028193160977531453 0.0021190543193370104
0.019626209441397632 0.03809962936619806 -5.511306078176403e-09
0.018992684818453905 0.03781547703049366 -5.391927793141349e-09
0.019462779589275107 0.038027235167270815 0.0021190543193370104
0.018479235360100106 0.037580715445254716 0.0021190543193370104
0.018471482573107517 0.03757692092724878 -5.414364512290604e-09
0.017961169351027335 0.037338326561095064 0.0021190543193370104
0.01564658844203053 0.0361859022014822 0.0021190543193370104
0.016116976225483623 0.036430594864504874 0.0021190543193370104
0.015620085087183079 0.03617153233383988 -5.231846955666697e-09
0.015220363946307878 0.035957713454524275 -5.337479347389262e-09
0.014896056318431402 0.03578073986590956 0.0021190543193370104
0.01403268061885394 0.0352920007684738 0.0021190543193370104
0.014441355358134629 0.03552634686639274 0.0021190540865063667
0.014026389236532323 0.03528804985099176 -5.365155875125538e-09
0.013538725864059574 0.03499930721719464 -5.503034028464526e-09
0.013332844991224288 0.03487468317772955 0.0021190543193370104
0.012852186542269856 0.03457618202434561 0.0021190543193370104
0.012463127478610187 0.03432679155939094 -5.2865058997042524e-09
0.012418565055613052 0.03429773555163845 0.0021190543193370104
0.012043228592620414 0.03404995088848138 0.0021190540865063667
0.011035880305366995 0.03334816787400784 0.0021190543193370104
0.01130859788424637 0.033543429862179404 0.0021190540865063667
0.010965494023731532 0.033297164220174355 -4.792521934859906e-09
0.010502067824774874 0.03295382906231681 0.0021190543193370104
0.010520396285069216 0.032967642373770055 -5.455583096392047e-09
0.010186971123583778 0.032713328284295816 0.0010595244821161032
0.00997693546064419 0.0325497460794225 -5.525873092437905e-09
0.01774205004059894 0.037234595288206024 -5.561171523282837e-09
0.01750532075075825 0.03712110173802334 0.0021190543193370104
0.017014974382742326 0.036882890478381905 -5.500557787030402e-09
0.017016214585551286 0.03688326010078436 0.0021190543193370104
0.016539859990577662 0.036645927889325344 0.0021190540865063667
0.0161336292058389 0.03644002221241444 -5.583172146828019e-09
0.014670953490887132 0.035655832265303375 -5.56453905176113e-09
0.012851472016963846 0.03457603754003645 -5.482015286162323e-09
0.011999713493529492 0.03402093031959424 -5.518229873047176e-09
0.01166576573647562 0.033793232382506505 0.002119053853675723
0.011438191954489864 0.03363516070789421 -5.580568895879878e-09
0.009903832431469101 0.03249252148654638 0.002119053853675723
0.03235020929589853 0.041744036649471544 0.0021190540865063667
0.03262358135788767 0.04171326576127696 -5.622142307259992e-09
0.032317701358504085 0.0417467168869727 -5.525873092437905e-09
0.032127319265412776 0.04176050771545809 0.0021190536208450794
0.03203316675605608 0.04176507765021654 -5.24187804273879e-09
0.03180338163304558 0.041771262101027364 -5.525873092437905e-09
0.03180320339174397 0.0417712706356256 0.0021190543193370104
0.031566708841525765 0.04177103439802002 -5.363257393753429e-09
0.03146558537709704 0.04176896542039662 0.0021190540865063667
0.030830465288355962 0.04173135995290862 0.0021190543193370104
0.0304683580004636 0.04169264797458161 -5.4774846880434325e-09
0.030310347747284635 0.04167292936158684 0.0021190543193370104
0.0299853337687483 0.041625812435688254 0.0021190543193370104
0.02969366108533486 0.04157774264966008 -5.4881321709387976e-09
0.02941957633381658 0.04152808876065382 0.0021190543193370104
0.029251160488362907 0.04149444466094516 -5.4300954843711224e-09
0.028797770562362768 0.041398585104006555 -5.487784893176695e-09
0.028669882824078022 0.04136935175129301 0.0021190543193370104
0.028184015695148716 0.0412511263989636 -5.50939072141432e-09
0.02805009909776086 0.04121697780340228 0.0021190543193370104
0.027663796446770153 0.04111407315353251 -5.496748833877518e-09
0.02746770507551861 0.04105955856490466 0.0021190543193370104
0.026812155269883182 0.0408674601982541 0.0021190543193370104
0.026628744570894355 0.04081083500123533 -5.501014310738128e-09
0.02610448205765972 0.04064382872209909 0.0021190543193370104
0.024484406167246828 0.04008240854787535 0.0021190543193370104
0.024131399772715292 0.03995143371992112 -7.448951677702098e-09
0.02361341395991733 0.039755307545216494 0.002119062002748251
0.02344343132136327 0.039689744254751406 -1.2626122369852055e-09
0.022959373944536187 0.03950025002831272 0.0021190543193370104
0.02283271421308783 0.03945008191011044 -7.566459458985264e-09
0.022241502900731156 0.03921236639681034 0.0021190533880144358
0.022146785235788138 0.03917343425351065 -5.529312119278984e-09
0.02142942594409693 0.03887657688290717 0.002119054552167654
0.02134757482893207 0.038842590021768764 -1.6589176254910853e-08
0.02049791139326961 0.03848045963129838 0.0021190543193370104
0.02036047048593334 0.038420751527123015 -5.527533986082744e-09
0.031197280648583674 0.041758039048389844 -5.538165481766555e-09
0.031193783328127687 0.041757598712043896 0.0021190543193370104
0.030790391387292122 0.0417277060286781 -5.519472878745546e-09
0.030021484032337325 0.04163184929772911 -5.540092384848094e-09
0.027137464568400334 0.04096418015066935 -5.535049307781037e-09
0.026078446816967728 0.04063513997340857 -5.528741020555117e-09
0.025536986393389492 0.04045467016540889 -5.523135726548389e-09
0.025407471379684327 0.040410306891293664 0.0021190543193370104
0.02483655087803126 0.040209510859394546 -5.943094461002829e-09
0.03258754663838405 0.04171792785310195 0.002119054552167654
0.03551517789377238 0.03314787463972431 -5.530946811660442e-09
0.03552388580578693 0.03322050131195772 0.0021190543193370104
0.035580601907927695 0.033735275475807874 0.0021190543193370104
0.035595024395324366 0.03387436003525673 -5.476993525377338e-09
0.03565562170632678 0.03452566502000362 0.0021190543193370104
0.03565470947072862 0.03451996752150174 -5.4990199060966916e-09
0.03569712727063829 0.03509111931613482 -5.4233213475640696e-09
0.03571569902210538 0.035398639751930604 0.0021190543193370104
0.03574650326930634 0.03681124924884326 0.0021190543193370104
0.03574809585400555 0.03644455413557835 0.0021190543193370104
0.03574802789025921 0.036713497327174105 -5.491640031607403e-09
0.03573652492959124 0.03718306967875273 -5.503405731133171e-09
0.03573428590863863 0.03722912898719708 0.0021190543193370104
0.035715714205137375 0.037564942436881146 0.0021190543193370104
0.03571137999592222 0.037625214014087804 -5.450134565876397e-09
0.035682394475431464 0.03794822737326855 0.0021190543193370104
0.035671543913782175 0.03805335242737318 -5.4689248685235725e-09
0.03563826326748316 0.03830852718190127 0.0021190543193370104
0.03561718525303697 0.03844825125081679 -5.483719700549727e-09
