9.614071 -1.4312236 10.921624
9.614071 -1.0248624 9.805156
9.697559 -1.7391638 12.073914
9.702989 -1.3263617 10.95979
9.702989 -0.9200004 9.843322
9.791521 -1.6267269 12.114838
9.794305 -1.2170166 10.999589
9.794305 -0.8106553 9.883121
9.88754 -1.5099875 12.157327
8.915361 -0.55339336 6.1836495
8.906835 -0.5588039 6.18168
8.926342 -0.5450972 6.186669
8.939695 -0.53404415 6.190692
8.955364 -0.52026004 6.1957088
8.9732685 -0.503848 6.2016826
8.993324 -0.48483372 6.208603
9.015465 -0.46329448 6.2164426
9.03962 -0.43930763 6.2251735
9.093702 -0.38422287 6.2452226
9.154941 -0.32009473 6.2685633
9.222787 -0.24743849 6.2950077
9.292319 -0.17158745 6.3226156
9.366692 -0.089063376 6.3526516
9.4454365 -0.00027849103 6.384967
9.528061 0.094277665 6.4193826
9.614071 0.19421864 6.455758
9.702989 0.29908064 6.4939246
8.9732685 -1.722929 9.55108
8.955364 -1.739341 9.545107
8.939695 -1.7531252 9.54009
8.926342 -1.7641782 9.536067
8.915361 -1.7724744 9.533047
16.129457 6.1191278 8.612248
16.129457 8.15093 3.0299153
15.977067 7.0256066 5.781257
15.93354 8.009922 2.9785922
15.822086 6.9125004 5.74009
15.733512 7.8629603 2.9251025
15.664747 6.795889 5.697647
15.529767 7.7104077 2.869578
15.505256 6.675955 5.6539946
15.322733 7.5526514 2.8121593
15.34379 6.552903 5.609207
15.180543 6.4268627 5.563332
15.34379 5.537002 8.4003725
15.180543 5.4109616 8.354497
15.34379 4.521101 11.191538
15.180543 4.3950605 11.145662
15.322733 3.489045 13.976826
15.112833 3.3264441 13.9176445
14.849537 4.1348376 11.050949
14.900494 3.1593864 13.85684
14.686098 2.9882576 13.794555
14.513844 3.8649278 10.95271
14.470111 2.8134446 13.730927
14.252905 2.6352823 13.666081
14.17501 3.586747 10.85146
14.03493 2.4541826 13.600167
13.834655 3.301713 10.747717
13.59831 2.0846925 13.465684
13.494354 3.0112944 10.642013
13.1635685 1.7079362 13.328555
12.965733 2.5494633 10.47392
12.734063 1.326981 13.189899
12.704836 2.316603 10.389166
12.447187 2.0833817 10.30428
12.447187 3.099283 7.513115
12.193597 2.8663962 7.428351
12.193597 3.8822973 4.637186
11.944805 3.6504157 4.5527883
12.106942 4.817814 1.8167598
11.904144 4.628083 1.7477036
15.112833 7.3900504 2.7529774
14.849537 6.16664 5.468619
14.849537 5.150739 8.259784
14.900494 7.2229924 2.6921732
14.686098 7.051864 2.6298876
14.513844 5.89673 5.3703794
14.470111 6.877051 2.5662608
14.252905 6.698889 2.5014153
14.17501 5.618549 5.26913
14.03493 6.517789 2.4355001
13.834655 5.333515 5.165386
13.59831 6.1482987 2.3010168
13.494354 5.0430965 5.0596824
13.1635685 5.7715425 2.1638887
12.965733 4.5812654 4.8915896
12.734063 5.3905873 2.0252323
12.704836 4.3484054 4.8068357
12.447187 4.115184 4.72195
12.704836 3.3325043 7.5980005
12.31314 5.0084205 1.886135
11.701551 3.4202085 4.4689994
11.705156 4.4395375 1.6790786
11.510392 4.2525897 1.611035
11.464618 3.192372 4.386074
11.320274 4.0676 1.5437042
11.234771 2.9676275 4.3042736
11.135243 3.884954 1.4772266
11.012739 2.7466183 4.2238326
10.955696 3.7050397 1.4117433
10.799303 2.530041 4.145005
10.7820425 3.528243 1.3473945
10.614723 3.3548987 1.2843022
10.595216 2.3185909 4.0680437
10.454136 3.1854188 1.2226167
10.401233 2.1129377 3.993192
10.300704 3.0201647 1.162469
10.308271 2.0125072 3.9566383
10.218121 1.9137771 3.9207034
10.308271 0.99660623 6.747803
10.218121 0.8978762 6.7118683
10.308271 -0.019294985 9.538969
10.218121 -0.11802501 9.503034
10.300704 -1.0434417 12.327136
10.154853 -1.2040583 12.268676
10.130876 -0.21495152 9.467755
10.046647 -0.30997142 9.433171
10.046647 0.70592976 6.6420054
9.965489 0.6128422 6.6081243
9.965489 1.6287432 3.8169596
10.016981 2.703904 1.0473596
10.046647 1.7218307 3.8508406
10.154853 2.859548 1.1040094
10.130876 1.8168507 3.885425
9.965489 -0.403059 9.39929
10.016981 -1.3597023 12.212027
10.401233 0.081135504 9.575522
10.454136 -0.8781874 12.387283
10.595216 0.2867887 9.650374
10.614723 -0.70870775 12.448969
10.799303 0.49823895 9.727336
10.7820425 -0.5353634 12.512061
10.955696 -0.35856652 12.57641
11.012739 0.71481615 9.806164
11.135243 -0.1786524 12.641893
11.234771 0.93582547 9.886604
11.320274 0.0039932146 12.708371
11.464618 1.16057 9.968405
11.510392 0.18898319 12.7757015
11.701551 1.3884064 10.051331
11.705156 0.3759313 12.843745
11.904144 0.5644768 12.912371
11.944805 1.6186135 10.1351185
12.106942 0.75420743 12.981426
12.193597 1.8504951 10.219517
12.31314 0.9448141 13.050801
15.505256 4.644153 11.236325
15.529767 3.6468015 14.034245
15.664747 4.764087 11.279978
15.733512 3.7993538 14.089769
15.822086 4.880698 11.32242
15.93354 3.9463153 14.143259
15.977067 4.9938045 11.363587
16.129457 4.0873246 14.194582
15.977067 6.0097055 8.572422
15.822086 5.8965993 8.531255
15.664747 5.7799883 8.4888115
15.505256 5.660054 8.445159
10.130876 0.8009497 6.67659
10.401233 1.0970367 6.784357
10.595216 1.3026899 6.8592086
10.799303 1.5141401 6.93617
11.012739 1.7307173 7.014998
11.234771 1.9517267 7.0954385
11.464618 2.1764712 7.177239
11.701551 2.4043076 7.2601647
11.944805 2.6345146 7.343953
12.965733 3.5653644 7.6827545
13.494354 4.0271955 7.8508472
13.834655 4.317614 7.956551
14.17501 4.6026483 8.060295
14.513844 4.880829 8.161545
22.457495 11.112987 4.1080155
22.27116 11.07099 4.0927296
22.457495 9.081183 9.690349
22.132328 9.005771 9.662901
22.27116 7.0073833 15.257397
22.083498 6.9618063 15.240808
21.894573 6.9127245 15.222943
21.803284 8.919664 9.63156
21.704454 6.8601136 15.2037945
21.470648 8.82297 9.596367
21.513159 6.80405 15.183389
21.320793 6.744533 15.161727
21.134762 8.715867 9.5573845
21.127386 6.6815906 15.138818
20.933004 6.615298 15.114689
20.795914 8.598509 9.514669
20.737692 6.5456305 15.089332
20.541542 6.472665 15.062775
20.454422 8.471077 9.468288
20.344597 6.3963757 15.035007
20.110584 8.333726 9.418297
20.146914 6.3168406 15.00606
19.948544 6.2340846 14.975939
19.764746 8.186584 9.364741
19.749569 6.148108 14.944646
19.539314 8.085921 9.328103
19.55002 6.058988 14.912209
19.349964 5.966699 14.878618
19.313251 7.9812403 9.290002
19.149496 5.871319 14.843903
19.08664 7.872617 9.250466
18.948631 5.772821 14.808052
18.859577 7.760051 9.209496
18.747437 5.671308 14.771105
18.632116 7.6436205 9.167119
18.545982 5.566755 14.73305
18.404367 7.5233517 9.123344
18.142525 5.348709 14.653688
18.1764 7.399269 9.078182
17.948336 7.2714505 9.03166
18.142525 9.412315 3.4890218
17.73871 9.182547 3.4053924
22.083498 11.025413 4.0761414
21.894573 10.976331 4.0582767
21.704454 10.92372 4.039128
21.513159 10.867657 4.0187225
21.320793 10.80814 3.99706
21.127386 10.745197 3.974151
20.933004 10.678905 3.9500222
20.737692 10.609237 3.9246655
20.541542 10.536271 3.8981082
20.344597 10.459982 3.870341
20.146914 10.380447 3.8413928
19.948544 10.297691 3.811272
19.749569 10.211714 3.779979
19.55002 10.122595 3.7475421
19.349964 10.030305 3.7139516
19.149496 9.934925 3.679236
18.948631 9.836427 3.6433856
18.747437 9.734915 3.6064382
18.545982 9.630362 3.568384
17.335018 8.941261 3.3175719
17.492125 7.004735 8.934584
17.720201 7.1399226 8.983788
17.73871 5.11894 14.570059
16.931944 8.688767 3.225672
17.036476 6.7235665 8.832246
17.264198 6.8659415 8.884067
17.335018 4.877655 14.482239
16.809057 6.577636 8.779132
16.529926 8.425221 3.1297488
16.582006 6.428226 8.724751
16.355465 6.2753644 8.669114
16.529926 4.361615 14.294415
16.931944 4.6251616 14.390339
22.457495 7.0493803 15.272682
31.088573 9.081183 9.690349
31.088573 11.112987 4.1080155
30.930233 10.1269455 6.9100523
30.868692 11.153747 4.122851
30.765766 10.155338 6.9203863
30.637407 11.191774 4.1366916
30.595499 10.182288 6.9301953
30.395525 11.227046 4.14953
30.419735 10.20782 6.9394884
30.238775 10.231911 6.9482565
30.419735 9.191919 9.730653
30.238775 9.21601 9.739422
30.419735 8.176018 12.521819
30.238775 8.200109 12.530587
30.395525 7.16344 15.314197
30.143867 7.1960063 15.32605
30.052935 8.222755 12.53883
29.883259 7.2258673 15.336918
29.862543 8.243986 12.546556
29.667902 8.2638235 12.553778
29.667902 9.279725 9.762612
29.469326 9.298121 9.769308
29.469326 10.314022 6.9781427
29.267132 10.331027 6.984332
29.338446 11.341107 4.1910443
29.055902 11.362929 4.198987
30.143867 11.259613 4.161383
30.052935 10.254558 6.956499
30.052935 9.238657 9.747664
29.883259 11.289474 4.172251
29.862543 10.275787 6.9642262
29.862543 9.259887 9.755391
29.667902 10.295626 6.971447
29.61452 11.316656 4.182145
28.767683 11.382072 4.2059546
28.853117 10.3607855 6.995163
29.061619 10.346615 6.9900055
29.267132 9.315126 9.7754965
29.469326 8.282221 12.560473
29.61452 7.25305 15.346811
28.428396 10.384978 7.0039687
28.474583 11.398536 4.211947
28.177465 11.412397 4.216992
27.995438 10.403606 7.0107484
27.877129 11.423605 4.2210712
27.610294 10.415432 7.015053
27.574404 11.432211 4.2242036
27.27009 11.438189 4.226379
26.660023 11.442388 4.2279077
26.833551 10.426356 7.0190287
27.222437 10.423006 7.0178094
27.610294 9.399531 9.806218
27.995438 9.387706 9.801913
27.995438 8.371804 12.593079
28.428396 8.353176 12.586299
28.177465 7.348791 15.381659
28.474583 7.3349295 15.376614
26.445366 10.425531 7.0187287
26.355902 11.440636 4.2272696
26.059538 10.420508 7.0169
26.053478 11.436307 4.225694
25.753593 11.429427 4.2231903
25.677782 10.411362 7.0135713
25.457052 11.420024 4.2197676
25.301783 10.398118 7.008751
25.164652 11.408069 4.2154164
24.93327 10.380753 7.0024304
24.877241 11.393615 4.2101555
24.5739 10.359316 6.9946284
24.595629 11.3766365 4.203976
24.320639 11.357184 4.196896
24.225388 10.33381 6.985345
24.053106 11.335232 4.188906
24.055752 10.319562 6.980159
23.889448 10.304283 6.974598
24.055752 9.30366 9.771324
23.889448 9.288383 9.765762
24.055752 8.28776 12.5624895
23.889448 8.272481 12.556929
24.053106 7.2716255 15.353573
23.793827 7.2472014 15.344683
23.72672 8.256224 12.551011
23.54361 7.2203283 15.334902
23.567764 8.238962 12.544728
23.412796 8.22072 12.538089
23.412796 9.236622 9.746923
23.262024 9.217376 9.739919
23.262024 10.233276 6.948754
23.115652 10.213025 6.941383
23.303316 11.254589 4.1595545
23.07373 11.222821 4.1479917
23.793827 11.310808 4.1800165
23.72672 10.288026 6.968681
23.72672 9.272125 9.759846
23.54361 11.283935 4.170235
23.567764 10.270764 6.962398
23.567764 9.254863 9.753563
23.412796 10.252522 6.9557586
22.973942 10.191795 6.9336557
22.855675 11.188631 4.1355476
22.837044 10.169586 6.9255724
22.751238 11.170622 4.128993
22.705189 10.146398 6.9171324
22.649998 11.1520195 4.1222224
22.5786 10.122231 6.908336
22.552046 11.1328 4.1152267
22.5786 9.10633 9.699501
22.705189 9.130496 9.708297
22.705189 8.114595 12.499463
22.837044 8.137784 12.507903
22.751238 7.107016 15.29366
22.855675 7.1250253 15.300215
22.552046 7.0691934 15.279894
22.5786 8.090428 12.490666
22.649998 7.0884132 15.286889
22.973942 8.159993 12.515986
23.07373 7.1592145 15.312658
23.115652 8.181223 12.523713
23.303316 7.190983 15.324221
23.262024 8.201474 12.531084
24.225388 8.302008 12.567676
24.320639 7.2935777 15.361563
24.5739 8.327514 12.576959
24.595629 7.31303 15.368643
24.877241 7.3300085 15.374823
24.93327 8.34895 12.584761
25.164652 7.344463 15.380083
25.301783 8.366316 12.591082
25.457052 7.3564177 15.384435
25.677782 8.3795595 12.5959015
25.753593 7.365821 15.387857
26.059538 8.388706 12.599231
26.053478 7.3727007 15.390361
26.355902 7.377029 15.391936
26.445366 8.393729 12.601059
26.660023 7.3787813 15.392574
26.833551 8.394554 12.601359
27.27009 7.374582 15.391046
27.222437 8.391204 12.600141
27.610294 8.38363 12.5973835
27.222437 9.407105 9.808974
27.574404 7.368604 15.38887
27.877129 7.3599987 15.385737
28.767683 7.318466 15.370622
28.853117 8.328983 12.577494
28.428396 9.369078 9.795134
28.853117 9.344884 9.786327
29.055902 7.299323 15.363654
29.061619 8.314813 12.572336
29.061619 9.330714 9.78117
29.267132 8.299225 12.566663
29.338446 7.2775006 15.355711
30.595499 8.150486 12.512526
30.637407 7.128168 15.301358
30.765766 8.123536 12.502717
30.868692 7.0901403 15.287518
30.930233 8.095143 12.492383
31.088573 7.0493803 15.272682
30.930233 9.111045 9.701217
30.765766 9.139438 9.711552
30.595499 9.166387 9.72136
22.837044 9.153686 9.716737
22.973942 9.175894 9.72482
23.115652 9.1971245 9.732548
24.225388 9.317909 9.776509
24.5739 9.343415 9.785793
24.93327 9.364852 9.793595
25.301783 9.382217 9.799916
25.677782 9.395461 9.804736
26.059538 9.404607 9.808065
26.445366 9.409631 9.809894
26.833551 9.410456 9.810194
41.570705 1.5118008 0.6134695
41.500404 1.7527772 0.7011778
41.570705 -0.5200024 6.1958027
41.496292 0.7505818 3.497335
41.496292 -0.26531914 6.2885
41.41812 1.0024309 3.5890005
41.41812 -0.013469976 6.3801656
41.33624 1.2513945 3.679616
41.33624 0.23549356 6.470781
41.250626 1.4974724 3.769181
41.250626 0.48157144 6.5603456
41.161366 1.7406131 3.857677
41.161366 0.7247122 6.648842
41.068417 1.9808167 3.945104
41.068417 0.96491575 6.736269
40.971836 2.2180831 4.0314617
40.971836 1.2021822 6.8226266
40.87165 2.4523609 4.1167316
40.87165 1.4364598 6.907897
40.76786 2.6836498 4.2009144
40.76786 1.6677488 6.9920793
40.660503 2.9118986 4.28399
40.660503 1.8959976 7.075155
40.5496 3.1371589 4.365978
40.5496 2.1212578 7.157143
40.43517 3.3593528 4.44685
40.43517 2.343452 7.2380147
40.31723 3.5784807 4.526606
40.31723 2.5625799 7.317771
40.195793 3.794517 4.6052365
40.195793 2.778616 7.396402
40.07092 4.007436 4.682733
40.07092 2.9915347 7.473898
39.94259 4.2172375 4.759094
39.94259 3.2013364 7.550259
39.810844 4.423895 4.8343115
39.810844 3.407994 7.6254764
39.675713 4.62741 4.9083853
39.675713 3.611509 7.69955
39.537212 4.82773 4.9812956
39.537212 3.8118293 7.7724605
39.395336 5.024855 5.0530434
39.395336 4.008954 7.8442082
39.250156 5.2187343 5.1236095
39.250156 4.202833 7.9147744
39.101673 5.4094176 5.1930127
39.101673 4.393517 7.9841776
38.949886 5.5968037 5.2612157
38.949886 4.5809026 8.052381
38.794853 5.780944 5.328237
38.794853 4.765043 8.119402
38.636566 5.961786 5.394058
38.636566 4.9458847 8.185223
38.475075 6.1393037 5.458669
38.475075 5.1234026 8.249834
38.31037 6.3134985 5.522071
38.31037 5.2975974 8.313236
38.142506 6.4843435 5.5842533
38.142506 5.4684424 8.375419
37.971497 6.6518135 5.6452074
37.971497 5.6359124 8.436373
37.79735 6.8159084 5.704933
37.79735 5.8000073 8.4960985
37.62008 6.976577 5.7634115
37.62008 5.9606757 8.554577
37.43975 7.133844 5.8206525
37.43975 6.117943 8.611817
37.276352 7.2711697 5.870635
37.276352 6.2552686 8.661799
37.110542 7.4057384 5.919614
37.110542 6.3898373 8.710778
36.942318 7.53755 5.9675894
36.942318 6.521649 8.758755
36.77171 7.666553 6.0145426
36.77171 6.6506524 8.805708
36.598713 7.7928 6.0604925
36.598713 6.776899 8.851658
36.423374 7.916238 6.1054206
36.423374 6.9003367 8.896585
36.245705 8.036842 6.149317
36.245705 7.0209413 8.940482
36.065693 8.154613 6.1921816
36.065693 7.138711 8.983347
35.883373 8.269548 6.234015
35.883373 7.2536473 9.02518
35.69877 8.381624 6.274807
35.69877 7.365723 9.065972
35.51187 8.490841 6.314559
35.51187 7.47494 9.105723
35.322716 8.597145 6.3532505
35.322716 7.5812445 9.144416
35.13132 8.700565 6.390892
35.13132 7.684664 9.182057
34.937683 8.801072 6.4274735
34.937683 7.785171 9.218638
34.741833 8.898669 6.4629965
34.741833 7.882768 9.254161
34.543777 8.993302 6.49744
34.543777 7.9774013 9.288605
34.34356 9.084999 6.5308146
34.34356 8.069098 9.3219795
34.14116 9.173732 6.563111
34.14116 8.15783 9.354276
33.936592 9.259476 6.5943193
33.936592 8.243575 9.385484
33.7299 9.342233 6.62444
33.7299 8.326332 9.415606
33.521084 9.421974 6.653464
33.521084 8.406074 9.444629
33.31017 9.498701 6.68139
33.31017 8.4828 9.472555
33.097145 9.572413 6.708219
33.097145 8.556513 9.499384
32.88206 9.64306 6.7339325
32.88206 8.627159 9.525097
32.664925 9.710667 6.758539
32.664925 8.694765 9.549704
32.445744 9.775181 6.7820206
32.445744 8.75928 9.573185
32.22452 9.83663 6.804386
32.22452 8.820728 9.595551
32.001297 9.894987 6.8256264
32.001297 8.879086 9.616791
31.77607 9.9502 6.845722
31.77607 8.934299 9.636888
31.548868 10.002321 6.8646927
31.548868 8.986421 9.655858
31.319695 10.051275 6.8825107
31.319695 9.035375 9.673676
31.319695 8.019473 12.464841
31.33365 7.0006857 15.254959
41.426758 1.9912031 0.78795767
41.349796 2.2270782 0.87380916
41.269474 2.4603252 0.9587042
41.18588 2.690996 1.0426614
41.09902 2.9190128 1.1256528
41.008865 3.1444275 1.207697
40.91548 3.3671627 1.288766
40.818886 3.5872183 1.3688596
40.71907 3.8046203 1.4479876
40.616074 4.019291 1.5261214
40.509895 4.2312565 1.6032704
40.400593 4.440465 1.6794162
40.28814 4.6469426 1.7545679
40.172585 4.850664 1.8287163
40.053947 5.051602 1.9018518
39.932224 5.249732 1.9739652
39.807446 5.445053 2.0450563
39.679623 5.637541 2.1151161
39.548794 5.8271685 2.184135
39.414967 6.0139623 2.2521222
39.278152 6.19787 2.3190591
39.138374 6.378866 2.3849363
38.995663 6.5569773 2.4497635
38.850002 6.7321506 2.5135214
38.701466 6.9043875 2.5762105
38.550034 7.073661 2.637821
38.395725 7.2399716 2.6983533
38.238564 7.4032936 2.7577975
38.078594 7.5636015 2.8161447
37.9158 7.720894 2.8733945
37.750206 7.8751464 2.9295378
37.581844 8.026334 2.9845657
37.41073 8.17448 3.0384865
37.236885 8.319534 3.091282
37.06031 8.461472 3.142943
36.881023 8.600318 3.1934786
36.699078 8.73602 3.24287
36.514458 8.868579 3.291118
36.32719 8.99797 3.338212
36.137306 9.12419 3.3841527
35.944817 9.2471895 3.428921
35.749752 9.366996 3.4725268
35.552094 9.483581 3.5149603
35.351902 9.596919 3.556212
35.14917 9.707012 3.5962822
34.94393 9.813806 3.635152
34.7362 9.917328 3.6728313
34.525986 10.017526 3.7093003
34.313316 10.114401 3.74456
34.098206 10.207953 3.77861
33.8807 10.298129 3.8114314
33.660763 10.384955 3.8430338
33.438473 10.468382 3.8733983
33.213795 10.548432 3.9025345
32.986797 10.6250305 3.930414
32.757446 10.698228 3.9570556
32.525803 10.767947 3.9824312
32.291885 10.834213 4.0065503
32.05568 10.897002 4.029403
31.817238 10.956286 4.050981
31.576561 11.01204 4.071274
31.33365 11.064292 4.090292
31.548868 7.9705195 12.447023
31.576561 6.948434 15.235941
31.77607 7.918398 12.428053
31.817238 6.89268 15.215648
32.001297 7.8631845 12.407957
32.05568 6.8333955 15.19407
32.22452 7.8048277 12.386717
32.291885 6.770607 15.171217
32.445744 7.7433786 12.364351
32.525803 6.7043405 15.147098
32.664925 7.678864 12.34087
32.757446 6.6346216 15.121722
32.88206 7.6112576 12.316263
32.986797 6.5614243 15.09508
33.097145 7.5406117 12.290549
33.213795 6.484826 15.067201
33.31017 7.466899 12.2637205
33.438473 6.4047756 15.038065
33.521084 7.390172 12.235794
33.660763 6.321349 15.0077
33.7299 7.310431 12.206771
33.8807 6.234523 14.976098
33.936592 7.227674 12.17665
34.098206 6.1443467 14.943276
34.14116 7.141929 12.145441
34.313316 6.0507946 14.909226
34.34356 7.053197 12.113145
34.525986 5.95392 14.873967
34.543777 6.9615 12.07977
34.7362 5.8537216 14.837498
34.741833 6.866867 12.045327
34.937683 6.76927 12.009805
34.94393 5.750199 14.799819
35.13132 6.6687627 11.973223
35.14917 5.6434054 14.760949
35.322716 6.565343 11.935581
35.351902 5.533313 14.720879
35.51187 6.4590387 11.89689
35.552094 5.419975 14.679626
35.69877 6.349822 11.857138
35.749752 5.3033895 14.637194
35.883373 6.2377462 11.816345
35.944817 5.1835837 14.593588
36.065693 6.12281 11.774512
36.137306 5.0605836 14.54882
36.245705 6.00504 11.7316475
36.32719 4.934363 14.502879
36.423374 5.8844357 11.687751
36.514458 4.8049726 14.455785
36.598713 5.760998 11.642823
36.699078 4.6724133 14.4075365
36.77171 5.634751 11.596873
36.881023 4.536711 14.358146
36.942318 5.505748 11.54992
37.06031 4.397866 14.30761
37.110542 5.373936 11.501945
37.236885 4.255928 14.255949
37.276352 5.2393675 11.452966
37.41073 4.1108737 14.203154
37.43975 5.1020417 11.402983
37.581844 3.9627275 14.149232
37.62008 4.9447746 11.345742
37.750206 3.81154 14.094205
37.79735 4.7841063 11.287264
37.9158 3.6572874 14.038061
37.971497 4.6200113 11.227538
38.078594 3.499995 13.980811
38.142506 4.4525414 11.166584
38.238564 3.339687 13.922464
38.31037 4.2816963 11.104402
38.395725 3.1763654 13.86302
38.475075 4.1075015 11.040999
38.550034 3.0100546 13.802487
38.636566 3.9299836 10.976389
38.701466 2.840781 13.740877
38.794853 3.7491415 10.910567
38.850002 2.6685443 13.678188
38.949886 3.5650015 10.843546
38.995663 2.4933708 13.61443
39.101673 3.3776157 10.775343
39.138374 2.3152597 13.549603
39.250156 3.1869318 10.70594
39.278152 2.1342635 13.483726
39.395336 2.993053 10.635374
39.414967 1.9503558 13.416789
39.537212 2.795928 10.563626
39.548794 1.7635622 13.348802
39.675713 2.595608 10.490716
39.679623 1.5739346 13.279783
39.810844 2.392093 10.416642
39.807446 1.381447 13.209723
39.932224 1.1861255 13.138632
39.94259 2.185435 10.341425
40.053947 0.9879956 13.066519
40.07092 1.9756336 10.265063
40.172585 0.7870576 12.993383
40.195793 1.7627147 10.187568
40.28814 0.5833365 12.919234
40.31723 1.5466787 10.108936
40.400593 0.3768588 12.844083
40.43517 1.3275508 10.029181
40.509895 0.16765009 12.767937
40.5496 1.1053567 9.948309
40.616074 -0.044315226 12.690788
40.660503 0.8800964 9.866321
40.71907 -0.25898606 12.612655
40.76786 0.6518476 9.783245
40.818886 -0.47638813 12.533526
40.87165 0.42055863 9.699062
40.91548 -0.69644374 12.453433
40.971836 0.18628092 9.613792
41.008865 -0.9191789 12.372364
41.068417 -0.050985467 9.527434
41.09902 -1.1445936 12.290319
41.161366 -0.29118901 9.440007
41.18588 -1.3726104 12.207328
41.250626 -0.5343298 9.351511
41.269474 -1.6032811 12.123371
41.33624 -0.78040767 9.261947
41.349796 -1.8365282 12.038476
41.41812 -1.0293711 9.171331
41.426758 -2.0724034 11.952624
41.496292 -1.2812203 9.079665
41.500404 -2.3108292 11.865845
41.570705 -2.5518057 11.778136
41.570705 -8.232418 -2.933136
41.601494 -8.112947 -2.8896523
41.570705 -10.264221 2.6491973
41.615425 -9.072412 -0.07794228
41.615425 -10.088313 2.7132227
41.658047 -8.889547 -0.011385123
41.658047 -9.905448 2.77978
41.698555 -8.700074 0.05757758
41.698555 -9.715975 2.8487425
41.736996 -8.504314 0.12882808
41.736996 -9.520216 2.919993
41.77334 -8.302629 0.20223558
41.77334 -9.31853 2.9934006
41.8076 -8.095353 0.2776781
41.8076 -9.111254 3.0688431
41.83976 -7.8828335 0.35502872
41.83976 -8.898734 3.1461937
41.869823 -7.6654058 0.434166
41.869823 -8.681307 3.2253308
41.897804 -7.443431 0.51495826
41.897804 -8.4593315 3.3061233
41.923687 -7.21723 0.59728867
41.923687 -8.23313 3.3884535
41.94747 -6.9871526 0.68103004
41.94747 -8.003054 3.472195
41.969173 -6.7535443 0.7660564
41.969173 -7.7694454 3.5572214
41.98879 -6.5167413 0.8522456
41.98879 -7.5326424 3.6434104
42.00631 -6.277092 0.9394709
42.00631 -7.292993 3.730636
42.035057 -5.7906175 1.1165332
42.035057 -6.8065186 3.9076982
42.053223 -5.3628345 1.2722334
42.053223 -6.3787355 4.0633984
42.065083 -4.931354 1.4292793
42.065083 -5.947255 4.220444
42.070675 -4.4979806 1.5870144
42.070675 -5.5138817 4.3781796
42.069946 -4.064491 1.7447919
42.069946 -5.080392 4.535957
42.062943 -3.632676 1.9019597
42.062943 -4.6485767 4.693125
42.049644 -3.2043262 2.057866
42.049644 -4.2202272 4.849031
42.030056 -2.7812066 2.211869
42.030056 -3.7971075 5.003034
42.004185 -2.3651338 2.3633072
42.004185 -3.3810346 5.1544724
41.972023 -1.9578724 2.5115383
41.972023 -2.9737732 5.3027034
41.953587 -1.7581193 2.5842423
41.953587 -2.7740202 5.375407
41.93357 -1.5612261 2.6559057
41.93357 -2.577127 5.4470706
41.91198 -1.3674375 2.726439
41.91198 -2.3833385 5.517604
41.88881 -1.1769725 2.7957625
41.88881 -2.1928735 5.5869274
41.86408 -0.9900502 2.8637967
41.86408 -2.0059512 5.6549616
41.837784 -0.80688953 2.930462
41.837784 -1.8227905 5.7216268
41.809902 -0.6277223 2.9956732
41.809902 -1.6436232 5.786838
41.780453 -0.45278057 3.059347
41.780453 -1.4686816 5.850512
41.749416 -0.2822703 3.1214075
41.749416 -1.2981713 5.9125724
41.71683 -0.11642344 3.1817708
41.71683 -1.1323243 5.9729357
41.68265 0.04452814 3.2403524
41.68265 -0.9713728 6.0315175
41.64691 0.2004041 3.2970867
41.64691 -0.81549686 6.0882516
41.609585 0.350921 3.3518703
41.609585 -0.66497993 6.1430354
41.609585 -1.6808811 8.934201
41.601494 -2.6656337 11.736706
41.631298 -2.7829142 11.694019
41.631298 -7.9901786 -2.844968
41.66013 -7.864215 -2.7991211
41.687984 -7.735173 -2.7521536
41.71487 -7.6031427 -2.7040987
41.740765 -7.4682646 -2.6550071
41.789654 -7.1903415 -2.5538511
41.834602 -6.9022803 -2.4490056
41.87565 -6.6049438 -2.3407838
41.9128 -6.2992077 -2.229505
41.94603 -5.9859614 -2.1154928
41.97534 -5.666068 -1.9990611
42.00077 -5.340416 -1.8805335
42.022266 -5.009856 -1.7602195
42.039856 -4.6752896 -1.6384473
42.05354 -4.3375797 -1.5155308
42.063313 -3.9976027 -1.3917893
42.06918 -3.6562345 -1.2675415
42.071125 -3.3143506 -1.143106
42.06918 -2.9728277 -1.0188018
42.063313 -2.6325285 -0.894943
42.05354 -2.2943552 -0.771858
42.039856 -1.9591575 -0.649856
42.022266 -1.6278116 -0.5292559
42.00077 -1.3012192 -0.41038603
41.97534 -0.9802178 -0.29355106
41.94603 -0.66572195 -0.17908394
41.9128 -0.35856903 -0.06728942
41.87565 -0.059673663 0.041499596
41.834602 0.23011391 0.14697364
41.789654 0.5099434 0.24882327
41.740765 0.7788746 0.34670618
41.71487 0.90901166 0.39407223
41.687984 1.0360827 0.4403223
41.66013 1.1600106 0.48542836
41.631298 1.2806921 0.52935284
41.601494 1.3979726 0.5720395
41.64691 -1.831398 8.879417
41.66013 -2.9035957 11.650095
41.68265 -1.987274 8.822683
41.687984 -3.0275235 11.604989
41.71683 -2.1482255 8.764101
41.71487 -3.1545947 11.558739
41.740765 -3.2847319 11.511373
41.789654 -3.553663 11.41349
41.780453 -2.4845827 8.641678
41.749416 -2.3140724 8.703738
41.809902 -2.6595244 8.578004
41.834602 -3.8334925 11.311641
41.837784 -2.8386917 8.512793
41.86408 -3.0218523 8.446127
41.87565 -4.12328 11.206166
41.88881 -3.2087746 8.378093
41.9128 -4.4221754 11.097377
41.91198 -3.3992395 8.308769
41.93357 -3.5930283 8.238236
41.94603 -4.729328 10.985582
41.953587 -3.7899215 8.166573
41.97534 -5.043824 10.871116
41.972023 -3.9896746 8.093869
42.00077 -5.3648257 10.754281
42.004185 -4.396936 7.9456377
42.022266 -5.6914177 10.63541
42.030056 -4.813009 7.7941995
42.039856 -6.0227637 10.514811
42.049644 -5.2361283 7.640197
42.05354 -6.3579617 10.392809
42.062943 -5.664478 7.48429
42.063313 -6.696135 10.269724
42.06918 -7.036434 10.1458645
42.069946 -6.096293 7.327122
42.071125 -7.377957 10.021561
42.070675 -6.529783 7.169345
42.06918 -7.719841 9.897125
42.065083 -6.963156 7.01161
42.063313 -8.061209 9.772878
42.053223 -7.3946366 6.8545637
42.05354 -8.401186 9.649136
42.039856 -8.738896 9.526219
42.035057 -7.8224196 6.6988635
42.022266 -9.0734625 9.404448
42.00631 -8.308894 6.5218015
42.00077 -9.404022 9.284133
41.98879 -8.548544 6.434576
41.97534 -9.729674 9.165606
41.969173 -8.785346 6.348387
41.94603 -10.049568 9.049174
41.94747 -9.018954 6.2633605
41.923687 -9.249032 6.1796193
41.9128 -10.362814 8.935162
41.897804 -9.475233 6.0972886
41.87565 -10.6685505 8.823883
41.869823 -9.697207 6.0164967
41.834602 -10.965887 8.715661
41.83976 -9.914636 5.9373593
41.8076 -10.127155 5.8600087
41.789654 -11.253948 8.610815
41.77334 -10.334432 5.784566
41.740765 -11.531871 8.50966
41.736996 -10.536117 5.7111588
41.71487 -11.666749 8.460568
41.698555 -10.731876 5.6399083
41.687984 -11.7987795 8.412513
41.658047 -10.92135 5.5709453
41.66013 -11.927821 8.365545
41.631298 -12.053784 8.319698
41.615425 -11.104214 5.5043883
41.601494 -12.176554 8.275015
41.570705 -12.296024 8.231531
36.77087 -15.361822 -5.528027
37.00963 -15.177516 -5.460945
36.77087 -17.393625 0.054306127
37.056705 -16.156343 -2.6562822
37.056705 -17.172243 0.13488264
37.3329 -15.933492 -2.5751712
37.3329 -16.949392 0.21599376
37.599625 -15.708915 -2.4934318
37.599625 -16.724815 0.2977331
37.85704 -15.482352 -2.41097
37.85704 -16.498253 0.38019493
38.105312 -15.253551 -2.3276927
38.105312 -16.269451 0.4634722
38.34463 -15.022248 -2.2435057
38.34463 -16.038149 0.54765916
38.57515 -14.788177 -2.1583107
38.57515 -15.804078 0.6328543
38.79706 -14.551104 -2.0720232
38.79706 -15.567004 0.71914184
39.010494 -14.310733 -1.9845352
39.010494 -15.326633 0.8066297
39.215652 -14.066832 -1.8957626
39.215652 -15.082733 0.8954024
39.41272 -13.81913 -1.8056066
39.41272 -14.8350315 0.98555833
39.60182 -13.567359 -1.7139695
39.60182 -14.583261 1.0771955
39.783154 -13.311297 -1.6207706
39.783154 -14.327199 1.1703943
39.9569 -13.05065 -1.5259024
39.9569 -14.06655 1.2652626
40.12319 -12.785171 -1.429276
40.12319 -13.801071 1.3618889
40.282246 -12.514591 -1.3307931
40.282246 -13.530492 1.4603719
40.384212 -12.331494 -1.2641515
40.384212 -13.347396 1.5270134
40.48308 -12.145951 -1.196619
40.48308 -13.161852 1.5945458
40.578896 -11.95787 -1.1281629
40.578896 -12.97377 1.663002
40.67172 -11.767185 -1.0587596
40.67172 -12.783086 1.7324054
40.761623 -11.573834 -0.9883858
40.761623 -12.589736 1.8027792
40.84862 -11.377727 -0.9170084
40.84862 -12.393628 1.8741565
40.93278 -11.178772 -0.8445948
40.93278 -12.194673 1.9465702
41.014145 -10.976933 -0.77113116
41.014145 -11.992833 2.0200338
41.09278 -10.772103 -0.6965794
41.09278 -11.788004 2.0945854
41.168728 -10.564209 -0.6209122
41.168728 -11.580111 2.1702528
41.242016 -10.353184 -0.5441053
41.242016 -11.369085 2.2470596
41.31274 -10.138938 -0.46612608
41.31274 -11.154839 2.325039
41.3809 -9.921408 -0.38695148
41.3809 -10.937308 2.4042134
41.446598 -9.700515 -0.30655304
41.446598 -10.716415 2.484612
41.50984 -9.476169 -0.22489786
41.50984 -10.49207 2.566267
41.50984 -11.507971 5.357433
41.494194 -12.580504 8.127989
37.24167 -14.992242 -5.393511
37.467102 -14.80581 -5.325655
37.68602 -14.618114 -5.2573395
37.89851 -14.428964 -5.188494
38.10471 -14.23824 -5.1190767
38.30467 -14.045779 -5.0490265
38.4985 -13.851411 -4.9782825
38.686317 -13.655032 -4.9068065
38.86822 -13.456465 -4.8345337
39.044273 -13.255552 -4.7614074
39.214638 -13.052166 -4.687381
39.379353 -12.84614 -4.6123934
39.53854 -12.637343 -4.536398
39.692303 -12.42561 -4.459333
39.840717 -12.210784 -4.381143
39.983906 -11.992738 -4.3017807
40.121956 -11.771304 -4.221185
40.25498 -11.54634 -4.139305
40.38306 -11.317692 -4.056084
40.506306 -11.085218 -3.9714704
40.624805 -10.848776 -3.8854125
40.73866 -10.608187 -3.7978451
40.847977 -10.363319 -3.7087207
40.952835 -10.114034 -3.617988
41.053352 -9.860162 -3.5255864
41.14963 -9.6015625 -3.4314637
41.24174 -9.33808 -3.3355641
41.329807 -9.069587 -3.2378407
41.41394 -8.795902 -3.1382275
41.494194 -8.516898 -3.0366783
41.446598 -11.732317 5.2757773
41.41394 -12.8595085 8.026439
41.3809 -11.95321 5.1953793
41.329807 -13.133193 7.926826
41.31274 -12.17074 5.1162043
41.24174 -13.401687 7.8291025
41.242016 -12.384986 5.038225
41.168728 -12.596011 4.961418
41.14963 -13.665169 7.733203
41.09278 -12.8039055 4.8857512
41.053352 -13.923768 7.63908
41.014145 -13.008735 4.811199
40.952835 -14.17764 7.5466785
40.93278 -13.210574 4.7377357
40.847977 -14.426926 7.455946
40.84862 -13.409529 4.6653223
40.761623 -13.605637 4.5939445
40.73866 -14.671793 7.366822
40.67172 -13.798987 4.523571
40.624805 -14.912382 7.279254
40.578896 -13.989671 4.454168
40.506306 -15.148825 7.1931963
40.48308 -14.1777525 4.3857117
40.38306 -15.381298 7.1085825
40.384212 -14.3632965 4.318179
40.282246 -14.546393 4.2515373
40.25498 -15.609946 7.0253615
40.12319 -14.816973 4.1530547
40.121956 -15.83491 6.9434814
39.983906 -16.056345 6.862886
39.9569 -15.082452 4.056428
39.840717 -16.274391 6.7835236
39.783154 -15.3431 3.96156
39.692303 -16.489216 6.7053337
39.60182 -15.599161 3.868361
39.53854 -16.70095 6.6282687
39.41272 -15.850932 3.7767239
39.379353 -16.909746 6.5522733
39.215652 -16.098635 3.686568
39.214638 -17.115772 6.477286
39.044273 -17.319159 6.4032593
39.010494 -16.342535 3.5977952
38.86822 -17.520071 6.330133
38.79706 -16.582907 3.5103073
38.686317 -17.71864 6.25786
38.57515 -16.819979 3.4240198
38.4985 -17.915018 6.1863847
38.34463 -17.05405 3.3388247
38.30467 -18.109386 6.11564
38.105312 -17.285353 3.2546377
38.10471 -18.301847 6.04559
37.89851 -18.492569 5.9761724
37.85704 -17.514154 3.1713605
37.68602 -18.68172 5.907327
37.599625 -17.740717 3.0888987
37.467102 -18.869415 5.8390117
37.3329 -17.965294 3.0071595
37.24167 -19.05585 5.771156
37.056705 -18.188145 2.9260483
37.00963 -19.241123 5.7037215
36.77087 -19.425428 5.6366396
26.35331 -17.935759 -6.4648633
26.599277 -17.943838 -6.4678035
26.35331 -19.967562 -0.8825302
26.63739 -19.9768 -0.88589245
26.599277 -22.007444 4.696863
26.840858 -22.014427 4.6943216
26.915615 -19.984581 -0.88872427
27.078136 -22.020275 4.692193
27.188097 -19.99083 -0.89099836
27.31119 -22.025003 4.690472
27.454985 -19.995556 -0.89271927
27.540104 -22.028557 4.6891785
27.716415 -19.998713 -0.8938681
27.76496 -22.030928 4.6883154
27.972515 -20.000257 -0.8944304
27.98584 -22.0321 4.6878886
28.202854 -22.03205 4.6879077
28.22342 -20.000168 -0.8943978
28.416058 -22.030746 4.688381
28.469236 -19.998417 -0.89376044
28.625547 -22.028185 4.689314
28.710117 -19.994963 -0.8925034
28.831402 -22.02432 4.6907206
28.946201 -19.989773 -0.89061415
29.033733 -22.019167 4.692596
29.17761 -19.982803 -0.88807714
29.23257 -22.012674 4.6949596
29.404455 -19.974056 -0.88489366
29.428062 -22.00483 4.697815
29.626884 -19.963467 -0.88103956
29.620262 -21.995619 4.701167
29.809242 -21.985003 4.7050314
29.845037 -19.95101 -0.87650573
29.995096 -21.972982 4.709406
30.05905 -19.936659 -0.87128234
30.177935 -21.95952 4.714306
30.269018 -19.92039 -0.8653603
30.357811 -21.944618 4.71973
30.520552 -19.897806 -0.85714066
30.53481 -21.92823 4.725694
30.766506 -19.872234 -0.8478336
30.880552 -21.890923 4.739273
30.963629 -19.84906 -0.8393987
31.215862 -21.847471 4.755088
31.157297 -19.823809 -0.83020836
31.347689 -19.796448 -0.82024956
31.215862 -17.783865 -6.409579
31.541384 -17.734087 -6.391461
26.840858 -17.95082 -6.470345
27.078136 -17.956669 -6.4724736
27.31119 -17.961397 -6.4741945
27.540104 -17.96495 -6.475488
27.76496 -17.967321 -6.4763513
27.98584 -17.968494 -6.476778
28.202854 -17.968443 -6.476759
28.416058 -17.96714 -6.4762855
28.625547 -17.964579 -6.475353
28.831402 -17.960714 -6.473946
29.033733 -17.95556 -6.4720707
29.23257 -17.949068 -6.469707
29.428062 -17.941223 -6.4668517
29.620262 -17.93201 -6.4634995
29.809242 -17.921396 -6.4596357
29.995096 -17.909376 -6.4552608
30.177935 -17.895914 -6.4503613
30.357811 -17.881012 -6.4449368
30.53481 -17.864624 -6.4389725
30.880552 -17.827316 -6.4253936
31.857817 -17.677805 -6.3709755
31.719025 -19.735296 -0.79799193
31.534872 -19.76696 -0.809517
31.541384 -21.797693 4.7732058
32.165833 -17.61485 -6.348062
32.078697 -19.665318 -0.7725222
31.900259 -19.701427 -0.7856651
31.857817 -21.741411 4.793691
32.2545 -19.626942 -0.7585547
32.466103 -17.545078 -6.322667
32.427784 -19.586273 -0.7437522
32.598656 -19.543259 -0.72809637
32.466103 -21.608685 4.8419995
32.75931 -21.531893 4.8699493
32.76729 -19.497873 -0.71157753
32.933784 -19.450108 -0.6941917
32.75931 -17.468287 -6.2947173
33.04613 -17.384346 -6.2641654
33.32725 -17.293049 -6.230936
33.26091 -19.347216 -0.65674216
33.098293 -19.39989 -0.67591476
33.04613 -21.447952 4.9005013
33.5811 -19.234354 -0.61566424
33.603325 -17.194242 -6.194973
33.895393 -19.111238 -0.57085353
33.875065 -17.087769 -6.1562204
34.14313 -16.973452 -6.114612
34.204838 -18.97761 -0.5222168
34.408195 -16.851122 -6.0700874
34.510506 -18.833212 -0.4696601
34.670944 -16.72061 -6.0225854
34.813408 -18.677786 -0.41309014
34.93206 -16.581753 -5.972045
35.114613 -18.511078 -0.35241294
35.192204 -16.434366 -5.918401
35.41517 -18.332811 -0.2875294
35.452072 -16.278309 -5.8616004
35.716125 -18.142733 -0.21834621
35.71234 -16.11339 -5.801575
35.867073 -18.043192 -0.18211655
35.973663 -15.939452 -5.738267
36.01853 -17.940582 -0.14477007
36.23674 -15.7563305 -5.671616
36.204605 -17.810911 -0.09757308
36.391872 -17.676573 -0.04867802
36.23674 -19.819937 5.4930506
36.50227 -19.627436 5.563115
36.580563 -17.537495 0.0019418607
36.50227 -15.563829 -5.6015515
35.973663 -20.003057 5.4263997
35.71234 -20.176996 5.3630915
35.452072 -20.341915 5.3030663
35.192204 -20.497972 5.246266
34.93206 -20.645359 5.1926217
34.670944 -20.784216 5.1420813
34.408195 -20.914728 5.094579
34.14313 -21.037058 5.0500546
33.875065 -21.151375 5.008446
33.603325 -21.257849 4.9696937
33.32725 -21.356655 4.9337306
32.165833 -21.678455 4.8166046
26.35331 -21.999365 4.6998034
21.467384 -17.118635 -6.1674542
21.50041 -17.165628 -6.184559
21.467384 -19.150438 -0.58512115
21.516449 -18.201345 -3.4006026
21.516449 -19.217247 -0.6094375
21.577263 -18.264559 -3.4236102
21.577263 -19.28046 -0.63244534
21.61226 -18.29487 -3.4346428
21.61226 -19.310772 -0.6434779
21.650442 -18.324306 -3.4453564
21.650442 -19.340206 -0.6541915
21.69187 -18.352932 -3.455775
21.69187 -19.368832 -0.6646102
21.736603 -18.380705 -3.465884
21.736603 -19.396606 -0.67471904
21.78475 -18.40768 -3.4757025
21.78475 -19.423582 -0.6845376
21.836391 -18.433859 -3.48523
21.836391 -19.449759 -0.69406515
21.891556 -18.459236 -3.4944668
21.891556 -19.475136 -0.7033018
21.950369 -18.483868 -3.503432
21.950369 -19.49977 -0.7122671
22.012896 -18.507725 -3.5121155
22.012896 -19.523626 -0.72095054
22.079193 -18.530834 -3.520527
22.079193 -19.546736 -0.72936195
22.149355 -18.553238 -3.5286806
22.149355 -19.569138 -0.7375157
22.223467 -18.574907 -3.5365674
22.223467 -19.590807 -0.74540263
22.293219 -18.593716 -3.5434134
22.293219 -19.609615 -0.7522484
22.366247 -18.611969 -3.550057
22.366247 -19.627869 -0.75889194
22.442593 -18.629694 -3.5565085
22.442593 -19.645596 -0.7653437
22.522339 -18.646866 -3.562759
22.522339 -19.662767 -0.77159387
22.60554 -18.663525 -3.5688217
22.60554 -19.679424 -0.77765685
22.692194 -18.679667 -3.5746968
22.692194 -19.695566 -0.7835319
22.782427 -18.695316 -3.580393
22.782427 -19.711218 -0.78922826
22.876265 -18.710466 -3.5859075
22.876265 -19.726368 -0.7947426
22.973751 -18.725126 -3.591243
22.973751 -19.741028 -0.80007815
23.074965 -18.739323 -3.5964103
23.074965 -19.755224 -0.80524546
23.179949 -18.753044 -3.6014042
23.179949 -19.768944 -0.8102392
23.288744 -18.766325 -3.6062381
23.288744 -19.782227 -0.81507313
23.401432 -18.779142 -3.610903
23.401432 -19.795042 -0.8197381
23.518055 -18.791548 -3.6154187
23.518055 -19.80745 -0.8242537
23.638681 -18.803514 -3.6197743
23.638681 -19.819416 -0.8286094
23.763338 -18.815071 -3.62398
23.763338 -19.83097 -0.8328152
23.892094 -18.826216 -3.6280365
23.892094 -19.842115 -0.83687145
24.025017 -18.836971 -3.631951
24.025017 -19.85287 -0.8407862
24.162148 -18.847342 -3.6357257
24.162148 -19.863241 -0.84456074
24.303558 -18.857338 -3.6393645
24.303558 -19.87324 -0.84819955
24.449286 -18.866974 -3.6428716
24.449286 -19.882875 -0.85170656
24.599371 -18.87625 -3.6462474
24.599371 -19.89215 -0.8550825
24.7539 -18.88519 -3.6495013
24.7539 -19.90109 -0.85833645
24.912926 -18.893782 -3.6526287
24.912926 -19.909683 -0.86146384
25.076488 -18.902052 -3.6556387
25.076488 -19.917953 -0.86447376
25.244658 -18.91 -3.658532
25.244658 -19.925901 -0.86736697
25.417475 -18.917652 -3.6613169
25.417475 -19.933554 -0.8701518
25.595007 -18.925009 -3.663994
25.595007 -19.940908 -0.8728291
25.777296 -18.932081 -3.6665683
25.777296 -19.94798 -0.8754033
25.96441 -18.93887 -3.6690392
25.96441 -19.954771 -0.8778744
26.156393 -18.945389 -3.671412
26.156393 -19.961288 -0.880247
26.156393 -20.97719 1.9109186
26.048584 -21.989487 4.703399
21.539042 -17.21086 -6.2010217
21.583542 -17.254364 -6.2168555
21.634073 -17.296192 -6.2320805
21.69087 -17.33637 -6.246704
21.754137 -17.374943 -6.2607427
21.824081 -17.41194 -6.2742085
21.900892 -17.447403 -6.2871165
21.984806 -17.481375 -6.2994814
22.07604 -17.51389 -6.3113155
22.174772 -17.544975 -6.32263
22.28121 -17.574682 -6.333442
22.39561 -17.603037 -6.3437624
22.518116 -17.630087 -6.353608
22.648996 -17.655867 -6.362991
22.788418 -17.68042 -6.3719273
22.936613 -17.703762 -6.3804235
23.09376 -17.725946 -6.388498
23.260118 -17.747007 -6.3961635
23.435856 -17.766989 -6.403436
23.621202 -17.785927 -6.410329
23.816338 -17.803844 -6.4168506
24.02152 -17.820799 -6.423021
24.236917 -17.836811 -6.428849
24.462748 -17.851934 -6.434354
24.699215 -17.866196 -6.439544
24.946554 -17.879633 -6.444435
25.20493 -17.89227 -6.449034
25.4746 -17.904173 -6.453367
25.755745 -17.915367 -6.457442
26.048584 -17.92588 -6.4612675
25.96441 -20.970673 1.9132912
25.755745 -21.978975 4.707225
25.777296 -20.963882 1.9157623
25.595007 -20.95681 1.9183365
25.4746 -21.96778 4.7112994
25.417475 -20.949453 1.9210137
25.20493 -21.955875 4.7156324
25.244658 -20.941803 1.9237987
25.076488 -20.933853 1.9266918
24.946554 -21.94324 4.7202315
24.912926 -20.925585 1.9297018
24.7539 -20.916992 1.9328291
24.699215 -21.929802 4.7251225
24.599371 -20.908052 1.9360831
24.462748 -21.91554 4.730313
24.449286 -20.898777 1.939459
24.303558 -20.889141 1.942966
24.236917 -21.900417 4.7358174
24.162148 -20.879143 1.9466048
24.02152 -21.884405 4.741646
24.025017 -20.868773 1.9503794
23.892094 -20.858017 1.9542941
23.816338 -21.86745 4.747816
23.763338 -20.846872 1.9583504
23.621202 -21.849533 4.754338
23.638681 -20.835318 1.9625561
23.518055 -20.82335 1.9669119
23.435856 -21.830595 4.7612305
23.401432 -20.810944 1.9714274
23.260118 -21.810614 4.768503
23.288744 -20.798126 1.9760925
23.179949 -20.784845 1.9809264
23.09376 -21.789553 4.776169
23.074965 -20.771126 1.9859202
22.973751 -20.75693 1.9910874
22.936613 -21.76737 4.784243
22.876265 -20.74227 1.996423
22.788418 -21.744026 4.7927394
22.782427 -20.72712 2.0019374
22.692194 -20.711468 2.0076337
22.648996 -21.719473 4.801676
22.60554 -20.695326 2.0135088
22.518116 -21.693695 4.8110585
22.522339 -20.678669 2.0195718
22.442593 -20.661497 2.025822
22.39561 -21.666643 4.8209043
22.366247 -20.64377 2.0322735
22.28121 -21.638288 4.8312244
22.293219 -20.625517 2.0389173
22.223467 -20.606709 2.045763
22.174772 -21.608582 4.8420367
22.149355 -20.58504 2.05365
22.07604 -21.577496 4.853351
22.079193 -20.562637 2.0618036
22.012896 -20.539528 2.070215
21.984806 -21.544981 4.8651853
21.950369 -20.515669 2.0788984
21.900892 -21.51101 4.87755
21.891556 -20.491037 2.0878637
21.836391 -20.46566 2.0971005
21.824081 -21.475546 4.890458
21.78475 -20.439484 2.106628
21.754137 -21.438549 4.903924
21.736603 -20.412508 2.1164465
21.69087 -21.399977 4.9179626
21.69187 -20.384733 2.1265554
21.650442 -20.356108 2.136974
21.634073 -21.359798 4.932586
21.61226 -20.326674 2.1476877
21.583542 -21.31797 4.947811
21.577263 -20.296362 2.1587203
21.539042 -21.274467 4.963645
21.516449 -20.233149 2.1817281
21.50041 -21.229235 4.980108
21.467384 -21.182241 4.9972124
22.344929 -15.462576 -5.564698
22.350372 -15.965399 -4.1672497
22.479017 -15.341392 -5.520591
22.350372 -16.47335 -2.7716637
22.479017 -17.373196 0.061742283
22.350372 -16.9813 -1.3760844
22.350372 -17.489252 0.01950121
22.227812 -17.101158 -1.4197092
22.227812 -17.60911 -0.024123503
22.111876 -17.223795 -1.4643457
22.111876 -17.731747 -0.068760015
22.00308 -17.3482 -1.5096254
22.00308 -17.856152 -0.11403974
21.901947 -17.473326 -1.5551674
21.901947 -17.981277 -0.1595817
21.809029 -17.598156 -1.6006018
21.809029 -18.106108 -0.20501605
21.724827 -17.721659 -1.6455534
21.724827 -18.22961 -0.24996765
21.64988 -17.842804 -1.6896465
21.64988 -18.350756 -0.29406074
21.613207 -17.90728 -1.7131135
21.613207 -18.415232 -0.3175278
21.579525 -17.970585 -1.7361546
21.579525 -18.478537 -0.34056884
21.548899 -18.032574 -1.7587168
21.548899 -18.540525 -0.36313108
21.521412 -18.09307 -1.7807356
21.521412 -18.60102 -0.3851499
21.497147 -18.15189 -1.8021445
21.497147 -18.659842 -0.40655878
21.4762 -18.208908 -1.8228971
21.4762 -18.71686 -0.4273114
21.458637 -18.263926 -1.8429223
21.458637 -18.771877 -0.44733664
21.44456 -18.316795 -1.8621655
21.44456 -18.824747 -0.4665797
21.434057 -18.367348 -1.8805643
21.434057 -18.875298 -0.48497865
21.427189 -18.415422 -1.8980623
21.427189 -18.923374 -0.50247663
21.424063 -18.460846 -1.9145956
21.424063 -18.968798 -0.5190099
21.424763 -18.503462 -1.9301059
21.424763 -19.011414 -0.53452015
21.429342 -18.543087 -1.9445287
21.429342 -19.051039 -0.54894304
21.437923 -18.579582 -1.957812
21.437923 -19.087534 -0.5622262
21.450577 -18.612768 -1.9698902
21.450577 -18.104818 -3.3654695
21.450577 -17.596867 -4.7610555
21.45118 -17.090178 -6.157097
21.438787 -17.0585 -6.1455674
21.437923 -17.563683 -4.7489767
21.430164 -17.023783 -6.132931
21.429342 -17.527187 -4.735694
21.425215 -16.986128 -6.119226
21.424763 -17.48756 -4.721271
21.423885 -16.945715 -6.104517
21.424063 -17.444946 -4.7057605
21.426105 -16.902689 -6.088856
21.427189 -17.39952 -4.6892276
21.431768 -16.857176 -6.0722914
21.434057 -17.351446 -4.6717296
21.440817 -16.809345 -6.054882
21.44456 -17.300896 -4.6533303
21.453182 -16.759323 -6.0366755
21.458637 -17.248026 -4.6340876
21.468782 -16.707264 -6.017728
21.4762 -17.193007 -4.6140623
21.487537 -16.6533 -5.9980865
21.497147 -17.135988 -4.5933094
21.509388 -16.597597 -5.9778123
21.521412 -17.07717 -4.571901
21.534243 -16.540297 -5.956957
21.548899 -17.016672 -4.549882
21.56203 -16.481539 -5.9355707
21.579525 -16.954683 -4.5273194
21.626135 -16.36024 -5.891422
21.613207 -16.891378 -4.5042787
21.64988 -16.826902 -4.4808116
21.64988 -17.334854 -3.0852256
21.724827 -17.21371 -3.0411325
22.227812 -16.085257 -4.210874
22.21749 -15.587843 -5.610292
22.111876 -16.207895 -4.255511
22.097301 -15.716048 -5.656955
22.00308 -16.3323 -4.3007903
21.98497 -15.846031 -5.7042646
21.901947 -16.457424 -4.3463326
21.881083 -15.976605 -5.7517896
21.809029 -16.582254 -4.391767
21.786243 -16.106615 -5.7991095
21.724827 -16.70576 -4.4367185
21.701069 -16.234882 -5.8457947
21.45118 -21.153784 5.00757
21.450577 -19.62867 0.8212781
21.450577 -19.12072 -0.5743045
21.437923 -19.595486 0.8333564
21.429342 -19.55899 0.8466396
21.424763 -19.519363 0.8610624
21.424063 -19.47675 0.8765727
21.427189 -19.431324 0.8931059
21.434057 -19.38325 0.91060394
21.44456 -19.332699 0.9290029
21.458637 -19.279829 0.94824594
21.4762 -19.22481 0.9682712
21.497147 -19.167791 0.9890238
21.521412 -19.108973 1.0104327
21.548899 -19.048475 1.0324515
21.579525 -18.986486 1.0550138
21.613207 -18.923182 1.0780548
21.64988 -18.858706 1.1015218
21.724827 -18.737562 1.145615
21.809029 -18.614058 1.1905665
21.901947 -18.48923 1.2360009
22.00308 -18.364103 1.2815428
22.111876 -18.239698 1.3268225
22.227812 -18.11706 1.3714591
22.350372 -17.997202 1.4150838
22.350372 -18.505152 2.8106668
22.479017 -19.404999 5.644076
22.350372 -19.013103 4.2062488
22.344929 -19.526182 5.5999684
22.227812 -19.132961 4.1626244
22.21749 -19.65145 5.5543747
22.111876 -19.255598 4.1179876
22.097301 -19.779654 5.507712
22.00308 -19.380003 4.072708
21.98497 -19.909637 5.460402
21.901947 -19.505129 4.027166
21.881083 -20.04021 5.412877
21.809029 -19.62996 3.9817317
21.786243 -20.170221 5.3655577
21.724827 -19.753462 3.93678
21.701069 -20.298489 5.318872
21.64988 -19.874607 3.892687
