5.1684947 5.2154064E-06 -42.56046
5.050062 5.2154064E-06 -42.765
4.9290934 5.2154064E-06 -42.966496
4.8054647 5.2154064E-06 -43.16514
4.6790533 5.2154064E-06 -43.361275
4.549722 5.2154064E-06 -43.555054
4.4173336 5.2154064E-06 -43.746735
4.2817783 5.2154064E-06 -43.93656
4.142878 5.2154064E-06 -44.124817
4.0005093 5.2154064E-06 -44.311684
3.8545766 5.2154064E-06 -44.497387
3.7049007 5.2154064E-06 -44.68224
3.551373 5.2154064E-06 -44.866447
3.3938422 5.2154064E-06 -45.05022
3.232185 5.2154064E-06 -45.233784
3.066264 5.2154064E-06 -45.417416
2.8959424 5.2154064E-06 -45.601406
2.721097 5.2154064E-06 -45.785915
6.6375313 -1.999997 -39.243263
7.478281 5.2154064E-06 -37.58851
7.459595 5.2154064E-06 -37.606483
7.478281 -0.99999595 -37.58851
7.4527135 -0.7499974 -37.613667
7.4527135 -0.99999595 -37.613667
7.425391 -0.7499974 -37.644634
7.425391 -0.99999595 -37.644634
7.3964653 -0.7499974 -37.681183
7.3964653 -0.99999595 -37.681183
7.3660445 -0.7499974 -37.72308
7.3660445 -0.99999595 -37.72308
7.3342257 -0.7499974 -37.77002
7.3342257 -0.99999595 -37.77002
7.301132 -0.7499974 -37.82177
7.301132 -0.99999595 -37.82177
7.2669005 -0.7499974 -37.878086
7.2669005 -0.99999595 -37.878086
7.2316275 -0.7499974 -37.938683
7.2316275 -0.99999595 -37.938683
7.1963673 -0.7499974 -38.00166
7.1963673 -0.99999595 -38.00166
7.1603403 -0.7499974 -38.068203
7.1603403 -0.99999595 -38.068203
7.0864344 -0.7499974 -38.211147
7.0864344 -0.99999595 -38.211147
7.010815 -0.7499974 -38.36561
7.010815 -0.99999595 -38.36561
6.9343324 -0.7499974 -38.529636
6.9343324 -0.99999595 -38.529636
6.8579044 -0.7499974 -38.701332
6.8579044 -0.99999595 -38.701332
6.782381 -0.7499974 -38.878765
6.782381 -0.99999595 -38.878765
6.7086124 -0.7499974 -39.06007
6.7086124 -0.49999192 -39.06007
6.7086124 -0.24999335 -39.06007
6.746148 5.2154064E-06 -38.966778
6.782381 -0.24999335 -38.878765
6.859851 5.2154064E-06 -38.696888
6.8579044 -0.24999335 -38.701332
6.917635 5.2154064E-06 -38.566517
6.9343324 -0.24999335 -38.529636
6.9755554 5.2154064E-06 -38.440296
7.010815 -0.24999335 -38.36561
7.033202 5.2154064E-06 -38.31904
7.0864344 -0.24999335 -38.211147
7.090232 5.2154064E-06 -38.20361
7.146247 5.2154064E-06 -38.094757
7.1603403 -0.24999335 -38.068203
7.2008915 5.2154064E-06 -37.993423
7.1963673 -0.24999335 -38.00166
7.2316275 -0.24999335 -37.938683
7.2316275 -0.49999192 -37.938683
7.2669005 -0.49999192 -37.878086
7.4399366 5.2154064E-06 -37.62765
7.4527135 -0.24999335 -37.613667
7.4527135 -0.49999192 -37.613667
7.425391 -0.49999192 -37.644634
7.3964653 -0.49999192 -37.681183
7.3660445 -0.49999192 -37.72308
7.3342257 -0.49999192 -37.77002
7.301132 -0.49999192 -37.82177
7.425391 -0.24999335 -37.644634
7.397932 5.2154064E-06 -37.679253
7.3964653 -0.24999335 -37.681183
7.3660445 -0.24999335 -37.72308
7.3526506 5.2154064E-06 -37.742462
7.3342257 -0.24999335 -37.77002
7.304477 5.2154064E-06 -37.816437
7.301132 -0.24999335 -37.82177
7.2669005 -0.24999335 -37.878086
7.2537537 5.2154064E-06 -37.90038
6.7086124 -1.4999999 -39.06007
6.7086124 -1.2499945 -39.06007
6.7086124 -0.99999595 -39.06007
6.782381 -1.2499945 -38.878765
6.8579044 -1.2499945 -38.701332
6.9343324 -1.2499945 -38.529636
7.010815 -1.2499945 -38.36561
7.0864344 -1.2499945 -38.211147
7.1603403 -1.2499945 -38.068203
7.1963673 -1.2499945 -38.00166
7.2316275 -1.2499945 -37.938683
7.2669005 -1.2499945 -37.878086
7.301132 -1.2499945 -37.82177
7.3342257 -1.2499945 -37.77002
7.3660445 -1.2499945 -37.72308
7.3964653 -1.2499945 -37.681183
7.425391 -1.2499945 -37.644634
7.4527135 -1.2499945 -37.613667
7.4527135 -1.4999999 -37.613667
7.478281 -1.999997 -37.58851
7.4527135 -1.7499985 -37.613667
7.459595 -1.999997 -37.606483
7.4399366 -1.999997 -37.62765
7.425391 -1.7499985 -37.644634
7.397932 -1.999997 -37.679253
7.3964653 -1.7499985 -37.681183
7.3660445 -1.7499985 -37.72308
7.3660445 -1.4999999 -37.72308
7.3342257 -1.4999999 -37.77002
6.7086124 -1.7499985 -39.06007
6.746148 -1.999997 -38.966778
6.782381 -1.7499985 -38.878765
6.859851 -1.999997 -38.696888
6.8579044 -1.7499985 -38.701332
6.917635 -1.999997 -38.566517
6.9343324 -1.7499985 -38.529636
6.9755554 -1.999997 -38.440296
7.010815 -1.7499985 -38.36561
7.033202 -1.999997 -38.31904
7.0864344 -1.7499985 -38.211147
7.090232 -1.999997 -38.20361
7.146247 -1.999997 -38.094757
7.1603403 -1.7499985 -38.068203
7.2008915 -1.999997 -37.993423
7.1963673 -1.7499985 -38.00166
7.2316275 -1.7499985 -37.938683
7.1963673 -1.4999999 -38.00166
7.2316275 -1.4999999 -37.938683
7.2537537 -1.999997 -37.90038
7.2669005 -1.7499985 -37.878086
7.2669005 -1.4999999 -37.878086
7.304477 -1.999997 -37.816437
7.301132 -1.7499985 -37.82177
7.301132 -1.4999999 -37.82177
7.3342257 -1.7499985 -37.77002
7.3526506 -1.999997 -37.742462
6.782381 -0.49999192 -38.878765
6.8579044 -0.49999192 -38.701332
6.9343324 -0.49999192 -38.529636
7.010815 -0.49999192 -38.36561
7.0864344 -0.49999192 -38.211147
7.1603403 -0.49999192 -38.068203
7.1963673 -0.49999192 -38.00166
6.782381 -1.4999999 -38.878765
6.8579044 -1.4999999 -38.701332
6.9343324 -1.4999999 -38.529636
7.010815 -1.4999999 -38.36561
7.0864344 -1.4999999 -38.211147
7.1603403 -1.4999999 -38.068203
7.3964653 -1.4999999 -37.681183
7.425391 -1.4999999 -37.644634
10.755036 5.2154064E-06 -37.044163
10.568086 5.2154064E-06 -37.05845
10.755036 -0.99999595 -37.044163
10.543313 -0.66666335 -37.060383
10.543313 -0.99999595 -37.060383
10.339322 -0.66666335 -37.076626
10.339322 -0.99999595 -37.076626
10.142967 -0.66666335 -37.09294
10.142967 -0.99999595 -37.09294
9.954207 -0.66666335 -37.10927
9.954207 -0.99999595 -37.10927
9.772919 -0.66666335 -37.125732
9.772919 -0.99999595 -37.125732
9.599019 -0.66666335 -37.142307
9.599019 -0.99999595 -37.142307
9.432467 -0.66666335 -37.15902
9.432467 -0.99999595 -37.15902
9.273154 -0.66666335 -37.17588
9.273154 -0.99999595 -37.17588
9.166018 -0.66666335 -37.18781
9.166018 -0.99999595 -37.18781
9.062364 -0.66666335 -37.199802
9.062364 -0.99999595 -37.199802
8.920091 -0.66666335 -37.217144
8.920091 -0.99999595 -37.217144
8.784782 -0.66666335 -37.23475
8.784782 -0.99999595 -37.23475
8.6563835 -0.66666335 -37.25264
8.6563835 -0.99999595 -37.25264
8.53477 -0.66666335 -37.27079
8.53477 -0.99999595 -37.27079
8.419902 -0.66666335 -37.28927
8.419902 -0.99999595 -37.28927
8.311668 -0.66666335 -37.30808
8.311668 -0.99999595 -37.30808
8.210016 -0.66666335 -37.327217
8.210016 -0.99999595 -37.327217
8.114834 -0.66666335 -37.346794
8.114834 -0.99999595 -37.346794
8.026054 -0.66666335 -37.366726
8.026054 -0.99999595 -37.366726
7.9436216 -0.66666335 -37.38711
7.9436216 -0.99999595 -37.38711
7.8674126 -0.66666335 -37.407948
7.8674126 -0.99999595 -37.407948
7.7973595 -0.66666335 -37.429253
7.7973595 -0.99999595 -37.429253
7.7333927 -0.66666335 -37.451065
7.7333927 -0.99999595 -37.451065
7.6754446 -0.66666335 -37.47338
7.6754446 -0.99999595 -37.47338
7.623391 -0.66666335 -37.49625
7.623391 -0.99999595 -37.49625
7.577192 -0.66666335 -37.519703
7.577192 -0.99999595 -37.519703
7.522218 -0.66666335 -37.553482
7.522218 -0.33332735 -37.553482
7.5046844 5.2154064E-06 -37.566273
7.5354476 5.2154064E-06 -37.544586
7.577192 -0.33332735 -37.519703
7.5706115 5.2154064E-06 -37.52334
7.6102304 5.2154064E-06 -37.502594
7.623391 -0.33332735 -37.49625
7.6543736 5.2154064E-06 -37.482292
7.6754446 -0.33332735 -37.47338
7.703082 5.2154064E-06 -37.46237
7.7333927 -0.33332735 -37.451065
7.756424 5.2154064E-06 -37.44292
7.7973595 -0.33332735 -37.429253
7.8144407 5.2154064E-06 -37.42385
7.8674126 -0.33332735 -37.407948
7.8771873 5.2154064E-06 -37.405136
7.9436216 -0.33332735 -37.38711
7.9447455 5.2154064E-06 -37.386837
8.01713 5.2154064E-06 -37.368835
8.026054 -0.33332735 -37.366726
8.094435 5.2154064E-06 -37.351192
8.114834 -0.33332735 -37.346794
8.176689 5.2154064E-06 -37.333893
8.210016 -0.33332735 -37.327217
8.263961 5.2154064E-06 -37.316864
8.311668 -0.33332735 -37.30808
8.356305 5.2154064E-06 -37.300125
8.419902 -0.33332735 -37.28927
8.453763 5.2154064E-06 -37.28366
8.53477 -0.33332735 -37.27079
8.556389 5.2154064E-06 -37.267456
8.6563835 -0.33332735 -37.25264
8.66428 5.2154064E-06 -37.251514
8.784782 -0.33332735 -37.23475
8.777434 5.2154064E-06 -37.235775
8.895949 5.2154064E-06 -37.220245
8.920091 -0.33332735 -37.217144
9.019852 5.2154064E-06 -37.204876
9.062364 -0.33332735 -37.199802
9.149211 5.2154064E-06 -37.189728
9.166018 -0.33332735 -37.18781
9.2840805 5.2154064E-06 -37.174717
9.273154 -0.33332735 -37.17588
9.432467 -0.33332735 -37.15902
10.543313 -0.33332735 -37.060383
10.387126 5.2154064E-06 -37.072777
10.339322 -0.33332735 -37.076626
10.212143 5.2154064E-06 -37.0871
10.142967 -0.33332735 -37.09294
10.043042 5.2154064E-06 -37.10151
9.954207 -0.33332735 -37.10927
9.879781 5.2154064E-06 -37.11596
9.772919 -0.33332735 -37.125732
9.722319 5.2154064E-06 -37.13049
9.599019 -0.33332735 -37.142307
9.570586 5.2154064E-06 -37.145092
9.42453 5.2154064E-06 -37.159855
7.5046844 -1.999997 -37.566273
7.522218 -1.3333285 -37.553482
7.522218 -0.99999595 -37.553482
7.577192 -1.3333285 -37.519703
7.623391 -1.3333285 -37.49625
7.6754446 -1.3333285 -37.47338
7.7333927 -1.3333285 -37.451065
7.7973595 -1.3333285 -37.429253
7.8674126 -1.3333285 -37.407948
7.9436216 -1.3333285 -37.38711
8.026054 -1.3333285 -37.366726
8.114834 -1.3333285 -37.346794
8.210016 -1.3333285 -37.327217
8.311668 -1.3333285 -37.30808
8.419902 -1.3333285 -37.28927
8.53477 -1.3333285 -37.27079
8.6563835 -1.3333285 -37.25264
8.784782 -1.3333285 -37.23475
8.920091 -1.3333285 -37.217144
9.062364 -1.3333285 -37.199802
9.166018 -1.3333285 -37.18781
9.273154 -1.3333285 -37.17588
9.432467 -1.3333285 -37.15902
9.599019 -1.3333285 -37.142307
9.772919 -1.3333285 -37.125732
9.954207 -1.3333285 -37.10927
10.142967 -1.3333285 -37.09294
10.339322 -1.3333285 -37.076626
10.543313 -1.3333285 -37.060383
10.543313 -1.6666645 -37.060383
10.755036 -1.999997 -37.044163
10.568086 -1.999997 -37.05845
10.387126 -1.999997 -37.072777
10.339322 -1.6666645 -37.076626
10.212143 -1.999997 -37.0871
10.142967 -1.6666645 -37.09294
10.043042 -1.999997 -37.10151
9.954207 -1.6666645 -37.10927
9.879781 -1.999997 -37.11596
9.772919 -1.6666645 -37.125732
9.722319 -1.999997 -37.13049
9.599019 -1.6666645 -37.142307
9.570586 -1.999997 -37.145092
9.432467 -1.6666645 -37.15902
9.42453 -1.999997 -37.159855
9.2840805 -1.999997 -37.174717
9.273154 -1.6666645 -37.17588
9.166018 -1.6666645 -37.18781
7.522218 -1.6666645 -37.553482
7.5354476 -1.999997 -37.544586
7.577192 -1.6666645 -37.519703
7.5706115 -1.999997 -37.52334
7.6102304 -1.999997 -37.502594
7.623391 -1.6666645 -37.49625
7.6543736 -1.999997 -37.482292
7.6754446 -1.6666645 -37.47338
7.703082 -1.999997 -37.46237
7.7333927 -1.6666645 -37.451065
7.756424 -1.999997 -37.44292
7.7973595 -1.6666645 -37.429253
7.8144407 -1.999997 -37.42385
7.8674126 -1.6666645 -37.407948
7.8771873 -1.999997 -37.405136
7.9436216 -1.6666645 -37.38711
7.9447455 -1.999997 -37.386837
8.01713 -1.999997 -37.368835
8.026054 -1.6666645 -37.366726
8.094435 -1.999997 -37.351192
8.114834 -1.6666645 -37.346794
8.176689 -1.999997 -37.333893
8.210016 -1.6666645 -37.327217
8.263961 -1.999997 -37.316864
8.311668 -1.6666645 -37.30808
8.356305 -1.999997 -37.300125
8.419902 -1.6666645 -37.28927
8.453763 -1.999997 -37.28366
8.53477 -1.6666645 -37.27079
8.556389 -1.999997 -37.267456
8.6563835 -1.6666645 -37.25264
8.66428 -1.999997 -37.251514
8.784782 -1.6666645 -37.23475
8.777434 -1.999997 -37.235775
8.895949 -1.999997 -37.220245
8.920091 -1.6666645 -37.217144
9.019852 -1.999997 -37.204876
9.062364 -1.6666645 -37.199802
9.149211 -1.999997 -37.189728
16.424683 -0.99999595 -35.17167
16.424683 5.2154064E-06 -35.17167
16.309786 -0.49999192 -35.2857
16.305933 5.2154064E-06 -35.28947
16.195534 -0.49999192 -35.39484
16.187872 5.2154064E-06 -35.401997
16.081543 -0.49999192 -35.49925
16.070084 5.2154064E-06 -35.509476
15.9674015 -0.49999192 -35.598995
15.952047 5.2154064E-06 -35.612034
15.852712 -0.49999192 -35.694218
15.833396 5.2154064E-06 -35.709766
15.737076 -0.49999192 -35.785095
15.713647 5.2154064E-06 -35.80285
15.6200695 -0.49999192 -35.87168
15.592363 5.2154064E-06 -35.89141
15.501293 -0.49999192 -35.954155
15.469077 5.2154064E-06 -35.975582
15.317441 -0.49999192 -36.071285
15.343365 5.2154064E-06 -36.055492
15.214774 5.2154064E-06 -36.13136
15.127242 -0.49999192 -36.179684
15.082866 5.2154064E-06 -36.20321
14.997293 -0.49999192 -36.24683
14.947186 5.2154064E-06 -36.27126
14.863534 -0.49999192 -36.31043
14.8073 5.2154064E-06 -36.335625
14.725594 -0.49999192 -36.370667
14.662737 5.2154064E-06 -36.39644
14.583047 -0.49999192 -36.42768
14.513076 5.2154064E-06 -36.453854
14.435495 -0.49999192 -36.48157
14.357847 5.2154064E-06 -36.50802
14.28253 -0.49999192 -36.53246
14.196643 5.2154064E-06 -36.55903
14.123765 -0.49999192 -36.580524
14.028967 5.2154064E-06 -36.60705
13.958763 -0.49999192 -36.62579
13.854409 5.2154064E-06 -36.652264
13.787153 -0.49999192 -36.66848
13.672518 5.2154064E-06 -36.694733
13.60851 -0.49999192 -36.708675
13.482825 5.2154064E-06 -36.734653
13.422437 -0.49999192 -36.746513
13.284922 5.2154064E-06 -36.772137
13.228522 -0.49999192 -36.782116
13.07834 5.2154064E-06 -36.807327
13.0263815 -0.49999192 -36.81562
12.862627 5.2154064E-06 -36.840378
12.815591 -0.49999192 -36.847153
12.63736 5.2154064E-06 -36.871418
12.595766 -0.49999192 -36.87682
12.402071 5.2154064E-06 -36.900604
12.366482 -0.49999192 -36.904743
12.156308 5.2154064E-06 -36.928036
12.186605 -0.49999192 -36.9248
12.0009165 -0.49999192 -36.944008
12.186605 -0.99999595 -36.9248
12.0009165 -0.99999595 -36.944008
12.186605 -1.4999999 -36.9248
12.0009165 -1.4999999 -36.944008
12.156308 -1.999997 -36.928036
11.899661 -1.999997 -36.95389
11.80925 -1.4999999 -36.962364
11.631635 -1.999997 -36.97828
11.611414 -1.4999999 -36.980034
11.407259 -1.4999999 -36.99698
11.407259 -0.99999595 -36.99698
11.196591 -0.99999595 -37.013264
11.196591 -0.49999192 -37.013264
10.979248 -0.49999192 -37.028976
11.059774 5.2154064E-06 -37.023273
10.90903 5.2154064E-06 -37.033855
11.899661 5.2154064E-06 -36.95389
11.80925 -0.49999192 -36.962364
11.80925 -0.99999595 -36.962364
11.631635 5.2154064E-06 -36.97828
11.611414 -0.49999192 -36.980034
11.611414 -0.99999595 -36.980034
11.407259 -0.49999192 -36.99698
11.351833 5.2154064E-06 -37.00135
10.979248 -0.99999595 -37.028976
10.979248 -1.4999999 -37.028976
11.196591 -1.4999999 -37.013264
11.059774 -1.999997 -37.023273
11.351833 -1.999997 -37.00135
10.90903 -1.999997 -37.033855
12.366482 -1.4999999 -36.904743
12.402071 -1.999997 -36.900604
12.595766 -1.4999999 -36.87682
12.63736 -1.999997 -36.871418
12.815591 -1.4999999 -36.847153
12.862627 -1.999997 -36.840378
13.0263815 -1.4999999 -36.81562
13.07834 -1.999997 -36.807327
13.228522 -1.4999999 -36.782116
13.284922 -1.999997 -36.772137
13.422437 -1.4999999 -36.746513
13.482825 -1.999997 -36.734653
13.60851 -1.4999999 -36.708675
13.672518 -1.999997 -36.694733
13.787153 -1.4999999 -36.66848
13.854409 -1.999997 -36.652264
13.958763 -1.4999999 -36.62579
14.028967 -1.999997 -36.60705
14.123765 -1.4999999 -36.580524
14.196643 -1.999997 -36.55903
14.28253 -1.4999999 -36.53246
14.357847 -1.999997 -36.50802
14.435495 -1.4999999 -36.48157
14.513076 -1.999997 -36.453854
14.583047 -1.4999999 -36.42768
14.662737 -1.999997 -36.39644
14.725594 -1.4999999 -36.370667
14.8073 -1.999997 -36.335625
14.863534 -1.4999999 -36.31043
14.947186 -1.999997 -36.27126
14.997293 -1.4999999 -36.24683
15.082866 -1.999997 -36.20321
15.127242 -1.4999999 -36.179684
15.214774 -1.999997 -36.13136
15.317441 -1.4999999 -36.071285
15.343365 -1.999997 -36.055492
15.469077 -1.999997 -35.975582
15.501293 -1.4999999 -35.954155
15.592363 -1.999997 -35.89141
15.6200695 -1.4999999 -35.87168
15.713647 -1.999997 -35.80285
15.737076 -1.4999999 -35.785095
15.833396 -1.999997 -35.709766
15.852712 -1.4999999 -35.694218
15.952047 -1.999997 -35.612034
15.9674015 -1.4999999 -35.598995
16.070084 -1.999997 -35.509476
16.081543 -1.4999999 -35.49925
16.187872 -1.999997 -35.401997
16.195534 -1.4999999 -35.39484
16.305933 -1.999997 -35.28947
16.309786 -1.4999999 -35.2857
16.424683 -1.999997 -35.17167
16.309786 -0.99999595 -35.2857
16.195534 -0.99999595 -35.39484
16.081543 -0.99999595 -35.49925
15.9674015 -0.99999595 -35.598995
15.852712 -0.99999595 -35.694218
15.737076 -0.99999595 -35.785095
15.6200695 -0.99999595 -35.87168
15.501293 -0.99999595 -35.954155
15.317441 -0.99999595 -36.071285
15.127242 -0.99999595 -36.179684
14.997293 -0.99999595 -36.24683
14.863534 -0.99999595 -36.31043
14.725594 -0.99999595 -36.370667
14.583047 -0.99999595 -36.42768
14.435495 -0.99999595 -36.48157
14.28253 -0.99999595 -36.53246
14.123765 -0.99999595 -36.580524
13.958763 -0.99999595 -36.62579
13.787153 -0.99999595 -36.66848
13.60851 -0.99999595 -36.708675
13.422437 -0.99999595 -36.746513
13.228522 -0.99999595 -36.782116
13.0263815 -0.99999595 -36.81562
12.815591 -0.99999595 -36.847153
12.595766 -0.99999595 -36.87682
12.366482 -0.99999595 -36.904743
17.683723 5.2154064E-06 -33.451786
17.696142 -0.24999335 -33.428207
17.739697 5.2154064E-06 -33.34273
17.696142 -0.49999192 -33.428207
17.739697 -0.99999595 -33.34273
17.696142 -0.7499974 -33.428207
17.696142 -0.99999595 -33.428207
17.64849 -0.7499974 -33.51704
17.64849 -0.99999595 -33.51704
17.597067 -0.7499974 -33.6087
17.597067 -0.99999595 -33.6087
17.54219 -0.7499974 -33.702797
17.54219 -0.99999595 -33.702797
17.484146 -0.7499974 -33.798832
17.484146 -0.99999595 -33.798832
17.42325 -0.7499974 -33.896275
17.42325 -0.99999595 -33.896275
17.294151 -0.7499974 -34.09377
17.294151 -0.99999595 -34.09377
17.189552 -0.7499974 -34.245895
17.189552 -0.99999595 -34.245895
17.081537 -0.7499974 -34.396503
17.081537 -0.99999595 -34.396503
16.971249 -0.7499974 -34.543808
16.971249 -0.99999595 -34.543808
16.859766 -0.7499974 -34.686134
16.859766 -0.99999595 -34.686134
16.748257 -0.7499974 -34.82179
16.748257 -0.99999595 -34.82179
16.63783 -0.7499974 -34.949062
16.63783 -0.99999595 -34.949062
16.529596 -0.7499974 -35.066277
16.529596 -0.99999595 -35.066277
16.476652 -0.7499974 -35.12055
16.476652 -0.49999192 -35.12055
16.476652 -0.24999335 -35.12055
16.51098 5.2154064E-06 -35.085606
16.529596 -0.24999335 -35.066277
16.599678 5.2154064E-06 -34.991287
16.63783 -0.24999335 -34.949062
16.690144 5.2154064E-06 -34.889687
16.748257 -0.24999335 -34.82179
16.781734 5.2154064E-06 -34.781784
16.859766 -0.24999335 -34.686134
16.873833 5.2154064E-06 -34.66855
16.971249 -0.24999335 -34.543808
16.96582 5.2154064E-06 -34.550896
17.081537 -0.24999335 -34.396503
17.146862 5.2154064E-06 -34.30619
17.189552 -0.24999335 -34.245895
17.319828 5.2154064E-06 -34.055397
17.294151 -0.24999335 -34.09377
17.42325 -0.24999335 -33.896275
17.42325 -0.49999192 -33.896275
17.484146 -0.49999192 -33.798832
17.64849 -0.24999335 -33.51704
17.621305 5.2154064E-06 -33.565983
17.597067 -0.24999335 -33.6087
17.55306 5.2154064E-06 -33.684402
17.54219 -0.24999335 -33.702797
17.479677 5.2154064E-06 -33.806095
17.484146 -0.24999335 -33.798832
17.4017 5.2154064E-06 -33.930054
16.476652 -1.4999999 -35.12055
16.476652 -1.2499945 -35.12055
16.476652 -0.99999595 -35.12055
16.529596 -1.2499945 -35.066277
16.63783 -1.2499945 -34.949062
16.748257 -1.2499945 -34.82179
16.859766 -1.2499945 -34.686134
16.971249 -1.2499945 -34.543808
17.081537 -1.2499945 -34.396503
17.189552 -1.2499945 -34.245895
17.294151 -1.2499945 -34.09377
17.42325 -1.2499945 -33.896275
17.484146 -1.2499945 -33.798832
17.54219 -1.2499945 -33.702797
17.597067 -1.2499945 -33.6087
17.64849 -1.2499945 -33.51704
17.696142 -1.2499945 -33.428207
17.696142 -1.4999999 -33.428207
17.739697 -1.999997 -33.34273
17.696142 -1.7499985 -33.428207
17.683723 -1.999997 -33.451786
17.64849 -1.7499985 -33.51704
17.621305 -1.999997 -33.565983
17.597067 -1.7499985 -33.6087
17.55306 -1.999997 -33.684402
17.54219 -1.7499985 -33.702797
17.479677 -1.999997 -33.806095
17.484146 -1.7499985 -33.798832
17.42325 -1.7499985 -33.896275
17.42325 -1.4999999 -33.896275
17.294151 -1.4999999 -34.09377
16.476652 -1.7499985 -35.12055
16.51098 -1.999997 -35.085606
16.529596 -1.7499985 -35.066277
16.599678 -1.999997 -34.991287
16.63783 -1.7499985 -34.949062
16.690144 -1.999997 -34.889687
16.748257 -1.7499985 -34.82179
16.781734 -1.999997 -34.781784
16.859766 -1.7499985 -34.686134
16.873833 -1.999997 -34.66855
16.971249 -1.7499985 -34.543808
16.96582 -1.999997 -34.550896
17.081537 -1.7499985 -34.396503
17.146862 -1.999997 -34.30619
17.189552 -1.7499985 -34.245895
17.319828 -1.999997 -34.055397
17.294151 -1.7499985 -34.09377
17.4017 -1.999997 -33.930054
16.529596 -0.49999192 -35.066277
16.63783 -0.49999192 -34.949062
16.748257 -0.49999192 -34.82179
16.859766 -0.49999192 -34.686134
16.971249 -0.49999192 -34.543808
17.081537 -0.49999192 -34.396503
17.189552 -0.49999192 -34.245895
17.294151 -0.49999192 -34.09377
17.54219 -0.49999192 -33.702797
17.597067 -0.49999192 -33.6087
17.64849 -0.49999192 -33.51704
16.529596 -1.4999999 -35.066277
16.63783 -1.4999999 -34.949062
16.748257 -1.4999999 -34.82179
16.859766 -1.4999999 -34.686134
16.971249 -1.4999999 -34.543808
17.081537 -1.4999999 -34.396503
17.189552 -1.4999999 -34.245895
17.484146 -1.4999999 -33.798832
17.54219 -1.4999999 -33.702797
17.597067 -1.4999999 -33.6087
17.64849 -1.4999999 -33.51704
18.864073 5.2154064E-06 -29.645298
18.864073 -0.09999558 -29.645298
18.8607 5.2154064E-06 -29.641294
18.864073 -0.19999295 -29.645298
18.864073 -0.29999718 -29.645298
18.867104 -0.19999295 -29.650137
18.867104 -0.29999718 -29.650137
18.87223 -0.19999295 -29.662407
18.87223 -0.29999718 -29.662407
18.876068 -0.19999295 -29.677967
18.876068 -0.29999718 -29.677967
18.87866 -0.19999295 -29.696735
18.87866 -0.29999718 -29.696735
18.880032 -0.19999295 -29.718601
18.880032 -0.29999718 -29.718601
18.880196 -0.19999295 -29.743538
18.880196 -0.29999718 -29.743538
18.87707 -0.19999295 -29.80213
18.87707 -0.29999718 -29.80213
18.869474 -0.19999295 -29.871773
18.869474 -0.29999718 -29.871773
18.857616 -0.19999295 -29.951765
18.857616 -0.29999718 -29.951765
18.841713 -0.19999295 -30.041435
18.841713 -0.29999718 -30.041435
18.821959 -0.19999295 -30.140032
18.821959 -0.29999718 -30.140032
18.798586 -0.19999295 -30.246838
18.798586 -0.29999718 -30.246838
18.771784 -0.19999295 -30.361185
18.771784 -0.29999718 -30.361185
18.74176 -0.19999295 -30.482346
18.74176 -0.29999718 -30.482346
18.708736 -0.19999295 -30.609581
18.708736 -0.29999718 -30.609581
18.672928 -0.19999295 -30.742243
18.672928 -0.29999718 -30.742243
18.634516 -0.19999295 -30.879553
18.634516 -0.29999718 -30.879553
18.593744 -0.19999295 -31.020853
18.593744 -0.29999718 -31.020853
18.550808 -0.19999295 -31.165415
18.550808 -0.29999718 -31.165415
18.459259 -0.19999295 -31.461462
18.459259 -0.29999718 -31.461462
18.361553 -0.19999295 -31.76206
18.361553 -0.29999718 -31.76206
18.259352 -0.19999295 -32.061493
18.259352 -0.29999718 -32.061493
18.154354 -0.19999295 -32.354088
18.154354 -0.29999718 -32.354088
18.101315 -0.19999295 -32.49607
18.101315 -0.29999718 -32.49607
18.04822 -0.19999295 -32.634205
18.04822 -0.29999718 -32.634205
17.995234 -0.19999295 -32.7678
17.995234 -0.29999718 -32.7678
17.942604 -0.19999295 -32.896114
17.942604 -0.29999718 -32.896114
17.890537 -0.19999295 -33.018482
17.890537 -0.29999718 -33.018482
17.83921 -0.19999295 -33.134174
17.83921 -0.29999718 -33.134174
17.788857 -0.19999295 -33.242504
17.788857 -0.09999558 -33.242504
17.788857 5.2154064E-06 -33.242504
17.83921 -0.09999558 -33.134174
17.83921 5.2154064E-06 -33.134174
17.890537 -0.09999558 -33.018482
17.890537 5.2154064E-06 -33.018482
17.942604 -0.09999558 -32.896114
17.942604 5.2154064E-06 -32.896114
17.995234 -0.09999558 -32.7678
17.995234 5.2154064E-06 -32.7678
18.04822 -0.09999558 -32.634205
18.04822 5.2154064E-06 -32.634205
18.101315 -0.09999558 -32.49607
18.101315 5.2154064E-06 -32.49607
18.154354 -0.09999558 -32.354088
18.154354 5.2154064E-06 -32.354088
18.259352 -0.09999558 -32.061493
18.259352 5.2154064E-06 -32.061493
18.361553 -0.09999558 -31.76206
18.361553 5.2154064E-06 -31.76206
18.459259 -0.09999558 -31.461462
18.459259 5.2154064E-06 -31.461462
18.550808 -0.09999558 -31.165415
18.550808 5.2154064E-06 -31.165415
18.593744 -0.09999558 -31.020853
18.593744 5.2154064E-06 -31.020853
18.634516 -0.09999558 -30.879553
18.634516 5.2154064E-06 -30.879553
18.672928 -0.09999558 -30.742243
18.672928 5.2154064E-06 -30.742243
18.708736 -0.09999558 -30.609581
18.708736 5.2154064E-06 -30.609581
18.74176 -0.09999558 -30.482346
18.74176 5.2154064E-06 -30.482346
18.771784 -0.09999558 -30.361185
18.771784 5.2154064E-06 -30.361185
18.798586 -0.09999558 -30.246838
18.798586 5.2154064E-06 -30.246838
18.821959 -0.09999558 -30.140032
18.821959 5.2154064E-06 -30.140032
18.841713 -0.09999558 -30.041435
18.841713 5.2154064E-06 -30.041435
18.857616 -0.09999558 -29.951765
18.857616 5.2154064E-06 -29.951765
18.869474 -0.09999558 -29.871773
18.869474 5.2154064E-06 -29.871773
18.87707 -0.09999558 -29.80213
18.87707 5.2154064E-06 -29.80213
18.880196 -0.09999558 -29.743538
18.880196 5.2154064E-06 -29.743538
18.880032 -0.09999558 -29.718601
18.880032 5.2154064E-06 -29.718601
18.87866 -0.09999558 -29.696735
18.87866 5.2154064E-06 -29.696735
18.876068 -0.09999558 -29.677967
18.876068 5.2154064E-06 -29.677967
18.87223 -0.09999558 -29.662407
18.87223 5.2154064E-06 -29.662407
18.867104 -0.09999558 -29.650137
18.867104 5.2154064E-06 -29.650137
17.788857 -0.49999192 -33.242504
17.788857 -0.39999455 -33.242504
17.788857 -0.29999718 -33.242504
17.83921 -0.39999455 -33.134174
17.890537 -0.39999455 -33.018482
17.942604 -0.39999455 -32.896114
17.995234 -0.39999455 -32.7678
18.04822 -0.39999455 -32.634205
18.101315 -0.39999455 -32.49607
18.154354 -0.39999455 -32.354088
18.259352 -0.39999455 -32.061493
18.361553 -0.39999455 -31.76206
18.459259 -0.39999455 -31.461462
18.550808 -0.39999455 -31.165415
18.593744 -0.39999455 -31.020853
18.634516 -0.39999455 -30.879553
18.672928 -0.39999455 -30.742243
18.708736 -0.39999455 -30.609581
18.74176 -0.39999455 -30.482346
18.771784 -0.39999455 -30.361185
18.798586 -0.39999455 -30.246838
18.821959 -0.39999455 -30.140032
18.841713 -0.39999455 -30.041435
18.857616 -0.39999455 -29.951765
18.869474 -0.39999455 -29.871773
18.87707 -0.39999455 -29.80213
18.880196 -0.39999455 -29.743538
18.880032 -0.39999455 -29.718601
18.87866 -0.39999455 -29.696735
18.876068 -0.39999455 -29.677967
18.87223 -0.39999455 -29.662407
18.867104 -0.39999455 -29.650137
18.864073 -0.39999455 -29.645298
18.864073 -0.49999192 -29.645298
18.8607 -0.99999595 -29.641294
18.864073 -0.59999615 -29.645298
18.864073 -0.69999695 -29.645298
18.867104 -0.59999615 -29.650137
18.867104 -0.69999695 -29.650137
18.87223 -0.59999615 -29.662407
18.87223 -0.69999695 -29.662407
18.876068 -0.59999615 -29.677967
18.876068 -0.69999695 -29.677967
18.87866 -0.59999615 -29.696735
18.87866 -0.69999695 -29.696735
18.880032 -0.59999615 -29.718601
18.880032 -0.69999695 -29.718601
18.880196 -0.59999615 -29.743538
18.880196 -0.69999695 -29.743538
18.87707 -0.59999615 -29.80213
18.87707 -0.69999695 -29.80213
18.869474 -0.59999615 -29.871773
18.869474 -0.69999695 -29.871773
18.857616 -0.59999615 -29.951765
18.857616 -0.69999695 -29.951765
18.841713 -0.59999615 -30.041435
18.841713 -0.69999695 -30.041435
18.821959 -0.59999615 -30.140032
18.821959 -0.69999695 -30.140032
18.798586 -0.59999615 -30.246838
18.798586 -0.69999695 -30.246838
18.771784 -0.59999615 -30.361185
18.771784 -0.69999695 -30.361185
18.74176 -0.59999615 -30.482346
18.74176 -0.69999695 -30.482346
18.708736 -0.59999615 -30.609581
18.708736 -0.69999695 -30.609581
18.672928 -0.59999615 -30.742243
18.672928 -0.69999695 -30.742243
18.634516 -0.59999615 -30.879553
18.634516 -0.69999695 -30.879553
18.593744 -0.59999615 -31.020853
18.593744 -0.69999695 -31.020853
18.550808 -0.59999615 -31.165415
18.550808 -0.69999695 -31.165415
18.459259 -0.59999615 -31.461462
18.459259 -0.69999695 -31.461462
18.361553 -0.59999615 -31.76206
18.361553 -0.69999695 -31.76206
18.259352 -0.59999615 -32.061493
18.259352 -0.69999695 -32.061493
18.154354 -0.59999615 -32.354088
18.154354 -0.69999695 -32.354088
18.101315 -0.59999615 -32.49607
18.101315 -0.69999695 -32.49607
18.04822 -0.59999615 -32.634205
18.04822 -0.69999695 -32.634205
17.995234 -0.59999615 -32.7678
17.995234 -0.69999695 -32.7678
17.942604 -0.59999615 -32.896114
17.942604 -0.69999695 -32.896114
17.890537 -0.59999615 -33.018482
17.890537 -0.69999695 -33.018482
17.83921 -0.59999615 -33.134174
17.83921 -0.69999695 -33.134174
17.788857 -0.59999615 -33.242504
17.788857 -1.4999999 -33.242504
17.788857 -1.3999957 -33.242504
17.788857 -1.299995 -33.242504
17.83921 -1.3999957 -33.134174
17.83921 -1.299995 -33.134174
17.890537 -1.3999957 -33.018482
17.890537 -1.299995 -33.018482
17.942604 -1.3999957 -32.896114
17.942604 -1.299995 -32.896114
17.995234 -1.3999957 -32.7678
17.995234 -1.299995 -32.7678
18.04822 -1.3999957 -32.634205
18.04822 -1.299995 -32.634205
18.101315 -1.3999957 -32.49607
18.101315 -1.299995 -32.49607
18.154354 -1.3999957 -32.354088
18.154354 -1.299995 -32.354088
18.259352 -1.3999957 -32.061493
18.259352 -1.299995 -32.061493
18.361553 -1.3999957 -31.76206
18.361553 -1.299995 -31.76206
18.459259 -1.3999957 -31.461462
18.459259 -1.299995 -31.461462
18.550808 -1.3999957 -31.165415
18.550808 -1.299995 -31.165415
18.593744 -1.3999957 -31.020853
18.593744 -1.299995 -31.020853
18.634516 -1.3999957 -30.879553
18.634516 -1.299995 -30.879553
18.672928 -1.3999957 -30.742243
18.672928 -1.299995 -30.742243
18.708736 -1.3999957 -30.609581
18.708736 -1.299995 -30.609581
18.74176 -1.3999957 -30.482346
18.74176 -1.299995 -30.482346
18.771784 -1.3999957 -30.361185
18.771784 -1.299995 -30.361185
18.798586 -1.3999957 -30.246838
18.798586 -1.299995 -30.246838
18.821959 -1.3999957 -30.140032
18.821959 -1.299995 -30.140032
18.841713 -1.3999957 -30.041435
18.841713 -1.299995 -30.041435
18.857616 -1.3999957 -29.951765
18.857616 -1.299995 -29.951765
18.869474 -1.3999957 -29.871773
18.869474 -1.299995 -29.871773
18.87707 -1.3999957 -29.80213
18.87707 -1.299995 -29.80213
18.880196 -1.3999957 -29.743538
18.880196 -1.299995 -29.743538
18.880032 -1.3999957 -29.718601
18.880032 -1.299995 -29.718601
18.87866 -1.3999957 -29.696735
18.87866 -1.299995 -29.696735
18.876068 -1.3999957 -29.677967
18.876068 -1.299995 -29.677967
18.87223 -1.3999957 -29.662407
18.87223 -1.299995 -29.662407
18.867104 -1.3999957 -29.650137
18.867104 -1.299995 -29.650137
18.864073 -1.3999957 -29.645298
18.864073 -1.4999999 -29.645298
18.8607 -1.999997 -29.641294
18.864073 -1.5999973 -29.645298
18.864073 -1.6999947 -29.645298
18.867104 -1.5999973 -29.650137
18.867104 -1.6999947 -29.650137
18.87223 -1.5999973 -29.662407
18.87223 -1.6999947 -29.662407
18.876068 -1.5999973 -29.677967
18.876068 -1.6999947 -29.677967
18.87866 -1.5999973 -29.696735
18.87866 -1.6999947 -29.696735
18.880032 -1.5999973 -29.718601
18.880032 -1.6999947 -29.718601
18.880196 -1.5999973 -29.743538
18.880196 -1.6999947 -29.743538
18.87707 -1.5999973 -29.80213
18.87707 -1.6999947 -29.80213
18.869474 -1.5999973 -29.871773
18.869474 -1.6999947 -29.871773
18.857616 -1.5999973 -29.951765
18.857616 -1.6999947 -29.951765
18.841713 -1.5999973 -30.041435
18.841713 -1.6999947 -30.041435
18.821959 -1.5999973 -30.140032
18.821959 -1.6999947 -30.140032
18.798586 -1.5999973 -30.246838
18.798586 -1.6999947 -30.246838
18.771784 -1.5999973 -30.361185
18.771784 -1.6999947 -30.361185
18.74176 -1.5999973 -30.482346
18.74176 -1.6999947 -30.482346
18.708736 -1.5999973 -30.609581
18.708736 -1.6999947 -30.609581
18.672928 -1.5999973 -30.742243
18.672928 -1.6999947 -30.742243
18.634516 -1.5999973 -30.879553
18.634516 -1.6999947 -30.879553
18.593744 -1.5999973 -31.020853
18.593744 -1.6999947 -31.020853
18.550808 -1.5999973 -31.165415
18.550808 -1.6999947 -31.165415
18.459259 -1.5999973 -31.461462
18.459259 -1.6999947 -31.461462
18.361553 -1.5999973 -31.76206
18.361553 -1.6999947 -31.76206
18.259352 -1.5999973 -32.061493
18.259352 -1.6999947 -32.061493
18.154354 -1.5999973 -32.354088
18.154354 -1.6999947 -32.354088
18.101315 -1.5999973 -32.49607
18.101315 -1.6999947 -32.49607
18.04822 -1.5999973 -32.634205
18.04822 -1.6999947 -32.634205
17.995234 -1.5999973 -32.7678
17.995234 -1.6999947 -32.7678
17.942604 -1.5999973 -32.896114
17.942604 -1.6999947 -32.896114
17.890537 -1.5999973 -33.018482
17.890537 -1.6999947 -33.018482
17.83921 -1.5999973 -33.134174
17.83921 -1.6999947 -33.134174
17.788857 -1.5999973 -33.242504
17.788857 -1.999997 -33.242504
17.788857 -1.8999963 -33.242504
17.788857 -1.7999989 -33.242504
17.788857 -1.6999947 -33.242504
17.83921 -1.7999989 -33.134174
17.890537 -1.7999989 -33.018482
17.942604 -1.7999989 -32.896114
17.995234 -1.7999989 -32.7678
18.04822 -1.7999989 -32.634205
18.101315 -1.7999989 -32.49607
18.154354 -1.7999989 -32.354088
18.259352 -1.7999989 -32.061493
18.361553 -1.7999989 -31.76206
18.459259 -1.7999989 -31.461462
18.550808 -1.7999989 -31.165415
18.593744 -1.7999989 -31.020853
18.634516 -1.7999989 -30.879553
18.672928 -1.7999989 -30.742243
18.708736 -1.7999989 -30.609581
18.74176 -1.7999989 -30.482346
18.771784 -1.7999989 -30.361185
18.798586 -1.7999989 -30.246838
18.821959 -1.7999989 -30.140032
18.841713 -1.7999989 -30.041435
18.857616 -1.7999989 -29.951765
18.869474 -1.7999989 -29.871773
18.87707 -1.7999989 -29.80213
18.880196 -1.7999989 -29.743538
18.880032 -1.7999989 -29.718601
18.87866 -1.7999989 -29.696735
18.876068 -1.7999989 -29.677967
18.87223 -1.7999989 -29.662407
18.867104 -1.7999989 -29.650137
18.864073 -1.7999989 -29.645298
18.864073 -1.8999963 -29.645298
18.864073 -1.999997 -29.645298
18.867104 -1.8999963 -29.650137
18.867104 -1.999997 -29.650137
18.87223 -1.8999963 -29.662407
18.87223 -1.999997 -29.662407
18.876068 -1.8999963 -29.677967
18.876068 -1.999997 -29.677967
18.87866 -1.8999963 -29.696735
18.87866 -1.999997 -29.696735
18.880032 -1.8999963 -29.718601
18.880032 -1.999997 -29.718601
18.880196 -1.8999963 -29.743538
18.880196 -1.999997 -29.743538
18.87707 -1.8999963 -29.80213
18.87707 -1.999997 -29.80213
18.869474 -1.8999963 -29.871773
18.869474 -1.999997 -29.871773
18.857616 -1.8999963 -29.951765
18.857616 -1.999997 -29.951765
18.841713 -1.8999963 -30.041435
18.841713 -1.999997 -30.041435
18.821959 -1.8999963 -30.140032
18.821959 -1.999997 -30.140032
18.798586 -1.8999963 -30.246838
18.798586 -1.999997 -30.246838
18.771784 -1.8999963 -30.361185
18.771784 -1.999997 -30.361185
18.74176 -1.8999963 -30.482346
18.74176 -1.999997 -30.482346
18.708736 -1.8999963 -30.609581
18.708736 -1.999997 -30.609581
18.672928 -1.8999963 -30.742243
18.672928 -1.999997 -30.742243
18.634516 -1.8999963 -30.879553
18.634516 -1.999997 -30.879553
18.593744 -1.8999963 -31.020853
18.593744 -1.999997 -31.020853
18.550808 -1.8999963 -31.165415
18.550808 -1.999997 -31.165415
18.459259 -1.8999963 -31.461462
18.459259 -1.999997 -31.461462
18.361553 -1.8999963 -31.76206
18.361553 -1.999997 -31.76206
18.259352 -1.8999963 -32.061493
18.259352 -1.999997 -32.061493
18.154354 -1.8999963 -32.354088
18.154354 -1.999997 -32.354088
18.101315 -1.8999963 -32.49607
18.101315 -1.999997 -32.49607
18.04822 -1.8999963 -32.634205
18.04822 -1.999997 -32.634205
17.995234 -1.8999963 -32.7678
17.995234 -1.999997 -32.7678
17.942604 -1.8999963 -32.896114
17.942604 -1.999997 -32.896114
17.890537 -1.8999963 -33.018482
17.890537 -1.999997 -33.018482
17.83921 -1.8999963 -33.134174
17.83921 -1.999997 -33.134174
18.864073 -0.79999435 -29.645298
18.867104 -0.79999435 -29.650137
18.87223 -0.79999435 -29.662407
18.876068 -0.79999435 -29.677967
18.87866 -0.79999435 -29.696735
18.880032 -0.79999435 -29.718601
18.880196 -0.79999435 -29.743538
18.87707 -0.79999435 -29.80213
18.869474 -0.79999435 -29.871773
18.857616 -0.79999435 -29.951765
18.841713 -0.79999435 -30.041435
18.821959 -0.79999435 -30.140032
18.798586 -0.79999435 -30.246838
18.771784 -0.79999435 -30.361185
18.74176 -0.79999435 -30.482346
18.708736 -0.79999435 -30.609581
18.672928 -0.79999435 -30.742243
18.634516 -0.79999435 -30.879553
18.593744 -0.79999435 -31.020853
18.550808 -0.79999435 -31.165415
18.459259 -0.79999435 -31.461462
18.361553 -0.79999435 -31.76206
18.259352 -0.79999435 -32.061493
18.154354 -0.79999435 -32.354088
18.101315 -0.79999435 -32.49607
18.04822 -0.79999435 -32.634205
17.995234 -0.79999435 -32.7678
17.942604 -0.79999435 -32.896114
17.890537 -0.79999435 -33.018482
17.83921 -0.79999435 -33.134174
17.788857 -0.69999695 -33.242504
17.788857 -0.79999435 -33.242504
17.788857 -0.89999855 -33.242504
17.788857 -0.99999595 -33.242504
17.83921 -0.99999595 -33.134174
17.83921 -1.0999932 -33.134174
17.890537 -1.0999932 -33.018482
17.890537 -0.99999595 -33.018482
17.942604 -1.0999932 -32.896114
17.942604 -0.99999595 -32.896114
17.995234 -1.0999932 -32.7678
17.995234 -0.99999595 -32.7678
18.04822 -1.0999932 -32.634205
18.04822 -0.99999595 -32.634205
18.101315 -1.0999932 -32.49607
18.101315 -0.99999595 -32.49607
18.154354 -1.0999932 -32.354088
18.154354 -0.99999595 -32.354088
18.259352 -1.0999932 -32.061493
18.259352 -0.99999595 -32.061493
18.361553 -1.0999932 -31.76206
18.361553 -0.99999595 -31.76206
18.459259 -1.0999932 -31.461462
18.459259 -0.99999595 -31.461462
18.550808 -1.0999932 -31.165415
18.550808 -0.99999595 -31.165415
18.593744 -1.0999932 -31.020853
18.593744 -0.99999595 -31.020853
18.634516 -1.0999932 -30.879553
18.634516 -0.99999595 -30.879553
18.672928 -1.0999932 -30.742243
18.672928 -0.99999595 -30.742243
18.708736 -1.0999932 -30.609581
18.708736 -0.99999595 -30.609581
18.74176 -1.0999932 -30.482346
18.74176 -0.99999595 -30.482346
18.771784 -1.0999932 -30.361185
18.771784 -0.99999595 -30.361185
18.798586 -1.0999932 -30.246838
18.798586 -0.99999595 -30.246838
18.821959 -1.0999932 -30.140032
18.821959 -0.99999595 -30.140032
18.841713 -1.0999932 -30.041435
18.841713 -0.99999595 -30.041435
18.857616 -1.0999932 -29.951765
18.857616 -0.99999595 -29.951765
18.869474 -1.0999932 -29.871773
18.869474 -0.99999595 -29.871773
18.87707 -1.0999932 -29.80213
18.87707 -0.99999595 -29.80213
18.880196 -1.0999932 -29.743538
18.880196 -0.99999595 -29.743538
18.880032 -1.0999932 -29.718601
18.880032 -0.99999595 -29.718601
18.87866 -1.0999932 -29.696735
18.87866 -0.99999595 -29.696735
18.876068 -1.0999932 -29.677967
18.876068 -0.99999595 -29.677967
18.87223 -1.0999932 -29.662407
18.87223 -0.99999595 -29.662407
18.867104 -1.0999932 -29.650137
18.867104 -0.99999595 -29.650137
18.864073 -1.0999932 -29.645298
18.864073 -1.1999975 -29.645298
18.864073 -1.299995 -29.645298
18.864073 -0.99999595 -29.645298
18.864073 -0.89999855 -29.645298
17.788857 -1.1999975 -33.242504
17.83921 -1.1999975 -33.134174
17.890537 -1.1999975 -33.018482
17.942604 -1.1999975 -32.896114
17.995234 -1.1999975 -32.7678
18.04822 -1.1999975 -32.634205
18.101315 -1.1999975 -32.49607
18.154354 -1.1999975 -32.354088
18.259352 -1.1999975 -32.061493
18.361553 -1.1999975 -31.76206
18.459259 -1.1999975 -31.461462
18.550808 -1.1999975 -31.165415
18.593744 -1.1999975 -31.020853
18.634516 -1.1999975 -30.879553
18.672928 -1.1999975 -30.742243
18.708736 -1.1999975 -30.609581
18.74176 -1.1999975 -30.482346
18.771784 -1.1999975 -30.361185
18.798586 -1.1999975 -30.246838
18.821959 -1.1999975 -30.140032
18.841713 -1.1999975 -30.041435
18.857616 -1.1999975 -29.951765
18.869474 -1.1999975 -29.871773
18.87707 -1.1999975 -29.80213
18.880196 -1.1999975 -29.743538
18.880032 -1.1999975 -29.718601
18.87866 -1.1999975 -29.696735
18.876068 -1.1999975 -29.677967
18.87223 -1.1999975 -29.662407
18.867104 -1.1999975 -29.650137
17.788857 -1.0999932 -33.242504
18.867104 -0.89999855 -29.650137
18.87223 -0.89999855 -29.662407
18.876068 -0.89999855 -29.677967
18.87866 -0.89999855 -29.696735
18.880032 -0.89999855 -29.718601
18.880196 -0.89999855 -29.743538
18.87707 -0.89999855 -29.80213
18.869474 -0.89999855 -29.871773
18.857616 -0.89999855 -29.951765
18.841713 -0.89999855 -30.041435
18.821959 -0.89999855 -30.140032
18.798586 -0.89999855 -30.246838
18.771784 -0.89999855 -30.361185
18.74176 -0.89999855 -30.482346
18.708736 -0.89999855 -30.609581
18.672928 -0.89999855 -30.742243
18.634516 -0.89999855 -30.879553
18.593744 -0.89999855 -31.020853
18.550808 -0.89999855 -31.165415
18.459259 -0.89999855 -31.461462
18.361553 -0.89999855 -31.76206
18.259352 -0.89999855 -32.061493
18.154354 -0.89999855 -32.354088
18.101315 -0.89999855 -32.49607
18.04822 -0.89999855 -32.634205
17.995234 -0.89999855 -32.7678
17.942604 -0.89999855 -32.896114
17.890537 -0.89999855 -33.018482
17.83921 -0.89999855 -33.134174
17.83921 -0.49999192 -33.134174
17.890537 -0.49999192 -33.018482
17.942604 -0.49999192 -32.896114
17.995234 -0.49999192 -32.7678
18.04822 -0.49999192 -32.634205
18.101315 -0.49999192 -32.49607
18.154354 -0.49999192 -32.354088
18.259352 -0.49999192 -32.061493
18.361553 -0.49999192 -31.76206
18.459259 -0.49999192 -31.461462
18.550808 -0.49999192 -31.165415
18.593744 -0.49999192 -31.020853
18.634516 -0.49999192 -30.879553
18.672928 -0.49999192 -30.742243
18.708736 -0.49999192 -30.609581
18.74176 -0.49999192 -30.482346
18.771784 -0.49999192 -30.361185
18.798586 -0.49999192 -30.246838
18.821959 -0.49999192 -30.140032
18.841713 -0.49999192 -30.041435
18.857616 -0.49999192 -29.951765
18.869474 -0.49999192 -29.871773
18.87707 -0.49999192 -29.80213
18.880196 -0.49999192 -29.743538
18.880032 -0.49999192 -29.718601
18.87866 -0.49999192 -29.696735
18.876068 -0.49999192 -29.677967
18.87223 -0.49999192 -29.662407
18.867104 -0.49999192 -29.650137
17.83921 -1.4999999 -33.134174
17.890537 -1.4999999 -33.018482
17.942604 -1.4999999 -32.896114
17.995234 -1.4999999 -32.7678
18.04822 -1.4999999 -32.634205
18.101315 -1.4999999 -32.49607
18.154354 -1.4999999 -32.354088
18.259352 -1.4999999 -32.061493
18.361553 -1.4999999 -31.76206
18.459259 -1.4999999 -31.461462
18.550808 -1.4999999 -31.165415
18.593744 -1.4999999 -31.020853
18.634516 -1.4999999 -30.879553
18.672928 -1.4999999 -30.742243
18.708736 -1.4999999 -30.609581
18.74176 -1.4999999 -30.482346
18.771784 -1.4999999 -30.361185
18.798586 -1.4999999 -30.246838
18.821959 -1.4999999 -30.140032
18.841713 -1.4999999 -30.041435
18.857616 -1.4999999 -29.951765
18.869474 -1.4999999 -29.871773
18.87707 -1.4999999 -29.80213
18.880196 -1.4999999 -29.743538
18.880032 -1.4999999 -29.718601
18.87866 -1.4999999 -29.696735
18.876068 -1.4999999 -29.677967
18.87223 -1.4999999 -29.662407
18.867104 -1.4999999 -29.650137
17.286982 5.2154064E-06 -30.033195
17.439194 5.2154064E-06 -29.98527
17.286982 -0.99999595 -30.033195
17.454123 -0.83333135 -29.980621
17.454123 -0.99999595 -29.980621
17.61711 -0.83333135 -29.930777
17.61711 -0.99999595 -29.930777
17.774874 -0.83333135 -29.88389
17.774874 -0.99999595 -29.88389
17.92629 -0.83333135 -29.840256
17.92629 -0.99999595 -29.840256
18.070305 -0.83333135 -29.800047
18.070305 -0.99999595 -29.800047
18.205818 -0.83333135 -29.763649
18.205818 -0.99999595 -29.763649
18.331736 -0.83333135 -29.7312
18.331736 -0.99999595 -29.7312
18.446976 -0.83333135 -29.702986
18.446976 -0.99999595 -29.702986
18.532671 -0.83333135 -29.683245
18.532671 -0.99999595 -29.683245
18.609865 -0.83333135 -29.666656
18.609865 -0.99999595 -29.666656
18.67793 -0.83333135 -29.653345
18.67793 -0.99999595 -29.653345
18.736292 -0.83333135 -29.643501
18.736292 -0.99999595 -29.643501
18.784369 -0.83333135 -29.637224
18.784369 -0.99999595 -29.637224
18.82152 -0.83333135 -29.63466
18.82152 -0.99999595 -29.63466
18.84717 -0.83333135 -29.63599
18.84717 -0.99999595 -29.63599
18.855478 -0.83333135 -29.638115
18.855478 -0.66666335 -29.638115
18.855478 -0.49999192 -29.638115
18.855478 -0.33332735 -29.638115
18.855478 -0.16666278 -29.638115
18.84717 -0.33332735 -29.63599
18.84717 -0.16666278 -29.63599
18.82152 -0.33332735 -29.63466
18.82152 -0.16666278 -29.63466
18.784369 -0.33332735 -29.637224
18.784369 -0.16666278 -29.637224
18.736292 -0.33332735 -29.643501
18.736292 -0.16666278 -29.643501
18.67793 -0.33332735 -29.653345
18.67793 -0.16666278 -29.653345
18.609865 -0.33332735 -29.666656
18.609865 -0.16666278 -29.666656
18.532671 -0.33332735 -29.683245
18.532671 -0.16666278 -29.683245
18.446976 -0.33332735 -29.702986
18.446976 -0.16666278 -29.702986
18.331736 -0.33332735 -29.7312
18.331736 -0.16666278 -29.7312
18.205818 -0.33332735 -29.763649
18.205818 -0.16666278 -29.763649
18.070305 -0.33332735 -29.800047
18.070305 -0.16666278 -29.800047
17.92629 -0.33332735 -29.840256
17.92629 -0.16666278 -29.840256
17.774874 -0.33332735 -29.88389
17.774874 -0.16666278 -29.88389
17.61711 -0.33332735 -29.930777
17.61711 -0.16666278 -29.930777
17.454123 -0.33332735 -29.980621
17.454123 -0.16666278 -29.980621
17.588034 5.2154064E-06 -29.939564
17.73272 5.2154064E-06 -29.896284
17.872414 5.2154064E-06 -29.855637
18.006296 5.2154064E-06 -29.817745
18.133558 5.2154064E-06 -29.782883
18.253347 5.2154064E-06 -29.751228
18.364872 5.2154064E-06 -29.722946
18.46729 5.2154064E-06 -29.698215
18.559814 5.2154064E-06 -29.677267
18.641602 5.2154064E-06 -29.660255
18.678205 5.2154064E-06 -29.653318
18.71182 5.2154064E-06 -29.647383
18.742336 5.2154064E-06 -29.642584
18.769646 5.2154064E-06 -29.638882
18.793676 5.2154064E-06 -29.636318
18.814295 5.2154064E-06 -29.634907
18.831419 5.2154064E-06 -29.63466
18.844921 5.2154064E-06 -29.635647
18.854723 5.2154064E-06 -29.637827
18.858192 5.2154064E-06 -29.639402
18.859577 5.2154064E-06 -29.640295
18.859577 -1.999997 -29.640295
18.858192 -1.999997 -29.639402
18.855478 -1.1666605 -29.638115
18.855478 -1.3333285 -29.638115
18.84717 -1.3333285 -29.63599
18.84717 -1.4999999 -29.63599
18.82152 -1.4999999 -29.63466
18.82152 -1.3333285 -29.63466
18.784369 -1.4999999 -29.637224
18.784369 -1.3333285 -29.637224
18.736292 -1.4999999 -29.643501
18.736292 -1.3333285 -29.643501
18.67793 -1.4999999 -29.653345
18.67793 -1.3333285 -29.653345
18.609865 -1.4999999 -29.666656
18.609865 -1.3333285 -29.666656
18.532671 -1.4999999 -29.683245
18.532671 -1.3333285 -29.683245
18.446976 -1.4999999 -29.702986
18.446976 -1.3333285 -29.702986
18.331736 -1.4999999 -29.7312
18.331736 -1.3333285 -29.7312
18.205818 -1.4999999 -29.763649
18.205818 -1.3333285 -29.763649
18.070305 -1.4999999 -29.800047
18.070305 -1.3333285 -29.800047
17.92629 -1.4999999 -29.840256
17.92629 -1.3333285 -29.840256
17.774874 -1.4999999 -29.88389
17.774874 -1.3333285 -29.88389
17.61711 -1.4999999 -29.930777
17.61711 -1.3333285 -29.930777
17.454123 -1.4999999 -29.980621
17.454123 -1.6666645 -29.980621
17.286982 -1.999997 -30.033195
17.454123 -1.8333291 -29.980621
17.439194 -1.999997 -29.98527
17.588034 -1.999997 -29.939564
17.61711 -1.8333291 -29.930777
17.73272 -1.999997 -29.896284
17.774874 -1.8333291 -29.88389
17.872414 -1.999997 -29.855637
17.92629 -1.8333291 -29.840256
18.006296 -1.999997 -29.817745
18.070305 -1.8333291 -29.800047
