ply
format ascii 1.0
element vertex 767
property float x
property float y
property float z
end_header
0.006335793063044548 -0.010630728676915169 0.06459999829530716
0.006494566798210144 -0.010614272207021713 0.06449999660253525
0.006652816664427519 -0.010597815737128258 0.06439999490976334
0.006799953058362007 -0.010564904659986496 0.06419999897480011
0.006956896744668484 -0.01054844819009304 0.0640999972820282
0.007113317493349314 -0.01053199078887701 0.06399999558925629
0.0072805918753147125 -0.01053199078887701 0.06399999558925629
0.007447865791618824 -0.01053199078887701 0.06399999558925629
0.0076151397079229355 -0.01053199078887701 0.06399999558925629
0.007770255208015442 -0.010515536181628704 0.06390000134706497
0.00792484637349844 -0.010499079711735249 0.06379999965429306
0.008078915067017078 -0.010482623241841793 0.06369999796152115
0.008219516836106777 -0.010449711233377457 0.06350000202655792
0.008385484106838703 -0.010449711233377457 0.06350000202655792
0.00853798445314169 -0.010433254763484001 0.06340000033378601
0.008689962327480316 -0.010416798293590546 0.0632999986410141
0.008841416798532009 -0.01040034182369709 0.06319999694824219
0.008992348797619343 -0.010383885353803635 0.06309999525547028
0.009142760187387466 -0.010367429815232754 0.06300000101327896
0.009621444158256054 -0.010350973345339298 0.06289999932050705
0.009770285338163376 -0.010334516875445843 0.06279999762773514
0.009934423491358757 -0.010334516875445843 0.06279999762773514
0.010098561644554138 -0.010334516875445843 0.06279999762773514
0.01026269793510437 -0.010334516875445843 0.06279999762773514
0.010426836088299751 -0.010334516875445843 0.06279999762773514
0.010590974241495132 -0.010334516875445843 0.06279999762773514
0.010755111463367939 -0.010334516875445843 0.06279999762773514
0.01091924961656332 -0.010334516875445843 0.06279999762773514
0.011083387769758701 -0.010334516875445843 0.06279999762773514
0.011411663144826889 -0.010334516875445843 0.06279999762773514
0.012251830659806728 -0.010350973345339298 0.06289999932050705
0.012416229583323002 -0.010350973345339298 0.06289999932050705
0.012600630521774292 -0.010367429815232754 0.06300000101327896
0.012765291146934032 -0.010367429815232754 0.06300000101327896
0.012950473465025425 -0.010383885353803635 0.06309999525547028
0.0131361810490489 -0.01040034182369709 0.06319999694824219
0.013322411105036736 -0.010416798293590546 0.0632999986410141
0.013487855903804302 -0.010416798293590546 0.0632999986410141
0.013674870133399963 -0.010433254763484001 0.06340000033378601
0.013862406834959984 -0.010449711233377457 0.06350000202655792
0.014072557911276817 -0.010482623241841793 0.06369999796152115
0.014283754862844944 -0.010515536181628704 0.06390000134706497
0.014640655368566513 -0.01053199078887701 0.06399999558925629
0.014807929284870625 -0.01053199078887701 0.06399999558925629
0.014975203201174736 -0.01053199078887701 0.06399999558925629
0.015166138298809528 -0.01054844819009304 0.0640999972820282
0.015333672985434532 -0.01054844819009304 0.0640999972820282
0.015501209534704685 -0.01054844819009304 0.0640999972820282
0.01566874422132969 -0.01054844819009304 0.0640999972820282
0.015836279839277267 -0.01054844819009304 0.0640999972820282
0.016003815457224846 -0.01054844819009304 0.0640999972820282
0.01614612340927124 -0.01053199078887701 0.06399999558925629
0.016313396394252777 -0.01053199078887701 0.06399999558925629
0.016480671241879463 -0.01053199078887701 0.06399999558925629
0.016647944226861 -0.01053199078887701 0.06399999558925629
0.016815219074487686 -0.01053199078887701 0.06399999558925629
0.016955958679318428 -0.010515536181628704 0.06390000134706497
0.017096174880862236 -0.010499079711735249 0.06379999965429306
0.01723586954176426 -0.010482623241841793 0.06369999796152115
0.0173750389367342 -0.010466166771948338 0.06359999626874924
0.017513690516352654 -0.010449711233377457 0.06350000202655792
0.01767965592443943 -0.010449711233377457 0.06350000202655792
0.01781751960515976 -0.010433254763484001 0.06340000033378601
0.017983226105570793 -0.010433254763484001 0.06340000033378601
0.018120305612683296 -0.010416798293590546 0.0632999986410141
0.01828574948012829 -0.010416798293590546 0.0632999986410141
0.01839289627969265 -0.010383885353803635 0.06309999525547028
0.018557816743850708 -0.010383885353803635 0.06309999525547028
0.018693068996071815 -0.010367429815232754 0.06300000101327896
0.01885773055255413 -0.010367429815232754 0.06300000101327896
0.019022390246391296 -0.010367429815232754 0.06300000101327896
0.02043924108147621 -0.010334516875445843 0.06279999762773514
0.003950338810682297 -0.010866757482290268 0.06709999591112137
0.004119567107409239 -0.010850563645362854 0.06700000166893005
0.004288272000849247 -0.010834368877112865 0.06689999997615814
0.004449782893061638 -0.010801978409290314 0.06669999659061432
0.00461024884134531 -0.010769589804112911 0.06650000065565109
0.004776863381266594 -0.010753394104540348 0.06639999896287918
0.00492804404348135 -0.010704809799790382 0.06610000133514404
0.005077655892819166 -0.010656224563717842 0.06579999625682831
0.005241657141596079 -0.010640030726790428 0.065700002014637
0.005388655234128237 -0.010591445490717888 0.06539999693632126
0.005551087204366922 -0.010575249791145325 0.06529999524354935
0.005712997633963823 -0.01055905595421791 0.06520000100135803
0.005865360610187054 -0.010526665486395359 0.06499999761581421
0.0060259634628891945 -0.01051047071814537 0.0648999959230423
0.006186044309288263 -0.010494276881217957 0.06480000168085098
0.006335793063044548 -0.010461886413395405 0.06459999829530716
0.006504635792225599 -0.010461886413395405 0.06459999829530716
0.006663147360086441 -0.010445691645145416 0.06449999660253525
0.006831728387624025 -0.010445691645145416 0.06449999660253525
0.006978603545576334 -0.01041330210864544 0.06430000066757202
0.007135546766221523 -0.01039710734039545 0.06419999897480011
0.007291967980563641 -0.010380911640822887 0.0640999972820282
0.007447865791618824 -0.010364716872572899 0.06399999558925629
0.0076151397079229355 -0.010364716872572899 0.06399999558925629
0.007782414555549622 -0.010364716872572899 0.06399999558925629
0.007949688471853733 -0.010364716872572899 0.06399999558925629
0.008104280568659306 -0.010348523035645485 0.06390000134706497
0.008245403878390789 -0.010316132567822933 0.06369999796152115
0.008385484106838703 -0.010283743031322956 0.06350000202655792
0.00853798445314169 -0.010267548263072968 0.06340000033378601
0.008703690953552723 -0.010267548263072968 0.06340000033378601
0.008855406194925308 -0.010251353494822979 0.0632999986410141
0.008992348797619343 -0.010218963027000427 0.06309999525547028
0.009142760187387466 -0.010202769190073013 0.06300000101327896
0.009307419881224632 -0.010202769190073013 0.06300000101327896
0.00945704523473978 -0.01018657349050045 0.06289999932050705
0.009621444158256054 -0.01018657349050045 0.06289999932050705
0.009770285338163376 -0.010170378722250462 0.06279999762773514
0.009934423491358757 -0.010170378722250462 0.06279999762773514
0.010098561644554138 -0.010170378722250462 0.06279999762773514
0.010590974241495132 -0.010170378722250462 0.06279999762773514
0.010755111463367939 -0.010170378722250462 0.06279999762773514
0.011247525922954082 -0.010170378722250462 0.06279999762773514
0.011923031881451607 -0.01018657349050045 0.06289999932050705
0.01210664864629507 -0.010202769190073013 0.06300000101327896
0.012271309271454811 -0.010202769190073013 0.06300000101327896
0.012435969896614552 -0.010202769190073013 0.06300000101327896
0.012600630521774292 -0.010202769190073013 0.06300000101327896
0.012765291146934032 -0.010202769190073013 0.06300000101327896
0.012950473465025425 -0.010218963027000427 0.06309999525547028
0.0131361810490489 -0.010235157795250416 0.06319999694824219
0.013322411105036736 -0.010251353494822979 0.0632999986410141
0.013487855903804302 -0.010251353494822979 0.0632999986410141
0.013674870133399963 -0.010267548263072968 0.06340000033378601
0.013862406834959984 -0.010283743031322956 0.06350000202655792
0.014072557911276817 -0.010316132567822933 0.06369999796152115
0.014261401258409023 -0.010332327336072922 0.06379999965429306
0.014640655368566513 -0.010364716872572899 0.06399999558925629
0.014807929284870625 -0.010364716872572899 0.06399999558925629
0.014975203201174736 -0.010364716872572899 0.06399999558925629
0.015142478048801422 -0.010364716872572899 0.06399999558925629
0.015333672985434532 -0.010380911640822887 0.0640999972820282
0.015501209534704685 -0.010380911640822887 0.0640999972820282
0.01566874422132969 -0.010380911640822887 0.0640999972820282
0.015836279839277267 -0.010380911640822887 0.0640999972820282
0.015978848561644554 -0.010364716872572899 0.06399999558925629
0.01614612340927124 -0.010364716872572899 0.06399999558925629
0.016313396394252777 -0.010364716872572899 0.06399999558925629
0.016480671241879463 -0.010364716872572899 0.06399999558925629
0.016647944226861 -0.010364716872572899 0.06399999558925629
0.016788946464657784 -0.010348523035645485 0.06390000134706497
0.016955958679318428 -0.010348523035645485 0.06390000134706497
0.017096174880862236 -0.010332327336072922 0.06379999965429306
0.01723586954176426 -0.010316132567822933 0.06369999796152115
0.0173750389367342 -0.010299937799572945 0.06359999626874924
0.017513690516352654 -0.010283743031322956 0.06350000202655792
0.01767965592443943 -0.010283743031322956 0.06350000202655792
0.01781751960515976 -0.010267548263072968 0.06340000033378601
0.017983226105570793 -0.010267548263072968 0.06340000033378601
0.018120305612683296 -0.010251353494822979 0.0632999986410141
0.01828574948012829 -0.010251353494822979 0.0632999986410141
0.018422046676278114 -0.010235157795250416 0.06319999694824219
0.018557816743850708 -0.010218963027000427 0.06309999525547028
0.018722739070653915 -0.010218963027000427 0.06309999525547028
0.01885773055255413 -0.010202769190073013 0.06300000101327896
0.019022390246391296 -0.010202769190073013 0.06300000101327896
0.00411341805011034 -0.010659514926373959 0.06689999997615814
0.004281861707568169 -0.010643580928444862 0.06679999828338623
0.004443111829459667 -0.01061171293258667 0.06659999489784241
0.00461024884134531 -0.010595780797302723 0.06650000065565109
0.004776863381266594 -0.010579846799373627 0.06639999896287918
0.0049354988150298595 -0.010547979734838009 0.06619999557733536
0.005093089770525694 -0.010516112670302391 0.06599999964237213
0.005249634850770235 -0.010484245605766773 0.06579999625682831
0.005413374397903681 -0.010468312539160252 0.065700002014637
0.0055680894292891026 -0.010436445474624634 0.06549999862909317
0.005721759516745806 -0.010404577478766441 0.06529999524354935
0.00588340824469924 -0.010388645343482494 0.06520000100135803
0.006044534035027027 -0.010372711345553398 0.06509999930858612
0.006195589900016785 -0.01034084428101778 0.0648999959230423
0.006345601286739111 -0.010308977216482162 0.06469999998807907
0.006514705251902342 -0.010308977216482162 0.06469999998807907
0.006673478055745363 -0.010293044149875641 0.06459999829530716
0.006842320319265127 -0.010293044149875641 0.06459999829530716
0.00700030941516161 -0.010277110151946545 0.06449999660253525
0.0071577755734324455 -0.010261176154017448 0.06439999490976334
0.007314720191061497 -0.010245244018733501 0.06430000066757202
0.0074827782809734344 -0.010245244018733501 0.06430000066757202
0.007638937793672085 -0.010229310020804405 0.06419999897480011
0.007794574834406376 -0.010213376022875309 0.0640999972820282
0.007949688471853733 -0.010197442024946213 0.06399999558925629
0.008116962388157845 -0.010197442024946213 0.06399999558925629
0.00827129278331995 -0.010181509889662266 0.06390000134706497
0.008411894552409649 -0.010149641893804073 0.06369999796152115
0.008551452308893204 -0.01011777576059103 0.06350000202655792
0.008703690953552723 -0.010101841762661934 0.06340000033378601
0.008855406194925308 -0.010085908696055412 0.0632999986410141
0.009006599895656109 -0.010069974698126316 0.06319999694824219
0.009142760187387466 -0.010038108564913273 0.06300000101327896
0.009307419881224632 -0.010038108564913273 0.06300000101327896
0.00945704523473978 -0.010022174566984177 0.06289999932050705
0.009621444158256054 -0.010022174566984177 0.06289999932050705
0.009770285338163376 -0.01000624056905508 0.06279999762773514
0.009934423491358757 -0.01000624056905508 0.06279999762773514
0.010098561644554138 -0.01000624056905508 0.06279999762773514
0.010590974241495132 -0.01000624056905508 0.06279999762773514
0.010755111463367939 -0.01000624056905508 0.06279999762773514
0.011247525922954082 -0.01000624056905508 0.06279999762773514
0.011923031881451607 -0.010022174566984177 0.06289999932050705
0.012087431736290455 -0.010022174566984177 0.06289999932050705
0.012271309271454811 -0.010038108564913273 0.06300000101327896
0.012435969896614552 -0.010038108564913273 0.06300000101327896
0.012600630521774292 -0.010038108564913273 0.06300000101327896
0.012765291146934032 -0.010038108564913273 0.06300000101327896
0.012950473465025425 -0.01005404070019722 0.06309999525547028
0.013115395791828632 -0.01005404070019722 0.06309999525547028
0.013322411105036736 -0.010085908696055412 0.0632999986410141
0.013487855903804302 -0.010085908696055412 0.0632999986410141
0.013674870133399963 -0.010101841762661934 0.06340000033378601
0.013862406834959984 -0.01011777576059103 0.06350000202655792
0.014028375037014484 -0.01011777576059103 0.06350000202655792
0.014261401258409023 -0.01016557589173317 0.06379999965429306
0.014975203201174736 -0.010197442024946213 0.06399999558925629
0.015142478048801422 -0.010197442024946213 0.06399999558925629
0.015309751033782959 -0.010197442024946213 0.06399999558925629
0.015477025881409645 -0.010197442024946213 0.06399999558925629
0.01564430072903633 -0.010197442024946213 0.06399999558925629
0.015811573714017868 -0.010197442024946213 0.06399999558925629
0.015978848561644554 -0.010197442024946213 0.06399999558925629
0.01614612340927124 -0.010197442024946213 0.06399999558925629
0.016313396394252777 -0.010197442024946213 0.06399999558925629
0.016480671241879463 -0.010197442024946213 0.06399999558925629
0.01662193424999714 -0.010181509889662266 0.06390000134706497
0.016788946464657784 -0.010181509889662266 0.06390000134706497
0.016955958679318428 -0.010181509889662266 0.06390000134706497
0.017096174880862236 -0.01016557589173317 0.06379999965429306
0.01723586954176426 -0.010149641893804073 0.06369999796152115
0.0173750389367342 -0.010133708827197552 0.06359999626874924
0.017513690516352654 -0.01011777576059103 0.06350000202655792
0.01767965592443943 -0.01011777576059103 0.06350000202655792
0.01781751960515976 -0.010101841762661934 0.06340000033378601
0.017983226105570793 -0.010101841762661934 0.06340000033378601
0.018148932605981827 -0.010101841762661934 0.06340000033378601
0.01828574948012829 -0.010085908696055412 0.0632999986410141
0.018422046676278114 -0.010069974698126316 0.06319999694824219
0.018557816743850708 -0.01005404070019722 0.06309999525547028
0.018722739070653915 -0.01005404070019722 0.06309999525547028
0.01885773055255413 -0.010038108564913273 0.06300000101327896
0.019022390246391296 -0.010038108564913273 0.06300000101327896
0.01918705180287361 -0.010038108564913273 0.06300000101327896
0.01932099461555481 -0.010022174566984177 0.06289999932050705
0.019485391676425934 -0.010022174566984177 0.06289999932050705
0.019649792462587357 -0.010022174566984177 0.06289999932050705
0.020142991095781326 -0.010022174566984177 0.06289999932050705
0.02027510479092598 -0.01000624056905508 0.06279999762773514
0.02043924108147621 -0.01000624056905508 0.06279999762773514
0.020603377372026443 -0.01000624056905508 0.06279999762773514
0.02070137858390808 -0.009974374435842037 0.06260000169277191
0.0039385645650327206 -0.010484661906957626 0.06689999997615814
0.00411341805011034 -0.010484661906957626 0.06689999997615814
0.004281861707568169 -0.010468988679349422 0.06679999828338623
0.004443111829459667 -0.010437644086778164 0.06659999489784241
0.00461024884134531 -0.01042197272181511 0.06650000065565109
0.004776863381266594 -0.01040630042552948 0.06639999896287918
0.004942954517900944 -0.01039062812924385 0.06629999727010727
0.005100806709378958 -0.010359284467995167 0.06610000133514404
0.0052576130256056786 -0.010327939875423908 0.06589999794960022
0.005421613343060017 -0.010312267579138279 0.06579999625682831
0.005585091654211283 -0.010296596214175224 0.065700002014637
0.0057305218651890755 -0.010249579325318336 0.06539999693632126
0.005892431363463402 -0.010233906097710133 0.06529999524354935
0.0060538193210959435 -0.010218235664069653 0.06520000100135803
0.006214682944118977 -0.010202563367784023 0.06509999930858612
0.006365216337144375 -0.01017121784389019 0.0648999959230423
0.006534842774271965 -0.01017121784389019 0.0648999959230423
0.006683808751404285 -0.010139874182641506 0.06469999998807907
0.006842320319265127 -0.010124201886355877 0.06459999829530716
0.0070111630484461784 -0.010124201886355877 0.06459999829530716
0.007180005311965942 -0.010124201886355877 0.06459999829530716
0.007337471470236778 -0.010108529590070248 0.06449999660253525
0.0075060524977743626 -0.010108529590070248 0.06449999660253525
0.007662734482437372 -0.010092857293784618 0.06439999490976334
0.007831054739654064 -0.010092857293784618 0.06439999490976334
0.007986953482031822 -0.010077185928821564 0.06430000066757202
0.008129646070301533 -0.010045841336250305 0.0640999972820282
0.00843830592930317 -0.010014497675001621 0.06390000134706497
0.008591852150857449 -0.009998825378715992 0.06379999965429306
0.008731147274374962 -0.009967480786144733 0.06359999626874924
0.008883385919034481 -0.009951809421181679 0.06350000202655792
0.009035103023052216 -0.00993613712489605 0.06340000033378601
0.009171783924102783 -0.009904791601002216 0.06319999694824219
0.009322192519903183 -0.009889119304716587 0.06309999525547028
0.009472080506384373 -0.009873447939753532 0.06300000101327896
0.009621444158256054 -0.009857775643467903 0.06289999932050705
0.009770285338163376 -0.009842103347182274 0.06279999762773514
0.009934423491358757 -0.009842103347182274 0.06279999762773514
0.010098561644554138 -0.009842103347182274 0.06279999762773514
0.01026269793510437 -0.009842103347182274 0.06279999762773514
0.010426836088299751 -0.009842103347182274 0.06279999762773514
0.010590974241495132 -0.009842103347182274 0.06279999762773514
0.010755111463367939 -0.009842103347182274 0.06279999762773514
0.01091924961656332 -0.009842103347182274 0.06279999762773514
0.011083387769758701 -0.009842103347182274 0.06279999762773514
0.011247525922954082 -0.009842103347182274 0.06279999762773514
0.011739939451217651 -0.009842103347182274 0.06279999762773514
0.011923031881451607 -0.009857775643467903 0.06289999932050705
0.012087431736290455 -0.009857775643467903 0.06289999932050705
0.012251830659806728 -0.009857775643467903 0.06289999932050705
0.012435969896614552 -0.009873447939753532 0.06300000101327896
0.012600630521774292 -0.009873447939753532 0.06300000101327896
0.012785552069544792 -0.009889119304716587 0.06309999525547028
0.012950473465025425 -0.009889119304716587 0.06309999525547028
0.013115395791828632 -0.009889119304716587 0.06309999525547028
0.013322411105036736 -0.009920463897287846 0.0632999986410141
0.01350916363298893 -0.00993613712489605 0.06340000033378601
0.013674870133399963 -0.00993613712489605 0.06340000033378601
0.013840576633810997 -0.00993613712489605 0.06340000033378601
0.014028375037014484 -0.009951809421181679 0.06350000202655792
0.014617781154811382 -0.010014497675001621 0.06390000134706497
0.015142478048801422 -0.010030169039964676 0.06399999558925629
0.015309751033782959 -0.010030169039964676 0.06399999558925629
0.015477025881409645 -0.010030169039964676 0.06399999558925629
0.01564430072903633 -0.010030169039964676 0.06399999558925629
0.015811573714017868 -0.010030169039964676 0.06399999558925629
0.015978848561644554 -0.010030169039964676 0.06399999558925629
0.01614612340927124 -0.010030169039964676 0.06399999558925629
0.01628790982067585 -0.010014497675001621 0.06390000134706497
0.016454922035336494 -0.010014497675001621 0.06390000134706497
0.01662193424999714 -0.010014497675001621 0.06390000134706497
0.01676267199218273 -0.009998825378715992 0.06379999965429306
0.016929423436522484 -0.009998825378715992 0.06379999965429306
0.0170693788677454 -0.009983153082430363 0.06369999796152115
0.01723586954176426 -0.009983153082430363 0.06369999796152115
0.0173750389367342 -0.009967480786144733 0.06359999626874924
0.017513690516352654 -0.009951809421181679 0.06350000202655792
0.01767965592443943 -0.009951809421181679 0.06350000202655792
0.01781751960515976 -0.00993613712489605 0.06340000033378601
0.017983226105570793 -0.00993613712489605 0.06340000033378601
0.018120305612683296 -0.009920463897287846 0.0632999986410141
0.01828574948012829 -0.009920463897287846 0.0632999986410141
0.018422046676278114 -0.009904791601002216 0.06319999694824219
0.018557816743850708 -0.009889119304716587 0.06309999525547028
0.018722739070653915 -0.009889119304716587 0.06309999525547028
0.01885773055255413 -0.009873447939753532 0.06300000101327896
0.019022390246391296 -0.009873447939753532 0.06300000101327896
0.019156595692038536 -0.009857775643467903 0.06289999932050705
0.01932099461555481 -0.009857775643467903 0.06289999932050705
0.019485391676425934 -0.009857775643467903 0.06289999932050705
0.019649792462587357 -0.009857775643467903 0.06289999932050705
0.019782690331339836 -0.009842103347182274 0.06279999762773514
0.019946828484535217 -0.009842103347182274 0.06279999762773514
0.0201109666377306 -0.009842103347182274 0.06279999762773514
0.02027510479092598 -0.009842103347182274 0.06279999762773514
0.0204066950827837 -0.009826431050896645 0.06269999593496323
0.020537763833999634 -0.00981075968593359 0.06260000169277191
0.020635239779949188 -0.009779415093362331 0.06239999830722809
0.003932677209377289 -0.010294396430253983 0.06679999828338623
0.004101120866835117 -0.010278984904289246 0.06669999659061432
0.004269041586667299 -0.010263574309647083 0.06659999489784241
0.004443111829459667 -0.010263574309647083 0.06659999489784241
0.00461024884134531 -0.010248164646327496 0.06650000065565109
0.004784057382494211 -0.010248164646327496 0.06650000065565109
0.004950410220772028 -0.010232753120362759 0.06639999896287918
0.005108522716909647 -0.01020193099975586 0.06619999557733536
0.005593591835349798 -0.01014028862118721 0.06579999625682831
0.005748047027736902 -0.010109467431902885 0.06560000032186508
0.005892431363463402 -0.010063234716653824 0.06529999524354935
0.0060538193210959435 -0.010047824122011662 0.06520000100135803
0.0062242294661700726 -0.010047824122011662 0.06520000100135803
0.006384831853210926 -0.0100324135273695 0.06509999930858612
0.006544912233948708 -0.010017002001404762 0.06499999761581421
0.006704469211399555 -0.0100015914067626 0.0648999959230423
0.006863504182547331 -0.009986181743443012 0.06480000168085098
0.00702201621606946 -0.009970770217478275 0.06469999998807907
0.007180005311965942 -0.009955359622836113 0.06459999829530716
0.007348847575485706 -0.009955359622836113 0.06459999829530716
0.00751768983900547 -0.009955359622836113 0.06459999829530716
0.007686532102525234 -0.009955359622836113 0.06459999829530716
0.007855375297367573 -0.009955359622836113 0.06459999829530716
0.008011795580387115 -0.009939948096871376 0.06449999660253525
0.008167693391442299 -0.009924537502229214 0.06439999490976334
0.008310125209391117 -0.009893716312944889 0.06419999897480011
0.008451511152088642 -0.00986289419233799 0.06399999558925629
0.008772332221269608 -0.009847484529018402 0.06390000134706497
0.008925355039536953 -0.009832073003053665 0.06379999965429306
0.009049354121088982 -0.009785841219127178 0.06350000202655792
0.009200808592140675 -0.009770430624485016 0.06340000033378601
0.009366514161229134 -0.009770430624485016 0.06340000033378601
0.009517185389995575 -0.009755019098520279 0.0632999986410141
0.009652037173509598 -0.00972419697791338 0.06309999525547028
0.009785843081772327 -0.00969337671995163 0.06289999932050705
0.009950242936611176 -0.00969337671995163 0.06289999932050705
0.010098561644554138 -0.009677965193986893 0.06279999762773514
0.01026269793510437 -0.009677965193986893 0.06279999762773514
0.010426836088299751 -0.009677965193986893 0.06279999762773514
0.010574109852313995 -0.00966255459934473 0.06269999593496323
0.010755111463367939 -0.009677965193986893 0.06279999762773514
0.01091924961656332 -0.009677965193986893 0.06279999762773514
0.011083387769758701 -0.009677965193986893 0.06279999762773514
0.011247525922954082 -0.009677965193986893 0.06279999762773514
0.01157580129802227 -0.009677965193986893 0.06279999762773514
0.011739939451217651 -0.009677965193986893 0.06279999762773514
0.011923031881451607 -0.00969337671995163 0.06289999932050705
0.012087431736290455 -0.00969337671995163 0.06289999932050705
0.012251830659806728 -0.00969337671995163 0.06289999932050705
0.012435969896614552 -0.009708787314593792 0.06300000101327896
0.012600630521774292 -0.009708787314593792 0.06300000101327896
0.012785552069544792 -0.00972419697791338 0.06309999525547028
0.012950473465025425 -0.00972419697791338 0.06309999525547028
0.013156966306269169 -0.009755019098520279 0.0632999986410141
0.013322411105036736 -0.009755019098520279 0.0632999986410141
0.013487855903804302 -0.009755019098520279 0.0632999986410141
0.013674870133399963 -0.009770430624485016 0.06340000033378601
0.013840576633810997 -0.009770430624485016 0.06340000033378601
0.014028375037014484 -0.009785841219127178 0.06350000202655792
0.014216693118214607 -0.009801250882446766 0.06359999626874924
0.014594904147088528 -0.009832073003053665 0.06379999965429306
0.014784793369472027 -0.009847484529018402 0.06390000134706497
0.014951805584132671 -0.009847484529018402 0.06390000134706497
0.01511881873011589 -0.009847484529018402 0.06390000134706497
0.015285830944776535 -0.009847484529018402 0.06390000134706497
0.015452844090759754 -0.009847484529018402 0.06390000134706497
0.015619857236742973 -0.009847484529018402 0.06390000134706497
0.015786869451403618 -0.009847484529018402 0.06390000134706497
0.01595388352870941 -0.009847484529018402 0.06390000134706497
0.016120895743370056 -0.009847484529018402 0.06390000134706497
0.01628790982067585 -0.009847484529018402 0.06390000134706497
0.016454922035336494 -0.009847484529018402 0.06390000134706497
0.01659592054784298 -0.009832073003053665 0.06379999965429306
0.01676267199218273 -0.009832073003053665 0.06379999965429306
0.016929423436522484 -0.009832073003053665 0.06379999965429306
0.0170693788677454 -0.009816662408411503 0.06369999796152115
0.01723586954176426 -0.009816662408411503 0.06369999796152115
0.0173750389367342 -0.009801250882446766 0.06359999626874924
0.017513690516352654 -0.009785841219127178 0.06350000202655792
0.01767965592443943 -0.009785841219127178 0.06350000202655792
0.01781751960515976 -0.009770430624485016 0.06340000033378601
0.017983226105570793 -0.009770430624485016 0.06340000033378601
0.018148932605981827 -0.009770430624485016 0.06340000033378601
0.01828574948012829 -0.009755019098520279 0.0632999986410141
0.018422046676278114 -0.009739608503878117 0.06319999694824219
0.018557816743850708 -0.00972419697791338 0.06309999525547028
0.018722739070653915 -0.00972419697791338 0.06309999525547028
0.01885773055255413 -0.009708787314593792 0.06300000101327896
0.018992196768522263 -0.00969337671995163 0.06289999932050705
0.019156595692038536 -0.00969337671995163 0.06289999932050705
0.019290277734398842 -0.009677965193986893 0.06279999762773514
0.019454414024949074 -0.009677965193986893 0.06279999762773514
0.019618552178144455 -0.009677965193986893 0.06279999762773514
0.019782690331339836 -0.009677965193986893 0.06279999762773514
0.019946828484535217 -0.009677965193986893 0.06279999762773514
0.02007894217967987 -0.00966255459934473 0.06269999593496323
0.02024281769990921 -0.00966255459934473 0.06269999593496323
0.020374150946736336 -0.009647144004702568 0.06260000169277191
0.02050495520234108 -0.009631733410060406 0.0625
0.003920902498066425 -0.010089504532516003 0.06659999489784241
0.004094972275197506 -0.010089504532516003 0.06659999489784241
0.004269041586667299 -0.010089504532516003 0.06659999489784241
0.0044364407658576965 -0.010074355639517307 0.06650000065565109
0.00461024884134531 -0.010074355639517307 0.06650000065565109
0.004784057382494211 -0.010074355639517307 0.06650000065565109
0.004950410220772028 -0.010059205815196037 0.06639999896287918
0.005116239655762911 -0.010044056922197342 0.06629999727010727
0.005273569840937853 -0.010013758204877377 0.06610000133514404
0.005756809376180172 -0.009953160770237446 0.065700002014637
0.005910478997975588 -0.009922861121594906 0.06549999862909317
0.006063103675842285 -0.00989256240427494 0.06529999524354935
0.0062242294661700726 -0.009877413511276245 0.06520000100135803
0.006384831853210926 -0.009862263686954975 0.06509999930858612
0.00655498169362545 -0.009862263686954975 0.06509999930858612
0.006714799907058477 -0.009847113862633705 0.06499999761581421
0.006874095648527145 -0.00983196496963501 0.0648999959230423
0.0070437220856547356 -0.00983196496963501 0.0648999959230423
0.007202234584838152 -0.009816816076636314 0.06480000168085098
0.007360224146395922 -0.009801666252315044 0.06469999998807907
0.007529327645897865 -0.009801666252315044 0.06469999998807907
0.007686532102525234 -0.009786516427993774 0.06459999829530716
0.007855375297367573 -0.009786516427993774 0.06459999829530716
0.008024216629564762 -0.009786516427993774 0.06459999829530716
0.0081930598244071 -0.009786516427993774 0.06459999829530716
0.008336013182997704 -0.009756217710673809 0.06439999490976334
0.008491127751767635 -0.009741068817675114 0.06430000066757202
0.008953332901000977 -0.009695620276033878 0.06399999558925629
0.009106357581913471 -0.009680471383035183 0.06390000134706497
0.009244345128536224 -0.009650171734392643 0.06369999796152115
0.009381288662552834 -0.009619873948395252 0.06350000202655792
0.009532220661640167 -0.009604724124073982 0.06340000033378601
0.009682630188763142 -0.009589574299752712 0.0632999986410141
0.009832516312599182 -0.009574424475431442 0.06319999694824219
0.009966062381863594 -0.009544126689434052 0.06300000101327896
0.010114641860127449 -0.009528976865112782 0.06289999932050705
0.01026269793510437 -0.009513827040791512 0.06279999762773514
0.010426836088299751 -0.009513827040791512 0.06279999762773514
0.010590974241495132 -0.009513827040791512 0.06279999762773514
0.010755111463367939 -0.009513827040791512 0.06279999762773514
0.011083387769758701 -0.009513827040791512 0.06279999762773514
0.011904076673090458 -0.009513827040791512 0.06279999762773514
0.012765291146934032 -0.009544126689434052 0.06300000101327896
0.012950473465025425 -0.009559275582432747 0.06309999525547028
0.0131361810490489 -0.009574424475431442 0.06319999694824219
0.013322411105036736 -0.009589574299752712 0.0632999986410141
0.013487855903804302 -0.009589574299752712 0.0632999986410141
0.013674870133399963 -0.009604724124073982 0.06340000033378601
0.013840576633810997 -0.009604724124073982 0.06340000033378601
0.014028375037014484 -0.009619873948395252 0.06350000202655792
0.014194341376423836 -0.009619873948395252 0.06350000202655792
0.014360309578478336 -0.009619873948395252 0.06350000202655792
0.014572028070688248 -0.009650171734392643 0.06369999796152115
0.014738517813384533 -0.009650171734392643 0.06369999796152115
0.014928407035768032 -0.009665321558713913 0.06379999965429306
0.015095158480107784 -0.009665321558713913 0.06379999965429306
0.015261908993124962 -0.009665321558713913 0.06379999965429306
0.015428661368787289 -0.009665321558713913 0.06379999965429306
0.01559541281312704 -0.009665321558713913 0.06379999965429306
0.01576216332614422 -0.009665321558713913 0.06379999965429306
0.01592891477048397 -0.009665321558713913 0.06379999965429306
0.016095668077468872 -0.009665321558713913 0.06379999965429306
0.016262419521808624 -0.009665321558713913 0.06379999965429306
0.01640341989696026 -0.009650171734392643 0.06369999796152115
0.01659592054784298 -0.009665321558713913 0.06379999965429306
0.01673639751970768 -0.009650171734392643 0.06369999796152115
0.01690288819372654 -0.009650171734392643 0.06369999796152115
0.0170693788677454 -0.009650171734392643 0.06369999796152115
0.01720881089568138 -0.009635021910071373 0.06359999626874924
0.01734772138297558 -0.009619873948395252 0.06350000202655792
0.017513690516352654 -0.009619873948395252 0.06350000202655792
0.01767965592443943 -0.009619873948395252 0.06350000202655792
0.01781751960515976 -0.009604724124073982 0.06340000033378601
0.017983226105570793 -0.009604724124073982 0.06340000033378601
0.018120305612683296 -0.009589574299752712 0.0632999986410141
0.01828574948012829 -0.009589574299752712 0.0632999986410141
0.018422046676278114 -0.009574424475431442 0.06319999694824219
0.018557816743850708 -0.009559275582432747 0.06309999525547028
0.018693068996071815 -0.009544126689434052 0.06300000101327896
0.01882779598236084 -0.009528976865112782 0.06289999932050705
0.018992196768522263 -0.009528976865112782 0.06289999932050705
0.019156595692038536 -0.009528976865112782 0.06289999932050705
0.019290277734398842 -0.009513827040791512 0.06279999762773514
0.019454414024949074 -0.009513827040791512 0.06279999762773514
0.019618552178144455 -0.009513827040791512 0.06279999762773514
0.019782690331339836 -0.009513827040791512 0.06279999762773514
0.019946828484535217 -0.009513827040791512 0.06279999762773514
0.02007894217967987 -0.009498677216470242 0.06269999593496323
0.02024281769990921 -0.009498677216470242 0.06269999593496323
0.020374150946736336 -0.00948352925479412 0.06260000169277191
0.0042626322247087955 -0.009900548495352268 0.06650000065565109
0.0044364407658576965 -0.009900548495352268 0.06650000065565109
0.00461024884134531 -0.009900548495352268 0.06650000065565109
0.004776863381266594 -0.00988565944135189 0.06639999896287918
0.004950410220772028 -0.00988565944135189 0.06639999896287918
0.005116239655762911 -0.009870771318674088 0.06629999727010727
0.005281547550112009 -0.009855883195996284 0.06619999557733536
0.005446332506835461 -0.009840996004641056 0.06610000133514404
0.005602092947810888 -0.00981121975928545 0.06589999794960022
0.005928526632487774 -0.009781444445252419 0.065700002014637
0.0060816737823188305 -0.009751667268574238 0.06549999862909317
0.006233775522559881 -0.009721891023218632 0.06529999524354935
0.006394640076905489 -0.009707003831863403 0.06520000100135803
0.006565050687640905 -0.009707003831863403 0.06520000100135803
0.0067251306027174 -0.0096921157091856 0.06509999930858612
0.006884687580168247 -0.009677226655185223 0.06499999761581421
0.007054575718939304 -0.009677226655185223 0.06499999761581421
0.007213348522782326 -0.00966233853250742 0.0648999959230423
0.007382975425571203 -0.00966233853250742 0.0648999959230423
0.007540964987128973 -0.009647451341152191 0.06480000168085098
0.007698431145399809 -0.009632563218474388 0.06469999998807907
0.007867534644901752 -0.009632563218474388 0.06469999998807907
0.008036638610064983 -0.009632563218474388 0.06469999998807907
0.0081930598244071 -0.009617675095796585 0.06459999829530716
0.00836190115660429 -0.009617675095796585 0.06459999829530716
0.008517538197338581 -0.009602786973118782 0.06449999660253525
0.008686119690537453 -0.009602786973118782 0.06449999660253525
0.009440382942557335 -0.009513459168374538 0.06390000134706497
0.00957732554525137 -0.009483682923018932 0.06369999796152115
0.009713223204016685 -0.009453906677663326 0.06350000202655792
0.009863631799817085 -0.009439018554985523 0.06340000033378601
0.0100135188549757 -0.00942413043230772 0.0632999986410141
0.01014680229127407 -0.009394354186952114 0.06309999525547028
0.0102953827008605 -0.009379466995596886 0.06300000101327896
0.010443439707159996 -0.009364578872919083 0.06289999932050705
0.010590974241495132 -0.009349689818918705 0.06279999762773514
0.010755111463367939 -0.009349689818918705 0.06279999762773514
0.01091924961656332 -0.009349689818918705 0.06279999762773514
0.011083387769758701 -0.009349689818918705 0.06279999762773514
0.011247525922954082 -0.009349689818918705 0.06279999762773514
0.011411663144826889 -0.009349689818918705 0.06279999762773514
0.01157580129802227 -0.009349689818918705 0.06279999762773514
0.011904076673090458 -0.009349689818918705 0.06279999762773514
0.012929950840771198 -0.009379466995596886 0.06300000101327896
0.0131361810490489 -0.009409242309629917 0.06319999694824219
0.013322411105036736 -0.00942413043230772 0.0632999986410141
0.013487855903804302 -0.00942413043230772 0.0632999986410141
0.013674870133399963 -0.009439018554985523 0.06340000033378601
0.013840576633810997 -0.009439018554985523 0.06340000033378601
0.014028375037014484 -0.009453906677663326 0.06350000202655792
0.014194341376423836 -0.009453906677663326 0.06350000202655792
0.01438292209059 -0.009468793869018555 0.06359999626874924
0.014572028070688248 -0.009483682923018932 0.06369999796152115
0.014738517813384533 -0.009483682923018932 0.06369999796152115
0.014905007556080818 -0.009483682923018932 0.06369999796152115
0.015071498230099678 -0.009483682923018932 0.06369999796152115
0.015237987972795963 -0.009483682923018932 0.06369999796152115
0.015404477715492249 -0.009483682923018932 0.06369999796152115
0.01559541281312704 -0.009498571045696735 0.06379999965429306
0.01576216332614422 -0.009498571045696735 0.06379999965429306
0.01592891477048397 -0.009498571045696735 0.06379999965429306
0.01607043854892254 -0.009483682923018932 0.06369999796152115
0.0162369292229414 -0.009483682923018932 0.06369999796152115
0.01640341989696026 -0.009483682923018932 0.06369999796152115
0.01656990684568882 -0.009483682923018932 0.06369999796152115
0.01673639751970768 -0.009483682923018932 0.06369999796152115
0.01690288819372654 -0.009483682923018932 0.06369999796152115
0.017042580991983414 -0.009468793869018555 0.06359999626874924
0.01720881089568138 -0.009468793869018555 0.06359999626874924
0.01734772138297558 -0.009453906677663326 0.06350000202655792
0.017513690516352654 -0.009453906677663326 0.06350000202655792
0.01767965592443943 -0.009453906677663326 0.06350000202655792
0.01781751960515976 -0.009439018554985523 0.06340000033378601
0.017983226105570793 -0.009439018554985523 0.06340000033378601
0.018120305612683296 -0.00942413043230772 0.0632999986410141
0.01828574948012829 -0.00942413043230772 0.0632999986410141
0.018422046676278114 -0.009409242309629917 0.06319999694824219
0.018557816743850708 -0.009394354186952114 0.06309999525547028
0.018693068996071815 -0.009379466995596886 0.06300000101327896
0.01882779598236084 -0.009364578872919083 0.06289999932050705
0.018992196768522263 -0.009364578872919083 0.06289999932050705
0.019156595692038536 -0.009364578872919083 0.06289999932050705
0.019290277734398842 -0.009349689818918705 0.06279999762773514
0.019454414024949074 -0.009349689818918705 0.06279999762773514
0.019618552178144455 -0.009349689818918705 0.06279999762773514
0.019751187413930893 -0.009334801696240902 0.06269999593496323
0.019915064796805382 -0.009334801696240902 0.06269999593496323
0.020046919584274292 -0.009319914504885674 0.06260000169277191
0.020341603085398674 -0.00930502638220787 0.0625
0.004603316076099873 -0.009712113067507744 0.06639999896287918
0.004776863381266594 -0.009712113067507744 0.06639999896287918
0.004950410220772028 -0.009712113067507744 0.06639999896287918
0.005116239655762911 -0.009697485715150833 0.06629999727010727
0.005281547550112009 -0.009682858362793922 0.06619999557733536
0.005446332506835461 -0.009668232873082161 0.06610000133514404
0.005610594060271978 -0.009653606452047825 0.06599999964237213
0.006090959068387747 -0.009595099836587906 0.06560000032186508
0.006243322044610977 -0.009565845131874084 0.06539999693632126
0.00640444690361619 -0.009551218710839748 0.06529999524354935
0.006565050687640905 -0.009536593221127987 0.06520000100135803
0.006735461298376322 -0.009536593221127987 0.06520000100135803
0.006895279511809349 -0.009521965868771076 0.06509999930858612
0.007065428886562586 -0.009521965868771076 0.06509999930858612
0.007235578261315823 -0.009521965868771076 0.06509999930858612
0.007405727636069059 -0.009521965868771076 0.06509999930858612
0.007564239203929901 -0.009507338516414165 0.06499999761581421
0.007734126877039671 -0.009507338516414165 0.06499999761581421
0.007891854271292686 -0.00949271209537983 0.0648999959230423
0.008061480708420277 -0.00949271209537983 0.0648999959230423
0.008218425326049328 -0.009478086605668068 0.06480000168085098
0.00837484560906887 -0.009463459253311157 0.06469999998807907
0.008530744351446629 -0.009448831900954247 0.06459999829530716
0.008699586614966393 -0.009448831900954247 0.06459999829530716
0.008868429809808731 -0.009448831900954247 0.06459999829530716
0.009023281745612621 -0.00943420547991991 0.06449999660253525
0.00916336104273796 -0.009404952637851238 0.06430000066757202
0.00931690726429224 -0.009390325285494328 0.06419999897480011
0.009622430428862572 -0.00936107151210308 0.06399999558925629
0.010344407521188259 -0.009258685633540154 0.0632999986410141
0.010493249632418156 -0.009244058281183243 0.06319999694824219
0.010624703951179981 -0.009214806370437145 0.06300000101327896
0.010772237554192543 -0.009200179018080235 0.06289999932050705
0.010936637409031391 -0.009200179018080235 0.06289999932050705
0.011101036332547665 -0.009200179018080235 0.06289999932050705
0.011265436187386513 -0.009200179018080235 0.06289999932050705
0.011411663144826889 -0.009185551665723324 0.06279999762773514
0.01157580129802227 -0.009185551665723324 0.06279999762773514
0.011739939451217651 -0.009185551665723324 0.06279999762773514
0.011923031881451607 -0.009200179018080235 0.06289999932050705
0.012087431736290455 -0.009200179018080235 0.06289999932050705
0.012251830659806728 -0.009200179018080235 0.06289999932050705
0.012416229583323002 -0.009200179018080235 0.06289999932050705
0.012580628506839275 -0.009200179018080235 0.06289999932050705
0.012765291146934032 -0.009214806370437145 0.06300000101327896
0.012929950840771198 -0.009214806370437145 0.06300000101327896
0.0131361810490489 -0.009244058281183243 0.06319999694824219
0.013322411105036736 -0.009258685633540154 0.0632999986410141
0.013487855903804302 -0.009258685633540154 0.0632999986410141
0.013674870133399963 -0.009273312985897064 0.06340000033378601
0.013840576633810997 -0.009273312985897064 0.06340000033378601
0.014006282202899456 -0.009273312985897064 0.06340000033378601
0.014194341376423836 -0.0092879394069314 0.06350000202655792
0.014360309578478336 -0.0092879394069314 0.06350000202655792
0.014549151062965393 -0.009302564896643162 0.06359999626874924
0.014881609007716179 -0.009302564896643162 0.06359999626874924
0.015047837980091572 -0.009302564896643162 0.06359999626874924
0.01521406602114439 -0.009302564896643162 0.06359999626874924
0.015878980979323387 -0.009302564896643162 0.06359999626874924
0.01601998321712017 -0.0092879394069314 0.06350000202655792
0.016211438924074173 -0.009302564896643162 0.06359999626874924
0.01637766696512699 -0.009302564896643162 0.06359999626874924
0.01654389500617981 -0.009302564896643162 0.06359999626874924
0.016710123047232628 -0.009302564896643162 0.06359999626874924
0.016876352950930595 -0.009302564896643162 0.06359999626874924
0.017042580991983414 -0.009302564896643162 0.06359999626874924
0.017181754112243652 -0.0092879394069314 0.06350000202655792
0.01734772138297558 -0.0092879394069314 0.06350000202655792
0.017513690516352654 -0.0092879394069314 0.06350000202655792
0.017651813104748726 -0.009273312985897064 0.06340000033378601
0.01781751960515976 -0.009273312985897064 0.06340000033378601
0.017983226105570793 -0.009273312985897064 0.06340000033378601
0.018120305612683296 -0.009258685633540154 0.0632999986410141
0.01828574948012829 -0.009258685633540154 0.0632999986410141
0.01839289627969265 -0.009229431860148907 0.06309999525547028
0.018557816743850708 -0.009229431860148907 0.06309999525547028
0.018693068996071815 -0.009214806370437145 0.06300000101327896
0.01882779598236084 -0.009200179018080235 0.06289999932050705
0.018992196768522263 -0.009200179018080235 0.06289999932050705
0.01912613958120346 -0.009185551665723324 0.06279999762773514
0.019290277734398842 -0.009185551665723324 0.06279999762773514
0.019454414024949074 -0.009185551665723324 0.06279999762773514
0.019587311893701553 -0.009170925244688988 0.06269999593496323
0.019719688221812248 -0.009156299754977226 0.06260000169277191
0.019915064796805382 -0.009170925244688988 0.06269999593496323
0.020046919584274292 -0.009156299754977226 0.06260000169277191
0.02017824910581112 -0.009141672402620316 0.0625
0.020309055224061012 -0.009127045050263405 0.06239999830722809
0.02043933793902397 -0.009112418629229069 0.06229999661445618
0.004942954517900944 -0.009524200111627579 0.06629999727010727
0.005108522716909647 -0.009509834460914135 0.06619999557733536
0.005281547550112009 -0.009509834460914135 0.06619999557733536
0.005446332506835461 -0.009495469741523266 0.06610000133514404
0.005602092947810888 -0.009466738440096378 0.06589999794960022
0.005774333607405424 -0.009466738440096378 0.06589999794960022
0.006243322044610977 -0.009394912049174309 0.06539999693632126
0.00640444690361619 -0.009380546398460865 0.06529999524354935
0.006575119215995073 -0.009380546398460865 0.06529999524354935
0.006735461298376322 -0.009366181679069996 0.06520000100135803
0.006905871443450451 -0.009366181679069996 0.06520000100135803
0.007076282519847155 -0.009366181679069996 0.06520000100135803
0.007246692664921284 -0.009366181679069996 0.06520000100135803
0.007405727636069059 -0.009351816028356552 0.06509999930858612
0.007575876545161009 -0.009351816028356552 0.06509999930858612
0.007746025454252958 -0.009351816028356552 0.06509999930858612
0.007916174829006195 -0.009351816028356552 0.06509999930858612
0.008073902688920498 -0.009337450377643108 0.06499999761581421
0.008243790827691555 -0.009337450377643108 0.06499999761581421
0.008400733582675457 -0.00932308565825224 0.0648999959230423
0.008570360019803047 -0.00932308565825224 0.0648999959230423
0.008713053539395332 -0.009294355288147926 0.06469999998807907
0.008882157504558563 -0.009294355288147926 0.06469999998807907
0.00903727114200592 -0.009279989637434483 0.06459999829530716
0.009206113405525684 -0.009279989637434483 0.06459999829530716
0.00936044380068779 -0.009265623986721039 0.06449999660253525
0.009514249861240387 -0.009251258336007595 0.06439999490976334
0.009652500972151756 -0.009222528897225857 0.06419999897480011
0.009805001318454742 -0.009208163246512413 0.0640999972820282
0.009956978261470795 -0.00919379759579897 0.06399999558925629
0.01037709228694439 -0.009121972136199474 0.06350000202655792
0.01052645593881607 -0.00910760648548603 0.06340000033378601
0.010692162439227104 -0.00910760648548603 0.06340000033378601
0.01084074191749096 -0.009093240834772587 0.0632999986410141
0.010988798923790455 -0.009078875184059143 0.06319999694824219
0.011136333458125591 -0.0090645095333457 0.06309999525547028
0.011301255784928799 -0.0090645095333457 0.06309999525547028
0.011448006145656109 -0.00905014481395483 0.06300000101327896
0.01159423403441906 -0.009035779163241386 0.06289999932050705
0.011758633889257908 -0.009035779163241386 0.06289999932050705
0.011923031881451607 -0.009035779163241386 0.06289999932050705
0.012087431736290455 -0.009035779163241386 0.06289999932050705
0.012251830659806728 -0.009035779163241386 0.06289999932050705
0.012416229583323002 -0.009035779163241386 0.06289999932050705
0.012600630521774292 -0.00905014481395483 0.06300000101327896
0.012765291146934032 -0.00905014481395483 0.06300000101327896
0.012929950840771198 -0.00905014481395483 0.06300000101327896
0.0131361810490489 -0.009078875184059143 0.06319999694824219
0.013322411105036736 -0.009093240834772587 0.0632999986410141
0.01350916363298893 -0.00910760648548603 0.06340000033378601
0.013674870133399963 -0.00910760648548603 0.06340000033378601
0.013840576633810997 -0.00910760648548603 0.06340000033378601
