ply
format ascii 1.0
element vertex 735
property float x
property float y
property float z
end_header
-0.007520405784100621 0.008547277519056349 -0.001834774389863013
-0.007883871645723966 0.008114115772681377 -0.0016475849552080022
-0.004179517518890519 0.011649105182536224 -0.002914324169978498
-0.00490644924213721 0.01078278168978628 -0.0028942658100277172
-0.005269915103760555 0.01034961994341131 -0.0028974711894989
-0.005633380666062594 0.009916458553753579 -0.0030846609733998762
-0.00599684652768594 0.009483296807378607 -0.0030188828241080033
-0.006360312389309285 0.009050135061003635 -0.002619750332087277
-0.0067237781012719775 0.008616973492987285 -0.002014485653489827
-0.007087244037725649 0.008183811657433003 -0.0013825959758833038
-0.007450709899348995 0.007750649911058031 -0.0015697854105383145
-0.0008386294781713958 0.01475093257847817 -0.0026429542340338217
-0.002655958187645511 0.012585124560037794 -0.0014479970559477793
-0.0033828899108922015 0.011718801067287852 -0.0013004185166209923
-0.003746355772515547 0.01128563932091288 -0.0013661965494975435
-0.004109821634138892 0.010852477574537908 -0.00328366970643401
-0.004473287495762238 0.010419315828162936 -0.003096479922533034
-0.004836753357385583 0.009986154081787964 -0.003162258071824907
-0.0052002189196876224 0.009552992692130235 -0.003264690516516565
-0.005563684781310968 0.009119830945755263 -0.003227907698601483
-0.005927150642934313 0.008686669199380291 -0.003258682088926433
-0.006290616354897006 0.00825350763136394 -0.003024630248546599
-0.0066540822913506775 0.007820345795809657 -0.0016597737558186041
0.0006849292544310005 0.015686951242545256 -0.0016048504039645184
-4.2001870173078606e-05 0.014820628463229795 -0.002658664947375654
-0.000405467731796424 0.014387466716854824 -0.001864291145466267
-0.0007689335934197693 0.013954304970479852 -0.002769880229607223
-0.0011323994550431146 0.013521143224104882 -0.0021926525514572846
-0.00149586531666646 0.01308798147772991 -0.0015351991169154633
-0.0018593305796471937 0.012654820444789421 -0.002086303429678081
-0.002222796441270539 0.01222165869841445 -0.0020895076449960457
-0.0025862623028938846 0.011788496952039478 -0.0020927125588059412
-0.0029497281645172297 0.011355335205664506 -0.0033729162532836186
-0.003313194026140575 0.010922173459289534 -0.0028254948556423174
-0.0036766598877639206 0.010489011712914562 -0.003494782373309134
-0.004040125749387266 0.01005584996653959 -0.0032509253360331045
-0.004403591611010611 0.00962268822016462 -0.0034849771764129387
-0.004767057173312651 0.009189526830506889 -0.0034881825558841215
-0.0051305230349359965 0.008756365084131917 -0.0034224044065922486
-0.0054939888965593415 0.008323203337756945 -0.0034591860603541123
-0.005857454608522034 0.007890041769740595 -0.003060053568333386
-0.006220920544975706 0.007456879934186313 -0.0015749561134725798
0.0007546244257481436 0.014890324233189551 -0.001959280343726276
0.0003911591627674099 0.014457163200249062 -0.0020617132540792214
2.7693301144064537e-05 0.01402400145387409 -0.0026669779326766716
-0.0003357725604792808 0.013590839707499119 -0.002630196278914808
-0.0006992384221026262 0.013157677961124147 -0.003029328770935534
-0.0010627042837259716 0.012724516214749175 -0.002992546185851096
-0.0014261695467067052 0.012291355181808686 -0.002805356867611407
-0.0017896354083300507 0.011858193435433715 -0.0025713045615702854
-0.002153101269953396 0.011425031689058743 -0.0028151606675237404
-0.002516567131576741 0.010991869942683773 -0.0035802773199975478
-0.0028800329932000867 0.0105587081963088 -0.0035770735703408705
-0.003243498854823432 0.010125546449933829 -0.0036795055493712412
-0.0036069647164467776 0.009692384703558857 -0.0036763013340532767
-0.003970430578070123 0.009259222957183885 -0.003707075724378227
-0.004333896140372162 0.008826061567526156 -0.0037038708105683314
-0.004697362001995508 0.008392899821151184 -0.0036332863382995116
-0.005060827863618853 0.007959738074776212 -0.0034460965543985354
-0.005424293575581545 0.007526576506759861 -0.003340859431773423
-0.005787759512035217 0.007093414671205579 -0.0024662977084517466
0.0019147178953698063 0.015393181864316147 -0.0014335860032588233
0.0011877861721231156 0.014526858371566205 -0.001234048046171664
0.0008243209091423817 0.014093697338625717 -0.002566687995567917
0.00046085504751903637 0.013660535592250745 -0.0030341309029608956
9.738918589569104e-05 0.013227373845875773 -0.003037335816770791
-0.0002660766757276543 0.012794212099500801 -0.003107920289039611
-0.0006295425373509997 0.012361050353125829 -0.003213156247511505
-0.0009930078003317334 0.01192788932018534 -0.002969300374388694
-0.0013564736619550788 0.011494727573810369 -0.0030060829594731322
-0.001719939523578424 0.011061565827435397 -0.0035975351929664603
-0.0020834053852017693 0.010628404081060427 -0.0037027713842689982
-0.002446871246825115 0.010195242334685455 -0.0038080080412328235
-0.0028103371084484603 0.009762080588310483 -0.003878593444824218
-0.0031738029700718057 0.009328918841935511 -0.0037761605344712726
-0.0035372688316951508 0.00889575709556054 -0.0037793652154505244
-0.0039007343939971907 0.00846259570590281 -0.003748591523617505
-0.004264200255620536 0.008029433959527838 -0.003717817133292555
-0.004627666117243881 0.007596272213152866 -0.0035257681738585225
-0.004991131829206573 0.007163110645136515 -0.0030818944796919814
-0.005354597765660245 0.006729948809582233 -0.0024734789039939633
0.001984413780121432 0.014596554256317831 -0.0017219013534486285
0.0016209479184980866 0.014163392509942859 -0.002269322518259286
0.0012574826555173527 0.01373023147700237 -0.003212737850844859
0.0008940167938940074 0.013297069730627399 -0.0031421538442373267
0.000530550932270662 0.012863907984252427 -0.0033860092516988507
0.00016708507064731667 0.012430746237877457 -0.003416783642023801
-0.00019638079097602867 0.011997584491502485 -0.003413578961044549
-0.0005598460539567625 0.011564423458561996 -0.003410375211387872
-0.0009233119155801078 0.011131261712187025 -0.0031763229053467503
-0.001286777777203453 0.010698099965812053 -0.0037815875839442006
-0.0016502436388267986 0.01026493821943708 -0.0038473657332360736
-0.002013709500450144 0.009831776473062109 -0.004362862557172774
-0.0023771753620734893 0.009398614726687137 -0.003985894378274678
-0.0027406412236968348 0.008965452980312165 -0.004051672294735908
-0.00310410708532018 0.008532291233937195 -0.003420832334086298
-0.0034675726476222197 0.008099129844279464 -0.0037689171731472007
-0.0038310385092455647 0.007665968097904492 -0.003765712957829236
-0.00419450437086891 0.007232806351529521 -0.0036951277870684853
-0.004557970082831602 0.00679964478351317 -0.0026715321000665418
0.0027810410314025075 0.014666250440390763 -0.0018997937440872184
0.002417575169779162 0.014233088694015792 -0.0017973607173189512
0.0020541093081558165 0.01379992694764082 -0.0028492778073996297
0.001690644045175083 0.013366765914700332 -0.0024501453153789035
0.0013271781835517376 0.01293360416832536 -0.0033860821276903144
0.0009637123219283922 0.012500442421950388 -0.0034228649456053964
0.000600246460305046 0.012067280675575416 -0.0037044258788228026
0.00023678059868170064 0.011634118929200445 -0.003601993201300501
-0.00012668466429903314 0.011200957896259956 -0.003638776019215583
-0.0004901505259223785 0.010767796149884984 -0.0036080016288906327
-0.0008536163875457239 0.010334634403510012 -0.00407544383779168
-0.0012170822491690692 0.009901472657135042 -0.004044670145958661
-0.0015805481107924145 0.00946831091076007 -0.004115255083888768
-0.00194401397241576 0.009035149164385099 -0.0038713982794433823
-0.0023074798340391054 0.008601987418010127 -0.003976636100560426
-0.0026709456956624505 0.008168825671635155 -0.004163825884461402
-0.0030344112579644904 0.007735664281977425 -0.0038157408125698558
-0.0033978771195878345 0.007302502535602453 -0.0033718678168952456
-0.003761342981211181 0.006869340789227482 -0.0037488369271159163
-0.004124808693173872 0.00643617922121113 -0.0032014138996601096
-0.004488274629627544 0.006003017385656849 -0.002098259283229708
0.0032142027777774793 0.014302784578767417 -0.0013191407779231659
0.002850736916154134 0.013869622832392446 -0.0020550864282995454
0.0024872710545307884 0.013436461086017475 -0.002737396862357854
0.002123805791550055 0.013003300053076986 -0.002768171252682804
0.0017603399299267095 0.012570138306702014 -0.0034000612795352927
0.0013968740683033632 0.012136976560327042 -0.003592110238969325
0.001033408206680018 0.011703814813952072 -0.0035889048594981423
0.0006699423450566724 0.0112706530675771 -0.0037809545174241057
0.00030647708207593875 0.010837492034636612 -0.004024811554700135
-5.698877954740663e-05 0.01040433028826164 -0.004090589005500077
-0.00042045464117075197 0.009971168541886668 -0.004121363628655671
-0.0007839205027940974 0.009538006795511696 -0.0041871415451169005
-0.0011473863644174426 0.009104845049136725 -0.004116556141525506
-0.0015108522260407881 0.008671683302761753 -0.004182334057986735
-0.0018743180876641334 0.00823852155638678 -0.003995144274085759
-0.0022377839492874786 0.00780535981001181 -0.004025918431580066
-0.0026012495115895185 0.00737219842035408 -0.003791866358369588
-0.0029647153732128635 0.006939036673979108 -0.003604676574468612
-0.003328181234836208 0.006505874927604136 -0.0034994406159967175
-0.003691646946798901 0.0060727133595877844 -0.0028686004225164643
-0.004055112883252572 0.005639551524033503 -0.001994038699194788
0.004010830385775797 0.014372480463519044 -0.0020004725083708754
0.003647364524152451 0.013939318717144072 -0.001704375492408871
0.0032838986625291057 0.0135061569707691 -0.002481087809428572
0.0029204328009057603 0.013072995224394129 -0.0028580569196492425
0.002556967537925027 0.01263983419145364 -0.003187385154888033
0.0021935016763016805 0.01220667244507867 -0.0035643542651087037
0.001830035814678335 0.011773510698703698 -0.0035675584804266683
0.0014665699530549898 0.011340348952328726 -0.003849119879305362
0.0011031040914316443 0.010907187205953755 -0.003885901998728513
0.0007396388284509106 0.010474026173013266 -0.003991138655692338
0.00037617296682756525 0.010040864426638294 -0.0040617240592837325
1.2707105204219875e-05 0.009607702680263322 -0.004438692238181829
-0.0003507587564191255 0.009174540933888352 -0.00409060763195157
-0.0007142246180424708 0.00874137918751338 -0.0046417107805609694
-0.0010776904796658163 0.008308217441138408 -0.004197838716208934
-0.0014411563412891615 0.007875055694763437 -0.0040057883597910396
-0.001804622202912507 0.007441893948388465 -0.004008993506431579
-0.0021680877652145466 0.007008732558730735 -0.003943215589970349
-0.0025315536268378917 0.006575570812355763 -0.003647118341177701
-0.0028950194884612363 0.006142409065980791 -0.0033510217908769837
-0.003258485200423929 0.005709247497964439 -0.002668710658326744
-0.0036219511368776004 0.005276085662410158 -0.0025554855819791547
-0.003985416998500946 0.004842923916035186 -0.001790368696674704
0.004443992132150768 0.014009014601895698 -0.0020786137320101252
0.004080526270527422 0.013575852855520727 -0.0017492837505415075
0.0037170604089040767 0.013142691109145755 -0.002406737767159938
0.0033535945472807313 0.012709529362770783 -0.0030890488997101775
0.002990129284299998 0.012276368329830294 -0.0030184644274413577
0.0026266634226766524 0.011843206583455324 -0.003675917861983179
0.002263197561053307 0.011410044837080352 -0.003741696011275052
0.0018997316994299616 0.01097688309070538 -0.003807474160566925
0.0015362658378066162 0.010543721344330409 -0.003999522887170314
0.0011728005748258825 0.01011056031138992 -0.0041019562631845466
0.000809334713202537 0.00967739856501495 -0.004065173212438821
0.00044586885157919175 0.009244236818639978 -0.004257222171872853
8.240298995584638e-05 0.008811075072265006 -0.004254018422216176
-0.000281062871667499 0.008377913325890034 -0.004148780833929776
-0.0006445287332908443 0.007944751579515063 -0.003961591515690087
-0.0010079945949141896 0.007511589833140091 -0.003856355091556906
-0.0013714604565375351 0.00707842808676512 -0.003751118900254368
-0.0017349260188395746 0.0066452666971073895 -0.003994974307715892
-0.00209839188046292 0.006212104950732417 -0.0029430577997118226
-0.0024618577420862653 0.005778943204357445 -0.002939854282885789
-0.002825323454048958 0.005345781636341094 -0.002309014089405536
0.0052406197401490846 0.014078710486647324 -0.001845243503339588
0.0048771538785257395 0.013645548740272354 -0.0020324327051639553
0.004513688016902394 0.013212386993897382 -0.002542207250371575
0.004150222155279049 0.01277922524752241 -0.0026127917226403947
0.003786756293655703 0.012346063501147439 -0.0032820792403072114
0.0034232910306749697 0.01191290246820695 -0.0034692690242081876
0.003059825169051624 0.011479740721831978 -0.003656458808109164
0.0026963593074282783 0.011046578975457006 -0.0036932416260242458
0.002332893445804933 0.010613417229082036 -0.003880430711433291
0.001969427584181588 0.010180255482707064 -0.0039856676012277594
0.001605962321200854 0.009747094449766576 -0.0044954419136047355
0.0012424964595775085 0.009313932703391604 -0.003948019817471503
0.0008790305979541631 0.008880770957016632 -0.004018603824079036
0.0005155647363308178 0.00844760921064166 -0.004300164990127086
0.00015209887470747245 0.008014447464266689 -0.004108116030693053
-0.0002113669869158729 0.0075812857178917175 -0.004144898615777492
-0.0005748328485392182 0.007148123971516746 -0.004114124458283185
-0.0009382987101625636 0.006714962225141774 -0.004117328207939862
-0.0013017642724646031 0.006281800835484044 -0.0037181957159191366
-0.0016652301340879482 0.005848639089109072 -0.0028944390360265966
-0.0020286959957112934 0.0054154773427341 -0.0025983424857258792
-0.002392161707673986 0.004982315774717749 -0.003267630003392696
-0.0027556276441276575 0.004549153939163467 -0.002786531345918774
0.00531031526818347 0.013282083177970314 -0.002204642398282885
0.004946849406560124 0.012848921431595342 -0.0025527272373437877
0.004583383544936779 0.01241575968522037 -0.0024821416009217496
0.004219917683313434 0.011982597938845398 -0.003218087367713451
0.0038564524203327 0.01154943690590491 -0.0034101363271474834
0.003492986558709354 0.01111627515952994 -0.0037582209333777423
0.0031295206970860085 0.010683113413154968 -0.003860653610900044
0.002766054835462663 0.010249951666779996 -0.004052703268826007
0.002402588973839318 0.009816789920405024 -0.00377114163711667
0.002039123710858584 0.009383628887464536 -0.004119225777685641
0.0016756578492352387 0.008950467141089564 -0.004150000400841235
0.0013121919876118934 0.008517305394714592 -0.004342049360275268
0.0009487261259885479 0.008084143648339622 -0.004372823517769574
0.0005852602643652027 0.007650981901964649 -0.0039053810760378833
0.00022179440274185726 0.007217820155589678 -0.004097430035471915
-0.00014167145888148807 0.006784658409214706 -0.003992193844169377
-0.0005051373205048334 0.006351496662839734 -0.0038050042930990453
-0.0008686028828068725 0.005918335273182003 -0.0032952306792140003
-0.001232068744430218 0.0054851735268070315 -0.002965900814160704
-0.0015955346060535633 0.0050520117804320605 -0.00200022617354989
-0.001959000318016256 0.004618850212415709 -0.0013309383066371077
0.006106943054540407 0.013351778913061288 -0.0022614763583987947
0.005743477192917062 0.012918617166686316 -0.0022307031322270627
0.005380011331293716 0.012485455420311344 -0.002512263366952538
0.005016545469670371 0.012052293673936372 -0.0029797058086842294
0.004653079608047026 0.0116191319275614 -0.0033090356737375255
0.004289614345066292 0.011185970894620912 -0.003590597072616219
0.003926148483442946 0.01075280914824594 -0.003695833263918757
0.003562682621819601 0.010319647401870968 -0.003801070852205157
0.0031992167601962557 0.009886485655495998 -0.003906307276338338
0.0028357508985729107 0.009453323909121026 -0.003976891748607158
0.002472285635592177 0.009020162876180538 -0.004047477152198552
0.0021088197739688314 0.008587001129805566 -0.00415271334350109
0.001745353912345486 0.008153839383430594 -0.0040869349613785735
0.0013818880507221406 0.007720677637055622 -0.0035714383702725168
0.0010184221890987954 0.00728751589068065 -0.004202278330922126
0.00065495632747545 0.006854354144305679 -0.004171504173427819
0.0002914904658521046 0.0064211923979307075 -0.004105726722627877
-7.197539577124073e-05 0.005988030651555736 -0.004039948340505361
-0.0004354409580732803 0.0055548692618980055 -0.004009174183011054
-0.0007989068196966256 0.005121707515523034 -0.002839249791577458
-0.0011623726813199706 0.004688545769148062 -0.001669324235990643
-0.001525838393282663 0.004255384201131711 -0.0017399087082594629
0.0061766387609334126 0.012555151454723624 -0.0022209652233868833
0.005813172899310067 0.012121989708348652 -0.0026200977154076095
0.005449707037686722 0.01168882796197368 -0.002968181855976581
0.005086241176063377 0.011255666215598708 -0.003033960005268454
0.004722775913082643 0.01082250518265822 -0.0034330924972891803
0.004359310051459297 0.010389343436283248 -0.0037811771035194393
0.003995844189835952 0.009956181689908276 -0.0035939875524491067
0.0036323783282126063 0.009523019943533306 -0.003786036511883139
0.0032689124665892613 0.009089858197158334 -0.003978086169809103
0.0029054472036085274 0.008656697164217846 -0.0041701351292431355
0.002541981341985182 0.008223535417842874 -0.004235913045704365
0.0021785154803618365 0.007790373671467902 -0.004048723261803389
0.0018150496187384912 0.00735721192509293 -0.004240772221237421
0.001451583757115146 0.006924050178717958 -0.004170187748968601
0.0010881178954918005 0.006490888432342987 -0.004362237174063921
0.0007246520338684552 0.006057726685968015 -0.0037313967477530237
0.0003611861722451098 0.005624564939593043 -0.0034498369786888357
-2.279390056929711e-06 0.005191403549935313 -0.003168275579810142
-0.00036574525168027504 0.004758241803560341 -0.0023254889529198404
-0.0007292111133036204 0.00432508005718537 -0.0030906058382242914
0.006609800507308384 0.012191685593100278 -0.0022500948980450626
0.0062463346456850385 0.011758523846725306 -0.002759868279099464
0.0058828687840616935 0.011325362100350334 -0.0030414296779781576
0.0055194029224383484 0.010892200353975362 -0.0033707581460475917
0.005155937659457615 0.010459039321034874 -0.0034759957343339916
0.004792471797834269 0.010025877574659904 -0.003546579740941524
0.004429005936210924 0.009592715828284932 -0.0037806320469826456
0.004065540074587579 0.00915955408190996 -0.0038512165192514654
0.003702074212964233 0.008726392335534988 -0.0040852683596313
0.0033386089499834993 0.0082932313025945 -0.004054494667798281
0.002975143088360154 0.007860069556219528 -0.004125079605728388
0.0026116772267368083 0.007426907809844556 -0.004128283821046352
0.0022482113651134633 0.006993746063469585 -0.004233520943671465
0.0018847455034901178 0.006560584317094613 -0.004041471052914858
0.0015212796418667724 0.006127422570719641 -0.00414670817553997
0.001157813780243427 0.005694260824344669 -0.003954657819122076
0.0007943479186200817 0.005261099077969698 -0.0037108019459992643
0.00043088235631804213 0.004827937688311968 -0.0032669298816472288
6.74164946946968e-05 0.004394775941936996 -0.002229233039543032
0.007042962075324736 0.011828219881137586 -0.0014438863145187495
0.00667949621370139 0.011395058134762614 -0.0026138110551983114
0.006316030352078044 0.010961896388387642 -0.0030129435472190376
0.005952564490454699 0.01052873464201267 -0.003256800584495067
0.005589099227473965 0.010095573609072182 -0.0034488495439290996
0.00522563336585062 0.00966241186269721 -0.003640898503363132
0.004862167504227274 0.00922925011632224 -0.0038329474627971645
0.004498701642603929 0.008796088369947268 -0.00393538037315011
0.004135235780980584 0.008362926623572296 -0.004037813749164343
0.00377177051799985 0.007929765590631807 -0.004068587440997362
0.003408304656376505 0.007496603844256836 -0.004312443546950817
0.0030448387947531593 0.007063442097881864 -0.0042756604962050915
0.002681372933129814 0.006630280351506892 -0.004170424770563841
0.0023179070715064684 0.006197118605131921 -0.004133641719818115
0.0019544412098831234 0.005763956858756949 -0.0038520814850926395
0.001590975348259778 0.005330795112381977 -0.003570520086213946
0.0012275094866364324 0.004897633366007005 -0.002634583273902535
0.000864043924334393 0.004464471976349275 -0.0023052538745105262
0.007839589683323052 0.011897915765889212 -0.001684159506112337
0.007476123821699707 0.01146475401951424 -0.0018713489407673476
0.007112657960076362 0.011031592273139268 -0.0026136254891753197
0.006749192098453016 0.010598430526764296 -0.003164728870615363
0.006385726236829671 0.010165268780389326 -0.0033519186545163393
0.006022260973848937 0.009732107747448837 -0.003457155777141452
0.005658795112225591 0.009298946001073866 -0.003644345561042428
0.005295329250602246 0.008865784254698894 -0.0040213135071098804
0.004931863388978901 0.008432622508323922 -0.003918880596756935
0.004568397527355555 0.00799946076194895 -0.0038531029131263494
0.004204932264374821 0.0075662997290084615 -0.004087154753506184
0.0038414664027514762 0.00713313798263349 -0.004123936407268047
0.0034780005411281308 0.006699976236258519 -0.004229173995554447
0.0031145346795047857 0.006266814489883547 -0.004037124570459127
0.0027510688178814403 0.005833652743508575 -0.004073906224220991
0.002387602956258095 0.005400490997133603 -0.0040081278420984745
0.0020241370946347493 0.004967329250758632 -0.0038160791154950857
0.001660671233011404 0.00453416750438366 -0.0034169466234743595
0.0012972056707093648 0.00410100611472593 -0.0024735312908887863
0.0009337398090860195 0.003667844368350958 -0.001235648291185498
0.007909285568074678 0.011101288157890894 -0.001775823882780969
0.007545819706451333 0.010668126411515924 -0.0024077133275568485
0.007182353844827988 0.010234964665140952 -0.0029232106171548367
0.006818887983204643 0.00980180291876598 -0.0032712952233850956
0.006455422720223909 0.009368641885825492 -0.003463344182819128
0.006091956858600563 0.00893548013945052 -0.0033927597105503082
0.005728490996977218 0.008502318393075548 -0.003836632240563631
0.005365025135353873 0.008069156646700576 -0.004028682131320238
0.005001559273730527 0.007635994900325605 -0.0037946305237710476
0.004638094010749793 0.0072028338673851165 -0.004310127347707748
0.004274628149126448 0.006769672121010145 -0.004340901505202055
0.003911162287503103 0.006336510374635173 -0.0038311269599944353
0.003547696425879757 0.005903348628260202 -0.004023177083581686
0.003184230564256412 0.00547018688188523 -0.0037416156847029924
0.0028207647026330667 0.005037025135510258 -0.003738410770893097
0.002457298841009721 0.004603863389135286 -0.0035043584648519754
0.002093832979386376 0.004170701642760314 -0.0026297972071915865
0.0017303674170843365 0.0037375402531025846 -0.0015778804663568733
0.008705913086893686 0.011170984117472848 -0.0017569115152582526
0.00834244722527034 0.010737822371097876 -0.0015648625558242202
0.007978981363646994 0.010304660624722904 -0.002700015204027295
0.007615515502023649 0.009871498878347932 -0.003251118352636695
0.007252049640400304 0.009438337131972962 -0.0032543237321078777
0.00688858437741957 0.009005176099032472 -0.003441513516008854
0.006525118515796224 0.008572014352657501 -0.003628702601417899
0.006161652654172879 0.00813885260628253 -0.0036319070495665073
0.005798186792549533 0.007705690859907558 -0.004374182783067226
0.005434720930926188 0.007272529113532586 -0.003858685726299882
0.005071255667945454 0.006839368080592097 -0.0038618911057710648
0.004707789806322109 0.0064062063342171256 -0.00419122027233243
0.004344323944698763 0.005973044587842154 -0.0039991713128983974
0.003980858083075418 0.005539882841467183 -0.0043761394917964935
0.0036173922214520733 0.005106721095092211 -0.003977006766945124
0.003253926359828728 0.004673559348717239 -0.003946232609450817
0.0028904604982053824 0.004240397602342267 -0.0033988102804869413
0.0025269946365820374 0.0038072358559672957 -0.0025157330092042685
0.002163529074279998 0.0033740744663095655 -0.0016026359517127275
0.0018000632126566525 0.002940912719934594 -0.00153685815166682
0.008775608907547682 0.010374356563258828 -0.0018903696909546852
0.008412143045924336 0.009941194816883856 -0.0024058669805526733
0.008048677184300992 0.009508033070508884 -0.0032296236604452133
0.007685211322677646 0.009074871324133912 -0.003226419910788536
0.007321746059696912 0.008641710291193424 -0.0032571936026215553
0.006958280198073567 0.008208548544818452 -0.0033596267458051443
0.006594814336450221 0.007775386798443481 -0.003803498577326536
0.006231348474826876 0.007342225052068509 -0.0040995958261191845
0.005867882613203531 0.006909063305693537 -0.004062813241034746
0.005504417350222797 0.006475902272753049 -0.0040260301902890205
0.005140951488599451 0.006042740526378078 -0.0038388411048799753
0.004777485626976106 0.005609578780003106 -0.004082697443664074
0.004414019765352761 0.005176417033628134 -0.003801136277616024
0.004050553903729415 0.004743255287253162 -0.0037643539253622293
0.00368708804210607 0.004310093540878191 -0.0032969110179692507
0.0033236221804827247 0.0038769317945032194 -0.002520199166610837
0.0029601563188593797 0.0034437700481282476 -0.0015545249916613102
0.0025966907565573402 0.0030106086584705174 -0.0011775559978559613
0.009572236490464318 0.010444052469056483 -0.002060173312202096
0.009208770628840972 0.010010890722681512 -0.0021654092706739902
0.008845304767217628 0.00957772897630654 -0.0027962494641542435
0.008481838905594282 0.009144567229931568 -0.0031255793292075396
0.008118373043970936 0.008711405483556596 -0.003196163335815072
0.007754907780990202 0.008278244450616108 -0.0033013997599482536
0.007391441919366857 0.007845082704241137 -0.00348858954384923
0.007027976057743512 0.007411920957866165 -0.0037701509427279234
0.006664510196120166 0.006978759211491194 -0.004004202783107758
0.006301044334496821 0.006545597465116222 -0.003973428625613451
0.0059375790715160874 0.006112436432175733 -0.0039426544681191444
0.005574113209892742 0.0056792746858007614 -0.00397943751886487
0.0052106473482693965 0.00524611293942579 -0.003948662895709276
0.0048471814866460515 0.004812951193050818 -0.00391788873821497
0.004483715625022706 0.004379789446675847 -0.004760675132274628
0.0041202497633993605 0.003946627700300875 -0.0035907498095184565
0.0037567839017760155 0.003513465953925903 -0.0025852497201412916
0.00339331804015267 0.0030803042075509316 -0.0016418342711403966
0.0030298524778506306 0.0026471428178932014 -0.001971164019778371
0.009641932196857323 0.00964742501071882 -0.002189876511693001
0.009278466335233979 0.009214263264343847 -0.0025379611179232597
0.008915000473610633 0.008781101517968876 -0.0033030780032277107
0.008551534611987287 0.008347939771593904 -0.0027519746217876673
0.008188069349006554 0.007914778738653415 -0.0032330728136003017
0.007824603487383208 0.007481616992278444 -0.0029990209732204676
0.007461137625759863 0.007048455245903472 -0.0036309105344116688
0.007097671764136518 0.0066152934995285005 -0.00387476640753448
0.006734205902513172 0.0061821317531535296 -0.0038379847537726164
0.006370740639532438 0.005748970720213041 -0.0037673991173505783
0.006007274777909093 0.005315808973838069 -0.0036968153435736895
0.005643808916285748 0.004882647227463097 -0.0037275878712534904
0.005280343054662402 0.0044494854810881255 -0.0033506201580166817
0.004916877193039057 0.0040163237347131545 -0.0032453839667141438
0.004553411331415712 0.003583161988338182 -0.0026145437732338905
0.004189945469792366 0.0031500002419632108 -0.0016488686669617893
0.003826479608169021 0.002716838495588239 -0.0011814259923994543
0.01043855980485564 0.009717120895470445 -0.002074588555842638
0.010075093943232295 0.009283959149095473 -0.002403917955234647
0.00971162808160895 0.008850797402720502 -0.0027808859013020992
0.009348162219985605 0.00841763565634553 -0.0031102157663553953
0.008984696358362259 0.00798447390997056 -0.0031469985842704773
0.008621231095381526 0.00755131287703007 -0.00321758259087801
0.00825776523375818 0.007118151130655098 -0.0034991439897567034
0.007894299372134834 0.006684989384280127 -0.0036043815780431032
0.007530833510511489 0.0062518276379051555 -0.003412331687286496
0.007167367648888144 0.005818665891530184 -0.003789300564676523
0.00680390238590741 0.005385504858589695 -0.003758526174351573
0.006440436524284065 0.004952343112214723 -0.003410441568121314
0.006076970662660719 0.004519181365839752 -0.0037874095141887665
0.005713504801037374 0.0040860196194647804 -0.003491312963888049
0.005350038939414029 0.0036528578730898086 -0.002886047586798668
0.004986573077790683 0.003219696126714837 -0.003821984399110079
0.004623107216167338 0.0027865343803398657 -0.0052792783826589584
0.004259641354543993 0.002353372633964894 -0.0012226293329149487
0.010508255511248645 0.008920493437132781 -0.0022695281077176337
0.010144789649625301 0.00848733169075781 -0.002668661065399647
0.009781323788001955 0.008054169944382837 -0.003016745205968619
0.00941785792637861 0.0076210081980078665 -0.003208795795217157
0.009054392663397876 0.007187847165067378 -0.0030216062441468243
0.00869092680177453 0.006754685418692406 -0.003502704203128815
0.008327460940151186 0.006321523672317434 -0.0036051371134817605
0.00796399507852784 0.005888361925942463 -0.0035345514770597224
0.007600529216904494 0.005455200179567491 -0.0035653258673846726
0.0072370639539237605 0.005022039146627003 -0.0036311040166765456
0.0068735980923004154 0.004588877400252031 -0.003254136070609093
0.00651013223067707 0.004155715653877059 -0.003284908831119538
0.0061466663690537245 0.0037225539075020878 -0.0032143248245120053
0.0057832005074303795 0.0032893921611271163 -0.002837356878444553
0.005419734645807034 0.0028562304147521445 -0.003811429021880031
0.005056268784183689 0.0024230686683771726 -0.0011633551912382247
0.011304883119246963 0.008990189321884407 -0.0021291626617312436
0.010941417257623617 0.008557027575509435 -0.0023163512814790015
0.010577951396000273 0.008123865829134465 -0.0027837946545332675
0.010214485534376927 0.007690704082759492 -0.0029709832742810254
0.009851019672753581 0.0072575423363845214 -0.003438426880165935
0.009487554409772848 0.006824381303444033 -0.0031945703085511927
0.009124088548149502 0.006391219557069061 -0.003381759393960238
0.008760622686526158 0.005958057810694089 -0.003486996050924063
0.008397156824902812 0.005524896064319117 -0.003456222824752331
0.008033690963279466 0.005091734317944146 -0.0032641727011650805
0.007670225700298732 0.004658573285003658 -0.0035935021005570893
0.007306759838675387 0.004225411538628686 -0.0034910696558654313
0.006943293977052042 0.003792249792253714 -0.0031949726399034266
0.006579828115428696 0.0033590880458787427 -0.003164199879392982
0.006216362253805351 0.002925926299503771 -0.002720326185226441
0.005852896392182006 0.0024927645531287995 -0.0018670154968276624
0.00548943053055866 0.0020596028067538276 -0.0018012374639511113
0.011374579003998589 0.008193561713886091 -0.0022401951719075446
0.011011113142375243 0.007760399967511119 -0.002588279312476516
0.010647647280751899 0.007327238221136147 -0.002936364151537419
0.010284181419128553 0.0068940764747611755 -0.0026548036839813
0.00992071615614782 0.006460915441820687 -0.002950900932773948
0.009557250294524474 0.006027753695445716 -0.0030166788492351775
0.009193784432901128 0.005594591949070744 -0.0034158113412559037
0.008830318571277784 0.005161430202695772 -0.0034815890248864893
0.008466852709654438 0.0047282684563208005 -0.0034110038541257386
0.008103387446673703 0.004295107423380312 -0.003707100404426456
0.007739921585050359 0.0038619456770053406 -0.0032396581955254082
0.007376455723427013 0.003428783930630369 -0.003270432353019715
0.007012989861803668 0.0029956221842553973 -0.002802989445626736
0.006649524000180322 0.002562460437880426 -0.0020262775942683224
0.012171206611996907 0.008263257598637717 -0.001969428034499288
0.01180774075037356 0.007830095852262745 -0.002298757433891297
0.011444274888750215 0.007396934105887773 -0.0026757253799587493
0.01108080902712687 0.0069637723595128015 -0.002780962968245149
0.010717343165503525 0.00653061061313783 -0.0029681527521461253
0.010353877902522792 0.006097449580197341 -0.0031553425360471015
0.009990412040899446 0.00566428783382237 -0.0032605787273496394
0.0096269461792761 0.005231126087447398 -0.003447768278419972
0.009263480317652754 0.004797964341072427 -0.003634958062320948
0.00890001445602941 0.0043648025946974554 -0.003916519694030286
0.008536549193048675 0.003931641561756967 -0.003620422445237637
0.008173083331425331 0.0034984798153819955 -0.003554644295945764
0.007809617469801985 0.0030653180690070232 -0.0032585465814918284
0.00744615160817864 0.0026321563226320514 -0.0028594152536243205
0.007082685746555294 0.00219899457625708 -0.0023119924589991574
0.006719219884931949 0.001765832829882108 -0.0014882348477840428
0.011877436278407946 0.007033468543585734 -0.0028878778684884314
0.0115139704167846 0.006600306797210762 -0.002782641211524606
0.011150504555161256 0.00616714505083579 -0.0029746901709586386
0.010787039292180521 0.005733984017895302 -0.0030404683202505116
0.010423573430557175 0.005300822271520331 -0.003142901230603457
0.010060107568933831 0.004867660525145359 -0.0034389977809041743
0.009696641707310485 0.004434498778770388 -0.0036828538868576293
0.00933317584568714 0.004001337032395416 -0.0037136282771825795
0.008969710582706406 0.0035681759994549275 -0.0036768454592674975
0.00860624472108306 0.003135014253079955 -0.0030853939242661004
0.008242778859459716 0.0027018525067049838 -0.002898204140365124
0.00787931299783637 0.002268690760330012 -0.0025212361942976718
0.007515847136213024 0.0018355290139550403 -0.0017445237608626491
0.012674063886406262 0.00710316442833736 -0.002298485022038222
0.012310598024782918 0.006670002681962388 -0.0026278151199221615
0.011947132163159572 0.006236840935587417 -0.0028150042053312068
0.011583666301536226 0.005803679189212445 -0.0028517858590930705
0.011220201038555493 0.005370518156271957 -0.0028885686770081524
0.010856735176932147 0.004937356409896985 -0.0032655375543981795
0.010493269315308803 0.004504194663522013 -0.0033707742113620047
0.010129803453685457 0.004071032917147043 -0.0037001036107540135
0.009766337592062111 0.003637871170772071 -0.0036693292204290633
0.009402872329081378 0.0032047101378315816 -0.003477280260995031
0.009039406467458032 0.0027715483914566097 -0.0030781477689743046
0.008675940605834686 0.0023383866450816383 -0.0030473733786493544
0.008312474744211342 0.0019052248987066664 -0.002470146398991347
0.007949008882587996 0.0014720631523316948 -0.002174049383029342
0.007585543020964651 0.0010389014059567232 -0.0013796759303659207
0.01274375977115789 0.006306536820339043 -0.002258009975776077
0.012380293909534544 0.005873375073964072 -0.0028054313734173783
0.012016828047911198 0.0054402133275891 -0.002428463427349926
0.011653362784930465 0.005007052294648612 -0.002494241576641799
0.011289896923307119 0.00457389054827364 -0.00273809744976461
0.010926431061683775 0.004140728801898668 -0.003285519778728486
0.010562965200060429 0.0037075670555236965 -0.003316293703392149
0.010199499338437083 0.003274405309148725 -0.0030347323045134553
0.00983603407545635 0.0028412442762082366 -0.002964148297905923
0.009472568213833004 0.0024080825298332647 -0.0027769585140049466
0.009109102352209658 0.0019749207834582933 -0.0028793916571885356
0.008745636490586314 0.0015417590370833214 -0.002248550998046995
0.008382170628962968 0.0011085972907083498 -0.0025446480140089997
0.013176921517532861 0.005943070958715698 -0.002091675531119109
0.012813455655909516 0.005509909212340726 -0.0025591179728508004
0.01244998979428617 0.005076747465965754 -0.002528345212340356
0.012086524531305437 0.004643586433025266 -0.002462566131725908
0.01172305866968209 0.004210424686650295 -0.0024993487168103465
0.011359592808058747 0.003777262940275323 -0.0026865380350500354
0.0109961269464354 0.003344101193900351 -0.002689743414521218
0.010632661084812055 0.0029109394475253796 -0.0026929471641778955
0.010269195821831322 0.002477778414584891 -0.002729729749262334
0.009905729960207976 0.0020446166682099192 -0.0027665125671774158
0.00954226409858463 0.0016114549218349476 -0.002700734417885543
0.009178798236961286 0.001178293175459976 -0.0027375172358006248
0.00881533237533794 0.0007451314290850043 -0.0020015714690089234
0.008451866513714594 0.0003119696827100327 -0.0014243444893509158
0.013246617402284487 0.005146443350717381 -0.001937234424985946
0.012883151540661142 0.004713281604342409 -0.0024527315981686124
0.012519686277680409 0.004280120571401921 -0.0018612794810906061
0.012156220416057063 0.0038469588250269493 -0.0018580745672807106
0.011792754554433718 0.003413797078651978 -0.0017528380267322072
0.011429288692810373 0.002980635332277006 -0.0028230913449078807
0.011065822831187027 0.0025474735859020345 -0.0020463778637349614
0.010702357568206294 0.002114312552961546 -0.002290234901010991
0.010338891706582948 0.0016811508065865742 -0.00239266804419458
0.009975425844959602 0.0012479890602116025 -0.002458446193486453
0.009611959983336258 0.0008148273138366309 -0.0023532083723694095
0.009248494121712912 0.0003816655674616593 -0.0017223694594576964
0.008885028260089566 -5.149617891331235e-05 -0.0016171319875866183
0.008521562398466222 -0.00048465792528828397 -0.0012878034031018623
0.013316313287036113 0.004349815742719063 -0.0020228533539921054
0.012952848024055379 0.003916654709778575 -0.0017789973644539723
0.012589382162432034 0.0034834929634036033 -0.001748222974129022
0.012225916300808689 0.003050331217028632 -0.0017514267237856993
0.011862450439185343 0.00261716947065366 -0.0015075710834935316
0.011498984577561999 0.0021840077242786886 -0.001975013641640545
0.011135519314581264 0.0017508466913382 -0.002162203425541521
0.01077205345295792 0.0013176849449632283 -0.002396255265921355
0.010408587591334574 0.0008845231985882566 -0.0023994587827473888
0.010045121729711228 0.000451361452213285 -0.0024362416006624707
0.009681655868087882 1.8199705838313385e-05 -0.0021923857275396594
0.009318190006464538 -0.00041496204053665823 -0.0021616118028759965
0.008954724144841192 -0.0008481237869116299 -0.0021983946207910785
0.008591258283217846 -0.0012812855332866016 -0.0022015983704477557
0.008227792720915807 -0.0017144469229443317 -0.0021358202211558827
0.007864326859292461 -0.002147608669319303 -0.0015305555425584325
0.007500860997669116 -0.002580770415694275 -0.0016357930144295105
0.006046997700836388 -0.004313417222835541 -0.001394434249959887
0.005683531916381816 -0.004746578877244349 -0.0013976379996165642
0.00532006612725035 -0.005179740537226863 -0.0014682232867926368
0.004956600265627005 -0.005612902283601835 -0.001655413070693613
0.004593134478833986 -0.006046063940797496 -0.0013593161711469301
0.004229668692040967 -0.0064792255979931575 -0.0011672659311443576
0.003502737118454929 -0.00734554891238448 -0.0011624064063653359
0.0031392712568315837 -0.007778710658759452 -0.0011316322488710293
0.0020488739712828533 -0.009078195541167126 -0.001802825485356153
0.001685408109659508 -0.009511357287542096 -0.0021321550011634835
0.0013219422480361628 -0.009944519033917068 -0.002237391425296665
0.0009584763864128174 -0.01037768078029204 -0.001793519011698664
0.00023154466316612667 -0.011244004273041983 -0.001868277322500945
0.013022543552089764 0.003120027401101564 -0.001201525446958841
0.01265907769046642 0.0026868656547265925 -0.0011309412075206648
0.012295611828843074 0.0022537039083516206 -0.0011967193568125378
0.011932145967219728 0.0018205421619766492 -0.0013887683162465702
0.011568680704238995 0.0013873811290361605 -0.0018326416611671459
0.011205214842615649 0.0009542193826611888 -0.0017274041892960678
0.010841748980992303 0.0005210576362862172 -0.002208502497524024
0.010478283119368959 8.789588991124558e-05 -0.0028403918258845815
0.010114817257745613 -0.00034526585646372604 -0.0025110624264925727
0.009751351396122267 -0.0007784276028386977 -0.0026134951040148744
0.009387885534498923 -0.0012115893492136694 -0.002805544529110194
0.009024419672875577 -0.001644751095588641 -0.0028023403137922296
0.008660954110573537 -0.002077912485246371 -0.002697103191167117
0.008297488248950192 -0.0025110742316213426 -0.0026265187188982972
0.007934022387326847 -0.0029442359779963145 -0.002974603325128556
0.007570556675364154 -0.003377397546012665 -0.0019510081037879
0.0072070907389104825 -0.003810559381566947 -0.00239488109946251
0.006843624877287137 -0.004243721127941919 -0.0021133197005838164
0.006480159090494118 -0.00467688278513758 -0.0025944183580577382
0.0061166933060395464 -0.005110044439546388 -0.0025912129785865554
0.00575322751690808 -0.005543206099528903 -0.0026936458889395007
0.005389761655284735 -0.0059763678459038745 -0.002724420279264451
0.005026295868491716 -0.006409529503099536 -0.002687637461349369
0.004662830081698697 -0.006842691160295197 -0.0025824008043855437
0.004299364369736005 -0.0072758527283115475 -0.002348349196836353
0.003935898508112659 -0.007709014474686519 -0.0026444457471370706
0.003572432646489314 -0.008142176221061491 -0.0028364963363856086
0.0032089670841872744 -0.00857533761071922 -0.002205655677244068
0.002845501222563929 -0.009008499357094192 -0.0028109210543334493
0.0024820353609405835 -0.009441661103469164 -0.0029133534990251073
0.0021185694993172384 -0.009874822849844136 -0.0028427678626030692
0.001755103637693893 -0.010307984596219108 -0.002561206929385663
0.0013916377760705475 -0.01074114634259408 -0.0022796466946601876
0.0010281719144472022 -0.011174308088969052 -0.001998085295781494
0.0006647060528238569 -0.011607469835344022 -0.001961302477866412
0.00030124078984312307 -0.01204063086828451 -0.0017272505210712563
-6.222567042283385e-05 -0.012473793328093966 -0.0013979219365865003
0.012728773575218046 0.0018902380467282758 -0.0013154619373381149
0.0123653077135947 0.0014570763003533042 -0.001352244638837875
0.012001842450613967 0.0010239152674128154 -0.0017292125849053275
0.01163837658899062 0.0005907535210378438 -0.0019164023688063036
0.011274910727367275 0.00015759177466287218 -0.0021504540927708158
0.01091144486574393 -0.0002755699717120995 -0.002384505234658719
0.010547979004120585 -0.0007087317180870711 -0.0027138346340507278
0.010184513142497239 -0.0011418934644620428 -0.00309080258011818
0.009821047280873895 -0.0015750552108370144 -0.0032779923640191564
0.009457581419250549 -0.002008216957211986 -0.003512044670060278
0.009094115856948509 -0.0024413783468697162 -0.003617280628532172
0.008730649995325164 -0.0028745400932446877 -0.00358650740236044
0.008367184133701818 -0.0033077018396196595 -0.003520729951560498
0.008003718421739126 -0.00374086340763601 -0.0035239337012171754
0.007640252485285454 -0.004174025243190292 -0.00359451910480857
0.007276786623662108 -0.004607186989565264 -0.0036651031114161023
0.00691332083686909 -0.005040348646760925 -0.0035993256606161603
0.006549855052414518 -0.005473510301169733 -0.003303228411823512
0.006186389263283052 -0.005906671961152248 -0.003373812884092332
0.005822923401659707 -0.0063398337075272196 -0.0034105957020074138
0.005459457614866688 -0.006772995364722881 -0.0033798213116824636
0.005095991828073669 -0.007206157021918542 -0.0033140433952212342
0.004732526116110977 -0.007639318589934893 -0.0033508259803056726
0.004369060254487631 -0.008072480336309864 -0.0032850480638444432
0.004005594392864286 -0.008505642082684835 -0.003254273673519493
0.0036421288305622463 -0.008938803472342566 -0.0034883259795606145
0.003278662968938901 -0.009371965218717538 -0.003192228730767966
0.0029151971073155553 -0.00980512696509251 -0.003161455038934947
0.0025517312456922103 -0.01023828871146748 -0.0029694053810089835
0.002188265384068865 -0.010671450457842452 -0.0025702728889882573
0.0018247995224455194 -0.011104612204217424 -0.002378223929554225
0.001461333660822174 -0.011537773950592396 -0.0019790914375334987
0.0010978677991988286 -0.011970935696967368 -0.0017870425945147883
0.000734402536218095 -0.012404096729907856 -0.0015431854408234369
0.000370936075952138 -0.012837259189717311 -0.0013511362485587608
0.012798470173404155 0.001093609840087347 -0.0011939893011003744
0.01243500491042342 0.0006604488071468584 -0.0014900862006470572
0.012071539048800076 0.00022728706077188672 -0.0017339418409392249
0.01170807318717673 -0.0002058746856030849 -0.0019777989946305765
0.011344607325553384 -0.0006390364319780566 -0.002169847954064609
0.010981141463930038 -0.0010721981783530282 -0.0028521590866148485
0.010617675602306694 -0.0015053599247279999 -0.0029179372359067215
0.010254209740683348 -0.0019385216711029715 -0.003653882304206492
0.009890743879060002 -0.002371683417477943 -0.003276913193985821
0.009527278316757964 -0.0028048448071356733 -0.00419001141563058
0.009163812455134618 -0.0032380065535106447 -0.004486108664423228
0.008800346593511272 -0.0036711682998856166 -0.004018666222691537
0.00843688088154858 -0.004104329867901968 -0.004049439914524556
0.008073414945094908 -0.004537491703456249 -0.003978854976594449
0.007709949083471563 -0.004970653449831221 -0.003975650761276484
0.007346483296678545 -0.005403815107026882 -0.004006423987448216
0.006983017512223973 -0.00583697676143569 -0.003100835019722582
0.0066195517230925064 -0.006270138421418205 -0.003758288919925691
0.006256085861469161 -0.006703300167793177 -0.0037550847046077264
0.005892620074676142 -0.007136461824988838 -0.0036844997666776193
0.005529154287883123 -0.007569623482184499 -0.003579263109713794
0.005165688575920431 -0.00800278505020085 -0.0035760581959038986
0.004802222714297085 -0.00843594679657582 -0.0036418363451957716
0.00443875685267374 -0.008869108542950793 -0.0035365996882319463
0.004075291290371701 -0.009302269932608524 -0.0034998168703168644
0.003711825428748355 -0.009735431678983495 -0.003170488635078074
0.0033483595671250097 -0.010168593425358467 -0.003065251046791674
0.0029848937055016646 -0.010601755171733437 -0.002831200370565058
0.002621427843878319 -0.01103491691810841 -0.0025018702726811184
0.0022579619822549737 -0.011468078664483381 -0.0022203088738024248
0.0018944961206316285 -0.011901240410858353 -0.0019862572662532343
0.001531030259008283 -0.012334402157233325 -0.0016092889709398161
0.013231631206344643 0.0007301445771066131 -0.0011493162019178282
0.012868165943363909 0.0002969835441661245 -0.0013365058694034826
0.012504700081740565 -0.00013617820220884714 -0.0014417422935366641
0.012141234220117219 -0.0005693399485838188 -0.0019091848516836773
0.011777768358493873 -0.0010025016949587904 -0.0020963740535080446
0.011414302496870527 -0.001435663441333762 -0.0030323108658194555
0.011050836635247183 -0.0018688251877087337 -0.003663151524960996
0.010687370773623837 -0.002301986934083705 -0.003992481157183648
0.01032390491200049 -0.002735148680458677 -0.004226533230394126
0.009960439349698452 -0.003168310070116407 -0.004460583906620742
0.009596973488075106 -0.0036014718164913786 -0.004358151461929084
0.00923350762645176 -0.00403463356286635 -0.004361356142908336
0.008870041914489068 -0.0044677951308827015 -0.00425892323255539
0.008506575978035396 -0.004900956966436983 -0.004228149540722371
0.008143110116412052 -0.005334118712811955 -0.004197376314550639
0.007779644329619033 -0.005767280370007616 -0.0041315979324281224
0.007416178545164461 -0.006200442024416424 -0.0037835121620446457
0.007052712756032995 -0.006633603684398939 -0.003888749983161689
0.00668924689440965 -0.0070667654307739105 -0.0037863168399781
0.006325781107616631 -0.007499927087969572 -0.003720539389178158
0.005962315320823612 -0.007933088745165233 -0.0035284897312521948
0.0055988496088609195 -0.008366250313181584 -0.004523360636085273
0.005235383747237574 -0.008799412059556555 -0.003420206950977446
0.004871917885614229 -0.009232573805931527 -0.003354428801685573
0.004508452323312189 -0.009665735195589257 -0.0031623786780983223
0.004144986461688844 -0.010098896941964228 -0.00297032971866429
0.003781520600065498 -0.0105320586883392 -0.0027264738455414785
0.003418054738442153 -0.010965220434714172 -0.002534424886107446
0.0030545888768188077 -0.011398382181089144 -0.003500098362565042
0.002691123015195462 -0.011831543927464116 -0.0021568981464952243
