ply
format ascii 1.0
element vertex 746
property float x
property float y
property float z
end_header
-0.00920642539858818 -0.0014412392629310489 0.07919999957084656
-0.008999423123896122 -0.0014412392629310489 0.07919999957084656
-0.008792421780526638 -0.0014412392629310489 0.07919999957084656
-0.00858541950583458 -0.0014412392629310489 0.07919999957084656
-0.008388997055590153 -0.0014430590672418475 0.07930000126361847
-0.008192050270736217 -0.0014448786387220025 0.07939999550580978
-0.0079845255240798 -0.0014448786387220025 0.07939999550580978
-0.007777001708745956 -0.0014448786387220025 0.07939999550580978
-0.007579010911285877 -0.0014466984430328012 0.0794999971985817
-0.007371224462985992 -0.0014466984430328012 0.0794999971985817
-0.007163438946008682 -0.0014466984430328012 0.0794999971985817
-0.006964401807636023 -0.0014485182473435998 0.07959999889135361
-0.006756355054676533 -0.0014485182473435998 0.07959999889135361
-0.006548307836055756 -0.0014485182473435998 0.07959999889135361
-0.0007511409930884838 -0.0015049304347485304 0.08269999921321869
-0.0005349913262762129 -0.0015049304347485304 0.08269999921321869
0.00032920847297646105 -0.0015031106304377317 0.08259999752044678
0.0005450967000797391 -0.0015031106304377317 0.08259999752044678
0.0007600635872222483 -0.001501290826126933 0.08249999582767487
0.0009756904328241944 -0.001501290826126933 0.08249999582767487
0.0011898733209818602 -0.001499471254646778 0.08240000158548355
0.0014052389888092875 -0.001499471254646778 0.08240000158548355
0.0016206044238060713 -0.001499471254646778 0.08240000158548355
0.0018359699752181768 -0.001499471254646778 0.08240000158548355
0.0020488458685576916 -0.0014976514503359795 0.08229999989271164
0.0022639501839876175 -0.0014976514503359795 0.08229999989271164
0.002479054033756256 -0.0014976514503359795 0.08229999989271164
0.002694158349186182 -0.0014976514503359795 0.08229999989271164
0.002909262664616108 -0.0014976514503359795 0.08229999989271164
0.0031243665143847466 -0.0014976514503359795 0.08229999989271164
0.003339470596984029 -0.0014976514503359795 0.08229999989271164
0.0035545749124139547 -0.0014976514503359795 0.08229999989271164
0.0037696792278438807 -0.0014976514503359795 0.08229999989271164
0.003984782844781876 -0.0014976514503359795 0.08229999989271164
0.004204990342259407 -0.001499471254646778 0.08240000158548355
0.004420355893671513 -0.001499471254646778 0.08240000158548355
0.004635721445083618 -0.001499471254646778 0.08240000158548355
0.004851086996495724 -0.001499471254646778 0.08240000158548355
0.005066452547907829 -0.001499471254646778 0.08240000158548355
0.0052818176336586475 -0.001499471254646778 0.08240000158548355
0.00549718365073204 -0.001499471254646778 0.08240000158548355
0.005712548736482859 -0.001499471254646778 0.08240000158548355
0.0059279147535562515 -0.001499471254646778 0.08240000158548355
0.006150735076516867 -0.001501290826126933 0.08249999582767487
0.006366361863911152 -0.001501290826126933 0.08249999582767487
0.006581989116966724 -0.001501290826126933 0.08249999582767487
0.006797615438699722 -0.001501290826126933 0.08249999582767487
0.00790438987314701 -0.0015067501226440072 0.0828000009059906
0.008130607195198536 -0.001508569810539484 0.08289999514818192
0.008357349783182144 -0.0015103896148502827 0.08299999684095383
0.008594944141805172 -0.0015140291070565581 0.08320000022649765
0.008822991512715816 -0.001515848794952035 0.08329999446868896
0.009062416851520538 -0.0015194884035736322 0.08349999785423279
0.009314000606536865 -0.0015249475836753845 0.08379999548196793
0.00956715364009142 -0.0015304068801924586 0.08410000056028366
-0.013758818618953228 -0.001252938061952591 0.0803999975323677
-0.01330536138266325 -0.0012498212745413184 0.08020000159740448
-0.013063088059425354 -0.0012467044871300459 0.07999999821186066
-0.012821859680116177 -0.0012435876997187734 0.07979999482631683
-0.012581678107380867 -0.0012404710287228227 0.07959999889135361
-0.01237363088876009 -0.0012404710287228227 0.07959999889135361
-0.012150299735367298 -0.0012389125768095255 0.0794999971985817
-0.011942514218389988 -0.0012389125768095255 0.0794999971985817
-0.011719968169927597 -0.0012373541248962283 0.07939999550580978
-0.011512442491948605 -0.0012373541248962283 0.07939999550580978
-0.011304917745292187 -0.0012373541248962283 0.07939999550580978
-0.011097392998635769 -0.0012373541248962283 0.07939999550580978
-0.010876155458390713 -0.0012357959058135748 0.07930000126361847
-0.010668891482055187 -0.0012357959058135748 0.07930000126361847
-0.010461628437042236 -0.0012357959058135748 0.07930000126361847
-0.010267295874655247 -0.0012373541248962283 0.07939999550580978
-0.010059771127998829 -0.0012373541248962283 0.07939999550580978
-0.009852246381342411 -0.0012373541248962283 0.07939999550580978
-0.009644721634685993 -0.0012373541248962283 0.07939999550580978
-0.00943719781935215 -0.0012373541248962283 0.07939999550580978
-0.009218050166964531 -0.0012357959058135748 0.07930000126361847
-0.009022148326039314 -0.0012373541248962283 0.07939999550580978
-0.008814624510705471 -0.0012373541248962283 0.07939999550580978
-0.008607098832726479 -0.0012373541248962283 0.07939999550580978
-0.008399575017392635 -0.0012373541248962283 0.07939999550580978
-0.008192050270736217 -0.0012373541248962283 0.07939999550580978
-0.0079845255240798 -0.0012373541248962283 0.07939999550580978
-0.007777001708745956 -0.0012373541248962283 0.07939999550580978
-0.007579010911285877 -0.0012389125768095255 0.0794999971985817
-0.007371224462985992 -0.0012389125768095255 0.0794999971985817
-0.007163438946008682 -0.0012389125768095255 0.0794999971985817
-0.006964401807636023 -0.0012404710287228227 0.07959999889135361
-0.006756355054676533 -0.0012404710287228227 0.07959999889135361
-0.0065565346740186214 -0.001242029364220798 0.07970000058412552
-0.006356190424412489 -0.0012435876997187734 0.07979999482631683
0.0007600635872222483 -0.001285664038732648 0.08249999582767487
0.0009756904328241944 -0.001285664038732648 0.08249999582767487
0.0011898733209818602 -0.0012841057032346725 0.08240000158548355
0.0014052389888092875 -0.0012841057032346725 0.08240000158548355
0.0016206044238060713 -0.0012841057032346725 0.08240000158548355
0.0018359699752181768 -0.0012841057032346725 0.08240000158548355
0.0020513352937996387 -0.0012841057032346725 0.08240000158548355
0.002266701078042388 -0.0012841057032346725 0.08240000158548355
0.002479054033756256 -0.0012825472513213754 0.08229999989271164
0.002694158349186182 -0.0012825472513213754 0.08229999989271164
0.002909262664616108 -0.0012825472513213754 0.08229999989271164
0.0031243665143847466 -0.0012825472513213754 0.08229999989271164
0.003339470596984029 -0.0012825472513213754 0.08229999989271164
0.0035545749124139547 -0.0012825472513213754 0.08229999989271164
0.0037696792278438807 -0.0012825472513213754 0.08229999989271164
0.0039896247908473015 -0.0012841057032346725 0.08240000158548355
0.004204990342259407 -0.0012841057032346725 0.08240000158548355
0.004420355893671513 -0.0012841057032346725 0.08240000158548355
0.004635721445083618 -0.0012841057032346725 0.08240000158548355
0.004851086996495724 -0.0012841057032346725 0.08240000158548355
0.005066452547907829 -0.0012841057032346725 0.08240000158548355
0.0052818176336586475 -0.0012841057032346725 0.08240000158548355
0.00549718365073204 -0.0012841057032346725 0.08240000158548355
0.005712548736482859 -0.0012841057032346725 0.08240000158548355
0.0059351082891225815 -0.001285664038732648 0.08249999582767487
0.006150735076516867 -0.001285664038732648 0.08249999582767487
0.006366361863911152 -0.001285664038732648 0.08249999582767487
0.007021743338555098 -0.0012872223742306232 0.08259999752044678
0.00723763182759285 -0.0012872223742306232 0.08259999752044678
0.007453519850969315 -0.0012872223742306232 0.08259999752044678
0.007678693626075983 -0.0012887808261439204 0.08269999921321869
0.00790438987314701 -0.0012903391616418958 0.0828000009059906
0.008130607195198536 -0.0012918974971398711 0.08289999514818192
0.008357349783182144 -0.0012934559490531683 0.08299999684095383
0.008594944141805172 -0.0012965727364644408 0.08320000022649765
0.008833583444356918 -0.0012996894074603915 0.08339999616146088
0.009062416851520538 -0.0013012478593736887 0.08349999785423279
0.009325115010142326 -0.001307481317780912 0.08389999717473984
0.009578528814017773 -0.0013121564406901598 0.08419999480247498
-0.013775931671261787 -0.0010440968908369541 0.08049999922513962
-0.013565531931817532 -0.0010440968908369541 0.08049999922513962
-0.013338540680706501 -0.0010427997913211584 0.0803999975323677
-0.013112074695527554 -0.0010415028082206845 0.0802999958395958
-0.012870063073933125 -0.0010389088420197368 0.08009999990463257
-0.01262909546494484 -0.0010363147594034672 0.07989999651908875
-0.012389176525175571 -0.0010337207932025194 0.07970000058412552
-0.012165583670139313 -0.0010324236936867237 0.07959999889135361
-0.011957536451518536 -0.0010324236936867237 0.07959999889135361
-0.011749489232897758 -0.0010324236936867237 0.07959999889135361
-0.011526942253112793 -0.0010311267105862498 0.0794999971985817
-0.011319155804812908 -0.0010311267105862498 0.0794999971985817
-0.011111370287835598 -0.0010311267105862498 0.0794999971985817
-0.010903584770858288 -0.0010311267105862498 0.0794999971985817
-0.010695798322558403 -0.0010311267105862498 0.0794999971985817
-0.010488012805581093 -0.0010311267105862498 0.0794999971985817
-0.010280227288603783 -0.0010311267105862498 0.0794999971985817
-0.010072440840303898 -0.0010311267105862498 0.0794999971985817
-0.009864655323326588 -0.0010311267105862498 0.0794999971985817
-0.009656868875026703 -0.0010311267105862498 0.0794999971985817
-0.009449083358049393 -0.0010311267105862498 0.0794999971985817
-0.009241297841072083 -0.0010311267105862498 0.0794999971985817
-0.009033511392772198 -0.0010311267105862498 0.0794999971985817
-0.008825725875794888 -0.0010311267105862498 0.0794999971985817
-0.008607098832726479 -0.0010298296110704541 0.07939999550580978
-0.008399575017392635 -0.0010298296110704541 0.07939999550580978
-0.008192050270736217 -0.0010298296110704541 0.07939999550580978
-0.0079845255240798 -0.0010298296110704541 0.07939999550580978
-0.007777001708745956 -0.0010298296110704541 0.07939999550580978
-0.007579010911285877 -0.0010311267105862498 0.0794999971985817
-0.007371224462985992 -0.0010311267105862498 0.0794999971985817
-0.007163438946008682 -0.0010311267105862498 0.0794999971985817
-0.006964401807636023 -0.0010324236936867237 0.07959999889135361
-0.006756355054676533 -0.0010324236936867237 0.07959999889135361
-0.0065565346740186214 -0.0010337207932025194 0.07970000058412552
-0.006356190424412489 -0.0010350176598876715 0.07979999482631683
0.0005450967000797391 -0.0010713341180235147 0.08259999752044678
0.0011927613522857428 -0.0010713341180235147 0.08259999752044678
0.0014086496084928513 -0.0010713341180235147 0.08259999752044678
0.0016225710278376937 -0.0010700371349230409 0.08249999582767487
0.0018359699752181768 -0.001068740151822567 0.08240000158548355
0.0020513352937996387 -0.001068740151822567 0.08240000158548355
0.002266701078042388 -0.001068740151822567 0.08240000158548355
0.00248206639662385 -0.001068740151822567 0.08240000158548355
0.002694158349186182 -0.001067443168722093 0.08229999989271164
0.002909262664616108 -0.001067443168722093 0.08229999989271164
0.0031243665143847466 -0.001067443168722093 0.08229999989271164
0.003339470596984029 -0.001067443168722093 0.08229999989271164
0.0035545749124139547 -0.001067443168722093 0.08229999989271164
0.0037696792278438807 -0.001067443168722093 0.08229999989271164
0.0039896247908473015 -0.001068740151822567 0.08240000158548355
0.004204990342259407 -0.001068740151822567 0.08240000158548355
0.004420355893671513 -0.001068740151822567 0.08240000158548355
0.004635721445083618 -0.001068740151822567 0.08240000158548355
0.004851086996495724 -0.001068740151822567 0.08240000158548355
0.005066452547907829 -0.001068740151822567 0.08240000158548355
0.0052818176336586475 -0.001068740151822567 0.08240000158548355
0.00549718365073204 -0.001068740151822567 0.08240000158548355
0.005719481036067009 -0.0010700371349230409 0.08249999582767487
0.0059351082891225815 -0.0010700371349230409 0.08249999582767487
0.006150735076516867 -0.0010700371349230409 0.08249999582767487
0.006366361863911152 -0.0010700371349230409 0.08249999582767487
0.007021743338555098 -0.0010713341180235147 0.08259999752044678
0.00723763182759285 -0.0010713341180235147 0.08259999752044678
0.007453519850969315 -0.0010713341180235147 0.08259999752044678
0.007678693626075983 -0.0010726312175393105 0.08269999921321869
0.00790438987314701 -0.0010739282006397843 0.0828000009059906
0.008130607195198536 -0.0010752251837402582 0.08289999514818192
0.009336229413747787 -0.0010894923470914364 0.08399999886751175
0.0095899049192667 -0.0010933834128081799 0.08429999649524689
-0.013827269896864891 -0.0008368042763322592 0.08079999685287476
-0.013582383282482624 -0.0008347330149263144 0.08060000091791153
-0.013355131261050701 -0.000833697326015681 0.08049999922513962
-0.012918265536427498 -0.0008326616371050477 0.0803999975323677
-0.01269232016056776 -0.0008316260064020753 0.0802999958395958
-0.012435810640454292 -0.0008285190560854971 0.07999999821186066
-0.012196149677038193 -0.0008264477364718914 0.07979999482631683
-0.011972558684647083 -0.0008254121639765799 0.07970000058412552
-0.011764250695705414 -0.0008254121639765799 0.07970000058412552
-0.011541442014276981 -0.0008243764750659466 0.07959999889135361
-0.011333394795656204 -0.0008243764750659466 0.07959999889135361
-0.011125346645712852 -0.0008243764750659466 0.07959999889135361
-0.01091730035841465 -0.0008243764750659466 0.07959999889135361
-0.010709253139793873 -0.0008243764750659466 0.07959999889135361
-0.010501204989850521 -0.0008243764750659466 0.07959999889135361
-0.010293158702552319 -0.0008243764750659466 0.07959999889135361
-0.010085111483931541 -0.0008243764750659466 0.07959999889135361
-0.009877064265310764 -0.0008243764750659466 0.07959999889135361
-0.009669016115367413 -0.0008243764750659466 0.07959999889135361
-0.009460968896746635 -0.0008243764750659466 0.07959999889135361
-0.009241297841072083 -0.0008233408443629742 0.0794999971985817
-0.009033511392772198 -0.0008233408443629742 0.0794999971985817
-0.008825725875794888 -0.0008233408443629742 0.0794999971985817
-0.008617939427495003 -0.0008233408443629742 0.0794999971985817
-0.008410153910517693 -0.0008233408443629742 0.0794999971985817
-0.008202368393540382 -0.0008233408443629742 0.0794999971985817
-0.007994581945240498 -0.0008233408443629742 0.0794999971985817
-0.007786796428263187 -0.0008233408443629742 0.0794999971985817
-0.007579010911285877 -0.0008233408443629742 0.0794999971985817
-0.007371224462985992 -0.0008233408443629742 0.0794999971985817
-0.007172449491918087 -0.0008243764750659466 0.07959999889135361
-0.006964401807636023 -0.0008243764750659466 0.07959999889135361
-0.006756355054676533 -0.0008243764750659466 0.07959999889135361
-0.0065565346740186214 -0.0008254121639765799 0.07970000058412552
-0.006364155560731888 -0.0008274834253825247 0.07989999651908875
-0.006163028534501791 -0.0008285190560854971 0.07999999821186066
-0.005976262968033552 -0.0008316260064020753 0.0802999958395958
0.0007637487724423409 -0.0008585528703406453 0.08289999514818192
0.0014120604610070586 -0.0008575172396376729 0.0828000009059906
0.00162847142200917 -0.0008575172396376729 0.0828000009059906
0.0018426543101668358 -0.0008564816089347005 0.08269999921321869
0.0020563143771141768 -0.0008554459200240672 0.08259999752044678
0.0022694517392665148 -0.0008544102893210948 0.08249999582767487
0.0024850785266608 -0.0008544102893210948 0.08249999582767487
0.0026974319480359554 -0.0008533746586181223 0.08240000158548355
0.002912797499448061 -0.0008533746586181223 0.08240000158548355
0.003128162818029523 -0.0008533746586181223 0.08240000158548355
0.0033435283694416285 -0.0008533746586181223 0.08240000158548355
0.003558893920853734 -0.0008533746586181223 0.08240000158548355
0.0037742597050964832 -0.0008533746586181223 0.08240000158548355
0.0039896247908473015 -0.0008533746586181223 0.08240000158548355
0.004204990342259407 -0.0008533746586181223 0.08240000158548355
0.004420355893671513 -0.0008533746586181223 0.08240000158548355
0.004635721445083618 -0.0008533746586181223 0.08240000158548355
0.004851086996495724 -0.0008533746586181223 0.08240000158548355
0.005066452547907829 -0.0008533746586181223 0.08240000158548355
0.0052818176336586475 -0.0008533746586181223 0.08240000158548355
0.005503854714334011 -0.0008544102893210948 0.08249999582767487
0.005719481036067009 -0.0008544102893210948 0.08249999582767487
0.0059351082891225815 -0.0008544102893210948 0.08249999582767487
0.007021743338555098 -0.0008554459200240672 0.08259999752044678
0.00723763182759285 -0.0008554459200240672 0.08259999752044678
0.007462543901056051 -0.0008564816089347005 0.08269999921321869
0.007687978912144899 -0.0008575172396376729 0.0828000009059906
0.00790438987314701 -0.0008575172396376729 0.0828000009059906
0.008130607195198536 -0.0008585528703406453 0.08289999514818192
-0.013632937334477901 -0.0006263948744162917 0.08089999854564667
-0.013388311490416527 -0.0006248462595976889 0.08069999516010284
-0.013161062262952328 -0.0006240720394998789 0.08060000091791153
-0.012934332713484764 -0.0006232977611944079 0.08049999922513962
-0.012708126567304134 -0.0006225234246812761 0.0803999975323677
-0.01249798946082592 -0.0006225234246812761 0.0803999975323677
-0.012257284484803677 -0.0006209749262779951 0.08020000159740448
-0.012017624452710152 -0.0006194263114593923 0.07999999821186066
-0.011793771758675575 -0.0006186520331539214 0.07989999651908875
-0.011584939435124397 -0.0006186520331539214 0.07989999651908875
-0.011361869983375072 -0.0006178777548484504 0.07979999482631683
-0.011153299361467361 -0.0006178777548484504 0.07979999482631683
-0.0109447306022048 -0.0006178777548484504 0.07979999482631683
-0.010722707025706768 -0.0006171034765429795 0.07970000058412552
-0.010527589358389378 -0.0006178777548484504 0.07979999482631683
-0.010306090116500854 -0.0006171034765429795 0.07970000058412552
-0.01009778119623661 -0.0006171034765429795 0.07970000058412552
-0.009889472275972366 -0.0006171034765429795 0.07970000058412552
-0.009681163355708122 -0.0006171034765429795 0.07970000058412552
-0.009460968896746635 -0.0006163291982375085 0.07959999889135361
-0.009252922609448433 -0.0006163291982375085 0.07959999889135361
-0.009044874459505081 -0.0006163291982375085 0.07959999889135361
-0.008836827240884304 -0.0006163291982375085 0.07959999889135361
-0.008628780022263527 -0.0006163291982375085 0.07959999889135361
-0.00842073280364275 -0.0006163291982375085 0.07959999889135361
-0.008202368393540382 -0.0006155549199320376 0.0794999971985817
-0.007994581945240498 -0.0006155549199320376 0.0794999971985817
-0.007786796428263187 -0.0006155549199320376 0.0794999971985817
-0.007579010911285877 -0.0006155549199320376 0.0794999971985817
-0.007380496710538864 -0.0006163291982375085 0.07959999889135361
-0.007172449491918087 -0.0006163291982375085 0.07959999889135361
-0.006964401807636023 -0.0006163291982375085 0.07959999889135361
-0.006764843128621578 -0.0006171034765429795 0.07970000058412552
-0.006564760580658913 -0.0006178777548484504 0.07979999482631683
-0.006372120697051287 -0.0006194263114593923 0.07999999821186066
-0.0061784363351762295 -0.0006209749262779951 0.08020000159740448
-0.005976262968033552 -0.0006217491463758051 0.0802999958395958
-0.005773567128926516 -0.0006225234246812761 0.0803999975323677
0.0009839690756052732 -0.0006442033918574452 0.08320000022649765
0.0014188820496201515 -0.0006442033918574452 0.08320000022649765
0.0016343715833500028 -0.0006434291135519743 0.08309999853372574
0.001849338528700173 -0.0006426547770388424 0.08299999684095383
0.002061293227598071 -0.0006411062786355615 0.0828000009059906
0.002277704421430826 -0.0006411062786355615 0.0828000009059906
0.00248809065669775 -0.0006395576638169587 0.08259999752044678
0.0027039791457355022 -0.0006395576638169587 0.08259999752044678
0.002916332334280014 -0.0006387833855114877 0.08249999582767487
0.003128162818029523 -0.0006380091072060168 0.08240000158548355
0.0033435283694416285 -0.0006380091072060168 0.08240000158548355
0.003558893920853734 -0.0006380091072060168 0.08240000158548355
0.0037742597050964832 -0.0006380091072060168 0.08240000158548355
0.0039896247908473015 -0.0006380091072060168 0.08240000158548355
0.004204990342259407 -0.0006380091072060168 0.08240000158548355
0.004425720311701298 -0.0006387833855114877 0.08249999582767487
0.004641347099095583 -0.0006387833855114877 0.08249999582767487
0.004856973886489868 -0.0006387833855114877 0.08249999582767487
0.005072600673884153 -0.0006387833855114877 0.08249999582767487
0.005288227461278439 -0.0006387833855114877 0.08249999582767487
0.005503854714334011 -0.0006387833855114877 0.08249999582767487
0.005719481036067009 -0.0006387833855114877 0.08249999582767487
0.0059351082891225815 -0.0006387833855114877 0.08249999582767487
0.007021743338555098 -0.0006395576638169587 0.08259999752044678
0.00723763182759285 -0.0006395576638169587 0.08259999752044678
0.007462543901056051 -0.0006403319421224296 0.08269999921321869
0.007678693626075983 -0.0006403319421224296 0.08269999921321869
0.00790438987314701 -0.0006411062786355615 0.0828000009059906
0.008130607195198536 -0.0006418804987333715 0.08289999514818192
0.009856785647571087 -0.0006558176246471703 0.08469999581575394
-0.013683492317795753 -0.0004164885904174298 0.0811999961733818
-0.013454671949148178 -0.00041597566450946033 0.0810999944806099
-0.013226376846432686 -0.00041546279680915177 0.08100000023841858
-0.012982535175979137 -0.0004144369449932128 0.08079999685287476
-0.012755544856190681 -0.00041392401908524334 0.08069999516010284
-0.012513534165918827 -0.00041289819637313485 0.08049999922513962
-0.012287850491702557 -0.0004123852704651654 0.0803999975323677
-0.012077712453901768 -0.0004123852704651654 0.0803999975323677
-0.011838054284453392 -0.0004113594477530569 0.08020000159740448
-0.011628437787294388 -0.0004113594477530569 0.08020000159740448
-0.011404584161937237 -0.0004108465218450874 0.08009999990463257
-0.011181253008544445 -0.00041033359593711793 0.07999999821186066
-0.01097216084599495 -0.00041033359593711793 0.07999999821186066
-0.010763067752122879 -0.00041033359593711793 0.07999999821186066
-0.010553974658250809 -0.00041033359593711793 0.07999999821186066
-0.010344883427023888 -0.00041033359593711793 0.07999999821186066
-0.010135790333151817 -0.00041033359593711793 0.07999999821186066
-0.009484739974141121 -0.000409307744121179 0.07979999482631683
-0.009264546446502209 -0.0004087948764208704 0.07970000058412552
-0.009056237526237965 -0.0004087948764208704 0.07970000058412552
-0.008836827240884304 -0.00040828195051290095 0.07959999889135361
-0.008628780022263527 -0.00040828195051290095 0.07959999889135361
-0.00842073280364275 -0.00040828195051290095 0.07959999889135361
-0.008212685585021973 -0.00040828195051290095 0.07959999889135361
-0.008004638366401196 -0.00040828195051290095 0.07959999889135361
-0.007796591147780418 -0.00040828195051290095 0.07959999889135361
-0.007588544394820929 -0.00040828195051290095 0.07959999889135361
-0.007380496710538864 -0.00040828195051290095 0.07959999889135361
-0.007172449491918087 -0.00040828195051290095 0.07959999889135361
-0.006964401807636023 -0.00040828195051290095 0.07959999889135361
-0.006773330271244049 -0.000409307744121179 0.07979999482631683
-0.006564760580658913 -0.000409307744121179 0.07979999482631683
-0.006372120697051287 -0.00041033359593711793 0.07999999821186066
-0.0061784363351762295 -0.0004113594477530569 0.08020000159740448
-0.005976262968033552 -0.0004118723445571959 0.0802999958395958
-0.005773567128926516 -0.0004123852704651654 0.0803999975323677
-0.00557034881785512 -0.00041289819637313485 0.08049999922513962
-0.00536660710349679 -0.0004134111222811043 0.08060000091791153
0.0012028694618493319 -0.0004272598307579756 0.08329999446868896
0.0014205873012542725 -0.0004272598307579756 0.08329999446868896
0.0016383050242438912 -0.0004272598307579756 0.08329999446868896
0.001853794907219708 -0.000426746963057667 0.08320000022649765
0.0020662720780819654 -0.00042572111124172807 0.08299999684095383
0.002280455082654953 -0.0004252081853337586 0.08289999514818192
0.002494115149602294 -0.0004246952885296196 0.0828000009059906
0.002710526343435049 -0.0004246952885296196 0.0828000009059906
0.002923402236774564 -0.0004241823626216501 0.08269999921321869
0.0031357554253190756 -0.0004236694367136806 0.08259999752044678
0.0033475859090685844 -0.00042315651080571115 0.08249999582767487
0.0035632129292935133 -0.00042315651080571115 0.08249999582767487
0.0037788397166877985 -0.00042315651080571115 0.08249999582767487
0.00399446627125144 -0.00042315651080571115 0.08249999582767487
0.0042100935243070126 -0.00042315651080571115 0.08249999582767487
0.004425720311701298 -0.00042315651080571115 0.08249999582767487
0.004641347099095583 -0.00042315651080571115 0.08249999582767487
0.004856973886489868 -0.00042315651080571115 0.08249999582767487
0.005072600673884153 -0.00042315651080571115 0.08249999582767487
0.005288227461278439 -0.00042315651080571115 0.08249999582767487
0.005503854714334011 -0.00042315651080571115 0.08249999582767487
0.005719481036067009 -0.00042315651080571115 0.08249999582767487
0.0059351082891225815 -0.00042315651080571115 0.08249999582767487
0.007471567485481501 -0.0004246952885296196 0.0828000009059906
0.007687978912144899 -0.0004246952885296196 0.0828000009059906
0.007923481985926628 -0.00042572111124172807 0.08299999684095383
0.008150223642587662 -0.00042623403714969754 0.08309999853372574
0.008387556299567223 -0.0004272598307579756 0.08329999446868896
0.008615604601800442 -0.00042777275666594505 0.08339999616146088
0.009880060330033302 -0.00043546652887016535 0.08489999920129776
-0.013734047301113605 -0.00020501416292972863 0.08150000125169754
-0.013504443690180779 -0.00020476260397117585 0.08139999955892563
-0.013275363482534885 -0.00020451104501262307 0.08129999786615372
-0.013046804815530777 -0.00020425950060598552 0.0811999961733818
-0.012818768620491028 -0.00020400794164743274 0.0810999944806099
-0.012560168281197548 -0.00020325329387560487 0.08079999685287476
-0.012318418361246586 -0.00020275020506232977 0.08060000091791153
-0.012092734687030315 -0.000202498646103777 0.08049999922513962
-0.011882335878908634 -0.000202498646103777 0.08049999922513962
-0.01165743637830019 -0.00020224708714522421 0.0803999975323677
-0.011433059349656105 -0.00020199552818667144 0.0802999958395958
-0.011223182082176208 -0.00020199552818667144 0.0802999958395958
-0.011013306677341461 -0.00020199552818667144 0.0802999958395958
-0.010803429409861565 -0.00020199552818667144 0.0802999958395958
-0.010593552142381668 -0.00020199552818667144 0.0802999958395958
-0.010370745323598385 -0.00020174399833194911 0.08020000159740448
-0.010161129757761955 -0.00020174399833194911 0.08020000159740448
-0.009508511982858181 -0.00020124088041484356 0.07999999821186066
-0.009287795051932335 -0.000200989336008206 0.07989999651908875
-0.009067599661648273 -0.00020073777704965323 0.07979999482631683
-0.008859029971063137 -0.00020073777704965323 0.07979999482631683
-0.008639620617032051 -0.00020048623264301568 0.07970000058412552
-0.00842073280364275 -0.00020023468823637813 0.07959999889135361
-0.008212685585021973 -0.00020023468823637813 0.07959999889135361
-0.008004638366401196 -0.00020023468823637813 0.07959999889135361
-0.007796591147780418 -0.00020023468823637813 0.07959999889135361
-0.007588544394820929 -0.00020023468823637813 0.07959999889135361
-0.007380496710538864 -0.00020023468823637813 0.07959999889135361
-0.007172449491918087 -0.00020023468823637813 0.07959999889135361
-0.006973151583224535 -0.00020048623264301568 0.07970000058412552
-0.006773330271244049 -0.00020073777704965323 0.07979999482631683
-0.0065729874186217785 -0.000200989336008206 0.07989999651908875
-0.006372120697051287 -0.00020124088041484356 0.07999999821186066
-0.006186139304190874 -0.00020199552818667144 0.0802999958395958
-0.005976262968033552 -0.00020199552818667144 0.0802999958395958
-0.005773567128926516 -0.00020224708714522421 0.0803999975323677
-0.00557034881785512 -0.000202498646103777 0.08049999922513962
-0.00536660710349679 -0.00020275020506232977 0.08060000091791153
0.0007683552103117108 -0.0002097936230711639 0.08339999616146088
0.0012043134775012732 -0.0002097936230711639 0.08339999616146088
0.001422292785719037 -0.0002097936230711639 0.08339999616146088
0.0016402718611061573 -0.0002097936230711639 0.08339999616146088
0.0018560228636488318 -0.00020954206411261111 0.08329999446868896
0.0020712511613965034 -0.00020929051970597357 0.08320000022649765
0.002285956870764494 -0.00020903897529933602 0.08309999853372574
0.002500139642506838 -0.00020878741634078324 0.08299999684095383
0.002710526343435049 -0.00020828432752750814 0.0828000009059906
0.0029269373044371605 -0.00020828432752750814 0.0828000009059906
0.003139551728963852 -0.00020803276856895536 0.08269999921321869
0.0033557014539837837 -0.00020803276856895536 0.08269999921321869
0.0035675319377332926 -0.00020778120961040258 0.08259999752044678
0.003783420193940401 -0.00020778120961040258 0.08259999752044678
0.003999308217316866 -0.00020778120961040258 0.08259999752044678
0.0042100935243070126 -0.0002075296506518498 0.08249999582767487
0.004425720311701298 -0.0002075296506518498 0.08249999582767487
0.004641347099095583 -0.0002075296506518498 0.08249999582767487
0.004856973886489868 -0.0002075296506518498 0.08249999582767487
0.005072600673884153 -0.0002075296506518498 0.08249999582767487
0.00529463728889823 -0.00020778120961040258 0.08259999752044678
0.005510526243597269 -0.00020778120961040258 0.08259999752044678
0.005726414266973734 -0.00020778120961040258 0.08259999752044678
0.005942302756011486 -0.00020778120961040258 0.08259999752044678
0.007480590604245663 -0.00020853585738223046 0.08289999514818192
0.007706548552960157 -0.00020878741634078324 0.08299999684095383
0.00794257503002882 -0.00020929051970597357 0.08320000022649765
0.008169838227331638 -0.00020954206411261111 0.08329999446868896
0.008397625759243965 -0.0002097936230711639 0.08339999616146088
0.008625935763120651 -0.00021004516747780144 0.08349999785423279
0.009391802363097668 -0.00021256068430375308 0.08449999988079071
0.009646784514188766 -0.00021331533207558095 0.08479999750852585
-0.01357080414891243 8.02849081082968e-06 0.08179999887943268
-0.013308022171258926 7.999046829354484e-06 0.08150000125169754
-0.013078940100967884 7.98923156253295e-06 0.08139999955892563
-0.01286618784070015 7.98923156253295e-06 0.08139999955892563
-0.012622347101569176 7.969601938384585e-06 0.0811999961733818
-0.01237955130636692 7.94997231423622e-06 0.08100000023841858
-0.011897096410393715 7.91071306593949e-06 0.08060000091791153
-0.011671936139464378 7.900898708612658e-06 0.08049999922513962
-0.011461535468697548 7.900898708612658e-06 0.08049999922513962
-0.011237159371376038 7.891083441791125e-06 0.0803999975323677
-0.011027021333575249 7.891083441791125e-06 0.0803999975323677
-0.01081688329577446 7.891083441791125e-06 0.0803999975323677
-0.010593552142381668 7.881268174969591e-06 0.0802999958395958
-0.010383675806224346 7.881268174969591e-06 0.0802999958395958
-0.01017379853874445 7.881268174969591e-06 0.0802999958395958
-0.009951514191925526 7.871454727137461e-06 0.08020000159740448
-0.009729751385748386 7.861639460315928e-06 0.08009999990463257
-0.009508511982858181 7.851824193494394e-06 0.07999999821186066
-0.00929941888898611 7.851824193494394e-06 0.07999999821186066
-0.009078962728381157 7.842009836167563e-06 0.07989999651908875
-0.008859029971063137 7.83219456934603e-06 0.07979999482631683
-0.008639620617032051 7.822380212019198e-06 0.07970000058412552
-0.00842073280364275 7.812564945197664e-06 0.07959999889135361
-0.008212685585021973 7.812564945197664e-06 0.07959999889135361
-0.008004638366401196 7.812564945197664e-06 0.07959999889135361
-0.007796591147780418 7.812564945197664e-06 0.07959999889135361
-0.007588544394820929 7.812564945197664e-06 0.07959999889135361
-0.007380496710538864 7.812564945197664e-06 0.07959999889135361
-0.007172449491918087 7.812564945197664e-06 0.07959999889135361
-0.006973151583224535 7.822380212019198e-06 0.07970000058412552
-0.006773330271244049 7.83219456934603e-06 0.07979999482631683
-0.006581213790923357 7.851824193494394e-06 0.07999999821186066
-0.006380086299031973 7.861639460315928e-06 0.08009999990463257
-0.006186139304190874 7.881268174969591e-06 0.0802999958395958
-0.005983705632388592 7.891083441791125e-06 0.0803999975323677
-0.005773567128926516 7.891083441791125e-06 0.0803999975323677
-0.00557034881785512 7.900898708612658e-06 0.08049999922513962
-0.00536660710349679 7.91071306593949e-06 0.08060000091791153
-0.005155946593731642 7.91071306593949e-06 0.08060000091791153
0.0009875170653685927 8.195342161343433e-06 0.08349999785423279
0.0012043134775012732 8.1855268945219e-06 0.08339999616146088
0.001422292785719037 8.1855268945219e-06 0.08339999616146088
0.0016402718611061573 8.1855268945219e-06 0.08339999616146088
0.0018582510529085994 8.1855268945219e-06 0.08339999616146088
0.0020737405866384506 8.175711627700366e-06 0.08329999446868896
0.0022887077648192644 8.165897270373534e-06 0.08320000022649765
0.002503151772543788 8.156082913046703e-06 0.08309999853372574
0.0027170733083039522 8.14626764622517e-06 0.08299999684095383
0.0029304721392691135 8.136452379403636e-06 0.08289999514818192
0.0031433480326086283 8.126638931571506e-06 0.0828000009059906
0.0033557014539837837 8.116823664749973e-06 0.08269999921321869
0.003571850946173072 8.116823664749973e-06 0.08269999921321869
0.0037880006711930037 8.116823664749973e-06 0.08269999921321869
0.003999308217316866 8.107008397928439e-06 0.08259999752044678
0.004215196706354618 8.107008397928439e-06 0.08259999752044678
0.004431084729731083 8.107008397928439e-06 0.08259999752044678
0.004646973218768835 8.107008397928439e-06 0.08259999752044678
0.0048628612421453 8.107008397928439e-06 0.08259999752044678
0.005078749265521765 8.107008397928439e-06 0.08259999752044678
0.00529463728889823 8.107008397928439e-06 0.08259999752044678
0.005510526243597269 8.107008397928439e-06 0.08259999752044678
0.005726414266973734 8.107008397928439e-06 0.08259999752044678
0.005942302756011486 8.107008397928439e-06 0.08259999752044678
0.007047245744615793 8.136452379403636e-06 0.08289999514818192
0.007272680755704641 8.14626764622517e-06 0.08299999684095383
0.007498638238757849 8.156082913046703e-06 0.08309999853372574
0.007725118659436703 8.165897270373534e-06 0.08320000022649765
0.007952121086418629 8.175711627700366e-06 0.08329999446868896
0.008179645985364914 8.1855268945219e-06 0.08339999616146088
0.008918317966163158 8.264044481620658e-06 0.08419999480247498
0.009160094894468784 8.283675015263725e-06 0.0843999981880188
0.00941403117030859 8.313118996738922e-06 0.08469999581575394
-0.01402052491903305 0.00022562233789358288 0.08320000022649765
-0.013357007876038551 0.00022182580141816288 0.08179999887943268
-0.013111074455082417 0.00022128343698568642 0.08159999549388885
-0.012881994247436523 0.0002210122620454058 0.08150000125169754
-0.012653437443077564 0.0002207410871051252 0.08139999955892563
-0.012425401248037815 0.00022046989761292934 0.08129999786615372
-0.011700933799147606 0.00021884280431549996 0.08069999516010284
-0.011461535468697548 0.00021830045443493873 0.08049999922513962
-0.011251135729253292 0.00021830045443493873 0.08049999922513962
-0.011027021333575249 0.00021802926494274288 0.0803999975323677
-0.01081688329577446 0.00021802926494274288 0.0803999975323677
-0.010593552142381668 0.00021775809000246227 0.0802999958395958
-0.010383675806224346 0.00021775809000246227 0.0802999958395958
-0.01017379853874445 0.00021775809000246227 0.0802999958395958
-0.009951514191925526 0.00021748691506218165 0.08020000159740448
-0.009729751385748386 0.00021721574012190104 0.08009999990463257
-0.009508511982858181 0.0002169445506297052 0.07999999821186066
-0.009287795051932335 0.00021667336113750935 0.07989999651908875
-0.009067599661648273 0.0002164021716453135 0.07979999482631683
-0.008859029971063137 0.0002164021716453135 0.07979999482631683
-0.008639620617032051 0.0002161310112569481 0.07970000058412552
-0.00842073280364275 0.00021585982176475227 0.07959999889135361
-0.008212685585021973 0.00021585982176475227 0.07959999889135361
-0.008004638366401196 0.00021585982176475227 0.07959999889135361
-0.007796591147780418 0.00021585982176475227 0.07959999889135361
-0.007588544394820929 0.00021585982176475227 0.07959999889135361
-0.007380496710538864 0.00021585982176475227 0.07959999889135361
-0.007172449491918087 0.00021585982176475227 0.07959999889135361
-0.006973151583224535 0.0002161310112569481 0.07970000058412552
-0.006773330271244049 0.0002164021716453135 0.07979999482631683
-0.0065729874186217785 0.00021667336113750935 0.07989999651908875
-0.006380086299031973 0.00021721574012190104 0.08009999990463257
-0.006186139304190874 0.00021775809000246227 0.0802999958395958
-0.005983705632388592 0.00021802926494274288 0.0803999975323677
-0.005773567128926516 0.00021802926494274288 0.0803999975323677
-0.00557034881785512 0.00021830045443493873 0.08049999922513962
-0.005359949078410864 0.00021830045443493873 0.08049999922513962
-0.005155946593731642 0.00021857164392713457 0.08060000091791153
-0.004945285618305206 0.00021857164392713457 0.08060000091791153
0.0009875170653685927 0.00022643587726633996 0.08349999785423279
0.0012043134775012732 0.0002261646877741441 0.08339999616146088
0.001422292785719037 0.0002261646877741441 0.08339999616146088
0.0016402718611061573 0.0002261646877741441 0.08339999616146088
0.0018582510529085994 0.0002261646877741441 0.08339999616146088
0.0020737405866384506 0.00022589349828194827 0.08329999446868896
0.0022887077648192644 0.00022562233789358288 0.08320000022649765
0.0025061641354113817 0.00022562233789358288 0.08320000022649765
0.0027170733083039522 0.0002250799589091912 0.08299999684095383
0.0029304721392691135 0.00022480878396891057 0.08289999514818192
0.003147144103422761 0.00022480878396891057 0.08289999514818192
0.0033597592264413834 0.00022453760902862996 0.0828000009059906
0.003576170187443495 0.00022453760902862996 0.0828000009059906
0.0037880006711930037 0.00022426643408834934 0.08269999921321869
0.004008992109447718 0.00022453760902862996 0.0828000009059906
0.004220299888402224 0.00022426643408834934 0.08269999921321869
0.004436449613422155 0.00022426643408834934 0.08269999921321869
0.004646973218768835 0.0002239952445961535 0.08259999752044678
0.0048628612421453 0.0002239952445961535 0.08259999752044678
0.0050848983228206635 0.00022426643408834934 0.08269999921321869
0.005301047582179308 0.00022426643408834934 0.08269999921321869
0.00551719730719924 0.00022426643408834934 0.08269999921321869
0.0057333470322191715 0.00022426643408834934 0.08269999921321869
0.005956691224128008 0.00022453760902862996 0.0828000009059906
0.007064247969537973 0.00022535114840138704 0.08309999853372574
0.007290205918252468 0.00022562233789358288 0.08320000022649765
0.00751668494194746 0.00022589349828194827 0.08329999446868896
0.007743688300251961 0.0002261646877741441 0.08339999616146088
0.007961667142808437 0.0002261646877741441 0.08339999616146088
0.00818945374339819 0.00022643587726633996 0.08349999785423279
0.008939501829445362 0.0002288764953846112 0.0843999981880188
-0.013686935417354107 0.0004393509298097342 0.08249999582767487
-0.013159277848899364 0.0004361556493677199 0.08190000057220459
-0.012913606129586697 0.00043509056558832526 0.08169999718666077
-0.012668982148170471 0.00043402548180893064 0.08150000125169754
-0.01244068518280983 0.00043349291081540287 0.08139999955892563
-0.012212910689413548 0.00043296036892570555 0.08129999786615372
-0.011970899067819118 0.00043189525604248047 0.0810999944806099
-0.011729933321475983 0.00043083017226308584 0.08089999854564667
-0.01149001158773899 0.0004297650884836912 0.08069999516010284
-0.011265113018453121 0.0004292325465939939 0.08060000091791153
-0.011040736921131611 0.0004287000047042966 0.08049999922513962
-0.01081688329577446 0.0004281674337107688 0.0803999975323677
-0.010606744326651096 0.0004281674337107688 0.0803999975323677
-0.010396607220172882 0.0004281674337107688 0.0803999975323677
-0.01017379853874445 0.0004276348918210715 0.0802999958395958
-0.009951514191925526 0.00042710237903520465 0.08020000159740448
-0.009729751385748386 0.0004265698080416769 0.08009999990463257
-0.009508511982858181 0.00042603726615197957 0.07999999821186066
-0.009276170283555984 0.0004249721532687545 0.07979999482631683
-0.009067599661648273 0.0004249721532687545 0.07979999482631683
-0.008847929537296295 0.0004244396404828876 0.07970000058412552
-0.008628780022263527 0.00042390706948935986 0.07959999889135361
-0.00842073280364275 0.00042390706948935986 0.07959999889135361
-0.008212685585021973 0.00042390706948935986 0.07959999889135361
-0.008004638366401196 0.00042390706948935986 0.07959999889135361
-0.007796591147780418 0.00042390706948935986 0.07959999889135361
-0.007588544394820929 0.00042390706948935986 0.07959999889135361
-0.007380496710538864 0.00042390706948935986 0.07959999889135361
-0.007172449491918087 0.00042390706948935986 0.07959999889135361
-0.006964401807636023 0.00042390706948935986 0.07959999889135361
-0.006764843128621578 0.0004244396404828876 0.07970000058412552
-0.0065729874186217785 0.0004255046951584518 0.07989999651908875
-0.006380086299031973 0.0004265698080416769 0.08009999990463257
-0.006186139304190874 0.0004276348918210715 0.0802999958395958
-0.005976262968033552 0.0004276348918210715 0.0802999958395958
-0.005773567128926516 0.0004281674337107688 0.0803999975323677
-0.00557034881785512 0.0004287000047042966 0.08049999922513962
0.0005510360351763666 0.00044467640691436827 0.08349999785423279
0.0007683552103117108 0.0004441438359208405 0.08339999616146088
0.000986334402114153 0.0004441438359208405 0.08339999616146088
0.0012043134775012732 0.0004441438359208405 0.08339999616146088
0.001422292785719037 0.0004441438359208405 0.08339999616146088
0.0016402718611061573 0.0004441438359208405 0.08339999616146088
0.0018560228636488318 0.0004436112940311432 0.08329999446868896
0.0020737405866384506 0.0004436112940311432 0.08329999446868896
0.0022887077648192644 0.0004430787521414459 0.08320000022649765
0.0025061641354113817 0.0004430787521414459 0.08320000022649765
0.0027203469071537256 0.00044254621025174856 0.08309999853372574
0.0029340072069317102 0.00044201366836205125 0.08299999684095383
0.003147144103422761 0.0004414810973685235 0.08289999514818192
0.0033638165332376957 0.0004414810973685235 0.08289999514818192
0.003576170187443495 0.0004409485845826566 0.0828000009059906
0.0037925811484456062 0.0004409485845826566 0.0828000009059906
0.004008992109447718 0.0004409485845826566 0.0828000009059906
0.004220299888402224 0.00044041601358912885 0.08269999921321869
0.004436449613422155 0.00044041601358912885 0.08269999921321869
0.004658224992454052 0.0004409485845826566 0.0828000009059906
0.004868748597800732 0.00044041601358912885 0.08269999921321869
0.0050848983228206635 0.00044041601358912885 0.08269999921321869
0.005307457409799099 0.0004409485845826566 0.0828000009059906
0.005523868836462498 0.0004409485845826566 0.0828000009059906
0.005740279797464609 0.0004409485845826566 0.0828000009059906
0.005956691224128008 0.0004409485845826566 0.0828000009059906
0.0070727490819990635 0.0004430787521414459 0.08320000022649765
0.007298967335373163 0.0004436112940311432 0.08329999446868896
0.007525708992034197 0.0004441438359208405 0.08339999616146088
0.007743688300251961 0.0004441438359208405 0.08339999616146088
0.00797121413052082 0.00044467640691436827 0.08349999785423279
0.008218877017498016 0.0004462740325834602 0.08379999548196793
0.008458040654659271 0.0004473391454666853 0.08399999886751175
0.008708578534424305 0.00044893677113577724 0.08429999649524689
-0.014138485305011272 0.0006660924991592765 0.08389999717473984
-0.013191412203013897 0.0006518021109513938 0.08209999650716782
-0.012961024418473244 0.0006510081584565341 0.0819999948143959
-0.012700071558356285 0.0006486264755949378 0.08169999718666077
-0.01245596818625927 0.0006470386288128793 0.08150000125169754
-0.012227932922542095 0.0006462447345256805 0.08139999955892563
-0.012000421062111855 0.0006454507820308208 0.08129999786615372
-0.011773430742323399 0.0006446568877436221 0.0811999961733818
-0.011518487706780434 0.0006422751466743648 0.08089999854564667
-0.011279088445007801 0.0006406872998923063 0.08069999516010284
-0.011040736921131611 0.0006390995113179088 0.08049999922513962
-0.010830337181687355 0.0006390995113179088 0.08049999922513962
-0.010606744326651096 0.00063830561703071 0.0803999975323677
-0.010396607220172882 0.00063830561703071 0.0803999975323677
-0.01017379853874445 0.0006375116645358503 0.0802999958395958
-0.009951514191925526 0.0006367177702486515 0.08020000159740448
-0.009717604145407677 0.000635129923466593 0.07999999821186066
-0.009496625512838364 0.0006343360291793942 0.07989999651908875
-0.009276170283555984 0.0006335420766845345 0.07979999482631683
-0.009056237526237965 0.0006327482406049967 0.07970000058412552
-0.008836827240884304 0.000631954288110137 0.07959999889135361
-0.008628780022263527 0.000631954288110137 0.07959999889135361
-0.00842073280364275 0.000631954288110137 0.07959999889135361
-0.008202368393540382 0.0006311603938229382 0.0794999971985817
-0.007994581945240498 0.0006311603938229382 0.0794999971985817
-0.007786796428263187 0.0006311603938229382 0.0794999971985817
-0.007588544394820929 0.000631954288110137 0.07959999889135361
-0.007380496710538864 0.000631954288110137 0.07959999889135361
-0.007172449491918087 0.000631954288110137 0.07959999889135361
-0.006964401807636023 0.000631954288110137 0.07959999889135361
-0.006764843128621578 0.0006327482406049967 0.07970000058412552
-0.0065729874186217785 0.0006343360291793942 0.07989999651908875
-0.006372120697051287 0.000635129923466593 0.07999999821186066
-0.0061784363351762295 0.0006367177702486515 0.08020000159740448
-0.005983705632388592 0.00063830561703071 0.0803999975323677
-0.005773567128926516 0.00063830561703071 0.0803999975323677
-0.005563429091125727 0.00063830561703071 0.0803999975323677
-0.005149549338966608 0.0006390995113179088 0.08049999922513962
0.0005503760767169297 0.0006621229695156217 0.08339999616146088
0.0007683552103117108 0.0006621229695156217 0.08339999616146088
0.000986334402114153 0.0006621229695156217 0.08339999616146088
0.0012043134775012732 0.0006621229695156217 0.08339999616146088
0.001422292785719037 0.0006621229695156217 0.08339999616146088
0.0016402718611061573 0.0006621229695156217 0.08339999616146088
0.0018560228636488318 0.000661329017020762 0.08329999446868896
0.0020737405866384506 0.000661329017020762 0.08329999446868896
0.0022887077648192644 0.0006605351809412241 0.08320000022649765
0.002503151772543788 0.0006597412284463644 0.08309999853372574
0.0027203469071537256 0.0006597412284463644 0.08309999853372574
0.0029340072069317102 0.0006589473341591656 0.08299999684095383
0.003147144103422761 0.0006581533816643059 0.08289999514818192
0.0033597592264413834 0.0006573594873771071 0.0828000009059906
0.003576170187443495 0.0006573594873771071 0.0828000009059906
0.0037925811484456062 0.0006573594873771071 0.0828000009059906
0.004008992109447718 0.0006573594873771071 0.0828000009059906
0.004225403070449829 0.0006573594873771071 0.0828000009059906
0.0044418140314519405 0.0006573594873771071 0.0828000009059906
0.004658224992454052 0.0006573594873771071 0.0828000009059906
0.004874635953456163 0.0006573594873771071 0.0828000009059906
0.005091046914458275 0.0006573594873771071 0.0828000009059906
0.00531386723741889 0.0006581533816643059 0.08289999514818192
0.005530539900064468 0.0006581533816643059 0.08289999514818192
