ply
format ascii 1.0
element vertex 755
property float x
property float y
property float z
end_header
-0.006465922524772199 0.0022719629662279047 0.06097893854540589
-0.006470478115361146 0.0027403929943828837 0.06145693034429108
-0.0062914409022875335 0.0032307027458377507 0.06125103787158468
-0.006265740805824828 0.003702738467689257 0.061616327022972726
-0.006170240909406949 0.004183092736210413 0.06172161164354585
-0.006082635095467549 0.004662506124876287 0.061856301669016275
-0.006024376074605078 0.00513842213644971 0.06210030870552249
-0.0059135253215307285 0.005620605774288343 0.062148411222879035
-0.005778608516914374 0.006105657372462556 0.06210686744090886
-0.005742055547274418 0.006578986592195918 0.0624317296779424
-0.0056388547631842185 0.007060258469638423 0.0625083283027018
-0.0053718306081676805 0.007561053984030975 0.06197468385116194
-0.0054293546866080785 0.008023171541329331 0.06264998364059406
-0.005371095684334958 0.008499087440856062 0.06289399063837645
-0.005260244921965931 0.008981271134718043 0.0629420931750949
-0.005191309738821486 0.00945845935828769 0.06314633132389022
-0.005024174045879664 0.00994735075701948 0.0629847720975518
-0.007401225143731163 -0.0018851338146098561 0.05845278952197103
-0.007159945108275169 -0.0009184336151908893 0.05847606407312508
-0.0070291156703353765 3.51037357836845e-05 0.05891076787843771
-0.006937710099800963 0.0009839432229197921 0.05949232629955588
-0.006943569597392407 0.0014522176394935176 0.05997517494527619
-0.0068553251798458325 0.0019317072429886613 0.06010748627577857
-0.006787496958948825 0.0024087637650125173 0.06031584808268561
-0.006659835983031068 0.0028929505809613385 0.06030133223952493
-0.006649377883534854 0.003363170071495851 0.06072339815297112
-0.006605253877326432 0.003837401445857978 0.06102005811071218
-0.00657297360352297 0.004310221573958904 0.0613608362710701
-0.006484729061261798 0.004789711082485474 0.06149314702904043
-0.006372418566903655 0.005272068628734301 0.06153581194584253
-0.0063045903892417305 0.005749125090689995 0.06174417385981592
-0.006139688319665319 0.006237750155256513 0.06159093475454562
-0.006083663013513754 0.006713399972796718 0.061843262400840336
-0.005963702598930063 0.00719666916379959 0.06185743128389644
-0.005867107347474583 0.0076771539702506185 0.061958635699234876
-0.005747147073166648 0.008160423062162765 0.06197280502384219
-0.005703022946281218 0.008634654450906462 0.062269464532060545
-0.005567467514806917 0.009119782301003123 0.06222554200225343
-0.005455156684549412 0.009602139777451127 0.06226820555985876
-0.005387328614498665 0.01007919628149802 0.06247656792866917
-0.00529908404610583 0.010558685902970127 0.06260887869726817
-0.0051867736452273034 0.011041043108584642 0.06265154363837462
-0.007963573990716743 -0.0027149733974552543 0.05776454062829587
-0.007877812121842452 -0.0017668064932773928 0.0583671218778725
-0.007530285513818054 -0.0007874444562232872 0.05799462719742677
-0.007525197253529894 -0.00031786535066629013 0.058436695367890215
-0.007421996429232802 0.00016340666885698656 0.05851329397784027
-0.007374560812630187 0.0006380329210068018 0.058797618379462666
-0.007348860694073406 0.0011100688651539926 0.05916290766448872
-0.007261255305475395 0.0015894818736362302 0.05929759895045095
-0.007173649510658211 0.002068895369854554 0.05943228915512105
-0.0071153904334948235 0.0025448114979689084 0.05967629608987524
-0.007027784630602461 0.00302422477548694 0.05981098604852667
-0.007041755871845297 0.003491532921791763 0.060324051428393845
-0.006954150219799195 0.003970946181332829 0.06045874194894865
-0.0069681214308727766 0.004438254331233046 0.06097180721643515
-0.006857271067979912 0.0049204378676564985 0.06101991113323583
-0.006769665269125137 0.005399851254524676 0.061154601214896596
-0.006722229695757605 0.005874477446606328 0.061438925723585336
-0.006555094045598693 0.006363368696085893 0.06127736651490386
-0.006459593917240606 0.006843722889281445 0.06138265017027685
-0.0063410023419652045 0.007326828950117846 0.06140191798940335
-0.006245502460631952 0.007807183216841307 0.06150720266616681
-0.00615789665773959 0.008286596494359337 0.061641892624818236
-0.006062396557146396 0.008766950567550254 0.06174717626889828
-0.0059515460474448565 0.009249134231300818 0.061795279746804904
-0.0058166293965556575 0.009734185735645703 0.061753736463240574
-0.005729023541399968 0.010213599239054814 0.06188842644314932
-0.005594106838247442 0.010698650969290778 0.06184688318084231
-0.005483256402903306 0.011180834184854578 0.06189498650385362
-0.005617698362919328 0.01163378534397365 0.06285680616017937
-0.005331809691314132 0.012136829019792371 0.06225289125139736
-0.005389333770287393 0.01259894679668987 0.06292819125875299
-0.005341898311007623 0.01307357259076559 0.06321251581452692
-0.008672655385148654 -0.0035622998608344273 0.05762287325127959
-0.0084350473861985 -0.0025960368336658034 0.057659826596174094
-0.008307385951798238 -0.00211184930408982 0.05764530969297862
-0.008210791091477309 -0.0016313649835771812 0.05774651513341884
-0.008114196110479371 -0.0011508806486829727 0.057847720124336345
-0.008025951270563266 -0.0006713909948523288 0.05798002988150925
-0.007958123576562441 -0.00019433497494612904 0.058188393219231103
-0.007913999397413683 0.00027989663968864837 0.05848505274870679
-0.007846171176516677 0.0007569531617125055 0.058693414555613825
-0.007790145589428034 0.0012326031156999924 0.058945741256637166
-0.0077223176540731926 0.001709659164369335 0.05915410369531362
-0.007654489674530203 0.002186715657630049 0.059362466401266065
-0.007566244894952602 0.0026662053042699066 0.05949477638320032
-0.007522121130098197 0.0031404366498688913 0.05979143723998679
-0.007433876410859101 0.003619926289317963 0.059923747446682406
-0.007337281256920826 0.004100410864484823 0.06002495200933453
-0.007201725780192647 0.004585538719974572 0.059981029310956405
-0.007228036060509384 0.005051376262807192 0.06054005759036508
-0.007226058895784359 0.005520584935903811 0.06099371493763482
-0.007050333465092209 0.006010499953821549 0.06080015882365481
-0.006938022616869184 0.00649285750791961 0.06084282238856734
-0.006833452977762238 0.006974292551722916 0.06091432205248262
-0.006728883376990688 0.007455727556635347 0.06098582182545712
-0.006491750743525483 0.00795296077642017 0.060563523502359225
-0.006518061140481639 0.00841879819552107 0.06112255210828126
-0.006413491167108559 0.008900233162464454 0.06119405041233548
-0.0063252467495619824 0.009379722765959598 0.06132636174283785
-0.006220677138219929 0.009861157689758267 0.06139786139546018
-0.006100716690971658 0.010344427021943065 0.0614120302918021
-0.005988406079974095 0.01082678469192361 0.06145469488209084
-0.005860744914965649 0.011310971310744496 0.061440178118627425
-0.005740784709071393 0.011794240614166148 0.06145434791401477
-0.005644189593377548 0.012274725404437907 0.06155555283506626
-0.0055763613724805405 0.012751781926461765 0.06176391464197329
-0.005582220839902734 0.013220056346630881 0.06224676317531293
-0.005614596825873862 0.013685171124398422 0.06282838635900212
-0.009152284932338692 -0.0034443351348755133 0.05754853919844219
-0.00891026522330898 -0.002477546346212939 0.0575690588921984
-0.008799414458234525 -0.0019953622127032557 0.05761716185071629
-0.00868856402289039 -0.001513178997139455 0.057665265173727595
-0.008593063944391272 -0.0010328251462442238 0.057770548684169636
-0.008497563942381011 -0.0005524708651391925 0.05787583291141039
-0.008402063924220394 -7.211702143474614e-05 0.057981116646613776
-0.008343804847057008 0.0004037991066796094 0.05822512358136797
-0.008338716542580699 0.0008733786568279776 0.05866719201910743
-0.00824321641989343 0.00135373295231458 0.05877247579682547
-0.008217516345524797 0.0018257684518704004 0.05913776481457552
-0.008148580973412601 0.0023029569176227505 0.05934200247540322
-0.008122881096209837 0.002774992833006798 0.05970729265947469
-0.008012030548263872 0.0032571762816524627 0.059755395778981965
-0.007986330610722604 0.003729212204227296 0.06012068573829208
-0.007898724837999494 0.004208625478149934 0.060255375809324184
-0.007811119103520811 0.004688038967177472 0.060390066238755646
-0.00767620230582294 0.00517309059884947 0.060348522516297264
-0.007565351822253066 0.005655274149654494 0.06039662598357523
-0.0074100187545012896 0.006142758926461333 0.06027903156526517
-0.007314518666111828 0.0066231130737069155 0.06038431532903309
-0.007245583439175074 0.007100301419191251 0.060588553429419136
-0.007198147794898533 0.007574927537349927 0.06087287759299435
-0.007042814714080926 0.008062412370629537 0.06075528317999861
-0.00692422327908128 0.008545518332375211 0.060774551440676325
-0.00678930647734582 0.009030569854697062 0.06073300759520861
-0.006720371256079882 0.009507758302472448 0.06093724581793969
-0.006617170484046118 0.009989030096104646 0.06101384440663243
-0.006513969539072018 0.010470302130009495 0.06109044256705976
-0.006395378051809045 0.010953408317646247 0.0611097108489948
-0.00630777230118001 0.0114328213692732 0.0612444007863889
-0.006105261660121538 0.01192592854493385 0.060951069629007766
-0.006057826103857426 0.01240055478989288 0.06123539425539152
-0.005954625279560335 0.012881826809416156 0.061311992865341565
-0.0058856901326518 0.013359014809004777 0.06151623093317733
-0.006045190273756255 0.013808979682423488 0.06257139249065732
-0.005934339628293083 0.014291163362353318 0.06261949546285091
-0.005846733925049381 0.014770577286983744 0.06275418644051008
-0.005821033887920921 0.0152426127821015 0.06311947559698002
-0.009667302408908904 -0.0033305877328756103 0.057606025431945616
-0.009336101907832725 -0.0023531709052865253 0.05729434604681892
-0.009280076155878923 -0.0018775204923260956 0.05754667256559555
-0.009160115813157307 -0.0013942516119234548 0.05756084141942283
-0.009071871560475892 -0.0009147624674012548 0.057693152932171914
-0.009004043520594397 -0.0004377059669497551 0.05790151541336301
-0.00888408317787278 4.5562913452884806e-05 0.057915684267190286
-0.008828057590784137 0.0005212128674403724 0.058168010968213626
-0.008715747100463581 0.0010035705230393465 0.058210676008025077
-0.008561521080353409 0.0014909234233766405 0.05809720540396665
-0.008581443793816387 0.0019575218691243084 0.05863243962792023
-0.00865083655463327 0.0024182252067715404 0.059351950558788974
-0.00863018592414638 0.0028896593828189616 0.0597360492224621
-0.00851787518439663 0.0033720168484807867 0.05977871311720944
-0.008450047265192143 0.003849073334550714 0.05998707604792325
-0.008361802628385626 0.004328562744513315 0.06011938634574221
-0.008241842392322118 0.004811832051530362 0.060133556028748876
-0.008145247302759938 0.005292316728856581 0.0602347609391717
-0.007980345104340373 0.0057809418431001534 0.06008152138770015
-0.007844789701016533 0.006266069634926347 0.060037598908769044
-0.007732479003639769 0.006748427171047443 0.06008026303558496
-0.007738338360864489 0.007216701940707669 0.06056311148909419
-0.0075202654264600165 0.007711663601085449 0.06021181054436089
-0.0074320208882364324 0.008191153218962164 0.060344121425340555
-0.007319710208825188 0.008673510677433202 0.06038678554484926
-0.007231465843541941 0.009153000055037268 0.06051909685409432
-0.007143221275149103 0.009632489676509376 0.060651407622693304
-0.007007665880853506 0.010117617302512653 0.060607485015438535
-0.0069516402937648625 0.010593267256500142 0.060859811716461876
-0.006797414273654689 0.011080620156837436 0.06074634111240344
-0.006692844714575963 0.011562054854745029 0.06081784074376845
-0.006596249478205108 0.012042539659398359 0.06091904521529723
-0.00649965433234201 0.012523024453265509 0.061020250023968034
-0.006395084698905882 0.013004459599359867 0.061091749810228364
-0.006350960594114526 0.013478690765807879 0.061388409184808715
-0.006231000267543264 0.013961960083611105 0.06140257853067335
-0.0063558267061428085 0.014416057163657407 0.062328580301956454
-0.006399689535997941 0.014879803446687859 0.06295299249194533
-0.006181616637629557 0.015374764800734936 0.06260169138453114
-0.00617963927483679 0.015843974046592706 0.06305534853384363
-0.01076778252682625 -0.0037555850198761754 0.05938334215467201
-0.010104442604535732 -0.002738585782031575 0.05783444108473883
-0.009883258749050721 -0.0022432536825293904 0.057471551640140464
-0.00974834179052528 -0.0017582014825343044 0.057430007858444716
-0.009621775709031166 -0.0012741453692847531 0.057419570288789884
-0.009503184326294847 -0.0007910396334301576 0.05743883852821027
-0.009407684143269073 -0.0003106853307527687 0.057544122081166965
-0.009281118182451966 0.00017337076811521006 0.05753368496103484
-0.009285673600100578 0.0006418010365428382 0.058011676331654646
-0.009083163200396125 0.0011349081834403463 0.057718346073318924
-0.009087718738721745 0.001603338437486402 0.058196337893461444
-0.009000113108769718 0.0020827514747317833 0.058331028280378255
-0.008995024804293409 0.0025523310248801515 0.05877309671811771
-0.009082686012699709 0.003010857237076353 0.0595606577450056
-0.009077597760486727 0.0034804365613336436 0.06000272616148773
-0.009041044645671327 0.00395376590133502 0.060327587958962946
-0.00898278565094052 0.0044296817999629045 0.060571594984840486
-0.008879584826643427 0.004910953819486181 0.06064819359479054
-0.009078944555130773 0.005356168353381962 0.061851832288216606
-0.008621012779518841 0.005879714998165395 0.060607055496550634
-0.008418502151526203 0.006372822117353277 0.060313724333855165
-0.008197318255981597 0.006868154516801206 0.05995083503020201
-0.008062401426481245 0.007353206159127692 0.05990929119602724
-0.007951550677921016 0.007835389714054867 0.05995739364922195
-0.007856050796587764 0.008315743980778327 0.060062678325985414
-0.007760550726163822 0.008796098050373851 0.060167962082446125
-0.007691615406314953 0.009273286290235123 0.06037219972201651
-0.007588414582017859 0.0097545583097584 0.060448798331966556
-0.007477564215087405 0.010236741736831706 0.060496902125757895
-0.007382063971723128 0.01071709604669988 0.06060218545395323
-0.007263472454290903 0.011200202237932026 0.06062145362350759
-0.007160271613843457 0.011681473820054718 0.06069805174142028
-0.007064771491156186 0.01216182811554132 0.06080333551913833
-0.006961570666859095 0.012643100135064596 0.06087993412908838
-0.006835004511007578 0.013127156696500912 0.060869496714328876
-0.006731803821406393 0.013608428260646638 0.06094609539414496
-0.0066628685699712045 0.014085616712017418 0.06115033350449537
-0.00653630244428894 0.014569673269858339 0.06113989620211655
-0.006488866753328919 0.015044299970194916 0.061424220758634275
-0.00657652800592337 0.015502825737799746 0.062211781518246155
-0.011106310572245343 -0.0036208046521294035 0.05878340401331204
-0.01116239216015779 -0.003158515407010809 0.05945333029942288
-0.010580376961384638 -0.002620180685159988 0.057746342421838515
-0.01040465159198406 -0.002130266058956245 0.05755278615827751
-0.010228925772176154 -0.0016403505004250448 0.05735922908070039
-0.010101264546829204 -0.0011561638744133729 0.057344712092475617
-0.00997360356283627 -0.000671977277164846 0.057330196003296266
-0.009853643115588 -0.00018870794498004927 0.05734436489963819
-0.009733682772866382 0.00029456093542259054 0.05735853375346547
-0.009637087687341788 0.0007750457220989567 0.05745973878689763
-0.009501532150275108 0.0012601735847794925 0.05741581586375815
-0.009433704050055109 0.001737230092421777 0.0576241781201879
-0.009377678808847136 0.0022128795658639647 0.057876505677742
-0.00943376029223293 0.0026751692627647173 0.058546432006367485
-0.009617464108070396 0.0031222496854925973 0.05969175242280556
-0.009615486969477033 0.0035914582456436786 0.06014540975944664
-0.009527242401084197 0.0040709478671157855 0.060277720528045635
-0.009483118394875775 0.004545179241477913 0.06057438048578669
-0.009450838121072311 0.005017999369578839 0.060915158646144614
-0.00920451315379518 0.005516327967465746 0.06045861870684418
-0.00914848786436147 0.005991977776149159 0.06071094640866495
-0.009051892731564204 0.006472462513543541 0.06081215121202142
-0.008824175714637013 0.00696857349172768 0.06042492598517536
-0.008626714616316117 0.007461078789806726 0.06015040430885759
-0.008472488628870522 0.007948431548962097 0.06003693369151333
-0.008296762913589273 0.008438346655711141 0.059843376571421567
-0.00826448269204914 0.008911166557920989 0.06018415471052216
-0.008077874678090262 0.009402378332950427 0.059950060735223645
-0.007950213468893663 0.009886565396362684 0.05993554423903623
-0.007894187813391337 0.010362215138840664 0.06018787046927954
-0.007797592908882258 0.010842699903944673 0.060289076176995755
-0.007579519941813205 0.011337661705504378 0.05993777524554828
-0.007611895677822275 0.011802776073735628 0.06051939706624987
-0.0074919352305740025 0.012286045405920425 0.0605335659625918
-0.007403690813027428 0.012765535009415567 0.06066587729309418
-0.007315446365311601 0.013245024616506104 0.06079818851121588
-0.007294795839351364 0.013716458340771369 0.06118228713237435
-0.007076722781774555 0.014211420153117254 0.06083098586378484
-0.006956762334526285 0.014694689485302049 0.06084515476012677
-0.006989138223513069 0.015159804713952896 0.06142677801442578
-0.006933112740951081 0.015635454216158227 0.06167910467293447
-0.007036460023163674 0.016092111494250844 0.06252509686717703
-0.011598982312577333 -0.0030354215007374168 0.059218674197741294
-0.011293001048329109 -0.002529982869332176 0.058539914671636786
-0.010973399299853113 -0.0020229219078881904 0.057810417882037855
-0.010595287517084759 -0.0015088871882331196 0.05686297166609941
-0.010558734536965268 -0.0010355583036092911 0.057187833533440646
-0.010423817847831638 -0.0005505070143693048 0.05714628989147695
-0.010268484676506276 -6.302217030351677e-05 0.057028695141339195
-0.01015763412048513 0.0004191610596418544 0.05707679801482778
-0.010039042512545148 0.0009022672616601792 0.05709606584724011
-0.009935841688248057 0.001383539281183456 0.057172664457190166
-0.009832640863950965 0.0018648113007067317 0.05724926306714022
-0.009806940789582334 0.0023368468002625525 0.05761455208489027
-0.009839077601264776 0.002801990081406122 0.05819528434266849
-0.010229956869517599 0.0032243805600063384 0.060112334779441806
-0.010167274549545156 0.0037008236043544387 0.06033986488762047
-0.010141574657257766 0.004172859521536183 0.0607051550155016
-0.010034953291752347 0.005123512117390554 0.061230034277179476
-0.00992410267242084 0.005605695684374847 0.0612781372387444
-0.00986584358367755 0.006081611704037904 0.06152214402239409
-0.009686806451550588 0.006571921390930368 0.061316251797229875
-0.009568214862823787 0.007055027446505368 0.06133551955950175
-0.009355511609680692 0.007549349214376361 0.06100422074905079
-0.009164630780365004 0.008041070280622314 0.06075421058741207
-0.008903269552364517 0.008541190920892498 0.06024166057891701
-0.008800068780330753 0.009022462714524695 0.06031825916760974
-0.008578884872582414 0.009517795039917959 0.0599553697442687
-0.008468034091357607 0.009999978736027058 0.06000347221074923
-0.008431481058974786 0.010473307846541964 0.0603283340993478
-0.008304915023800277 0.010957364393596708 0.060317897134110995
-0.008235979802534342 0.011434552841372092 0.06052213535684209
-0.008167044534948799 0.011911740855342287 0.060726372975155145
-0.008063843710651705 0.012393012874865562 0.0608029715851052
-0.007968343587964437 0.012873367170352165 0.060908255362823245
-0.007872843314430906 0.013353721483815733 0.0610135385786379
-0.007777343507455056 0.013834075302352429 0.06111882310050603
-0.007622010456806702 0.014321560132036646 0.06100122879989098
-0.007534404601651013 0.014800973635445754 0.06113591877979973
-0.007399487793971829 0.015286025817463876 0.06109437556000737
-0.007533930152664716 0.015738976489745708 0.062056196269530066
-0.012036112190112955 -0.0033813647145489335 0.05852500747167914
-0.012062422639332437 -0.002915527521339112 0.05908403605634385
-0.011524560261749419 -0.0023824546713729845 0.057541517748863784
-0.011206668989192993 -0.0018755975543246236 0.05681839249412
-0.011219801541376572 -0.0014081890186967102 0.057328334183207874
-0.011033193338327004 -0.0009169774407952055 0.05709423928760661
-0.010913233236959405 -0.00043370858915570967 0.057108409040479306
-0.010748331102915933 5.4916627247222384e-05 0.05695516983677845
-0.010628370760194315 0.0005381855076498623 0.05696933869060572
-0.010492815223127634 0.001023313370330398 0.05692541576746625
-0.010388245559522254 0.0015047485200201465 0.0569969154413459
-0.010268285112273984 0.0019880178522049424 0.05701108433768783
-0.010163715553195255 0.002469452550112534 0.05708258396905284
-0.010075471195987184 0.002948942146416892 0.057214895524316564
-0.010073493884453487 0.0034181509468406215 0.05766855243269226
-0.010599097892253356 0.0038244855087675197 0.0600874532578247
-0.010695538488795269 0.004281965445451752 0.0609077175673913
-0.01072184877355952 0.004747802877923021 0.06146674575539769
-0.009463470789621002 0.00911852644419067 0.06092847970290402
-0.009419346677820198 0.009592757831136672 0.06122513926731272
-0.009108524273291663 0.010098772961660061 0.060528346027668496
-0.00898086320686615 0.01058295978839506 0.060513829847365794
-0.008876293543260768 0.01106439493808481 0.06058532952124544
-0.008756333096012498 0.011547664270269604 0.06059949841758737
-0.008668088752823325 0.012027153425577985 0.06073180959319442
-0.008548128305575053 0.012510422757762782 0.060745978489536355
-0.00845988376735147 0.012989912375639496 0.06087828937051603
-0.00842760349354801 0.013462732503740422 0.061219067530873944
-0.008299942207862555 0.01394691913694288 0.06120455031788782
-0.008255818149390805 0.014421150737196086 0.061501210296886204
-0.00815922325996635 0.014901635500502396 0.06160241606079277
-0.008046912288003487 0.015383993652825938 0.0616450797383604
-0.008052771876102689 0.015852268058613485 0.06212792872122274
-0.01251930788902344 -0.002794852264629922 0.05892497933503001
-0.01222005961745326 -0.002290216031438827 0.0582713002541026
-0.011849589191244306 -0.001777092842079167 0.05735231728144673
-0.011682453402260932 -0.0012882009925764251 0.05719075812923002
-0.01150341623337547 -0.0007978916857129275 0.05698486538924761
-0.011312535460837232 -0.0003061709282695098 0.05673485514218973
-0.011157202410188877 0.00018131390141470655 0.056617260841574674
-0.011054001690418438 0.0006625854691558265 0.056693859409010075
-0.010935410082478458 0.0011456916711741513 0.0567131272414224
-0.010800493288818176 0.0016307434121962954 0.05667158364197336
-0.010753057672215557 0.0021053696643461095 0.05695590804359576
-0.010642206874840396 0.002587552923054624 0.05700401001803894
-0.010486873824192042 0.00307503775273884 0.05688641571742388
-0.010417938753772366 0.0035522261825372604 0.05709065450205836
-0.010498360902389977 0.004011614883367752 0.05785124976427686
-0.009542190085950449 0.01162913462219117 0.06166586374715197
-0.009438989124825995 0.012110406218695432 0.061742461415541953
-0.009304072285911832 0.012595457965110666 0.0617009176475219
-0.009278372387967708 0.013067493882966545 0.06206620775433165
-0.009182872248074537 0.013547848180503646 0.062171491467957585
-0.013170063314575108 -0.0031662541067840632 0.05902706928087329
-0.012923738425692964 -0.002667925847733775 0.05857052930968686
-0.012559819284887846 -0.002155582523140283 0.05767595078508541
-0.012341746422345447 -0.0016606211733627353 0.057324649811123285
-0.012123673411088245 -0.0011656589272116599 0.05697334914695181
-0.01196944743516622 -0.000678306471465735 0.05685987827561737
-0.011815221579921206 -0.00019095403010138353 0.05674640785380565
-0.011660995620149536 0.00029639886304512567 0.05663293747450857
-0.011533334636156602 0.0007805854602936534 0.05661842138532921
-0.01141337418890833 0.00126385479247845 0.05663259028167114
-0.011301063577910768 0.0017462124624589956 0.05667525487195988
-0.011256939459100513 0.0022204440699029864 0.05697191462619691
-0.011070331376727952 0.0027116556334229186 0.05673782018011836
-0.01087287022373937 0.0032041610409838 0.05646329840138428
-0.010899180447755192 0.003669998700357351 0.05702232657904094
-0.010779220052770247 0.00415326780665107 0.05703649545412554
-0.010682624967245655 0.0046337525933274355 0.0571377004875577
-0.010738706744248792 0.005096042035573966 0.057807627693971284
-0.013544098868026563 -0.0025667326788850323 0.05902041970472823
-0.013165986723227186 -0.0020526979160852446 0.05807297214022167
-0.012716040893048071 -0.0015301033185028924 0.05685794272766674
-0.012647105537086227 -0.0010529144153499578 0.0570621808805318
-0.012434402439394482 -0.0005585930023631606 0.05673088231848226
-0.012279069372595772 -7.110861007953025e-05 0.05661328752582985
-0.01211193350712354 0.00041778280921341286 0.05645172765681443
-0.011985367546306433 0.0009018389080813916 0.0564412905366823
-0.011866776179720468 0.0013849450813365732 0.056460559268140045
-0.01175592551917267 0.0018671287630641013 0.05650866218414329
-0.011668319905370997 0.0023465422377100665 0.056643353063097465
-0.011580714154741961 0.0028259552893370194 0.056778043000491565
-0.01147751333044487 0.003307227308860296 0.05685464161044162
-0.01137431226479376 0.003788499357146715 0.05693123932134626
-0.011195275284998989 0.004278808861138148 0.056725347501666586
-0.011099775343327232 0.004759163135052392 0.05683063195366869
-0.011165144603925972 0.005220345749977498 0.05753515510193028
-0.014202116503959784 -0.002938999947273479 0.05914956099959634
-0.014026391134559205 -0.0024490853210697356 0.058956004736035336
-0.013675163685253889 -0.0019382545171458619 0.058108702851716515
-0.013323936354494127 -0.001427424606000125 0.05726140054522636
-0.013188380833577798 -0.0009422963059190048 0.05721747811412424
-0.012884797389189292 -0.0004371443111422996 0.05654764962014168
-0.012749241956649266 4.79830997560784e-05 0.05650372665448755
-0.012595015876200589 0.0005353360072841591 0.05639025582566777
-0.012475055533478972 0.001018604887686799 0.056404424679495045
-0.0121865251139367 0.0015219633913879029 0.05579066924102947
-0.012242606838676512 0.001984253059525512 0.05646059646870037
-0.012122646391428241 0.002467522391710308 0.056474765365042305
-0.011946920841012149 0.0029574370394864096 0.05628120842719724
-0.011914640687885697 0.0034302571532057644 0.05662198703707787
-0.011786979478689098 0.00391444421661802 0.05660747054089045
-0.011682409867347046 0.0043958791404166905 0.05667897019351278
-0.011626384219919898 0.004871529101594964 0.05693129666977477
-0.011461482138139755 0.005360154092106817 0.05677805744481658
-0.011373237780931682 0.005839643688411175 0.05691036900008031
-0.011329113567576085 0.006313875197291199 0.057207028294165976
-0.01477367240730528 -0.002831990501333586 0.059417653707125005
-0.014214854190930323 -0.0018274475417260883 0.05825809672835361
-0.013908873196073913 -0.001322009821075949 0.05757933734198115
-0.013596110547667207 -0.00081576302444636 0.056875317112093864
-0.013440777601545507 -0.00032827864654429953 0.05675772276896415
-0.01322807420216124 0.00016604280239642495 0.05642642308310785
-0.013169815124997854 0.0006419589305107805 0.056670430017862046
-0.012920343794301828 0.00114066216387236 0.05620216952874407
-0.012785426879964536 0.0016257139192760758 0.056160625479772325
-0.012674576460770755 0.0021078975722404604 0.056208729294820986
-0.012579076157067973 0.0025882518892994203 0.05631401239825497
-0.012468225842400845 0.003070435090481648 0.056362116170788984
-0.012168977373664796 0.0035750709078445145 0.05570843592354014
-0.01220987322432228 0.004039170338568622 0.056321795663230534
-0.012114373455590861 0.004519524372210219 0.05642708054349802
-0.012045438023140159 0.004996712845153353 0.056631317979564375
-0.011910521281743204 0.005481764360284419 0.05658977435885801
-0.011791929915157238 0.005964870533539601 0.05660904309031575
-0.011786841576474088 0.006434449977933215 0.05705111129266519
-0.011859838261606779 0.006894723711381137 0.057784046759040024
-0.014890994911205872 -0.0022018754701781467 0.05845474555845286
-0.014771034600784966 -0.0017186057149743354 0.05846891539635486
-0.014446229501053145 -0.001210924648926811 0.05772003608665689
-0.0141655440082963 -0.000708500617839839 0.05713550348763204
-0.013928411600034758 -0.00021126786421874502 0.0567132055715422
-0.013710338797830865 0.00028369347836801687 0.05636190482234143
-0.013545436543110384 0.0007723187091525205 0.056208665169117863
-0.013409881231247365 0.0012574461056693276 0.05616474265298644
-0.013274325814857692 0.0017425739539682918 0.05612082017936967
-0.013154365367609422 0.0022258432861530886 0.0561349890757116
-0.013026704158412825 0.0027100303495653437 0.05612047257952419
-0.012840096076040263 0.0032012419130852763 0.05588637813344564
-0.01281944544555337 0.0036726760891326983 0.05627047679711875
-0.012857645371839244 0.004137096804165982 0.056873794199525124
-0.01253975428837351 0.00464395411834228 0.056150669865084074
-0.012471926067476501 0.005121010640366136 0.05635903167199111
-0.012307023985696358 0.00560963563087799 0.05620579244703293
-0.01230504655348565 0.006078844445683291 0.056659448905885916
-0.012192736209973768 0.006561201973955155 0.056702114384591405
-0.01209614102990383 0.007041686662067554 0.0568033189578722
-0.012052016924159407 0.007515918213038775 0.057099978706794896
-0.015286165397548871 -0.001604871861380947 0.05852682421144521
-0.014986917093677983 -0.0011002365029910244 0.057873144146443074
-0.014707674113543165 -0.0005979843820199757 0.05729398491710151
-0.014452137073688025 -9.855827334432103e-05 0.05680312961861719
-0.014196600033832886 0.00040086783533133195 0.056312274320132874
-0.014041266862507522 0.00088835267939712 0.05619467956999511
-0.01382856382515428 0.0013826740851931305 0.05586338123270692
-0.01374095796999859 0.00186208758860224 0.05599807121261567
-0.013606041176338308 0.002347139329624384 0.055956527613166634
-0.013487449809752344 0.0028302455028795647 0.05597579634462438
-0.013360883607581218 0.0033143016305106866 0.05596535832544684
-0.013242291999641238 0.0037974078325290115 0.055984626157859166
-0.013131441580447456 0.004279591485493396 0.05603272997290783
-0.013020591213517 0.004761774912566703 0.056080833766699166
-0.01292509078913721 0.005242129244007234 0.05618611642061044
-0.012829590779051773 0.005722483306411973 0.05629140040183251
-0.01272638995475468 0.006203755325935249 0.05636799901178256
-0.01265745478978966 0.006680943657169703 0.056572237336265666
-0.012466573697502413 0.007172664782212883 0.056322226222048355
-0.012588187817707226 0.00762714463243579 0.057236262030687324
-0.012562487733448252 0.00809918042834196 0.05760155130176326
-0.015628029486514886 -0.0014704891020076646 0.05793931326439693
-0.015500368623198962 -0.0009863025191407093 0.05792479762474028
-0.015162137092132072 -0.00047702049182841733 0.057125905627449514
-0.01492500456319352 2.0212276174248186e-05 0.05670360726183697
-0.014628846978527803 0.0005244793009435595 0.056061440147656225
-0.014524276952891395 0.001005914493778023 0.05613293847296776
-0.014296560368224074 0.0015020251252763114 0.05574571456612527
-0.014184249515872493 0.00198438282402 0.0557883782573686
-0.014071939146228948 0.0024667404652374022 0.05583104374670275
-0.01396736924126955 0.0029481756436902933 0.055902542521536994
-0.013831813688052513 0.003433303068970244 0.05585861910636016
-0.013704152599532924 0.0039174901180009285 0.05584410305969545
-0.013615908121647846 0.004396979728686857 0.05597641416543647
-0.013461682214139504 0.004884332395942288 0.05586294376488207
-0.013326126556395814 0.005369460273004395 0.055819020392219885
-0.013305475736818232 0.005840894251923882 0.056203118135590265
-0.013169920320428559 0.006326022100222846 0.0561591956619735
-0.013081675868675143 0.006805511597963236 0.05629150675708586
-0.013013847794586808 0.007282567992659982 0.05649986900288694
-0.013076575456608805 0.007744065582414574 0.057194552339787194
-0.012821277347340305 0.008243463511928843 0.056704587349589476
-0.012810819604204299 0.00871368285702759 0.05712665448925874
-0.01287354698413252 0.009175180398026957 0.05782133669438073
-0.016007080853492037 -0.0008715654085689216 0.05795134741107071
-0.01575760922323495 -0.0003728612608568505 0.05748308666984001
-0.015471720467598581 0.00013018198565091987 0.05687917101616412
-0.015222249076564054 0.0006288852262032843 0.05641091030228479
-0.014979164894389845 0.0011268277163354623 0.05596644241830177
-0.014823831827591135 0.0016143121086190934 0.05584884762564936
-0.01466849877694278 0.0021017969383033096 0.0557312533250343
-0.014541932832276028 0.002585853474571874 0.05572081669693954
-0.014407015917938736 0.0030709052299755886 0.05567927264796779
-0.014272099228805107 0.003555956519215576 0.055637729006004104
-0.01417659928713335 0.004036310793129822 0.0557430134580062
-0.013974088646074878 0.004529417968790472 0.05544968230062507
-0.013948388579781427 0.005001453687046586 0.055814971564393794
-0.013829796971841444 0.00548455988906491 0.05583423939680612
-0.013703230958761012 0.005968616213823967 0.055823802297931324
-0.013644971821259119 0.006444532349129109 0.056067809007924164
-0.013541771023093691 0.006925804255706846 0.05614440760724555
-0.013494335191268721 0.007400430423674265 0.05642873109919387
-0.013383484785140771 0.00788261402016588 0.0564768349089282
-0.013295879084959899 0.008362027360952397 0.056611525324409544
-0.013200379167786576 0.0088423815289802 0.056716809766447274
-0.01321435044169399 0.009309689534103098 0.057229875133028615
-0.01692621203928673 -0.0012749506442739332 0.059053138519394525
-0.016728750764555413 -0.0007824456615297625 0.05877861585529073
-0.016271003484680396 -0.00025892045469959714 0.057534526851391474
-0.015913400184172463 0.0002526693067807572 0.05666347401265416
-0.01564934316649627 0.0007531107759825645 0.0561408817367411
-0.015431270078750212 0.0012480725919238413 0.05578958035577092
-0.01533467509775227 0.0017285569268180507 0.05589078534668842
-0.015137214065440698 0.0022210623199973613 0.05561626401747706
-0.014939752912452116 0.002713567727558243 0.05534174223874299
-0.014883727265024968 0.0031892176887365156 0.05559406871500498
-0.01474817195316195 0.003674345085253323 0.05555014619887356
-0.014651576626283339 0.0041548299006928325 0.0556513503332603
-0.014475850971340593 0.0046447450002510896 0.05545779343792989
-0.01438760654571884 0.005124234385045941 0.055590104522413586
-0.01427529569336726 0.005606592083789629 0.05563276821365691
-0.014162985375987041 0.006088949499115953 0.055675433681733735
-0.014095157155090032 0.0065660060211398105 0.055883795488640774
-0.01402732896032469 0.007043062430218128 0.05609215728491915
-0.013907368539208083 0.007526331649457385 0.056106326170632416
-0.013819124195065842 0.008005821189288973 0.05623863772058182
-0.013751296008466644 0.00848287756307181 0.05644699951353874
-0.013631335827070825 0.00896614676060702 0.05646116929896171
-0.013610685168910008 0.009437580802663303 0.056845267724587645
-0.013522440510009417 0.00991707043492159 0.05697757815604461
-0.013528300196691552 0.01038534504862325 0.05746042772206766
-0.016859243323857485 -0.00015389921945180188 0.0578647664658193
-0.016433542017578785 0.00036580605927774275 0.05674004807565892
-0.016127561022722375 0.000871243779927882 0.056061288689286455
-0.015960425458942662 0.0013601351632668963 0.05589972994407781
-0.015681182567184145 0.0018623863950552036 0.055320570180184235
-0.015655482569304373 0.0023344223248208235 0.055685859914732995
-0.01545297204892291 0.002827529486099903 0.05539252920687457
-0.015326405500871115 0.0033115860942763246 0.05538209033116627
-0.015191489053091502 0.0037966373547531685 0.05534054758824799
-0.015088287987440394 0.0042779094030395886 0.05541714529915262
-0.01495337131445712 0.00476296112968016 0.055375602149226294
-0.014834780000134483 0.005246067077044264 0.05539487085942671
-0.014739279937785718 0.00572642136534008 0.055500154861906105
-0.01469184413209241 0.00620104742036196 0.05578447834322576
-0.014536511081444055 0.006688532250046177 0.055666884042610706
-0.014489075249619086 0.007163158418013595 0.055951207534559025
-0.0143541589647985 0.007648209988563914 0.055909665722572145
-0.014285223666090639 0.008125398390652709 0.056113903602846876
-0.014166631971771456 0.008608504458811584 0.05613317097178638
-0.01413007903230075 0.009081833674949554 0.0564580333212006
-0.014042473209809642 0.009561247037176738 0.05659272328782352
-0.013946973147460877 0.010041601325472556 0.056698007290302915
-0.01394188483490939 0.010511180656920631 0.0571400754820237
-0.014029546397271539 0.010969706607271826 0.05792763761146104
-0.017115682847997898 -9.336109655307492e-06 0.05695904887582495
-0.016988021622650944 0.0004748505163563643 0.05694453188760018
-0.01663041856349703 0.000986440249073574 0.05607347994790828
-0.01644381025592081 0.0014776522787572346 0.05583938509482168
-0.016206677726982255 0.0019748850467598993 0.05541708672920912
-0.016071122069238566 0.0024600129238220064 0.05537316335654694
-0.015958811458241004 0.002942370593802552 0.05541582794683568
-0.01582325604185133 0.0034274984421015153 0.05537190547321891
-0.01568770048863429 0.003912625867381466 0.05532798205804207
-0.015501092422412087 0.004403837868301983 0.05509388810400087
-0.015388781811414523 0.004886195538282527 0.05513655269428961
-0.015378323613335377 0.0053564148209029275 0.05555861802457509
-0.015180862460346795 0.005848920228463809 0.05528409624584102
-0.015092618034725043 0.00632840961325866 0.05541640733032472
-0.014964956704851436 0.0068125966910524876 0.0554018903846146
-0.01495449896334866 0.007282816029092139 0.05582395752361957
-0.014800273029708653 0.007770168809293109 0.05571048713369384
-0.014744247395347337 0.008245818713998612 0.05596281360464149
-0.01446356210175346 0.008748242137871622 0.05537828117391323
-0.014546381893751093 0.009207345218451742 0.05614780778933729
-0.014566304776706014 0.009673943946036498 0.05668304294156511
-0.014368843684055936 0.010166449346406595 0.05640852138759239
-0.01432471961750901 0.010640680727959508 0.056705181120572094
-0.014256891509213835 0.0111177370169015 0.056913543130983166
-0.014246433500225376 0.011587956496649836 0.05733560938157138
-0.017506878257233523 0.0005881403902286949 0.05701631901175649
-0.01721432426905943 0.0010919779596981647 0.05638757531990372
-0.016978030340803835 0.0015891112275604807 0.05596840117962247
-0.01669214164550597 0.0020921544668774644 0.055364485750707924
-0.016573550278920005 0.002575260640132646 0.05538375448216567
-0.01640641453412478 0.0030641520450440177 0.05522219506267296
-0.016337479343028097 0.0035413404892240094 0.055426433397784726
-0.016146598329135838 0.004033061275430571 0.05517642225168143
-0.01596756129707774 0.0045233710053130816 0.05497053045325909
-0.015872061114051966 0.00500372530799047 0.05507581400621578
-0.015784455311159604 0.005483138585508501 0.0552105039648672
-0.01565788936649285 0.005967195121777065 0.05520006733677244
-0.015599630281254289 0.0064431110311911274 0.05544407402550795
-0.015464713366916995 0.006928162786594843 0.055402529976536205
-0.015395778081274967 0.007405351132210868 0.0556067678514966
-0.015277186740820665 0.007888457192520511 0.05562603657232568
-0.015240633427886332 0.008361786501216868 0.05595089757782182
-0.015122042095598176 0.00884489252623103 0.05597016629532944
-0.015018841054445502 0.009326164468631005 0.056046763996269705
-0.014923341145438324 0.009806518601363327 0.05615204843498598
-0.014835735531636652 0.010285932076009294 0.056286739313940154
-0.014766800392803295 0.010763120294298207 0.05649097762779459
-0.014679194529572429 0.011242533579007024 0.05662566736168467
-0.014631758973308314 0.011717159823966053 0.05690999198806841
-0.014544153291092961 0.012196573087102511 0.05704468239624255
-0.014631814439160758 0.012655099306489502 0.05783224319836909
-0.017999243294143433 0.0007045872938788594 0.056989425619535246
-0.01771071255675829 0.001207945396133306 0.056375668565225544
-0.01749263965002774 0.0017029071905022256 0.05602436785853942
-0.017211954366324205 0.002205330318024885 0.055439835174485266
-0.01702534617942499 0.0026965423333269742 0.055205740770921365
-0.01687112046100734 0.0031838951977103402 0.05509227129066971
-0.016751160013759068 0.003667164529895136 0.055106440187011635
-0.016615604219188014 0.00415229198393823 0.05506251587278939
-0.016487943372022442 0.004636479004205771 0.05504800072517009
-0.01636798292477417 0.005119748336390567 0.055062169621512023
-0.016240321767840904 0.005603935173911745 0.05504765310406728
-0.01610476635145123 0.0060890630222107086 0.05500373063045051
-0.016008171197512956 0.006569547597377568 0.05510493519310264
-0.015895860345161373 0.007051905296121257 0.05514759888434596
-0.015839834844542898 0.007527555129972419 0.05539992579950199
-0.01573526520706918 0.008008990166716629 0.05547142546275298
-0.015647020621572923 0.00848847973531136 0.05560373611365697
-0.015511465239481059 0.008973607435369303 0.05555981362609008
-0.015479184869499025 0.009446427471965358 0.05590059132696092
-0.015411356801943606 0.009923483838425718 0.056108953570104834
-0.015275801385553933 0.010408611686724684 0.05606503109648807
-0.015187556839255172 0.010888101085901106 0.05619734173144906
-0.015099312172279403 0.0113675904994591 0.056329651916887345
-0.015055188053469148 0.01184182210690309 0.05662631167112437
-0.014950618442127094 0.012323257030701761 0.056697811323746704
-0.014988818368412968 0.012787677745735046 0.05730112872615307
-0.014868857921164696 0.013270947077919842 0.057315297622495
-0.018287813391415945 0.0013142939069406279 0.056664417488453064
-0.018026452253923214 0.0018144145364246311 0.056151867817100035
-0.01779015873188679 0.002311547316550861 0.0557326947581109
-0.017561138006938135 0.002807813807093838 0.05534061335140657
-0.017358627365879665 0.0033009209827544895 0.05504728219402543
-0.0172320613005359 0.0037849775334046244 0.05503684511640796
-0.017097144611402274 0.004270028822644612 0.05499530147444427
-0.016993943545751164 0.004751300870931031 0.0550718991853489
-0.016867377239053388 0.005235357450344309 0.05506146120868602
-0.01671204424066836 0.0057228420541374486 0.05494386688681364
-0.016643109049571676 0.00620003049831744 0.055148105221925404
-0.01650819230817472 0.0066850820134485055 0.05510656160121904
-0.016439256996401024 0.00716227047201007 0.0553107994868081
-0.016336056198235596 0.0076435423785878075 0.05538739808612949
-0.016277796966188363 0.00811945841532898 0.055631404335970955
-0.016219537721075292 0.008595374508542924 0.05587541059112676
-0.016040500602637994 0.009085684104565984 0.055669518329231595
-0.015929650207942646 0.009567867651643927 0.05571762213431588
-0.01583415005758145 0.010048221813139392 0.05582290567398674
-0.015746544443779778 0.010527635287785359 0.055957596552940914
-0.015658938761564427 0.011007048550921817 0.05609228696111505
-0.015563438630801979 0.011487402627708126 0.05619757049281441
-0.01549450337936679 0.011964591079078907 0.05640180860316482
-0.01539900348995836 0.012444945127102073 0.056507093033909606
-0.015311397695141175 0.012924358623320396 0.056641783238579706
-0.015242462443705987 0.013401547074691175 0.05684602134893012
-0.015237374183417828 0.013871126180248172 0.05728808951939358
-0.018663809988689342 0.0014446089944573244 0.05620404996681344
-0.01854384954144107 0.001927878326642121 0.05621821886315537
-0.018225958570577162 0.002434735407736554 0.05549509473221834
-0.018039350323339445 0.002925947430229429 0.055261000103893086
-0.017821277416608897 0.0034209092245983484 0.05490969939720697
-0.01769361608673529 0.0039050963023921754 0.05489518245149685
-0.017565954982065347 0.004389282914022275 0.05488066591279478
-0.017430399565675672 0.004874410762321238 0.05483674343917801
-0.017310439118427404 0.005357680094506035 0.05485091233551994
-0.01718277808217114 0.005841866917645641 0.054836396267597905
-0.017078208177211743 0.006323302096098533 0.054907895042432146
-0.01697363856586969 0.006804737019897203 0.05497939469505447
-0.016819412364744 0.0072920899418068555 0.05486592341671198
-0.01677528851341943 0.007766321407542165 0.05516258405936576
-0.016687043820311998 0.008245810934045698 0.055294894255432714
-0.016590448868530245 0.008726295649867722 0.055396099733073245
-0.016462787814308464 0.009210482550657387 0.05538158367245843
-0.01637454336092182 0.009689972055456873 0.055513894768235074
-0.016262232541234815 0.010172329613018637 0.05555655844619257
-0.01617398806334974 0.010651819223704567 0.05568886955193359
-0.016077392909411462 0.011132303798871425 0.05579007411458572
-0.016021367314247643 0.011607953534158619 0.05604240056959039
-0.016248152037746554 0.012049899829311397 0.057348197670684
-0.01583848228793221 0.012567694781696469 0.05628319715727581
-0.01573391262432683 0.01304912993138622 0.05635469683115546
-0.015645668086103248 0.013528619549262934 0.056487007712135134
-0.01562501756014301 0.0140000532735282 0.056871106333293606
-0.015701104455641175 0.014459958843827335 0.05761555296302765
-0.019091026234026975 0.0020377931836307304 0.05639549840296229
-0.018805137478390608 0.0025408364301384998 0.05579158274928638
-0.018549600213331803 0.0030402630049778823 0.055300727043794004
-0.018306516393188622 0.0035382054519653454 0.054856260508379114
-0.018171599720205347 0.004023257178605917 0.05481471735845278
-0.01808399396957631 0.0045026702302328695 0.05494940729584689
-0.01788148332851784 0.004995777405893521 0.054656076138465744
-0.017778282504220748 0.005477049425416797 0.0547326747484158
-0.01768278273548933 0.005957403459058393 0.05483795962868328
-0.01757193183358751 0.006439587169549063 0.05488606164564111
-0.017437014971513547 0.0069246386990617 0.05484451757541203
-0.0174691519642115 0.007389781958632912 0.05542525050747433
-0.017256448727786262 0.007884103717647112 0.05509395175254943
-0.017153247688266815 0.008365375652987993 0.0551705494528254
-0.017042397282138865 0.008847559249479608 0.05521865326255973
-0.0169468971334109 0.009327913403915975 0.055323936801566304
-0.01687796184613564 0.009805101756591097 0.05552817467719099
-0.016751395813456457 0.010289158166059308 0.05551773758628769
-0.016846125556963153 0.010746841992081578 0.05633162895624069
-0.016566882854295324 0.01124909342099782 0.05575247011264986
-0.016479277051402962 0.01172850669851585 0.05588716007130129
-0.01636842663220918 0.012210690351480237 0.055935263886349944
-0.016363338379996196 0.012680269675737526 0.05637733230283209
-0.01618430128759959 0.013170579412810822 0.05617144027964839
-0.016136865610658472 0.013645205672151422 0.05645576445650943
-0.016160029225863796 0.014111417886412644 0.0570030710622938
-0.01634263041587389 0.014558629713560083 0.05814428418975407
-0.019625957528860052 0.0021491673746418492 0.056527163749839335
-0.01924952511538085 0.0026630010783548087 0.055585972332584145
-0.01900320033315682 0.0031613297640195044 0.05512943319057711
-0.018775483523285837 0.0036574408616815214 0.05474220887672658
-0.018639928106896166 0.004142568709980484 0.05469828640310981
-0.01850437255367913 0.004627696135260435 0.054654362987932976
-0.01837671146515954 0.00511188318429112 0.054639846941268264
-0.01828846698727446 0.0055913727949770484 0.05477215804700929
-0.018183897375932408 0.006072807718775719 0.054843657699631614
-0.01802967129548373 0.006560160626303799 0.05473018687081183
-0.01792510144278766 0.007041595578865613 0.054801685624388745
-0.01781279083179009 0.007523953248846158 0.054844350214677484
-0.017700480126247184 0.008006310820262735 0.05488701434481485
-0.017588169541381284 0.008488668377297743 0.05492967892447492
-0.017499925197239044 0.00896815791712933 0.055061990474424324
-0.017395355326577454 0.0094495929473412 0.05513348923530845
-0.01762213989355929 0.009891539158179892 0.05643928565215363
-0.01720695862414897 0.010409991023220697 0.05535375477038446
-0.01708699805622369 0.010893260369787066 0.055367923217203685
-0.016998753751278947 0.011372749740200343 0.05550023475121009
-0.01693092570332228 0.01184980602195155 0.055708596986382516
