ply
format ascii 1.0
element vertex 724
property float x
property float y
property float z
end_header
-0.0030732334544180174 -0.005655992436772968 0.0004961915834929234
-0.002537661133988853 -0.005750428286985269 0.0007809695149450698
-0.0020020888135596888 -0.00584486413719757 0.000879485351435477
-0.0014665164931305244 -0.005939299987409871 0.0009427481295530178
-0.0009309441727013601 -0.006033735837622172 0.0008415353604500804
-0.0003953717245818042 -0.006128171710349735 0.0014236599666105382
0.00014020059584736005 -0.006222607560562036 0.0018863654339699315
0.0006757729162765243 -0.006317043410774337 0.001615569542191093
0.0012113452067782531 -0.006411479255709624 0.0016124867407586163
0.001746917525212255 -0.006505915105570124 0.0016420845388993616
0.002282489877564017 -0.00660035096141124 0.0016716823370401068
0.0028180621979931814 -0.006694786811623541 0.0011416479470088962
0.0033536345184223457 -0.006789222661835842 0.0017237730718102412
0.0038892067111611184 -0.006883658489532882 0.0017533693140283253
0.004424779031590283 -0.006978094339745183 0.0018518861878005066
0.004960351352019447 -0.007072530189957484 0.0018814839859412518
0.005495923672448611 -0.007166966040169785 0.0018461074910372734
0.006031495992877775 -0.007261401890382086 0.0018430257268865706
0.00656706831330694 -0.0073558377405943875 0.0017751392652612015
0.007102640633736104 -0.007450273590806689 0.0017397638076389972
0.00763821295416527 -0.00754470944101899 0.0018030271043974252
0.008173785274594435 -0.007639145291231291 0.0019877337953389767
0.008709357595023599 -0.007733581141443592 0.0024835223275999235
0.009244929915452763 -0.007828016991655893 0.003091254308916356
-0.009941237259023286 -0.0038927541536449358 -0.0009031362786400771
-0.008870092618164956 -0.0040816258540695375 -0.0009827497293619695
-0.008334520297735792 -0.004176061704281839 -0.0009796679652112666
-0.0077989479773066285 -0.00427049755449414 -0.0009765856824196768
-0.007263375656877464 -0.004364933404706441 -0.0009086997394351947
-0.006727803847209867 -0.004459369164857697 -0.0008408132778098255
-0.006192231526780702 -0.004553805015069998 -0.0007729273348253434
-0.005656659206351538 -0.0046482408652822995 -0.0005478231865525245
-0.005121086885922373 -0.0047426767154946006 -9.825178101615343e-05
-0.004585514565493209 -0.004837112565706902 -3.0365838031671335e-05
-0.0040499422450640445 -0.004931548415919203 0.0003321900740431859
-0.0035143699246348806 -0.005025984266131503 0.0005122227733108674
-0.0029787976042057163 -0.005120420116343804 0.0008747797226674987
-0.002443225283776552 -0.005214855966556105 0.0008778614868182015
-0.0019076529633473877 -0.005309291816768406 0.0012404184361748327
-0.0013720806429182233 -0.005403727666980707 0.00134163120527777
-0.000836508322489059 -0.005498163517193008 0.0014428444930215945
-0.00030093587436950313 -0.005592599389920571 0.0013443276192494134
0.00023463644605966114 -0.005687035240132872 0.0013474099020410032
0.0007702087664888254 -0.005781471090345173 0.001162703211099452
0.0013057810569905542 -0.00587590693528046 0.001230589154083934
0.001841353375424556 -0.00597034278514096 0.0014106223719925026
0.002376925727776318 -0.006064778640982076 0.001681418782412228
0.0029124980482054825 -0.006159214491194377 0.0014967120914706768
0.003448070368634647 -0.0062536503414066785 0.0014671148119708185
0.003983642561373419 -0.006348086169103718 0.0013685979381986373
0.004519214881802584 -0.006442522019316019 0.001548631156107206
0.005054787202231748 -0.00653695786952832 0.001584007651011184
0.005590359522660912 -0.0066313937197406215 0.0016193836272742753
0.006125931843090076 -0.0067258295699529225 0.001589786347774417
0.006661504163519241 -0.006820265420165224 0.0016909991168773545
0.007197076483948405 -0.006914701270377525 0.0013071260270639939
0.0077326488043775714 -0.007009137120589826 0.0015779229561246062
0.008268221124806735 -0.007103572970802127 0.0016132994510285846
0.0088037934452359 -0.007198008821014428 0.001793332668937153
0.009339365765665065 -0.007292444671226729 0.0029377360877160556
0.009874938086094229 -0.00738688052143903 0.0029408178518667586
0.010410510917284958 -0.007481316461712376 0.00304203165825147
0.010946083237714122 -0.007575752311924677 0.0034045875581706813
-0.009846801408810984 -0.003357181833215771 -0.0007002470754812019
-0.008775656767952656 -0.003546053533640373 -0.0011563492070669923
-0.00824008444752349 -0.0036404893838526743 -0.0009218161674680581
-0.007704512127094327 -0.0037349252340649754 -0.0009571926623720363
-0.007168939806665163 -0.003829361084277276 -0.0008586757885998551
-0.0066333679969975655 -0.0039237968444285325 -0.0006739680603765299
-0.006097795676568401 -0.004018232694640834 -0.0007093445552805081
-0.005562223356139237 -0.004112668544853135 -0.000474811515681574
-0.005026651035710072 -0.004207104395065436 -0.00047789276119138976
-0.004491078715280908 -0.004301540245277737 -0.0006579259790999582
-0.0039555063948517434 -0.004395976095490038 -0.00010276758721948056
-0.0034199340744225796 -0.004490411945702338 0.0006612355611255809
-0.0028843617539934152 -0.004584847795914639 0.0010451086509389415
-0.002348789433564251 -0.00467928364612694 0.0010420263681473517
-0.0018132171131350866 -0.0047737194963392415 0.001226734096370677
-0.0012776447927059223 -0.0048681553465515425 0.001325249932861084
-0.0007420724722767579 -0.004962591196763844 0.0012898744752388798
-0.00020650002415720207 -0.005057027069491406 0.0013531377719973078
0.00032907229627196223 -0.005151462919703707 0.0011280336237244888
0.0008646446167011265 -0.005245898769916008 0.0010268208546215514
0.0014002169072028553 -0.005340334614851295 0.0010237385718299616
0.0019357892256368571 -0.005434770464711795 0.0015195271040909085
0.0024713615779886192 -0.0055292063205529115 0.0010699556985545374
0.0030069338984177836 -0.005623642170765213 0.0011684720536858316
0.003542506218846948 -0.005718078020977514 0.0011653897708942416
0.00407807841158572 -0.005812513848674553 0.0012639066446664229
0.004613650732014885 -0.0059069496988868545 0.0013624229997977171
0.005149223052444049 -0.006001385549099156 0.0012612102306947797
0.0056847953728732135 -0.006095821399311457 0.001495743270293714
0.006220367693302377 -0.006190257249523758 0.0013157100523851454
0.006755940013731542 -0.006284693099736059 0.0013453078505258906
0.007291512334160706 -0.00637912894994836 0.0014085706286434316
0.007827084654589872 -0.006473564800160661 0.0014718339254018594
0.008362656975019037 -0.006568000650372962 0.0015014317235426046
0.008898229295448201 -0.006662436500585263 0.00178620809907209
0.009433801615877365 -0.006756872350797564 0.0017508321228089988
0.009969373936306529 -0.006851308201009865 0.0027488558935566134
0.010504946767497258 -0.006945744141283211 0.003405081563615572
0.011040519087926423 -0.007040179991495512 0.0029555099109144036
0.011576091408355587 -0.007134615841707813 0.0034182151067977075
-0.010287937879027848 -0.002727173662574306 0.0015031982144038118
-0.009216793238169518 -0.002916045362998908 -0.00035507445001676315
-0.008681220917740354 -0.0030104812132112093 -0.0008177793987352693
-0.00814564859731119 -0.0031049170634235104 -0.0009162962725074506
-0.007610076276882026 -0.0031993529136358115 -0.0009795595692658784
-0.007074503956452862 -0.003293788763848112 -0.0010091568487657365
-0.006538932146785264 -0.0033882245239993686 -0.0009412714244221416
-0.0060033598263561 -0.0034826603742116693 -0.0010045342025396824
-0.005467787505926936 -0.0035770962244239704 -0.0005142505246536194
-0.004932215185497771 -0.0036715320746362715 -0.000898122577185206
-0.004396642865068607 -0.0037659679248485726 -0.000407838380658256
-0.003861070544639443 -0.0038604037750608737 -0.00030662509291443156
-0.0033254982242102785 -0.003954839625273174 0.00014294631262193948
-0.002789925903781114 -0.004049275475485475 0.0009840723981493992
-0.00225435358335195 -0.0041437113256977765 0.0014336438036857703
-0.0017187812629227855 -0.004238147175910078 0.001750382461159948
-0.0011832089424936212 -0.004332583026122379 0.0019754866094327667
-0.0006476366220644568 -0.00442701887633468 0.002010863104336745
-0.00011206417394490098 -0.004521454749062242 0.0033235390240625084
0.0004235081464842633 -0.004615890599274543 0.0018613716109833075
0.0009590804669134276 -0.004710326449486844 0.0014774985211699469
0.0014946527574151564 -0.004804762294422131 0.0010147935724514406
0.002030225075849158 -0.004899198144282631 0.0009162766986792594
0.0025657974282009203 -0.004993634000123748 0.0009193579441890751
0.0031013697486300847 -0.005088069850336049 0.0009872449244553315
0.003636942069059249 -0.00518250570054835 0.0010551308674398136
0.004172514261798021 -0.0052769415282453895 0.001235163566707495
0.004708086582227186 -0.005371377378457691 0.0012705400616114732
0.00524365890265635 -0.005465813228669992 0.0012736228630439502
0.005779231223085515 -0.005560249078882293 0.0013415082873875451
0.0063148035435146785 -0.005654684929094594 0.001311911007887687
0.006850375863943843 -0.005749120779306895 0.0013472869841507783
0.007385948184373007 -0.005843556629519196 0.0014151729271352604
0.007921520504802174 -0.005937992479731497 0.0014505494220392386
0.008457092825231338 -0.006032428329943798 0.0013872861252808106
0.008992665145660501 -0.006126864180156099 0.001422662620184789
0.009528237466089667 -0.0062213000303684 0.0016026958380933574
0.010063809786518831 -0.0063157358805807015 0.0015394325413349297
0.01059938261770956 -0.006410171820854047 0.001810229470395542
0.011134954938138724 -0.006504607671066348 0.0026513550372821142
-0.010193502028815546 -0.0021916013421451413 0.0009610136243122655
-0.009657929708386382 -0.0022860371923574424 0.0016688215139072763
-0.009122357387957218 -0.0023804730425697434 -0.0003171799536062783
-0.008586785067528054 -0.0024749088927820445 -0.0005879758453851166
-0.00805121274709889 -0.0025693447429943456 -0.000858772774445729
-0.007515640426669725 -0.0026637805932066467 -0.0009266597547119851
-0.0069800681062405605 -0.0027582164434189474 -0.0009945451790555801
-0.006444496296572963 -0.002852652203570204 -0.0010299216739595586
-0.0059089239761437986 -0.0029470880537825045 -0.0010652981688635368
-0.005373351655714635 -0.0030415239039948056 -0.0010020348721051088
-0.00483777933528547 -0.0031359597542071067 -0.0011032481598489334
-0.004302207014856306 -0.003230395604419408 -0.0009185409502664951
-0.0037666346944271417 -0.003324831454631709 -0.0006840068733857869
-0.0032310623739979774 -0.00341926730484401 2.3801016209224096e-05
-0.002695490053568813 -0.003513703155056311 0.0012703834320635914
-0.0021599177331396487 -0.003608139005268612 0.0017330888994229847
-0.0016243454127104846 -0.0037025748554809132 0.001831605254554279
-0.0010887730922813203 -0.0037970107056932143 0.0021163821487246515
-0.0005532007718521559 -0.0038914465559055154 0.0024511591362495603
-1.7628323732599997e-05 -0.0039858824286330774 0.0018823179604875878
0.0005179439966965642 -0.0040803182788453785 0.002116852037368296
0.0010535163171257287 -0.00417475412905768 0.002180115334126724
0.0015890886076274575 -0.004269189973992967 0.0016898301003179998
0.0021246609260614593 -0.004363625823853467 0.0013272741882431427
0.0026602332784132214 -0.004458061679694583 0.001147240970334574
0.0031958055988423857 -0.004552497529906884 0.0008764440412739618
0.00373137791927155 -0.004646933380119185 0.0012112210287988706
0.004266950112010322 -0.004741369207816225 0.0008944828899655799
0.004802522432439487 -0.004835805058028526 0.0008265964283402107
0.005338094752868651 -0.004930240908240827 0.001061128949298258
0.005873667073297816 -0.005024676758453128 0.00112439328333846
0.00640923939372698 -0.005119112608665429 0.0006748218778020888
0.006944811714156144 -0.00521354845887773 0.00128255230319586
0.007480384034585308 -0.005307984309090031 0.0012471758082918819
0.008015956355014474 -0.005402420159302332 0.0013456926820640631
0.008551528675443638 -0.0054968560095146335 0.0014442095558362443
0.009087100995872803 -0.005591291859726935 0.001828082645649605
0.009622673316301967 -0.005685727709939236 0.0013785107214723468
0.010158245636731131 -0.005780163560151537 0.0013431342265683684
0.01069381846792186 -0.005874599500424882 0.0019508662078848008
0.011229390788351026 -0.0059690353506371835 0.002185399247483735
0.01176496310878019 -0.006063471200849485 0.0030927464387483262
-0.009563493813143559 -0.001750464616547495 0.0015406191916844426
-0.009027921492714395 -0.0018449004667597962 0.0007199317062328661
-0.00849234917228523 -0.001939336316972097 -0.0001582574943631773
-0.007956776851856065 -0.0020337721671843984 -0.0012834535665319942
-0.0074212045314269014 -0.0021282080173966995 -0.0009667149090578164
-0.006885632210997737 -0.002222643867609 -0.0010652317828299975
-0.0063500604013301395 -0.0023170796277602566 -0.0012499389924124358
-0.005814488080900976 -0.0024115154779725573 -0.001246857228261733
-0.005278915760471811 -0.0025059513281848584 -0.0012764550264024782
-0.004743343440042647 -0.0026003871783971595 -0.0012410785314985
-0.004207771119613482 -0.0026948230286094606 -0.0012057020365945216
-0.003672198799184318 -0.0027892588788217616 -0.0008431461245196645
-0.003136626478755154 -0.0028836947290340627 -0.0002364239370102698
-0.0026010541583259897 -0.0029781305792463634 0.0018847773555738605
-0.0020654818378968254 -0.0030725664294586645 0.0020912078387093427
-0.001529909517467661 -0.0031670022796709656 0.0024537647880659742
-0.00045876487660933234 -0.0033558739800955677 0.0029457532385476883
7.680757151022358e-05 -0.0034503098528231298 0.0029488350026983913
0.0006123798919393878 -0.003544745703035431 0.003173938875443239
0.0011479522123685523 -0.003639181553247732 0.0028891622568008378
0.001683524502870281 -0.0037336173981830185 0.0028595644586600923
0.0022190968213042827 -0.0038280532480435185 0.002432661809013812
0.0027546691736560452 -0.003922489103884635 0.00209788534012979
0.003290241494085209 -0.004016924954096937 0.0014655666689230486
0.0038258138145143734 -0.004111360804309238 0.0015009431638270268
0.004361386007253146 -0.0042057966320062775 0.0010382382151085205
0.004896958327682311 -0.004300232482218579 0.0010413194606183364
0.005432530648111475 -0.00439466833243088 0.0013580581180925142
0.005968102968540639 -0.004489104182643181 0.0012947953399749734
0.006503675288969803 -0.004583540032855482 0.0014748285578835417
0.007039247609398967 -0.004677975883067783 0.0016548612571512234
0.007574819929828132 -0.004772411733280084 0.0016902377520552016
0.008110392250257299 -0.004866847583492385 0.0017581236950396837
0.008645964570686462 -0.004961283433704685 0.0018260091193832788
0.009181536891115626 -0.0050557192839169865 0.0018938960996495349
0.00971710921154479 -0.005150155134129288 0.0017091894087079838
0.010252681531973956 -0.005244590984341589 0.0018104021778109212
0.010788254363164685 -0.005339026924614935 0.001711885822679627
0.011323826683593849 -0.005433462774827235 0.002750504134295579
-0.010004630283360422 -0.0011204564459060297 0.0009436443410057966
-0.009469057962931257 -0.0012148922961183308 0.0015257694658071417
-0.008933485642502093 -0.0013093281463306319 -0.0002738350601140474
-0.008397913322072929 -0.0014037639965429327 -0.001144803223640041
-0.007862341001643765 -0.0014981998467552338 -0.0006183095949445505
-0.0073267686812146 -0.001592635696967535 -0.0009350487710596153
-0.0067911963607854365 -0.001687071547179836 -0.0009704242286818196
-0.006255624551117838 -0.001781507307331092 -0.0011955278583137513
-0.0057200522306886745 -0.0018759431575433932 -0.0012309043532177297
-0.00518447991025951 -0.001970379007755694 -0.001332117640961554
-0.004648907589830346 -0.002064814857967995 -0.0013025198428208088
-0.004113335269401181 -0.0021592507081802962 -0.001337896337724787
-0.0035777629489720172 -0.0022536865583925973 -0.0013082985395840418
-0.003042190628542853 -0.0023481224086048984 -0.0012097816658118606
-0.0025066183081136886 -0.0024425582588171995 -0.0007470767170933545
-0.0019710459876845243 -0.0025369941090295 0.0019428827687108243
-0.00143547366725536 -0.0026314299592418012 0.0028210719693068675
-0.0008999013468261955 -0.0027258658094541023 0.0034031965633116797
0.0039202496647266745 -0.003575788483880073 0.002330258240434265
0.004455821857465447 -0.0036702243115771128 0.0026150346159637505
0.004991394177894612 -0.003764660161789414 0.0017739090490771778
0.005526966498323776 -0.0038590960120017154 0.0017060231060926957
0.00606253881875294 -0.003953531862214016 0.001735620904233441
0.0065981111391821045 -0.004047967712426317 0.0017002444093294627
0.007133683459611268 -0.004142403562638618 0.001798761283101644
0.007669255780040433 -0.004236839412850919 0.0017633847881976658
0.008204828100469599 -0.00433127526306322 0.0018619011433289598
0.008740400420898763 -0.0044257111132755215 0.0021966781308538686
0.009275972741327928 -0.004520146963487823 0.002128791150587613
0.009811545061757092 -0.004614582813700124 0.002413568044757985
0.010347117382186256 -0.004709018663912425 0.002476832378798187
0.010882690213376985 -0.00480345460418577 0.0024737495773657103
0.01141826253380615 -0.0048978904543980715 0.0029695386282675438
-0.009374622112718957 -0.0006793199756891663 0.001483245580839071
-0.008839049792289793 -0.0007737558259014674 0.0006909822092009021
-0.008303477471860627 -0.0008681916761137685 -0.00040195595571761823
-0.007767905151431463 -0.0009626275263260695 -0.0006364889953165524
-0.007232332831002299 -0.0010570633765383706 -0.0009212658894869248
-0.006696760510573135 -0.0011514992267506717 -0.0012560423583709468
-0.006161188700905537 -0.0012459349869019278 -0.001440749049312498
-0.0056256163804763734 -0.0013403708371142289 -0.0014053725544085195
-0.005090044060047209 -0.00143480668732653 -0.0014349703525492648
-0.004554471739618045 -0.0015292425375388308 -0.001533487226321446
-0.00401889941918888 -0.001623678387751132 -0.0012626902972608337
-0.003483327098759716 -0.001718114237963433 -0.001259609570391905
-0.002947754778330552 -0.001812550088175734 -0.0014443162613334561
-0.0024121824579013875 -0.0019069859383880352 -0.0012642825247840006
-0.0018766101374722232 -0.0020014217886003363 -0.0004537173535244917
0.0066925469893944056 -0.0035123953919971524 0.0030465184205651233
0.0072281193098235694 -0.0036068312422094535 0.003081893878187327
0.007763691630252734 -0.0037012670924217545 0.002983377004415146
0.0082992639506819 -0.003795702942634056 0.00334593393756425
0.008834836271111065 -0.003890138792846357 0.003413819884600614
-0.00981575858293582 -4.93118050477008e-05 0.0017881192907407768
-0.009280186262506655 -0.00014374765526000186 0.0012192781149788045
-0.00874461394207749 -0.0002381835054723031 0.00015399803128355582
-0.008209041621648327 -0.00033261935568460415 -0.00029557337425281525
-0.007673469301219163 -0.00042705520589690523 -0.0007451447797891863
-0.007137896980789998 -0.0005214910561092065 -0.0009251779976977548
-0.006602324660360834 -0.0006159269063215076 -0.0011052112156063234
-0.006066752850693236 -0.0007103626664727637 -0.0012852439148740048
-0.005531180530264072 -0.0008047985166850648 -0.001353129857858487
-0.004995608209834908 -0.0008992343668973657 -0.0013885063527624651
-0.004460035889405744 -0.0009936702171096667 -0.001391588116913168
-0.003924463568976579 -0.0010881060673219678 -0.0011068112227427956
-0.003388891248547415 -0.001182541917534269 -0.0014235498802169734
-0.0028533189281182507 -0.00127697776774657 -0.0017861057922918305
-0.0023177466076890864 -0.001371413617958871 -0.0012039811861313727
-0.001782174287259922 -0.0014658494681711722 -0.0012393576810353511
-0.001246601966830758 -0.001560285318383473 -0.0011760943842769231
-0.0007110296464015936 -0.001654721168595774 -0.0004682854574001382
-0.009185750434809615 0.0003918245374787708 0.0018668873568168185
-0.008650178114380451 0.00029738868726646953 0.0007416897287253404
-0.008114605793951287 0.00020295283705416847 -0.0006867644869820994
-0.007579033473522122 0.00010851698684186742 -0.0005067312690735308
-0.0070434611530929584 1.4081136629566152e-05 -0.0009336334000789242
-0.0065078888326637946 -8.03547135827349e-05 -0.0011183406096613624
-0.0059723170229961965 -0.00017479047373399103 -0.0013528746865420706
-0.005436744702567033 -0.00026922632394629206 -0.0014161374646596114
-0.004901172382137868 -0.00036366217415859315 -0.0014457342255185827
-0.004365600061708704 -0.0004580980243708942 -0.0014426524613678799
-0.0038300277412795397 -0.0005525338745831953 -0.0013414386549831683
-0.0032944554208503753 -0.0006469697247954962 -0.001240225885880231
-0.002758883100421211 -0.0007414055750077973 -0.0012048493909762527
-0.0022233107799920467 -0.0008358414252200984 -0.0011694739333540484
-0.0016877384595628824 -0.0009302772754323994 -0.0014542503088835338
-0.001152166139133718 -0.0010247131256447004 -0.0013863633286172778
-0.0006165938187045537 -0.0011191489758570013 -0.0006393461879631736
-0.009626886905026479 0.0010218327081202361 0.0022024189668323484
-0.009091314584597315 0.0009273968579079352 0.0019316230750535102
-0.00855574226416815 0.000832961007695634 0.000919922744115045
-0.008020169943738985 0.0007385251574833328 -9.177810546430743e-05
-0.007484597623309821 0.0006440893072710318 -0.00019299087456724483
-0.006949025302880657 0.0005496534570587306 -0.0010035565644676409
-0.0064134529824514935 0.00045521760684642955 -0.0011047698522114653
-0.005877881172783895 0.0003607818466951734 -0.0012848030701200336
-0.0053423088523547315 0.00026634599648287237 -0.001320179565024012
-0.004806736531925567 0.0001719101462705712 -0.002067196705678116
-0.004271164211496403 7.747429605827014e-05 -0.0013593877788013312
-0.0037355918910672386 -1.696155415403091e-05 -0.0013947642737053097
-0.0032000195706380742 -0.00011139740436633195 -0.001665561202765922
-0.00266444725020891 -0.00020583325457863301 -0.001330783696600126
-0.0021288749297797456 -0.00030026910479093405 -0.001398669639584608
-0.0015933026093505813 -0.00039470495500323514 -0.0013690718414438629
-0.001057730288921417 -0.0004891408052155361 -0.0011345393204858158
-0.0005221579684922526 -0.0005835766554278373 -0.0013596429501177476
1.3414351936911638e-05 -0.0006780125056401381 -0.0012611260763455664
0.0005489868000564676 -0.0007724483783677005 -0.0009763497008160809
-0.009532451054814178 0.0015574050285494005 0.0026439929298907932
-0.008461306413955849 0.0013685333281247983 0.0012269726711787079
-0.007925734093526685 0.0012740974779124972 0.00040628518572713115
-0.007390161773097521 0.001179661627700196 -0.00044303075804734095
-0.006854589452668356 0.0010852257774878948 -0.0006277374489888921
-0.006319017132239192 0.0009907899272755937 -0.0010546411359169466
-0.005783445322571594 0.0008963541671243377 -0.0008295369876441277
-0.0052478730021424305 0.0008019183169120365 -0.0014116615938045856
-0.004712300681713266 0.0007074824666997354 -0.0015101784675767668
-0.004176728361284102 0.0006130466164874345 -0.0015070956661442899
-0.0036411560408549375 0.0005186107662751334 -0.001439210760441582
-0.003105583720425773 0.00042417491606283234 -0.001436127959009105
-0.002570011399996609 0.0003297390658505312 -0.002228392367929048
-0.0020344390795674445 0.00023530321563823025 -0.001584692641097429
-0.0014988667591382802 0.00014086736542592919 -0.0015168056608311727
-0.000963294438709116 4.643151521362816e-05 -0.0013367729615634913
-0.0004277221182799516 -4.8004334998672916e-05 -0.0014352898353356726
0.00010785020214921266 -0.00014244018521097397 -0.0014648865961946437
0.0006434226502687686 -0.00023687605793853617 -0.0010153151906582725
0.0011789949706979329 -0.0003313119081508371 -0.00023609771189233143
-0.008902442878543897 0.0019985415306888617 0.0016390121102846246
-0.008366870558114733 0.0019041056804765604 0.0016036366526624203
-0.007831298237685568 0.0018096698302642593 0.0007034809359373182
-0.007295725917256404 0.0017152339800519582 -1.0417353594027788e-05
-0.00676015359682724 0.0016207981298396572 -0.0005404512249843512
-0.006224581276398075 0.001526362279627356 -0.0009900226305207223
-0.005689009466730478 0.0014319265194760998 -0.0012151267787935411
-0.005153437146301314 0.0013374906692637987 -0.0013163395478964785
-0.0046178648258721495 0.0012430548190514978 -0.001417552316999416
-0.004082292505442986 0.0011486189688391967 -0.0014529288119033942
-0.003546720185013821 0.0010541831186268956 -0.0015208147548878763
-0.003011147864584657 0.0009597472684145945 -0.0018375539310029412
-0.0024755755441554926 0.0008653114182022936 -0.0014536808411895806
-0.001940003223726328 0.0007708755679899925 -0.000821362169982839
-0.001404430903297164 0.0006764397177776914 -0.0016923292962270585
-0.0008688585828679997 0.0005820038675653904 -0.0015076226052855074
-0.0003332862624388353 0.00048756801735308925 -0.0017327262349174392
0.00020228605799032902 0.0003931321671407882 -0.0012700218048398199
0.0007378585061098849 0.000298696294413226 -0.0012731025317087488
0.0012734308265390493 0.0002042604442009249 -0.001209839753591208
0.0018090031469682134 0.00010982459398862391 -0.0009250628594208354
-0.008272434710013238 0.0024396779889347504 0.0018070045613600193
-0.007736862389584073 0.0023452421387224493 0.0010147401524400763
-0.007201290069154909 0.0022508062885101482 0.0003069317442041784
-0.006665717748725744 0.002156370438297847 -0.00030079971847136696
-0.0061301454282965805 0.002061934588085546 -0.0009085311811469123
-0.0055945736186289825 0.00196749882793429 -0.0010932383907293506
-0.005059001298199819 0.0018730629777219889 -0.001520140521734744
-0.004523428977770655 0.0017786271275096878 -0.0014189277526318067
-0.00398785665734149 0.0016841912772973867 -0.0015174446264039879
-0.0034522843369123256 0.0015897554270850856 -0.001547041387262959
-0.0029167120164831613 0.0014953195768727845 -0.001610305202662274
-0.002381139696053997 0.0014008837266604836 -0.0016399030008030192
-0.0018455673756248329 0.0013064478764481826 -0.0016368201993705422
-0.0013099950551956686 0.0012120120262358815 -0.0016337373979380654
-0.0007744227347665043 0.0011175761760235804 -0.0015658524922353575
-0.00023885041433733997 0.0010231403258112793 -0.0014979665492508753
0.0002967219060918243 0.0009287044755989783 -0.001462590054346897
0.0008322943542113803 0.0008342686028714161 -0.0012825563177974414
0.0013678666746405445 0.000739832752659115 -0.0016173338239632374
0.0019034389950697088 0.000645396902446814 -0.0006328714751295531
0.0024390112855714376 0.0005509610575115274 -0.0002703155630546959
-0.008177998863318946 0.002975250289412291 0.0012789041831965252
-0.007642426542889782 0.00288081443919999 0.0012110187588529303
-0.007106854222460618 0.002786378588987689 0.0002541823355075222
-0.006571281902031453 0.0026919427387753878 -0.0002758520545236883
-0.006035709581602289 0.0025975068885630867 -0.0010550684960078554
-0.005500137771934691 0.00250307112841183 -0.0010254722537897712
-0.004964565451505527 0.0024086352781995295 -0.0015157559316758343
-0.004428993131076362 0.0023141994279872284 -0.0015188387331083113
-0.0038934208106471985 0.0022197635777749273 -0.00152191945997724
-0.0033578484902180342 0.0021253277275626262 -0.0014923226991182688
-0.00282227616978887 0.002030891877350325 -0.0015935365055029802
-0.0022867038493597056 0.001936456027138024 -0.0016614224484874623
-0.0017511315289305412 0.001842020176925723 -0.001562905574715281
-0.0012155592085013771 0.0017475843267134219 -0.0017429382739829625
-0.0006799868880722128 0.001653148476501121 -0.001844152080367674
-0.00014441456764304844 0.00155871262628882 -0.0014602800278360874
0.00039115775278611583 0.0014642767760765188 -0.0015614927969390248
0.0009267302009056717 0.0013698409033489566 -0.0014629759231668436
0.001462302521334836 0.0012754050531366555 -0.0012782692322252924
0.0019978748417640003 0.0011809692029243546 -0.0005424033892831137
0.002533447132265729 0.0010865333579890676 -0.0011491260954333954
0.003069019450699731 0.0009920975081285678 -0.0007222224085053409
0.0036045918030514932 0.0008976616522874515 1.364187851417686e-05
-0.0075479906926774806 0.0034163867596291543 0.0013788468007671383
-0.007012418372248317 0.003321950909416853 0.0007967221946066805
-0.006476846051819152 0.003227515059204552 6.085687030538873e-05
-0.005941273731389988 0.0031330792089922514 -0.0005212677358550691
-0.00540570192172239 0.003038643448840995 -0.0010764271650173208
-0.004870129601293226 0.0029442075986286943 -0.001261134374599759
-0.004334557280864061 0.002849771748416393 -0.0014458410655413102
-0.0037989849604348975 0.002755335898204092 -0.001509103843658851
-0.003263412640005733 0.002660900047991791 -0.0016076207174310323
-0.002727840319576569 0.00256646419777949 -0.0017061375912032135
-0.0021922679991474045 0.002472028347567189 -0.0016382506109369574
-0.0016566956787182404 0.0023775924973548873 -0.0020221237007503183
-0.001121123358289076 0.0022831566471425866 -0.0016595677886754607
-0.0005855510378599117 0.0021887207969302856 -0.001689165586816206
-4.997871743074735e-05 0.0020942849467179845 -0.0017524283649337467
0.0004855936029984169 0.0019998490965056834 -0.001527324735301815
0.001021166051117973 0.0019054132237781214 -0.0014919482403978367
0.001556738371547137 0.0018109773735658203 -0.0012211523486189983
0.0020923106919763013 0.0017165415233535192 -0.0012180700658274085
0.00262788298247803 0.0016221056784182324 -0.0011168567780835842
0.003163455300912032 0.0015276698285577324 -0.001048969797817328
0.0036990276532637943 0.001433233972716616 -0.0005189359264270044
-0.007989127162894344 0.00404639493027062 0.002816703975756342
-0.0074535548424651795 0.003951959080058319 0.002454147026399711
-0.006917982522036016 0.003857523229846017 0.0009927591143661808
-0.006382410201606851 0.003763087379633716 -4.585867860888446e-05
-0.005846837881177687 0.0036686515294214153 -0.0006895584054405037
-0.005311266071510089 0.003574215769270159 -0.0011391303296177616
-0.004775693751080925 0.003479779919057858 -0.0010758670328593338
-0.00424012143065176 0.003385344068845557 -0.001438422426293304
-0.0037045491102225964 0.003290908218633256 -0.0018009783383681611
-0.003168976789793432 0.003196472368420955 -0.001566445817410114
-0.0026334044693642677 0.003102036518208654 -0.0016676585865130515
-0.0020978321489351034 0.0030076006679963527 -0.0016043958083955105
-0.0015622598285059393 0.0029131648177840516 -0.001875192737456123
-0.001026687508076775 0.0028187289675717505 -0.0017766758636839418
-0.0004911151876476108 0.0027242931173594494 -0.0017797586651164185
4.445713278155357e-05 0.0026298572671471484 -0.0017828393919853472
0.000580029453210718 0.0025354214169348473 -0.001598132701043796
0.0011156019013302738 0.0024409855442072853 -0.001413426010102245
0.0016511742217594381 0.002346549693994984 -0.0014488025050062232
0.0021867465421886024 0.002252113843782683 -0.001350285631234042
0.0027223188326903312 0.0021576779988473965 -0.0011655789402924908
0.0032578911511243333 0.0020632421489868965 -0.001200954397914695
0.0037934635034760954 0.00196880629314578 -0.0008170813081013346
0.004329035823905259 0.001874370442933479 -0.0007185654716109274
0.004864608144334424 0.0017799345927211779 -0.00022277590206820652
-0.006823546649308453 0.004393095677965573 0.0015047655471644005
-0.006287974328879289 0.004298659827753272 0.00017866303594780527
-0.0057524020084501245 0.004204223977540971 -0.0006420244495037715
-0.005216830198782527 0.004109788217389715 -0.0008765569704618187
-0.0046812578783533626 0.004015352367177414 -0.0015843658973386035
-0.004145685557924199 0.003920916516965113 -0.0012218094666228594
-0.0036101132374950344 0.003826480666752812 -0.0016056820377953328
-0.00307454091706587 0.003732044816540511 -0.001668946890476422
-0.0025389685966367057 0.00363760896632821 -0.001767462726966829
-0.0020033962762075414 0.0035431731161159087 -0.0017320872693446247
-0.001467823955778377 0.003448737265903607 -0.001830603105835032
-0.0009322516353492127 0.003354301415691306 -0.0018601998666940031
-0.0003966793149200484 0.003259865565479005 -0.001792313923709521
0.0001388930055091159 0.0031654297152667044 -0.0015215180319306828
0.0006744653259382802 0.0030709938650544033 -0.001706224722872234
0.001210037774057836 0.0029765579923268413 -0.0014354288310933956
0.0017456100944870003 0.00288212214211454 -0.0015339436303020287
0.002281182414916165 0.002787686291902239 -0.0013539109310343473
0.0028167547054178937 0.0026932504469669525 -0.0013835087291750926
0.0033523270238518953 0.0025988145971064525 -0.0010667695530600276
0.0038878993762036574 0.002504378741265336 -0.0009655567839570903
0.004423471696632822 0.0024099428910530347 -0.0008976708409726082
0.0049590440170619865 0.0023155070408407336 -0.00044809943543623707
0.005494616209800758 0.002221071213143694 0.0003930276873729966
-0.006729110799096152 0.004928667998394738 0.0006160344518986861
-0.006193538478666988 0.004834232148182437 0.00054814747163243
-0.005657966158237823 0.004739796297970136 -0.0004904692840608611
-0.005122394348570226 0.004645360537818879 -0.0008072084601759259
-0.0045868220281410615 0.004550924687606578 -0.0013372428502071365
-0.004051249707711898 0.004456488837394277 -0.0014384566565918478
-0.0035156773872827333 0.004362052987181976 -0.0014415384207425506
-0.002980105066853569 0.004267617136969675 -0.001542751189845488
-0.0024445327464244046 0.004173181286757374 -0.0016439649962301996
-0.0019089604259952403 0.004078745436545073 -0.00196070313506349
-0.001373388105566076 0.0039843095863327715 -0.0019637848992141932
-0.0008378157851369116 0.003889873736120471 -0.0015368832868496868
-0.00030224346470774743 0.0037954378859081693 -0.0018994391989245439
0.0002333288557214169 0.0037010020356958682 -0.0018009223251523627
0.0007689011761505812 0.003606566185483567 -0.001868809305418619
0.001304473624270137 0.0035121303127560056 -0.0014419056184905644
0.0018400459446993014 0.0034176944625437045 -0.0016219383177582458
0.002375618265128466 0.0033232586123314034 -0.0013874057968001987
0.0029111905556301943 0.0032288227673961164 -0.0021013035676906576
0.0034467628740641964 0.003134386917535617 -0.001280616600879968
0.003982335226415959 0.0030399510616945 -0.0007254571717177163
0.004517907546845123 0.002945515211482199 -0.0010880130837925734
0.005053479867274288 0.002851079361269898 -0.0008032361896222011
0.005589052060013059 0.0027566435335728582 -0.0006185294986806499
0.006124624380442224 0.002662207683360557 -0.0001916268490343695
-0.006099102628454687 0.0053698044686116015 0.0007672442025108377
-0.005563530308025522 0.0052753686183993 3.2405355248892637e-06
-0.005027958498357925 0.005180932858248044 -0.0005232530931706012
-0.00449238617792876 0.005086497008035743 -0.0012591178988310059
-0.0039568138574995965 0.004992061157823442 -0.001288714659689977
-0.003421241537070432 0.004897625307611141 -0.0015232482179297984
-0.002885669216641268 0.0048031894573988395 -0.0013432144813803428
-0.0023500968962121035 0.0047087536071865384 -0.0016779919875461386
-0.0018145245757829392 0.004614317756974238 -0.001962768363075624
-0.0012789522553537749 0.004519881906761937 -0.0018948824200911419
-0.0007433799349246106 0.004425446056549636 -0.0017936696509882044
-0.00020780761449544626 0.004331010206337335 -0.0018569324291057455
0.0003277647059337181 0.004236574356125034 -0.0016318287994738134
0.0008633370263628824 0.004142138505912733 -0.0017303456732459946
0.0013989094744824382 0.00404770263318517 -0.0015503129739783132
0.0019344817949116025 0.003953266782972869 -0.0015799097348372843
0.002470054115340767 0.003858830932760568 -0.0012631715960039936
0.003005626405842496 0.0037643950878252816 -0.0012927683568629649
0.0035411987242764975 0.0036699592379647815 -0.0012573928992407606
0.00407677107662826 0.003575523382123665 -0.0011895064376153915
0.004612343397057424 0.003481087531911364 -0.00108829263123068
0.005147915717486589 0.0033866516816990627 -0.0009082594133221116
0.0056834879102253604 0.003292215854002023 -0.0008070466442191742
0.006219060230654525 0.003197780003789722 -0.0005362497151585619
0.006754632551083689 0.003103344153577421 -0.0004350364274147374
0.007290204871512854 0.0030089083033651197 0.0004060891394718351
-0.006004666778242386 0.005905376789040765 0.0008745038057156001
-0.005469094457813221 0.005810940938828464 0.00012748510913883476
-0.004933522648145624 0.005716505178677208 -0.0003220862963975363
-0.004397950327716459 0.005622069328464907 -0.0010359845859288824
-0.0038623780072872954 0.005527633478252606 -0.0013527232434030602
-0.003326805686858131 0.0054331976280403045 -0.0015327549053889677
-0.0027912333664289668 0.005338761777828003 -0.0015681314002929459
-0.0022556610459998024 0.005244325927615702 -0.0016693462439594314
-0.0017200887255706381 0.005149890077403402 -0.0017372311496621393
-0.0011845164051414738 0.005055454227191101 -0.0017726076445661178
-0.0006489440847123096 0.0049610183769788 -0.0018404935875505999
-0.00011337176428314527 0.004866582526766499 -0.001941706356653537
0.00042220055614601907 0.004772146676554198 -0.0018784435785359963
0.0009577728765751834 0.004677710826341897 -0.0018815263799684733
0.0014933453246947393 0.004583274953614334 -0.001646992821728652
0.0020289176451239034 0.004488839103402033 -0.0016173950235879068
0.0025644899655530677 0.004394403253189732 -0.0015188791870974995
0.0031000622560547965 0.004299967408254445 -0.001620091956200437
0.0036356345744887985 0.004205531558393945 -0.001285315487316415
0.004171206926840561 0.004111095702552829 -0.001100608277733977
0.004706779247269725 0.004016659852340528 -0.0012018210468369144
0.005242351567698889 0.003922224002128227 -0.0011033046917056201
0.0057779237604376615 0.003827788174431187 -0.001004788855215213
0.006313496080866826 0.003733352324218886 -0.0007200124796857275
0.00684906840129599 0.0036389164740065847 -0.0006904146815449822
0.007384640721725155 0.0035444806237942836 -5.809601033824064e-05
0.007920213042154319 0.003450044773581983 -9.347250524221891e-05
-0.005374658652631443 0.006346513003876846 0.0005924689659149291
-0.004839086842963846 0.006252077243725589 -3.98491866509256e-05
-0.004303514522534681 0.006157641393513288 -0.0005663417780646421
-0.0037679422021055166 0.006063205543300987 -0.0010621308289664759
-0.0032323698816763523 0.005968769693088686 -0.0014460039187798365
-0.002696797561247188 0.005874333842876385 -0.0015092666968973775
-0.0021612252408180236 0.005779897992664084 -0.0016077835706695587
-0.0016256529203888595 0.0056854621424517835 -0.0015724081130473544
-0.0010900805999596952 0.005591026292239482 -0.0016356719284466694
-0.000554508279530531 0.005496590442027181 -0.0018203786193882205
-1.8935959101366687e-05 0.00540215459181488 -0.001640344882838765
0.0005166363613277977 0.005307718741602579 -0.0017388617566109462
0.0010522086817569619 0.005213282891390278 -0.0015588290573432648
0.0015877811298765179 0.005118847018662716 -0.0015234525624392863
0.002123353450305682 0.0050244111684504145 -0.0012983489328073545
0.0026589257707348465 0.0049299753182381134 -0.0010732458218163097
0.0031944980612365753 0.004835539473302826 -0.001358022715986682
0.003730070379670577 0.004741103623442326 -0.0013549399145542053
0.0042656427320223395 0.00464666776760121 -0.0012870539715697231
0.004801215052451503 0.004552231917388909 -0.0011858401651850116
0.005336787372880668 0.004457796067176608 -0.0010846268774411872
0.005872359565619441 0.004363360239479568 -0.001016741453097592
0.006407931886048605 0.004268924389267267 -0.0008367082351890237
0.006943504206477769 0.004174488539054966 -0.0007688212549227675
0.007479076526906933 0.004080052688842665 -0.0006676084858198301
0.008014648847336098 0.003985616838630364 -0.00048757526791126156
0.008550221167765262 0.0038911809884180633 -3.8003862374890494e-05
-0.005280222802419142 0.00688208532430601 0.00020846310403448994
-0.004744650992751544 0.006787649564154753 0.00017308660913051166
-0.00420907867232238 0.006693213713942452 -0.000697880517113708
-0.0036735063518932155 0.006598777863730151 -0.0010146191745878856
-0.003137934031464051 0.00650434201351785 -0.0014641905801242568
-0.002602361711034887 0.006409906163305549 -0.0015320775603905128
-0.0020667893906057225 0.006315470313093248 -0.001599963503374995
-0.0015312170701765584 0.006221034462880947 -0.0017011762724779324
-0.0009956447497473941 0.006126598612668646 -0.0017365527673819106
-0.0004600724293182298 0.006032162762456345 -0.0018044387103663927
7.549989111093452e-05 0.005937726912244044 -0.0017748419495074216
0.0006110722115400989 0.005843291062031743 -0.0017452441513666763
0.0011466445319692632 0.005748855211819442 -0.0019252778879161319
0.001682216980088819 0.0056544193390918795 -0.0016405004751048724
0.0022177893005179833 0.005559983488879578 -0.0015419846386144653
0.0027533616209471476 0.005465547638667277 -0.0014787208232151503
0.0032889339114488764 0.00537111179373199 -0.0015466067661996325
0.0038245062298828784 0.00527667594387149 -0.0014480898924274512
0.004360078582234641 0.005182240088030374 -0.0014511726938599282
0.0048956509026638045 0.005087804237818073 -0.001352655820087747
0.005431223223092969 0.004993368387605772 -0.001289393041970206
0.005966795415831742 0.004898932559908732 -0.0010548600023712717
0.006502367736260906 0.004804496709696431 0.00037359421333616784
0.0070379400566900705 0.00471006085948413 -0.0008848287739689814
0.007573512377119234 0.004615625009271829 -0.0008552309758282362
0.008109084697548398 0.004521189159059528 -0.000756714620696942
0.008644657017977564 0.004426753308847227 -0.0003728415308835813
0.009180229338406728 0.004332317458634926 0.0004194218407545878
-0.0046502151425392435 0.007323221884583917 0.0005117399186450457
-0.004114642822110079 0.007228786034371616 -0.00022412540565624613
-0.0035790705016809144 0.007134350184159315 -0.0008318573869726785
-0.0030434981812517505 0.007039914333947014 -0.0013870157788531564
-0.002507925860822586 0.006945478483734713 -0.0014855316153435634
-0.001972353540393422 0.0068510426335224115 -0.001384318846240626
-0.0014367812199642576 0.006756606783310111 -0.0017681919360539866
-0.0009012088995350931 0.00666217093309781 -0.0017328154411500084
-0.0003656365791059289 0.006567735082885509 -0.0016649284608837522
0.00016993574132323537 0.006473299232673208 -0.0016618477340148235
0.0007055080617523997 0.006378863382460907 -0.0017603646077870047
0.001241080382181564 0.006284427532248606 -0.0011536419016367231
0.0017766528303011198 0.006189991659521043 -0.0015805445512830035
0.0023122251507302844 0.006095555809308742 -0.0015451690936607993
0.0028477974711594487 0.006001119959096441 -0.0015420862922283223
0.0033833697616611775 0.005906684114161154 -0.0014742003492438404
0.0039189420800951795 0.005812248264300654 -0.0012941676499761588
0.004454514432446942 0.005717812408459538 -0.0013574304280936996
0.0049900867528761056 0.005623376558247237 -0.000486463820490367
0.00552565907330527 0.005528940708034936 -0.001194271710085378
0.006061231266044042 0.005434504880337896 -0.0010930589409824407
0.006596803586473207 0.005340069030125595 -0.0010899761395499637
0.007132375906902371 0.005245633179913294 -0.0006404047340135925
0.0076679482273315355 0.005151197329700993 -0.0009251811095430779
0.0082035205477607 0.005056761479488692 -0.0006543846991233527
0.008739092868189864 0.004962325629276391 -8.554456064315429e-05
0.009274665188619028 0.0048678897790640895 0.0011563830532501634
-0.004555779292326942 0.007858794205013082 0.0007986976977453582
-0.004020206971897778 0.007764358354800781 -0.0003194095907796003
-0.0034846346514686133 0.0076699225045884795 -0.0008882497292597987
-0.0029490623310394494 0.0075754866543761784 -0.0013785339257867486
-0.002413490010610285 0.007481050804163877 -0.001479746694889686
-0.0018779176901811206 0.007386614953951576 -0.0015809605012743976
-0.0013423453697519565 0.007292179103739276 -0.0016488464442588797
-0.000806773049322792 0.007197743253526975 -0.0015503295704866985
-0.00027120072889362783 0.007103307403314674 -0.0015207317723459532
0.0002643715915355365 0.007008871553102373 -0.0017007655088954088
0.0007999439119647008 0.006914435702890072 -0.0016711687480364375
0.0013355162323938651 0.006819999852677771 -0.0016742505121871403
0.001871088680513421 0.006725563979950208 -0.0016773322763378431
0.0024066610009425855 0.006631128129737907 -0.001680414040488546
0.00294223332137175 0.006536692279525606 -0.0015818971667163647
0.0034778056118734786 0.006442256434590319 -0.0015523004058573936
0.004013377930307481 0.006347820584729819 -0.0001238467087908409
0.004548950282659243 0.006253384728888703 -0.0014055374822105947
0.005084522603088407 0.006158948878676402 -0.001440913977114573
0.005620094923517571 0.0060645130284641005 -0.0013423971033423917
0.006155667116256343 0.005970077200767061 -0.0011576898937599536
0.006691239436685508 0.00587564135055476 -0.0010591735386286593
0.007226811757114672 0.005781205500342459 -0.001029575740487914
0.007762384077543837 0.0056867696501301575 -0.0009999779423471688
0.008297956397973 0.0055923337999178565 -0.0004448200691075782
0.008833528718402164 0.005497897949705555 -0.00011004308158266935
0.00936910103883133 0.005403462099493254 0.0005977658452941156
0.009904673359260496 0.005309026249280953 0.0005623893503901373
0.01044024567968966 0.005214590399068652 0.0024850092710230224
-0.003925771121685477 0.008299930675229945 0.0009029299940925555
-0.0033901988012563123 0.008205494825017643 -0.0003547337029539891
-0.0028546264808271484 0.008111058974805343 -0.0009368588277553339
-0.002319054160397984 0.008016623124593041 -0.0013995648137556142
-0.0017834818399688195 0.007922187274380741 -0.0014291615746145855
-0.0012479095195396554 0.007827751424168439 -0.0013937861169923812
-0.000712337199110491 0.007733315573956139 -0.0017776592068057418
-0.00017676487868132672 0.007638879723743838 -0.0009066910432797482
0.0003588074417478376 0.007544443873531537 -0.0010913987715030734
0.0008943797621770019 0.007450008023319236 -0.0015183014211493538
0.0014299520826061662 0.0073555721731069345 -0.001616818294921535
0.0019655245307257222 0.007261136300379372 -0.0016137354934890583
0.0025010968511548866 0.007166700450167071 -0.0016433332916298035
0.003036669171584051 0.00707226459995477 -0.001463299555080348
0.0035722414620857797 0.006977828755019483 -0.0013954146493776398
0.004107813780519782 0.006883392905158983 -0.001629947170335687
0.004643386132871544 0.006788957049317867 -0.001562061227351205
0.005178958453300708 0.0066945211991055655 -0.0013820285280835235
0.0057145307737298725 0.006600085348893264 -0.0008917432942747994
0.006250102966468644 0.006505649521196225 -0.0005750041181597345
0.006785675286897809 0.006411213670983924 -0.000859782049611881
0.007321247607326973 0.0063167778207716225 -0.0006797488317033125
0.007856819927756137 0.0062223419705593214 -0.0004997156137947441
0.008392392248185302 0.00612790612034702 -5.0144208258372996e-05
0.008927964568614466 0.006033470270134719 0.0007290737891484552
0.00946353688904363 0.005939034419922418 0.002130653590012918
0.009999109209472796 0.005844598569710117 0.0032903932036136233
-0.003295762951044011 0.008741067145446809 -7.35582511031187e-05
-0.002760190630614847 0.008646631295234509 -0.0005231301752803768
-0.0022246183101856825 0.008552195445022207 -0.0013336943092581118
-0.0016890459897565182 0.008457759594809907 -0.0015137280458075671
-0.001153473669327354 0.008363323744597605 -0.00141521220931716
-0.0006179013488981897 0.008268887894385304 -0.0013166953355449788
-8.232902846902543e-05 0.008174452044173003 -0.0012181784617727976
0.0004532432919601389 0.008080016193960702 -0.0012860644047572797
0.0009888156123893032 0.0079855803437484 -0.001321440899661258
0.0015243879328184675 0.0078911444935361 -0.0012918431015205127
0.0020599603809380233 0.007796708620808538 -0.0012949259029529897
0.0025955327013671876 0.007702272770596237 -0.0013628118459374718
0.003131105021796352 0.0076078369203839355 -0.0013658936100881746
0.0036666773122980808 0.0075134010754486485 -0.001467106379191112
0.004202249630732083 0.0074189652255881484 -0.0012325738582330647
0.004737821983083845 0.007324529369747032 -0.0010478671672915136
0.005273394303513009 0.007230093519534731 -0.0007130901797666046
0.005808966623942174 0.00713565766932243 -0.00047855610288589635
0.006344538816680946 0.00704122184162539 -0.0004816389043183732
0.00688011113711011 0.006946785991413089 -0.0005828516734213106
