ply
format ascii 1.0
element vertex 654
property float x
property float y
property float z
property uchar red
property uchar green
property uchar blue
end_header
-0.00735634308099067 -0.005885200741426724 -0.0007410435305489106 184 70 0
-0.006805695494822383 -0.006800737616017126 8.21528165051693e-05 155 99 0
-0.005986052190602837 -0.007697680482896359 0.0004919622027490262 160 94 0
-0.005493239019899663 -0.008617215092376075 0.0014040372628642654 124 130 0
-0.004942591433731375 -0.009532751966966476 0.002227233609918347 95 159 0
-0.0042908025011002835 -0.01044129756678986 0.0028949980633742357 79 175 0
-0.0042876764979754385 -0.011394681216826706 0.004559614061387961 0 239 15
-0.004585334257588494 -0.01236885641255068 0.006686468616602303 0 118 136
-0.02025651473859713 0.007432491022873902 -0.002637687217664204 0 119 135
-0.019840272837896418 0.0065076635158150195 -0.0016079390405900357 0 78 176
-0.01810004595624469 0.005674354889144351 -0.0026128631304157546 0 185 69
-0.016853153919223193 0.004806945080597267 -0.0028596406089834783 0 237 17
-0.015665056633004503 0.0039354711551277104 -0.0030160635513450367 31 223 0
-0.014418164595983007 0.003068061346580631 -0.003262841029912762 89 165 0
-0.013632546312189565 0.002168766540805271 -0.002800742708040666 89 165 0
-0.012503399506828439 0.0012932177337592263 -0.002866571791523895 133 121 0
-0.01167634172166833 0.00039678738401885925 -0.002468156823615798 138 116 0
-0.010764803123792265 -0.0004938024210261686 -0.0021995717836036897 154 100 0
-0.00989602765280869 -0.0013873490855632435 -0.0018652676776808041 165 89 0
-0.008649136946813303 -0.002254758986115917 -0.0021120431107556036 223 31 0
-0.008297054497647996 -0.003184021438627598 -0.000983696038243189 170 84 0
-0.006835258312621655 -0.004036576254633859 -0.0015607336906635818 255 0 0
-0.006601389616307111 -0.0049740100916121684 -0.00025071820955725917 186 68 0
-0.006056740964812393 -0.005889961635396516 0.0005816971741074064 157 97 0
-0.005271121349992842 -0.006789256349166284 0.0010437934504865763 157 97 0
-0.004570636161648445 -0.00769443587847822 0.001636722522554257 147 107 0
-0.0041543942609477335 -0.008619263385537103 0.002666470699628427 101 153 0
-0.003738151694733967 -0.009544090846593188 0.003696217853956133 56 198 0
-0.003798547581638281 -0.010501865371405239 0.00545845295629728 0 211 43
-0.003156618038546937 -0.01141109271711001 0.006141369510212918 0 195 59
-0.0033192067825402196 -0.012375931201105148 0.008060652445562588 0 90 164
-0.01942425993609028 0.008349025035333718 -0.0022661569665005567 0 130 124
-0.019049031608401337 0.007421362514028631 -0.0011733799931982185 0 85 169
-0.017455984935298964 0.00657788023123985 -0.0019521206346612453 0 175 79
-0.01583226143794785 0.005736518447285649 -0.0027780047743010024 16 238 0
-0.015137707967458513 0.004830928895062059 -0.002175959963015419 5 249 0
-0.013544661959869196 0.003987446566270482 -0.0029546995817319854 106 148 0
-0.012681819537766793 0.0030934897868161657 -0.0026112776910982727 116 138 0
-0.011818977115664393 0.002199533007361849 -0.00226785580046456 126 128 0
-0.010800300153251473 0.0013163481043715584 -0.0021639171531884493 156 98 0
-0.009892221557745929 0.0004255191307954327 -0.0018900148543191785 171 83 0
-0.009155952397972292 -0.000477186874233251 -0.0013520778367794237 166 88 0
-0.008137275435559374 -0.0013603717772235398 -0.0012481391895033112 195 59 0
-0.007359565443392961 -0.002260213234211642 -0.0007738875714204778 195 59 0
-0.006707778507301033 -0.0031687589720434117 -0.00010612004972520087 179 75 0
-0.006157130255619691 -0.00408429580063102 0.0007170752745824186 150 104 0
-0.005505341988501653 -0.004992841446457199 0.0013848407507847677 134 120 0
-0.004853553055870562 -0.005901387046280585 0.0020526052042406564 117 137 0
-0.0037709402543085633 -0.0067801524607571904 0.0020582885988898354 155 99 0
-0.004287476792251313 -0.007769457163239839 0.0045215110582075835 0 249 5
-0.0035097668000849 -0.008669298620227937 0.00499576267629042 0 248 6
-0.0035066407969600545 -0.009622682270264783 0.0066603786743041436 0 162 92
-0.019758113868480323 0.010138552905609211 -0.001771995316087599 0 98 156
-0.018745434509714866 0.009254953425430564 -0.0016588396776938252 0 124 130
-0.01733464324518801 0.008398872955217067 -0.0021574940412485127 0 194 60
-0.016465869105230548 0.007505326198674403 -0.0018231878898327027 0 203 51
-0.014858218413659481 0.00666285340121865 -0.002624371679663019 45 209 0
-0.01384553838938097 0.005779253967042799 -0.0025112170640157055 74 180 0
-0.012832858365102458 0.0048956545328669495 -0.002398062448368392 103 151 0
-0.012005799914429292 0.003999224229129377 -0.001999648503206759 109 145 0
-0.010993120555663836 0.003115624748950732 -0.0018864928648129817 137 117 0
-0.01008158121233507 0.0022250340860106577 -0.0016179073783139444 154 100 0
-0.008670790693260912 0.0013689544736922082 -0.0021165621883555644 232 22 0
-0.008564716475730203 0.0004226869960107472 -0.0006101548405849991 148 106 0
-0.007695943001285795 -0.0004708598065347111 -0.00027584766642272524 159 95 0
-0.0065667961959246695 -0.0013464086135807577 -0.0003416767499059524 202 52 0
-0.006022145547890788 -0.00226236001935672 0.0004907355655193284 172 82 0
-0.005195087097217624 -0.0031587903230942925 0.0008891495106809651 178 76 0
-0.00445140279099037 -0.004060983764981312 0.0014156910871384962 173 81 0
-0.003665785172709983 -0.004960278616759464 0.001877790431757051 174 80 0
-0.003376702185826028 -0.005893895831852293 0.0031029537526240346 112 142 0
-0.0036116601503954453 -0.006863736751779096 0.005133452183770081 0 242 12
-0.003195417584181679 -0.007788564212835181 0.0061631993380977905 0 201 53
-0.0015877668926106148 -0.008631037010290936 0.005362015548267471 43 211 0
-0.001399840372626541 -0.009571646772688824 0.006742634397523007 0 227 27
-0.017797086944462054 0.010179512211449407 -0.0014657183421489407 0 147 107
-0.01658584178318056 0.009309638355194832 -0.0016577144519599619 0 195 59
-0.015891289643717332 0.008404048710965652 -0.0010556675951814542 0 185 69
-0.014201374217962266 0.007567262365000118 -0.0019832740979551216 35 219 0
-0.01318269725554935 0.006684077462009826 -0.001879335450679009 65 189 0
-0.011971452094267856 0.005814203605755255 -0.0020713315604900303 119 135 0
-0.011063373418822669 0.004923373728281288 -0.0017974277923873665 134 120 0
-0.010044695790896696 0.004040188871293793 -0.001693490167857718 164 90 0
-0.00961051498581102 0.0031166013695735836 -0.0006913101216730957 121 133 0
-0.00839927123549528 0.0022467283252112615 -0.0008833056552245873 174 80 0
-0.007579627931275734 0.001349785458332026 -0.0004734962689807304 179 75 0
-0.006560950968862815 0.0004666005553417372 -0.00036955762170461787 208 46 0
-0.005741307664643269 -0.0004303423115374983 4.025176453924251e-05 213 41 0
-0.005536527878429352 -0.0013697868846815654 0.0013949704707634028 141 113 0
-0.004517850916016434 -0.002252971787671857 0.0014989091180395153 171 83 0
-0.0038660619833853424 -0.0031615173874952416 0.0021666735714954023 155 99 0
-0.0033154143972170544 -0.004077054262085644 0.002989869918549482 126 128 0
-0.003162876720271001 -0.005020110008632812 0.004424873199312639 47 207 0
-0.002787648392582055 -0.005947772529937897 0.005517650172614975 0 252 2
-0.0031977514242523476 -0.006929720143427853 0.007817307858466838 0 119 135
-0.0032420748381331403 -0.007886383677739753 0.009554843122371773 0 27 227
-0.017772791698989352 0.011993796715857118 -0.0015219528141201498 0 155 99
-0.01702910606173599 0.011091603365975686 -0.000995413283155543 0 151 103
-0.015899960587400976 0.01021605446692405 -0.0010612403211458458 0 190 64
-0.014541412763168091 0.009356362731301866 -0.0014796080646686128 0 254 0
-0.013353313480410238 0.008484888943840696 -0.0016360340752695577 49 205 0
-0.012224166675049114 0.007609340136794651 -0.0017018631587527849 93 161 0
-0.011312627997233406 0.006718749427851786 -0.0014332766495072837 109 145 0
-0.010401087322878533 0.005828158856917302 -0.0011646932085011674 125 129 0
-0.009489548645062823 0.004937568147974435 -0.0008961066992556645 141 113 0
-0.00862077450510536 0.00404402139143177 -0.0005618005478398545 152 102 0
-0.007751999779574484 0.0031504755847897416 -0.0002274968884038997 163 91 0
-0.006840461101758775 0.0022598848758468727 4.108962084160145e-05 179 75 0
-0.006139975913414376 0.0013547053465349365 0.0006340186929092821 169 85 0
-0.005994501326516092 0.0004111613723246496 0.0020798763818761414 90 164 0
-0.004434299719194136 -0.0004345912864047565 0.0013516113465638063 187 67 0
-0.0036906154129668824 -0.0013367847282917773 0.001878152923021341 182 72 0
-0.002990129559109429 -0.002241964211600919 0.0024710809723425577 172 82 0
-0.00228964437076503 -0.003147143740912856 0.003064010044410235 162 92 0
-0.0015459600645377778 -0.004049337182799875 0.0035905516208677695 157 97 0
-0.002208133486256419 -0.00504870886091908 0.006277585779502288 0 234 20
-0.0028703082390011702 -0.006048080631043874 0.00896462198362973 0 74 180
-0.0020015340990437065 -0.006941627387586538 0.009298928135045539 0 83 171
-0.016305305263135166 0.01200064062495725 -0.0004572132002666641 0 149 105
-0.015031060639572321 0.011135121531283826 -0.0007460255584322527 0 204 50
-0.013819816143803884 0.010265247629026458 -0.00093802064549681 0 252 2
-0.012956973721701482 0.009371290849572141 -0.0005945987548630991 7 247 0
-0.011682729098138637 0.008505771755898716 -0.0008834111130286877 69 185 0
-0.010471483936857144 0.007635897899644145 -0.001075407222839709 122 132 0
-0.009920836350688857 0.006720361025053741 -0.000252210875785629 93 161 0
-0.008902159388275939 0.005837176122063452 -0.0001482722285095165 123 131 0
-0.007883481760349965 0.004953991265075955 -4.4334603979867895e-05 152 102 0
-0.0068648055433897445 0.00407080721998071 5.960359680931039e-05 182 72 0
-0.006001963121287342 0.0031768504405263933 0.000403025487443023 192 62 0
-0.005451315535119054 0.0022613135659359917 0.001226221834497103 163 91 0
-0.004432638572706136 0.0013781286629457002 0.0013301604817732137 193 61 0
-0.0037380851022167996 0.0004725391107221113 0.001932205293058797 182 72 0
-0.0027194074742908263 -0.0004106457462653857 0.0020361429175884474 211 43 0
-0.0027162821366790366 -0.001364029442305026 0.0037007599383486363 114 140 0
-0.0022820993350541963 -0.002287616806016849 0.004702936916293867 71 183 0
-0.001847918529968521 -0.0032112043077370577 0.005705116962478487 28 226 0
-0.0021063617847193903 -0.004182668620295895 0.007771707093530351 0 164 90
-0.0003804454302793075 -0.005016966445067009 0.0067887751208820755 16 238 0
-0.01553353694561575 0.01291299358138976 7.2714086101523245e-06 0 153 101
-0.014122747012115001 0.012056913019170674 -0.0004913809094516108 0 224 30
-0.012993600206753877 0.01118136421212463 -0.0005572099929348397 8 246 0
-0.011805502920535187 0.010309890286655077 -0.0007136329352963981 59 195 0
-0.010893962246180314 0.009419299715720593 -0.00044504949429028176 75 179 0
-0.010025188771735903 0.008525752913175137 -0.00011074232012801138 86 168 0
-0.008954674331992278 0.007646151213888596 -8.646641754185731e-05 122 132 0
-0.008085900192034815 0.006752604457345933 0.00024783973387395436 133 121 0
-0.0070153864178042445 0.005873002712056599 0.00027211665920656714 169 85 0
-0.006271702191516631 0.00497081017406742 0.0007986567664307054 164 90 0
-0.0054029273860461136 0.004077263463527551 0.0011329618951000514 175 79 0
-0.004617309102252673 0.0031779686577521928 0.0015950602169721474 175 79 0
-0.0037057690934108553 0.0022873780408149136 0.0018636446807247277 192 62 0
-0.0031611197764030816 0.0013714265430333616 0.002696059041642933 162 92 0
-0.002249579767561264 0.0004808359260960824 0.0029646435053955113 178 76 0
-0.0017049304505534903 -0.0004351155716854696 0.0037970578663137147 149 105 0
-0.0012242163071817425 -0.0013554865119779127 0.004727726457112388 111 143 0
-0.000990347610867201 -0.00229292034895622 0.006037741938218712 43 211 0
-0.0014893352350749452 -0.003281012003738055 0.00847399559607378 0 151 103
-0.01579268328900485 0.013754085793252213 0.002056043981678515 0 43 211
-0.01356718192408288 0.012954321185606563 0.000305360274372158 0 203 51
-0.012292937300520036 0.012088802091933139 1.6547916206569382e-05 4 250 0
-0.011210322502418874 0.011210036815464917 2.2228242616360167e-05 41 213 0
-0.010191645540005956 0.010326851912474625 0.00012616688989247442 71 183 0
-0.009172968577593036 0.009443667009484338 0.00023010553716858347 100 154 0
-0.00815429161518012 0.008560482106494047 0.000334044184444696 130 124 0
-0.007246212274221877 0.007669652275022875 0.0006079469298008976 146 108 0
-0.006338132933263636 0.006778822443551703 0.0008818496751570974 162 92 0
-0.005518491040009842 0.005881880388564719 0.0012916596376604875 166 88 0
-0.004435877572934788 0.005003115020090909 0.0012973420095632026 204 50 0
-0.003699608413161152 0.004100409015062228 0.001835279027102961 198 56 0
-0.0030478194805300604 0.0031918634152388412 0.0025030434805588513 182 72 0
-0.002311550320756424 0.00228915741021016 0.003040980498098608 176 78 0
-0.001877368184644639 0.001365570000495541 0.004043158498790306 133 121 0
-0.0014431873795589627 0.0004419824987753336 0.0050453385449749245 90 164 0
-0.0018165900283239242 -0.0005374282445826817 0.007288595854420366 0 206 48
-0.0014413610351219253 -0.0014650907198849733 0.00838137180497624 0 161 93
-0.015542000467771322 0.015584019068428118 0.001651901845648767 0 76 178
-0.014529320776249337 0.014700419611250869 0.0017650569726693106 0 101 153
-0.012831592227234042 0.013864173338098394 0.0008254434264290044 0 203 51
-0.0113697960422077 0.01301161852209213 0.00024840577400861083 27 227 0
-0.010357116017929187 0.012128019087916279 0.00036156038965592247 56 198 0
-0.009445576009087369 0.011237428470979 0.000630144853408501 72 182 0
-0.008432895984808857 0.010353829036803151 0.0007432994690558126 101 153 0
-0.0071860052788134685 0.009486419136250476 0.0004965240359810132 159 95 0
-0.00653075700932491 0.008578112658955396 0.001158972253326205 143 111 0
-0.005830271155467456 0.007672933175646253 0.0017519003026474234 133 121 0
-0.0047597581266895835 0.006793332288251964 0.0017761767814931054 169 85 0
-0.003932701007042528 0.005896901892508802 0.0021745927721476647 175 79 0
-0.0030211603326876554 0.005006311321574319 0.002443176213153781 191 63 0
-0.0024765103501668273 0.00409035986979556 0.0032755895513255223 161 93 0
-0.001649453230519773 0.003193929474052399 0.0036740055419800834 167 87 0
-0.0009489680421753749 0.0022887499447404613 0.004266934614047764 157 97 0
-0.00040431739414149284 0.0013727985389644995 0.005099346929473043 127 127 0
-0.00011523440725753594 0.00043918132387167023 0.006324510250340023 66 188 0
-0.0004978663910627751 -0.0005408673862471211 0.008581951007723743 0 184 70
-0.0012439094316964282 -0.0015460364515966362 0.011397874232395293 0 14 240
-0.013911392368699581 0.01560213867006062 0.0024659597157132103 0 88 166
-0.012349895672973503 0.014756475532770243 0.0017357044157853673 0 175 79
-0.010932041983911933 0.01390088324421707 0.0012261966667734391 0 246 8
-0.00972079682263044 0.013031009387962495 0.0010342005569624162 44 210 0
-0.00870211986021752 0.012147824484972205 0.0011381392042385287 73 181 0
-0.008007566389728184 0.011242234932748618 0.0017401840155241103 62 192 0
-0.006678106810082873 0.010380532506963466 0.0013665184743727188 131 123 0
-0.005659428516643847 0.009497347695978764 0.001470455076155907 160 94 0
-0.005166614680427617 0.008577813132501845 0.002382529113524684 124 130 0
-0.0037487624023317965 0.007722221655840922 0.0018730219407722837 203 51 0
-0.002929119098112251 0.0068252787889616865 0.0022828313270161424 208 46 0
-0.0027765827521923064 0.005882222950408931 0.003717836653272225 130 124 0
-0.001757904458753279 0.004999038139424228 0.003821773255055413 159 95 0
-0.0013237236536676033 0.004075450637704021 0.0048239533012400335 116 138 0
-0.0005460149925272982 0.0031756090887103306 0.005298206964815793 115 139 0
-5.320182182412363e-05 0.0022560744792306164 0.006210282024931032 79 175 0
-0.00035085910228729823 0.0012818995439831983 0.008337135445777178 0 206 48
-0.0008673959729865767 0.0002925948184991495 0.010800358416468156 0 61 193
-0.013980577792777152 0.017409961383641967 0.002553384271835001 0 86 168
-0.01343592714474327 0.016494009977866004 0.00338579658726028 0 59 195
-0.011253339059847234 0.01569127904099588 0.0017010611059585408 0 215 39
-0.009791542874820893 0.014838724224989615 0.001124023453538149 41 213 0
-0.009005923260001342 0.013939429511219846 0.0015861197299173171 41 213 0
-0.00799324323572283 0.013055830077043994 0.0016992743455646313 70 184 0
-0.006980563876957372 0.01217223059686535 0.0018124299839584043 99 155 0
-0.006194945593163931 0.011272935791089992 0.0022745283058305003 99 155 0
-0.004497217709661689 0.010436689471934723 0.0013349157823366545 213 41 0
-0.00435174378827646 0.00949314545172164 0.002780774494049977 134 120 0
-0.0035661249189096068 0.008593851595846918 0.003242870323942215 134 120 0
-0.002378026301664806 0.007722377762382956 0.0030864453360877307 185 69 0
-0.0018333756536309236 0.006806426356606994 0.0039188576515130115 156 98 0
-0.000586484947635536 0.0059390164560543185 0.003672082218438214 214 40 0
-0.0002974019607515791 0.005005399240961491 0.004897245539305196 152 102 0
0.0004462823454756751 0.00410320579907447 0.005423787115762729 147 107 0
0.0005523565630063832 0.003156938321393011 0.006930194463533295 63 191 0
0.00024418950038600793 0.002182036910007276 0.009073199096511058 0 190 64
-0.00010102600846722079 0.0012045745690278248 0.011273139002294994 0 64 190
0.000599459512633704 0.00029939506271728616 0.011866067562989442 0 55 199
-0.012298390850430531 0.0174316462152067 0.0032881766761255616 0 104 150
-0.01088053716136896 0.01657605392665353 0.002778668927113632 0 175 79
-0.009082251586352742 0.01574675853781408 0.0016845214586689783 37 217 0
-0.008304541594186327 0.014846917080825979 0.0021587730767518125 37 217 0
-0.007484898955479837 0.013949974167943949 0.002568583485742135 41 213 0
-0.006576819614521595 0.01305914433647278 0.002842486231098335 57 197 0
-0.005247360700389339 0.012197441864684832 0.0024688217126934055 126 128 0
-0.0041002749906432516 0.011323133062977461 0.0023754244983206297 171 83 0
-0.003364005830869614 0.010420427057948779 0.0029133615158603854 165 89 0
-0.0026277374165486747 0.009517721910815142 0.0034512980869132095 160 94 0
-0.0020770891648673323 0.008602185082227534 0.0042744934112208255 131 123 0
-0.0009944750322792243 0.0077234197597565194 0.004280174760377082 168 86 0
-0.0005602942271935481 0.006799832258036311 0.005282354806561702 125 129 0
0.0001759755980931428 0.005897126299010425 0.005820290801354997 119 135 0
0.0003807547187940066 0.004957681679863561 0.007175010530325618 48 206 0
0.00020385611310213365 0.003991854043770772 0.00911628456010627 0 191 63
-0.000206246253055104 0.0030099064762836103 0.011415941223211667 0 58 196
0.0001101893203701988 0.0020781799760644405 0.012599069664480784 0 6 248
-0.012134676571274518 0.019255567938590786 0.0030176860521403445 0 127 127
-0.01122313789345881 0.018364977229647916 0.0032862725613858465 0 142 112
-0.009662936286136854 0.01751922457091851 0.002558007526073513 0 229 25
-0.008474837003379 0.016647750783457343 0.00240158151547257 21 233 0
-0.00760606352893459 0.015754203980911884 0.002735888689634841 32 222 0
-0.006694524185605827 0.01486361331797181 0.0030044741761338827 48 206 0
-0.0056818441613273145 0.01398001388379596 0.0031176287917811943 77 177 0
-0.00455269735596619 0.013104465076749915 0.0030517997082979654 120 134 0
-0.0034821835817356196 0.01222486333146058 0.0030760766336305825 156 98 0
-0.0027384992755083645 0.011322669889573561 0.003602618210088113 152 102 0
-0.001994815049220752 0.010420477351584382 0.004129158317312251 147 107 0
-0.001167756598547588 0.009524047047846809 0.004527572262473885 153 101 0
-0.00042407229232033477 0.00862185360595979 0.005054113838931419 148 106 0
0.00031961201390692025 0.00771966016407277 0.005580655415388952 143 111 0
0.0014792081263598376 0.005892616397740558 0.007137452451165924 93 161 0
0.001019955624586101 0.0049072713858357726 0.009512642008746778 0 200 54
0.0006373233080243352 0.003927222652715584 0.011770083277503727 0 70 184
0.0018254222580256618 0.0030557488422530187 0.011613657778276014 0 115 139
-0.01045712368952531 0.019276932337450318 0.0037595997742183467 0 145 109
-0.00924587852824382 0.018407058481195743 0.003567603664407326 0 193 61
-0.007519962173803735 0.01757276065642463 0.0025846716917590487 49 205 0
-0.007418430748383276 0.01662617916366464 0.004098060306880833 0 222 32
-0.006043030137070428 0.01576765235681972 0.0036537935546948853 38 216 0
-0.005550216300854199 0.014848117793342802 0.0045658675920636615 2 252 0
-0.00398871960512812 0.014002454656052423 0.0038356122921358185 99 155 0
-0.0029061061380530667 0.013123689287578615 0.0038412946640385354 136 118 0
-0.0021698356472533214 0.012220983374555522 0.004379229636085367 131 123 0
-0.00147528425324279 0.011315394588221388 0.004981276046376941 120 134 0
-0.0007807301172403991 0.010409805082000591 0.0055833198349160605 109 145 0
3.891119043998321e-05 0.009512862077112974 0.0059931322893993074 114 140 0
0.0003553480948913961 0.008581135668899394 0.007176258685175499 56 198 0
0.0010071370275224877 0.007672590069076009 0.007844023138631388 40 214 0
0.0010102630306473327 0.006719206419039161 0.009508639136645115 0 204 50
0.0006001593334639863 0.00573725875954641 0.01180829784524344 0 71 183
0.0008049387869213769 0.004797814163400945 0.013163017062840829 0 6 248
-0.010645248897337934 0.021076533531748074 0.004029808586302745 0 129 125
-0.009457150280093134 0.02020505969828411 0.003873383598448261 0 175 79
-0.008210259574097746 0.019337649797731435 0.0036266081653734635 0 226 28
-0.007022160291339891 0.018466176010270268 0.00347018215477252 19 235 0
-0.006195101840666727 0.017569745706532695 0.003868596099934153 24 230 0
-0.005326328366222317 0.016676198903987235 0.004202903274096427 35 219 0
-0.004197181560861193 0.015800650096941194 0.004137074190613198 79 175 0
-0.003285640886506321 0.01491005952600671 0.0044056576316193145 95 159 0
-0.002740991569498547 0.013994108028225156 0.00523807199253752 65 189 0
-0.00149409953247705 0.013126698219678073 0.004991294513969794 123 131 0
-0.0007504159717024936 0.0122245056356861 0.005517835643940396 119 135 0
-0.0003983335225371844 0.011295243183174417 0.006646182716452807 65 189 0
0.0008485571834582024 0.010427833282621745 0.00639940728337801 123 131 0
0.001264799749671969 0.009503005821565658 0.0074291544377057175 77 177 0
0.0012994883749211433 0.008551803900083511 0.009045265662001478 0 241 13
0.0015916076089752826 0.0057111970994116485 0.01360460288980143 0 12 242
-0.008887186151613114 0.021103463181192175 0.00464799663981511 0 156 98
-0.007612940862537216 0.020237944133521545 0.004359183258903061 0 211 43
-0.006401696366768777 0.01936807023126418 0.004167188171838502 4 250 0
-0.005383017407816696 0.018484885466282273 0.0042711237508752265 34 220 0
-0.004832369821648407 0.017569348591691868 0.005094320097929306 5 249 0
-0.0034569692103355604 0.016710821784846952 0.004650053345743357 79 175 0
-0.0025488898693773188 0.01581999195337578 0.004923956091099559 95 159 0
-0.001854337729914092 0.014914402309146601 0.005526002947878066 84 170 0
-0.0010346944256945448 0.014017459442267366 0.005935812334121923 89 165 0
-0.0001718527490448393 0.013123503520708096 0.006279233778268705 99 155 0
0.00014458415540657358 0.012191777112494515 0.007462360174044894 41 213 0
0.0009642254630869559 0.011294834107606897 0.007872172628528141 46 208 0
0.0016587795990893458 0.010389244601386101 0.00847421641706726 35 219 0
0.0019752165035407596 0.009457518193172521 0.009657342812843453 0 234 20
0.001472610573163214 0.007515576696029518 0.013768576981360537 0 4 250
-0.009106260378513786 0.0229009250615122 0.004965767253379294 0 137 117
-0.008093581685261383 0.02201732553533076 0.00507892391451953 0 163 91
-0.006735032530002391 0.021157633891714163 0.004660554125503839 0 227 27
-0.0057223538367499865 0.020274034365532722 0.004773710786644077 0 253 1
-0.0043638046814909945 0.019414342721916125 0.004355340997628385 69 185 0
-0.003883091203632302 0.01849397173562089 0.005286010611173522 32 222 0
-0.0028704118448668447 0.017610372255442243 0.005399166249567296 61 193 0
-0.0019588725015380823 0.01671978159250217 0.0056677517360663385 77 177 0
-0.0012151868642847185 0.015817588242620743 0.006194291267030947 72 182 0
-0.0006705375472769448 0.014901636744839186 0.00702670562794915 43 211 0
0.0005175603245151589 0.01403016376927027 0.006870280193607739 93 161 0
0.0011728092595167721 0.013121857337977983 0.007532727388206465 77 177 0
0.0015890511602174853 0.012197029830919102 0.008562475565280635 32 222 0
0.0023327374629839026 0.011294836527040466 0.009089014073498781 27 227 0
0.0025666041627592827 0.010357402552053776 0.01039903262284449 0 218 36
0.0022951727552361295 0.009385040448948116 0.012485582673853336 0 101 153
0.0029956579435805276 0.008479860919636178 0.013078511745921013 0 92 162
-0.007451749467535292 0.02292069681406587 0.005743091588176066 0 152 102
-0.006240504971766854 0.0220508229118085 0.0055510965011115075 0 200 54
-0.005029259810485361 0.02118094905555393 0.005359100391300487 0 248 6
-0.004595077674373576 0.02025736164583931 0.006361278391992182 0 209 45
-0.003447991964627488 0.01938305284413194 0.006267881177619406 0 250 4
-0.0025851495425250857 0.018489096064677624 0.0066113030682531165 4 250 0
-0.0013109049189622413 0.0176235769710042 0.006322490710087528 66 188 0
-0.0004480631623728949 0.01672962014554709 0.0066659136234677036 76 178 0
0.0002464896426033897 0.015824030547320702 0.0072679594574997465 65 189 0
0.0013935739413837257 0.014949722557505582 0.007174562819386499 111 143 0
0.001598353727597643 0.014010277984361512 0.008529281525610657 39 215 0
0.0024179970318171885 0.01311333511748228 0.008939090911854516 43 211 0
0.002622776152518053 0.012173890498335414 0.010293810640825138 0 230 24
0.0024458775468261798 0.011208062862242626 0.01223508467060579 0 123 131
-0.00783175606474421 0.02470703443651233 0.00630817968299857 0 115 139
-0.00664365744749941 0.023835560603048367 0.006151754695144088 0 160 94
-0.005396766741504022 0.02296815070249569 0.005904979262069289 0 212 42
-0.004485226067149149 0.02207756013156121 0.006173562703075406 0 226 28
-0.0034725460428706376 0.021193960697385356 0.006286717318722717 0 252 2
-0.002459866018592126 0.020310361263209502 0.006399871934370031 26 228 0
-0.0015483273407764162 0.019419770554266635 0.006668458443615532 42 212 0
-0.0005356473164979045 0.018536171120090785 0.006781613059262846 71 183 0
0.0004770327077806072 0.017652571685914935 0.006894767674910159 100 154 0
0.0016061795131417332 0.01677702287886889 0.00682893859142693 143 111 0
0.0020224206683897494 0.015852196229705053 0.007858686322014165 97 157 0
0.0027229058567341457 0.014947016700393116 0.008451615394081844 87 167 0
0.0031391470919218045 0.014022189147331438 0.009481364593902478 42 212 0
0.0034282314098318693 0.0130885720242442 0.010706525869276536 0 237 17
0.003534304961849523 0.012142304500559946 0.012212934239793565 0 162 92
0.003299345999010524 0.011172463511628948 0.014243434205059307 0 49 205
-0.004399124624301878 0.023896116915538668 0.006022345767156414 0 241 13
-0.00374733635718384 0.02298757126971249 0.006690111243358766 0 227 27
-0.002728659394770922 0.022104386366722198 0.0067940498906348765 0 253 1
-0.0018658169726685214 0.02121042958726788 0.00713747178126859 8 246 0
-0.0009577376317102797 0.02031959975579671 0.007411374526624789 24 230 0
0.00018934741252275497 0.01944529090808654 0.007317978334998474 69 185 0
0.0012719608795978086 0.018566525539612733 0.007323660706901191 107 147 0
0.002091604183817354 0.017669582672733497 0.00773347009314505 112 142 0
0.0028278725981382936 0.01676687752559986 0.008271406664197876 106 148 0
0.002879609005792411 0.015816854011713913 0.00986131921511702 15 239 0
0.0034302565919606997 0.014901317137123511 0.0106845155621711 0 243 11
0.003746693496412111 0.01396959072890993 0.011867641957947293 0 191 63
0.0035697942252071848 0.013003763046814346 0.013808917010474405 0 84 170
-0.005172356264912751 0.025655273326543507 0.0071917338366551875 0 160 94
-0.003984256982154896 0.024783799539082343 0.007035307826054244 0 205 49
-0.002971577623389437 0.023900200058903698 0.00714846346444802 0 231 23
-0.0021445205037423833 0.023003769663160534 0.007546879455102578 0 236 18
-0.0013174620530692193 0.02210733935942296 0.007945293400264215 0 241 13
-7.057001604772462e-05 0.021239929550875877 0.0076985159216964895 43 211 0
0.0008409693272810395 0.020349338887935803 0.00796710140819553 59 195 0
0.00202906794452584 0.01947786505447184 0.007810676420341048 110 144 0
0.0027727522507530952 0.01857567161258482 0.008337217996798582 105 149 0
0.003317402153334279 0.017659721064703905 0.009169629865736929 75 179 0
0.0036064851402182385 0.016726103849611075 0.010394793186603909 14 240 0
0.004350169446445492 0.01582391040772406 0.010921334763061442 9 245 0
0.004419460757452107 0.014875100355564077 0.01248426930779975 0 184 70
0.004835702658152819 0.013950272848505195 0.013514017484873918 0 143 111
0.004637007501655376 0.012982938551872632 0.015488787995412466 0 34 220
-0.00370482523968391 0.025662120317830904 0.008256404926495705 0 155 99
-0.0022475731777939264 0.024809251394740522 0.0076863505869194555 0 230 24
-0.0019311362733425135 0.02387752498652694 0.008869476982695645 0 178 76
-0.001068293851240111 0.022983568207072626 0.009212898873329357 0 187 67
1.4319615834940819e-05 0.022104802838598815 0.009218581245232074 0 221 33
0.0014715730087510315 0.02125193400751402 0.008648524860162899 46 208 0
0.0022912156474575243 0.020354991094631993 0.009058335269153221 51 203 0
0.0027253964525432006 0.019431403592911786 0.010060515315337842 7 247 0
0.0034199498430928952 0.018525814944586036 0.010662558657390027 0 252 2
0.003970597429261184 0.017610278069995634 0.011485755004444107 0 226 28
0.004878676770219424 0.016719448238524462 0.011759657749800308 0 240 14
0.004881802107831216 0.015766064542484817 0.013424274770560497 0 153 101
0.006028887817577304 0.01489175574077745 0.013330877556187719 0 194 60
-0.0031742847735283745 0.026557798687169974 0.009091603422792444 0 132 122
-0.0018157369492954913 0.02569810695154779 0.008673235679269677 0 196 58
-0.0010720506465290748 0.024795913647669154 0.009199774187487821 0 192 62
-0.0003715667892107838 0.023890734026351626 0.009792705305048426 0 183 71
0.00045549166146238024 0.022994303722614056 0.01019111925021006 0 188 66
0.0014681710202278375 0.022110704242435407 0.010304274888603835 0 213 41
0.0022537906350473882 0.02121140952866564 0.010766371164983007 0 214 40
0.003039408253327774 0.020312114676887486 0.011228470509601563 0 214 40
0.003866465958548241 0.019415685231044963 0.011626884008276266 0 219 35
0.004693524409221405 0.01851925492730739 0.0120252979534379 0 224 30
0.005394009597565803 0.017614075397995452 0.01261822702550558 0 215 39
0.006221068048238967 0.01671764509425788 0.013016640970667216 0 221 33
0.006094480232930701 0.01575529513145716 0.014880598436142275 0 119 135
0.006163771543937316 0.01480648507929718 0.016443532980880582 0 40 214
-0.0018474026117316928 0.026554923493769186 0.01037242072721528 0 110 144
-0.0004295489226701227 0.025699331205216017 0.00986291297820335 0 181 73
-0.00037781318052905986 0.02474930764532727 0.011452826551868956 0 100 154
0.0003998954806112443 0.02384946609633358 0.011927080215444716 0 100 154
0.0010516837477292824 0.0229409204505074 0.012594845691647066 0 85 169
0.003154178002025207 0.022132653123264283 0.01103319672432887 0 232 22
0.0029772773997941704 0.02116682534916311 0.012974473822348905 0 125 129
0.004059891452442636 0.020288060930589935 0.012980153702271765 0 159 95
0.0049679707934008775 0.019397231099118763 0.013254056447627966 0 173 81
0.00583081321550328 0.018503274319664444 0.013597478338261679 0 182 72
0.0064826001515952076 0.017594728581832673 0.014265245859956956 0 168 86
0.006485727485746161 0.016641345023801418 0.015929859812477756 0 81 173
0.007137514754594616 0.015732799308971042 0.0165976268227998 0 66 188
0.007512744746066199 0.014805136902672945 0.017690401239235983 0 21 233
-0.00022425533447422222 0.02657252727260386 0.01119794403453781 0 122 132
0.0002564588088975264 0.025652156332311417 0.012128612625336484 0 89 165
0.0010001431151247797 0.024749962890424398 0.012655154201794016 0 84 170
0.0017857607334051673 0.023850668038646244 0.013117253546412574 0 85 169
0.0022664752095334414 0.0229302971213552 0.014047921625838018 0 51 203
0.003625023366522852 0.02207060540873441 0.01362955337094202 0 116 138
0.0046377026453486665 0.021187006832453607 0.0137427075401024 0 141 113
0.005708216419579237 0.02030740508716427 0.013766984465435015 0 174 80
0.006493834037859625 0.01940811023538612 0.014229083810053573 0 174 80
0.007320892488532789 0.018511679931648546 0.014627497755215206 0 179 75
0.007801606631904536 0.0175913089913561 0.015558166346013882 0 146 108
0.008545291603644846 0.016689115595471878 0.016084706899724955 0 141 113
0.00937235005431801 0.015792685291734304 0.016483120844886588 0 146 108
0.010157967672598394 0.014893390439956154 0.016945220189505145 0 147 107
0.010858452860942792 0.013988210910644215 0.017538149261572822 0 138 116
0.010893142151705022 0.013037009035164865 0.019154259463122124 0 54 200
0.011804682493303367 0.012146418441228985 0.019422843415501472 0 69 185
0.014633470229664033 0.008527555862256953 0.021753302223107354 0 36 218
0.015419087820281136 0.007628261042314747 0.02221540155115706 0 36 218
0.016287862939580674 0.006734714376558766 0.022549706157116593 0 46 208
0.017300543010449976 0.005851114888764475 0.02266286080066934 0 72 182
0.017716785243907216 0.0049262874047069916 0.02369260846637028 0 31 223
0.018261434228158464 0.004010335883924042 0.024525023338661717 0 4 250
0.019818764381351155 0.0022107852354445925 0.025470590669485805 0 4 250
0.02056244902033494 0.0013085918165589693 0.025997131734570106 0 0 254
0.023735779245487525 -0.0013328547157855763 0.026128684521443644 0 92 162
0.024923877862732324 -0.0022043285492495384 0.025972259533589163 0 137 117
0.025835417206061088 -0.003094919212189613 0.026240845020088204 0 152 102
0.026069285236862576 -0.004032353095170712 0.027550861523940987 0 91 163
0.027724874253085535 -0.005825111944463359 0.02834542709908979 0 101 153
0.001061266610316981 0.02561319337233582 0.01421174282424248 0 9 245
0.0017558204135628454 0.02470760384311363 0.01481378712415483 0 0 255
0.002618662835665248 0.023813647063659314 0.015157209014788543 0 9 245
0.003637339798078166 0.02293046216066902 0.015261147662064656 0 35 219
0.004966799630540363 0.022068760661783107 0.014887480140306638 0 96 158
0.005618586899388818 0.021160214946952735 0.015555247150628681 0 82 172
0.006993987843458191 0.020301688163109212 0.015110979887069503 0 148 106
0.008555484539184272 0.019456025025818835 0.01438072458714166 0 235 19
0.00893071353238627 0.018528362550516545 0.015473500537697533 0 189 65
0.009838792207831456 0.017637532673042577 0.015747404305800197 0 203 51
0.01085746983575743 0.016754347816055084 0.015851341930329846 0 230 24
0.011635179162410789 0.015854506313064187 0.016325594571159143 0 229 25
0.01228696676401577 0.014945960621235212 0.01699336107010796 0 215 39
0.012981520234505106 0.014040371069011624 0.01759540588139354 0 205 49
0.014192765395786601 0.013170497212757051 0.017403409771582518 0 253 1
0.013711180937954918 0.012183608531063931 0.019812918609450135 0 112 142
0.01504064136947646 0.011321905936807812 0.019439252157174014 0 173 81
0.015474822174562135 0.010398318435087605 0.020441432203358634 0 135 119
0.016850223451388036 0.009539791674245481 0.019997164428426223 0 201 53
0.017627931419352004 0.008639950111084947 0.020471419098179598 0 200 54
0.018536010741382735 0.0077491203013962656 0.020745321832199216 0 214 40
0.019355654092193073 0.006852177380898592 0.021155131246348505 0 219 35
0.02009192325196671 0.005949471375869909 0.02169306826388826 0 214 40
0.020743711519084745 0.00504092573004373 0.022360833740090617 0 199 55
0.0212365251689378 0.004121391381040571 0.02327290766583766 0 167 87
0.022383610213170833 0.0032470825333304042 0.023179511474211344 0 208 46
0.02340228917212292 0.002363897768348498 0.023283447053248068 0 234 20
0.023405414509734705 0.0014105140723088584 0.024948064074008257 0 147 107
0.024934053494932336 0.0005625796850247493 0.02426830381241389 0 231 23
0.02584213217037752 -0.0003282501924492167 0.024542207580516548 0 245 9
0.026536684309840748 -0.0012338398366783954 0.02514425443729506 0 235 19
0.026970865780439477 -0.002157427292395809 0.026146433460733216 0 196 58
0.02740504791655126 -0.0030810147021104253 0.027148611461424912 0 158 96
0.02783922872163694 -0.004004602203830634 0.028150791507609532 0 119 135
0.028575497881410575 -0.004907308208859313 0.02868872852514929 0 114 140
0.029068311384870277 -0.005826842795337631 0.029600803073891298 0 82 172
0.02944354212179455 -0.006754506059530778 0.03069357793681441 0 36 218
0.003501025114317543 0.024733644695557333 0.015451735150690813 0 25 229
0.004328083564990707 0.02383721439181976 0.01585014909585245 0 30 224
0.005574973525533398 0.02296980534916213 0.015603373216290718 0 82 172
0.006587653549811909 0.02208620591498628 0.015716527831938026 0 108 146
0.00765816732404248 0.021206604169696944 0.015740804757270646 0 140 114
0.008728680432759997 0.020327002378404815 0.015765082705349723 0 172 82
0.009916779050004796 0.019455528544940856 0.01560865771749524 0 217 37
0.011163669756000187 0.01858811864438818 0.015361882284420442 16 238 0
0.012176349780278699 0.01770451921021233 0.015475036900067754 45 209 0
0.013246864220022324 0.01682491751092579 0.015499312802653905 81 173 0
0.014158402897838032 0.015934326801982923 0.015767899311899407 97 157 0
0.014902088535091392 0.015032133452101493 0.016294438842864016 92 162 0
0.015602574388948846 0.014126953968792353 0.016887366892185236 82 172 0
0.016388192007229234 0.0132276591170142 0.01734946623680379 82 172 0
0.01725696766457598 0.012334112238003363 0.017683770454348408 93 161 0
0.01812574113902039 0.011440565435457906 0.01801807762851068 104 150 0
0.01882622699287784 0.010535385952148764 0.0186110056778319 94 160 0
0.01924246886591527 0.00961055847692583 0.01964075383833722 49 205 0
0.020111242986945225 0.008717011742165657 0.019975059978416445 59 195 0
0.02093830148420918 0.007820581384809646 0.020373473951483513 65 189 0
0.021681985790436432 0.006918387942922627 0.020900015527941046 60 194 0
0.022382470978780836 0.00601320841361069 0.021492944600008727 50 204 0
0.02320952924309082 0.00511677832434688 0.02189135843354863 56 198 0
0.02391001443143522 0.004211598795034943 0.022484287505616304 46 208 0
0.024653698737662474 0.003309405353147922 0.023010829082073837 41 213 0
0.0257242131774061 0.0024298036538613847 0.023035104984659993 77 177 0
0.026140455078106813 0.0015049761468025023 0.02406485316173416 31 223 0
0.02688414004984712 0.0006027827509182786 0.02459139371544523 27 227 0
0.027428790032367947 -0.0003131687008604781 0.02542380705361697 0 252 2
0.027717873019251903 -0.0012467859159533082 0.026648970374483955 0 197 57
0.028262523667285787 -0.0021627373217292696 0.027481382689909236 0 171 83
0.028551606654169743 -0.0030963545368220997 0.028706546010776216 0 116 138
0.029096257302203624 -0.004012305942598059 0.029538958326201493 0 90 164
0.02957697011454926 -0.004932676974896095 0.030469628962493094 0 56 198
0.03012162117527931 -0.005848629261568502 0.03130204223577854 0 30 224
0.0048685954494606005 0.02473358284275093 0.016670025300306396 0 8 246
0.006015680080997464 0.023859274875937208 0.01657662815081992 0 49 205
0.00709829321531599 0.022980509484462 0.016582311034095867 0 82 172
0.008180908013417153 0.02210174420799378 0.016587991360505656 0 116 138
0.00919958497583007 0.021218559305003486 0.01669193000778177 0 142 112
0.010823308473181185 0.02037719752104929 0.015866045868142015 0 236 18
0.01168615089528359 0.019483240741594972 0.016209467758775728 0 245 9
0.013376065655525602 0.018646454349626647 0.015281862278748523 102 152 0
0.013692501228950906 0.017714727849407474 0.016464990720017638 44 210 0
0.01560104567927704 0.01689305397362626 0.015201399731442172 185 69 0
0.01674813138902313 0.01601874517191889 0.015108002517069395 231 23 0
0.016952911175237045 0.015079300598774823 0.016462721223293557 159 95 0
0.017772553813943538 0.014182357685892794 0.016872531632283874 163 91 0
0.018467106805282994 0.013276767873192648 0.01747457757793765 152 102 0
0.019244816131936356 0.012376926370201755 0.017948830218766948 152 102 0
0.02006445810512979 0.011479983411316931 0.018358641650503733 157 97 0
0.019728508506871554 0.010503161599087929 0.020544341840725115 17 237 0
0.021321555161046418 0.009659679338081638 0.01976560118792551 119 135 0
0.02209926453429057 0.008759837781472303 0.020239853856660238 118 136 0
0.02279381733926685 0.007854248183245918 0.02084189969069228 107 147 0
0.023445605606384888 0.006945702537419739 0.021509665166894634 91 163 0
0.024223314081162017 0.006045861202899809 0.02198391871884866 91 163 0
0.02508615650326442 0.005151904423445493 0.02232734060948237 101 153 0
0.025737944770382458 0.004243358777619312 0.02299510608568472 84 170 0
0.026474213930156094 0.00334065277259063 0.02353304310322448 79 175 0
0.0268494442543842 0.0024129903892939272 0.024625817008287428 28 226 0
0.02750123119047613 0.0015044446514621591 0.0252935845299827 12 242 0
0.027994046357718468 0.0005849101799908288 0.026205656521858557 0 233 21
0.028369274685407415 -0.0003427523413142581 0.027298433495160892 0 188 66
0.02880345549049309 -0.0012663398430344634 0.028300613541345512 0 149 105
0.02929626932670932 -0.0021858744065113844 0.029212687578714293 0 117 137
0.029612705898404205 -0.0031176008377263604 0.03039581448586371 0 65 189
0.005549281650336494 0.02563963985666254 0.017274482990004718 0 2 252
0.006561960929162311 0.024756041280381735 0.0173876371591651 0 28 226
0.007473499939734548 0.023865450594440264 0.017656223157037368 0 42 212
0.008832048096723957 0.023005758881819473 0.017237854902141372 0 107 147
0.009844727455489415 0.022122159401640827 0.017351010540535148 0 132 122
0.011781457714701179 0.02130243383623259 0.016044104193791098 7 247 0
0.013341659987536187 0.02045668122350598 0.015315838135732302 104 150 0
0.01452975860478099 0.01958520739004202 0.01515941314787782 155 99 0
0.015600273044524614 0.018705605690755477 0.015183689050463972 191 63 0
0.016670785487729073 0.017826003853460556 0.01520796802128951 227 27 0
0.017326034422730684 0.016917697422168268 0.015870415215888237 211 43 0
0.01811165337203718 0.016018402662395705 0.016332512515013872 211 43 0
0.01876690164152574 0.015110096185100622 0.01699496073235906 196 58 0
0.019510586799629224 0.014207902574742639 0.017521501397691864 191 63 0
0.02025427243688259 0.013305709224861208 0.018048040928656472 186 68 0
0.020954757625226986 0.012400529695549271 0.018640970000724153 176 78 0
0.0213068387157029 0.01147126718286795 0.01976931910216064 122 132 0
0.022218379371130265 0.010580676633715959 0.020037902531830173 139 115 0
0.022873627687209616 0.009672370102802436 0.020700350777080795 123 131 0
0.023574113541067067 0.008767190619493296 0.021293278826402015 113 141 0
0.024118763523587897 0.007851239167714536 0.022125692164573756 83 171 0
0.025548455926321094 0.006042865712190154 0.023267410505270238 67 187 0
0.026248941114665497 0.005137686182878213 0.02386033957733792 56 198 0
0.026793590431673266 0.004221734685096661 0.024692753938256123 27 227 0
0.02733824107970715 0.003305783279320698 0.025525166253681404 0 253 1
0.027818955223078895 0.002385412339028255 0.026455834844480077 0 219 35
0.028363605871112776 0.0014694609332522937 0.027288247159905354 0 193 61
0.02946101710926309 -0.00036188128824000965 0.02894060860236712 0 141 113
0.029567090994037273 -0.00130814878892287 0.03044701646151092 0 65 189
0.02985617398092123 -0.0022417660040156967 0.0316721797823779 0 10 244
0.00879080237386774 0.023861913213807144 0.01895176238541085 0 20 234
0.0099378877508573 0.022987604389098373 0.018858365682411303 0 61 193
0.011736174989656154 0.022158309115265916 0.017764215657100495 0 174 80
0.01360766966272333 0.021334074217885395 0.016557561986824124 45 209 0
0.01481891415849177 0.020464200315628026 0.016365566899759564 99 155 0
0.016030159319773262 0.019594326459373455 0.016173570789948542 152 102 0
0.017241404481054753 0.01872445260311888 0.01598157468013752 206 48 0
0.01826008144346767 0.017841267700128588 0.016085513327413634 236 18 0
0.01863531043666967 0.016913605224826298 0.017178289277969508 185 69 0
0.019543389112114857 0.016022775347352334 0.017452193046072168 201 53 0
0.020195178231109123 0.015114229533055185 0.01811995761114979 184 70 0
0.02074582581727741 0.014198692658464785 0.01894315395820387 156 98 0
0.021523534478417716 0.013298851109471092 0.019417407621779632 155 99 0
0.021898762778443378 0.012371188620001958 0.02051018457851312 104 150 0
0.022676472751682282 0.011471347184796348 0.02098443618525937 104 150 0
0.023110653603358747 0.010547759629457698 0.02198661625934942 61 193 0
0.02380520574282198 0.009642169985228521 0.02258866311612793 50 204 0
0.024180436067050087 0.00871450760193182 0.02368143702119088 0 254 0
0.025000077188367296 0.00781756481151796 0.024091249364052394 4 250 0
0.0251526155308264 0.0068745091109735906 0.025526251622069084 0 188 66
0.026060694206271592 0.005983679233499623 0.025800155390171747 0 202 52
0.02679696336604523 0.005080973228470939 0.026338092407711507 0 197 57
0.027113400270496642 0.004149246820257361 0.027521218803487697 0 145 109
0.027891108931636946 0.00324940527126367 0.027995472467063454 0 145 109
0.02844175651780523 0.00233386839667327 0.028818668814117536 0 119 135
0.028992404103973517 0.001418331522082865 0.029641865161171614 0 94 160
0.029485219271215855 0.000498797050611538 0.030553937153047467 0 61 193
0.02980165484464116 -0.0004329294496076344 0.031737065594316584 0 9 245
0.011754505329928767 0.023018581571457357 0.01938656789981714 0 94 160
0.013165295263429515 0.02216250100923827 0.018887915581755378 0 164 90
0.014412187300451011 0.021295091200691188 0.018641138103187654 0 216 38
0.015541334105812134 0.020419542393645143 0.018575309019704424 0 254 0
0.016670479580147148 0.019543993494593508 0.01850948198171412 43 211 0
0.01768315960442566 0.018660394060417654 0.018622636597361433 72 182 0
0.01855193440989618 0.01776684734987779 0.018956941726030782 83 171 0
0.019295619381636486 0.01686465395399356 0.01948348227974185 78 176 0
0.020903270259570728 0.016022180942064052 0.018682298601533268 181 73 0
0.020905100508778394 0.015068707724585382 0.020348905886908967 84 170 0
0.021690720123597945 0.014169413010815611 0.02081100216328814 84 170 0
0.022434404402161913 0.013267219600764543 0.02133754372317682 80 174 0
0.022850646283935117 0.012342392115488151 0.022367291888914405 34 220 0
0.023551132184383365 0.01143721257856057 0.022960219966141057 24 230 0
0.024095782166904188 0.010521261126781813 0.023792633304312798 0 250 4
0.024796268020761646 0.00961608164347267 0.024385561353634018 0 241 13
0.025340917816919294 0.008700130406167673 0.025217974580184026 0 214 40
0.02604140367077675 0.007794950922858533 0.025810902629505243 0 205 49
0.02669665194026531 0.00688664444556345 0.026473350846850433 0 191 63
0.027351900209753865 0.0059783379682683685 0.027135799064195623 0 177 77
0.027703983324432233 0.005049075561759483 0.028264145113961577 0 129 125
0.028489600942712613 0.004149780709981331 0.02872624445858013 0 130 124
0.02923328657996598 0.003247587360099901 0.02925278398954474 0 125 129
0.029522369566849935 0.002313970145007071 0.030477947310411722 0 71 183
0.030505330861229404 0.00047471670785514605 0.032306193018850224 0 6 248
0.03129094847950979 -0.00042457814392300383 0.03276829236346877 0 6 248
0.01251247299154401 0.02297638084276551 0.021541681040228175 0 9 245
0.01427874947348401 0.021191273132331066 0.02216614444652449 0 32 222
0.015312332597292375 0.020309118599942725 0.022247175618539457 0 60 194
