ply
format ascii 1.0
element vertex 632
property float x
property float y
property float z
property uchar red
property uchar green
property uchar blue
end_header
0.005122065624005535 -0.0010527313278367333 -0.0014903057761611533 0 117 137
0.005122065624005535 -0.0005349791203248786 -0.0018557683958418578 0 145 109
0.005122065624005535 -1.7226941744682915e-05 -0.0022962821155717524 0 180 74
0.005122065624005535 0.0005005252638383946 -0.002390074141444261 0 187 67
0.005122065624005535 0.001018277502210686 -0.0023871406718008327 0 187 67
0.005122065624005535 0.0015360297097225407 -0.0023225095363847478 0 182 72
0.005122065624005535 0.0020537819172343954 -0.0022578793885026276 0 177 77
0.005122065624005535 0.0025715340013045046 -0.0020864810184461464 0 163 91
0.005122065624005535 0.0030892862088163597 -0.002052801172565272 0 161 93
0.005122065624005535 0.0036070384163282144 -0.0020498662216208957 0 160 94
0.005122065624005535 0.00412479062384007 -0.001985236567505758 0 155 99
0.005122065624005535 0.004642542831351924 -0.002013414367899892 0 158 96
0.005122065624005535 0.005160295038863779 -0.0019797350157860004 0 155 99
0.005122065624005535 0.005678047246375634 -0.00191510486790388 0 150 104
0.005122065624005535 0.0061957994538874885 -0.0018814250220230058 0 147 107
0.005122065624005535 0.006713551661399343 -0.0019416542247895087 0 152 102
0.005122065624005535 0.007231303868911198 -0.0019079743789086345 0 149 105
0.005122065624005535 0.007749056076423053 -0.0017365755150851704 0 136 118
0.005122065624005535 0.008266808283934907 -0.0017968047178516732 0 141 113
0.005122065624005535 0.008784560985213746 -0.00153899515077809 0 121 133
0.005122065624005535 0.0093023131927256 -0.0007382097836552147 0 59 195
0.00460431341649368 -0.011407775107748593 -0.0023474827890620233 0 183 71
0.00460431341649368 -0.010890022900236739 -0.0016736212123418818 0 131 123
0.004604313416493681 -0.010372270692724884 -0.0035643744801995385 36 218 0
0.004604313416493681 -0.009854518485213029 -0.003822183059739157 67 187 0
0.004604313416493681 -0.009336766277701174 -0.00407999262681274 98 156 0
0.004604313416493681 -0.00881901407018932 -0.004144623762228824 106 148 0
0.004604313416493681 -0.008301261862677463 -0.004209253416343962 113 141 0
0.004604313416493681 -0.0077835101489325915 -0.004242933262224836 117 137 0
0.004604313416493681 -0.007265757941420737 -0.0042766131081057104 121 133 0
0.004604313416493681 -0.006748005733908882 -0.004216383905339208 114 140 0
0.004604313416493681 -0.006230253526397027 -0.004312743025754081 126 128 0
0.004604313416493681 -0.005712501318885173 -0.004136894333883726 105 149 0
0.004604313416493681 -0.005194749111373318 -0.003913608460464223 78 176 0
0.00460431341649368 -0.004676996903861463 -0.003239746883744082 0 253 1
0.00460431341649368 -0.004159244696349608 -0.0020529502901940073 0 161 93
0.00460431341649368 -0.0036414924888377533 -0.0016124360766971298 0 126 128
0.00460431341649368 -0.003123740281325898 -0.0015186445445916036 0 119 135
0.00460431341649368 -0.0026059880738140435 -0.001247525488502935 0 98 156
0.00460431341649368 -0.0020882358663021888 -0.0009288043326929418 0 73 181
0.00460431341649368 -0.0015704835353485883 -0.001470364009036232 0 115 139
0.00460431341649368 -0.0010527313278367333 -0.0012470781356167296 0 98 156
0.00460431341649368 -0.0005349791203248786 -0.0011868489328502266 0 93 161
0.00460431341649368 -1.7226941744682915e-05 -0.0016536201931790528 0 130 124
0.00460431341649368 0.0005005252638383946 -0.0019987880023423013 0 156 98
0.00460431341649368 0.001018277502210686 -0.002170186866165765 0 170 84
0.00460431341649368 0.0015360297097225407 -0.0024279964332393484 0 190 64
0.00460431341649368 0.0020537819172343954 -0.002109275277429355 0 165 89
0.00460431341649368 0.0025715340013045046 -0.0024108227238186964 0 188 66
0.00460431341649368 0.0030892862088163597 -0.0024754533654677987 0 193 61
0.00460431341649368 0.0036070384163282144 -0.002252168973349244 0 176 78
0.00460431341649368 0.00412479062384007 -0.002191938783048776 0 171 83
0.00460431341649368 0.004642542831351924 -0.0026199488414791338 0 205 49
0.00460431341649368 0.005160295038863779 -0.0020413650354820447 0 160 94
0.00460431341649368 0.005678047246375634 -0.002075044881362919 0 162 92
0.00460431341649368 0.0061957994538874885 -0.00198125285549041 0 155 99
0.00460431341649368 0.006713551661399343 -0.0018874608296179012 0 148 106
0.00460431341649368 0.007231303868911198 -0.0015219982099371966 0 119 135
0.00460431341649368 0.007749056076423053 -0.0019500087621345372 0 153 101
0.00460431341649368 0.008266808283934907 -0.001983688608015412 0 155 99
0.00460431341649368 0.008784560985213746 -0.0014051033207173747 0 110 144
0.00460431341649368 0.0093023131927256 -0.0011818184348318373 0 93 161
0.00460431341649368 0.009820065400237455 -0.0003179874180738988 0 26 228
0.0040865609620983345 -0.010890022900236739 -0.001795674978995561 0 141 113
0.0040865609620983345 -0.010372270692724884 -0.0025770024706364305 0 201 53
0.0040865609620983345 -0.009854518485213029 -0.0034130739076344693 18 236 0
0.004086560962098335 -0.009336766277701174 -0.004484305820215757 146 108 0
0.004086560962098335 -0.00881901407018932 -0.004182757880059433 110 144 0
0.004086560962098335 -0.008301261862677463 -0.0042765499059319425 121 133 0
0.004086560962098335 -0.0077835101489325915 -0.004452398597802297 143 111 0
0.004086560962098335 -0.007265757941420737 -0.004449464634391886 142 112 0
0.004086560962098335 -0.006748005733908882 -0.004477642928553002 146 108 0
0.004086560962098335 -0.006230253526397027 -0.004443963082672127 142 112 0
0.004086560962098335 -0.005712501318885173 -0.004410283236791253 137 117 0
0.004086560962098335 -0.005194749111373318 -0.004065115427628005 96 158 0
0.0040865609620983345 -0.004676996903861463 -0.0034874915046450264 27 227 0
0.0040865609620983345 -0.004159244696349608 -0.0014680225660049012 0 115 139
0.0040865609620983345 -0.0036414924888377533 -0.0012714924440697401 0 100 154
0.0040865609620983345 -0.003123740281325898 -0.0009263236473725266 0 73 181
0.0040865609620983345 -0.0020882358663021888 -0.0004579308562729515 0 37 217
0.0040865609620983345 -0.0015704835353485883 -0.00045499689286254024 0 37 217
0.0040865609620983345 -0.0010527313278367333 -0.00024068895303377478 0 20 234
0.0040865609620983345 -0.0005349791203248786 -0.0005118077468087339 0 41 213
0.0040865609620983345 -1.7226941744682915e-05 -0.00053998604096985 0 43 211
0.0040865609620983345 0.0005005252638383946 -0.0009464145321261829 0 75 179
0.0040865609620983345 0.001018277502210686 -0.0012651351941691939 0 100 154
0.0040865609620983345 0.0015360297097225407 -0.0018671279990427874 0 146 108
0.0040865609620983345 0.0020537819172343954 -0.0018334481531619132 0 144 110
0.0040865609620983345 0.0025715340013045046 -0.0022739618728918076 0 178 76
0.0040865609620983345 0.0030892862088163597 -0.0022710284032483787 0 178 76
0.0040865609620983345 0.0036070384163282144 -0.001969480463092055 0 154 100
0.0040865609620983345 0.00412479062384007 -0.0020297091720915756 0 159 95
0.0040865609620983345 0.004642542831351924 -0.0018583103082681113 0 146 108
0.0040865609620983345 0.005160295038863779 -0.0016869119382116298 0 132 122
0.0040865609620983345 0.005678047246375634 -0.0016532320923307556 0 130 124
0.0040865609620983345 0.0061957994538874885 -0.0015886019444486359 0 125 129
0.0040865609620983345 0.006713551661399343 -0.0015239722903334985 0 120 134
0.0040865609620983345 0.007231303868911198 -0.0014593411549174136 0 115 139
0.0040865609620983345 0.007749056076423053 -0.001635189353020786 0 128 126
0.0040865609620983345 0.008266808283934907 -0.0015388307263728956 0 121 133
0.0040865609620983345 0.008784560985213746 -0.0016326222584784218 0 128 126
0.0040865609620983345 0.0093023131927256 -0.0006438158558309572 0 51 203
0.00356880875458648 -0.011407775107748593 -0.002364019045308182 0 185 69
0.00356880875458648 -0.010890022900236739 -0.0018098125152404105 0 142 112
0.00356880875458648 -0.010372270692724884 -0.0035231083983985096 31 223 0
0.00356880875458648 -0.009854518485213029 -0.004352305117698272 131 123 0
0.00356880875458648 -0.009336766277701174 -0.0038510620092485352 70 184 0
0.00356880875458648 -0.00881901407018932 -0.004152610443171841 106 148 0
0.00356880875458648 -0.008301261862677463 -0.00418628930151875 111 143 0
0.00356880875458648 -0.0077835101489325915 -0.0044005970098942426 136 118 0
0.00356880875458648 -0.007265757941420737 -0.004434276855775117 140 114 0
0.00356880875458648 -0.006748005733908882 -0.00453063597618999 152 102 0
0.00356880875458648 -0.006230253526397027 -0.004502457682028874 149 105 0
0.00356880875458648 -0.005712501318885173 -0.004536137527909748 153 101 0
0.00356880875458648 -0.005194749111373318 -0.004507959233748632 149 105 0
0.00356880875458648 -0.004676996903861463 -0.004414167207876123 138 116 0
0.00356880875458648 -0.004159244696349608 -0.003973653488146229 85 169 0
0.0035688087545864794 -0.0036414924888377533 -0.001412703875880024 0 111 143
0.0035688087545864794 -0.003123740281325898 -0.0005766324388819851 0 46 208
0.0035688087545864794 -0.0026059880738140435 -2.2426414153859938e-05 0 3 251
0.0035688087545864794 0.0020537819172343954 -0.0010439068477660466 0 82 172
0.0035688087545864794 0.0025715340013045046 -0.0007727882854443606 0 61 193
0.0035688087545864794 0.0030892862088163597 -0.001573573652567236 0 123 131
0.0035688087545864794 0.0036070384163282144 -0.0016382038004493556 0 128 126
0.0035688087545864794 0.00412479062384007 -0.0016100255062882396 0 126 128
0.0035688087545864794 0.004642542831351924 -0.0016437053521691138 0 129 125
0.0035688087545864794 0.005160295038863779 -0.001549913326296605 0 122 132
0.0035688087545864794 0.005678047246375634 -0.0015835931721774792 0 124 130
0.0035688087545864794 0.0061957994538874885 -0.001489801640071953 0 117 137
0.0035688087545864794 0.006713551661399343 -0.0011710804842619594 0 92 162
0.0035688087545864794 0.007231303868911198 -0.0012357116196780446 0 97 157
0.0035688087545864794 0.007749056076423053 -0.0009645925635893759 0 76 178
0.0035688087545864794 0.008266808283934907 -0.0009043623732889078 0 72 182
0.0035688087545864794 0.008784560985213746 -0.0009072973242332843 0 72 182
0.0035688087545864794 0.0093023131927256 -0.0004352862086854604 0 35 219
0.003051056547074625 -0.010890022900236739 -0.0018502969639080365 0 145 109
0.003051056547074625 -0.010372270692724884 -0.002604563556069338 0 203 51
0.003051056547074625 -0.009854518485213029 -0.0036450846436359256 45 209 0
0.003051056547074625 -0.009336766277701174 -0.003868369529521463 72 182 0
0.003051056547074625 -0.00881901407018932 -0.004139488585610132 105 149 0
0.003051056547074625 -0.008301261862677463 -0.004458209247653143 143 111 0
0.003051056547074625 -0.0077835101489325915 -0.0046340574457565155 164 90 0
0.003051056547074625 -0.007265757941420737 -0.0046003775998756415 160 94 0
0.003051056547074625 -0.006748005733908882 -0.004628555894036757 164 90 0
0.003051056547074625 -0.006230253526397027 -0.004722347919909266 175 79 0
0.003051056547074625 -0.005712501318885173 -0.004464538352835683 144 110 0
0.003051056547074625 -0.005194749111373318 -0.004461605376959237 144 110 0
0.003051056547074625 -0.004676996903861463 -0.004637453575062609 165 89 0
0.003051056547074625 -0.004159244696349608 -0.004466054217472162 144 110 0
0.003051056547074625 -0.0036414924888377533 -0.0036943635760300466 51 203 0
0.0030510565470746247 0.004642542831351924 -0.00036199835053101615 0 29 225
0.0030510565470746247 0.005160295038863779 -0.00032831949218410704 0 27 227
0.0030510565470746247 0.005678047246375634 -0.00042211151805661586 0 34 220
0.0030510565470746247 0.0061957994538874885 -7.694273678962078e-05 0 7 247
0.0030510565470746247 0.006713551661399343 -1.2312585049946387e-05 0 2 252
0.0025333043395627695 -0.011407775107748593 -0.001560044931011891 0 122 132
0.00253330433956277 -0.010890022900236739 -0.0021016046073551817 0 164 90
0.00253330433956277 -0.010372270692724884 -0.0031157940892754523 0 243 11
0.00253330433956277 -0.009854518485213029 -0.00354380414770581 33 221 0
0.00253330433956277 -0.009336766277701174 -0.003971814206136169 85 169 0
0.00253330433956277 -0.00881901407018932 -0.0041432130699596325 105 149 0
0.00253330433956277 -0.008301261862677463 -0.004314611933783096 126 128 0
0.00253330433956277 -0.0077835101489325915 -0.004486010303839578 147 107 0
0.00253330433956277 -0.007265757941420737 -0.004550640451721698 154 100 0
0.00253330433956277 -0.006748005733908882 -0.004584320297602572 158 96 0
0.00253330433956277 -0.006230253526397027 -0.004587254261012984 159 95 0
0.00253330433956277 -0.005712501318885173 -0.004316135204924315 126 128 0
0.00253330433956277 -0.005194749111373318 -0.0046176831450806385 162 92 0
0.00253330433956277 -0.004676996903861463 -0.004962850954243887 204 50 0
0.00253330433956277 -0.004159244696349608 -0.004408644917943098 137 117 0
0.00253330433956277 -0.0036414924888377533 -0.004442324763823972 141 113 0
0.00253330433956277 -0.003123740281325898 -0.0043820955610574695 134 120 0
0.00253330433956277 -0.0026059880738140435 -0.0037082329968033626 53 201 0
0.0020155522554926603 -0.010890022900236739 -0.0014850545643015568 0 117 137
0.0020155522554926608 -0.010372270692724884 -0.0025562879581837923 0 200 54
0.0020155522554926608 -0.009854518485213029 -0.003916233819510531 78 176 0
0.0020155522554926608 -0.009336766277701174 -0.0037448349556870666 57 197 0
0.0020155522554926608 -0.00881901407018932 -0.0041512629530764174 106 148 0
0.0020155522554926608 -0.008301261862677463 -0.004327111644946773 127 127 0
0.0020155522554926608 -0.0077835101489325915 -0.004550397518366275 154 100 0
0.0020155522554926608 -0.007265757941420737 -0.004610626227365795 162 92 0
0.0020155522554926608 -0.006748005733908882 -0.004638803533992947 165 89 0
0.0020155522554926608 -0.006230253526397027 -0.004635869570582535 165 89 0
0.0020155522554926608 -0.005712501318885173 -0.00453950995640068 153 101 0
0.0020155522554926608 -0.005194749111373318 -0.004443151329752789 141 113 0
0.0020155522554926608 -0.004676996903861463 -0.004409471483871915 137 117 0
0.0020155522554926608 -0.004159244696349608 -0.004375792625525006 133 121 0
0.0020155522554926608 -0.0036414924888377533 -0.004646911187846691 166 88 0
0.0020155522554926608 -0.003123740281325898 -0.004582280052430607 158 96 0
0.0020155522554926608 -0.0026059880738140435 -0.003871089691828423 73 181 0
0.0014978000479808058 -0.011407775107748593 -0.001165614977531929 0 92 162
0.0014978000479808058 -0.010890022900236739 -0.0014234235570715471 0 112 142
0.0014978000479808058 -0.010372270692724884 -0.002386602959556818 0 187 67
0.001497800047980806 -0.009854518485213029 -0.0033497828558090707 10 244 0
0.001497800047980806 -0.009336766277701174 -0.0034461414824569613 22 232 0
0.001497800047980806 -0.00881901407018932 -0.004217832617666059 114 140 0
0.001497800047980806 -0.008301261862677463 -0.0043141917380809325 126 128 0
0.0014978000479808063 -0.0077835101489325915 -0.004485590601904396 147 107 0
0.0014978000479808063 -0.007265757941420737 -0.00451927044778527 151 103 0
0.0014978000479808063 -0.006748005733908882 -0.0052304608083874535 236 18 0
0.0014978000479808063 -0.006230253526397027 -0.0045565982441333475 155 99 0
0.0014978000479808063 -0.005712501318885173 -0.0045902780900142215 159 95 0
0.0014978000479808063 -0.005194749111373318 -0.004848087657087805 190 64 0
0.0014978000479808063 -0.004676996903861463 -0.00452936600751083 152 102 0
0.0014978000479808063 -0.004159244696349608 -0.004593996155392949 160 94 0
0.0014978000479808063 -0.0036414924888377533 -0.004565817861231833 156 98 0
0.001497800047980806 -0.003123740281325898 -0.004342533469113278 129 125 0
0.0014978000479808063 -0.0026059880738140435 -0.00455684117748877 155 99 0
0.0014978000479808063 -0.0020882358663021888 -0.004463049151616261 144 110 0
0.001497800047980806 -0.0015704835353485883 -0.004191930589294576 111 143 0
0.000980047840468951 -0.011407775107748593 -0.0007452188059727496 0 59 195
0.0009800478404689511 -0.010372270692724884 -0.0020942790804018225 0 164 90
0.0009800478404689513 -0.009854518485213029 -0.002875606572042692 0 224 30
0.0009800478404689513 -0.009336766277701174 -0.0036841895073542606 50 204 0
0.0009800478404689513 -0.00881901407018932 -0.003860037705457633 71 183 0
0.0009800478404689513 -0.008301261862677463 -0.004266467184147931 120 134 0
0.0009800478404689513 -0.0077835101489325915 -0.004052158982005456 94 160 0
0.0009800478404689515 -0.007265757941420737 -0.004606365018306245 161 93 0
0.0009800478404689515 -0.006748005733908882 -0.0047001570441787535 172 82 0
0.0009800478404689515 -0.006230253526397027 -0.004697222093234377 172 82 0
0.0009800478404689515 -0.005712501318885173 -0.004632592932886223 164 90 0
0.0009800478404689515 -0.005194749111373318 -0.004629657981941846 164 90 0
0.0009800478404689515 -0.004676996903861463 -0.005383925561637113 255 0 0
0.0009800478404689515 -0.004159244696349608 -0.004771097534098076 181 73 0
0.0009800478404689515 -0.0036414924888377533 -0.0047064663986819905 173 81 0
0.0009800478404689515 -0.003123740281325898 -0.00453506802862551 152 102 0
0.0009800478404689515 -0.0026059880738140435 -0.004628860054498018 164 90 0
0.0009800478404689515 -0.0020882358663021888 -0.004657037361125169 167 87 0
0.0009800478404689513 -0.0015704835353485883 -0.004229027302694812 116 138 0
0.0009800478404689513 -0.0010527313278367333 -0.003487180925212992 27 227 0
0.0004622956020966598 -0.010890022900236739 -0.0017020009634318859 0 133 121
0.0004622956020966598 -0.010372270692724884 -0.0017356798217787951 0 136 118
0.0004622956020966599 -0.009854518485213029 -0.0025926642655564637 0 203 51
0.00046229560209665996 -0.009336766277701174 -0.0032723241479528857 1 253 0
0.00046229560209666006 -0.00881901407018932 -0.0037769377098256234 61 193 0
0.00046229560209666006 -0.008301261862677463 -0.004204947768255981 113 141 0
0.0004622956020966601 -0.0077835101489325915 -0.0044192559703984564 139 115 0
0.0004622956020966601 -0.007265757941420737 -0.004515614597046347 150 104 0
0.0004622956020966601 -0.006748005733908882 -0.004611973223694238 162 92 0
0.0004622956020966601 -0.006230253526397027 -0.004645653069575112 166 88 0
0.00046229560209666017 -0.005712501318885173 -0.004710283217457231 174 80 0
0.00046229560209666017 -0.005194749111373318 -0.005011831651380538 210 44 0
0.0004622956020966601 -0.004676996903861463 -0.004646369031699834 166 88 0
0.00046229560209666006 -0.004159244696349608 -0.00404437622682624 93 161 0
0.00046229560209666017 -0.0036414924888377533 -0.0048735719585920375 193 61 0
0.00046229560209666017 -0.003123740281325898 -0.004697723760488665 172 82 0
0.00046229560209666017 -0.0026059880738140435 -0.004912031468864157 198 56 0
0.0004622956020966601 -0.0020882358663021888 -0.004471518242901246 145 109 0
0.0004622956020966601 -0.0015704835353485883 -0.004474451218777692 145 109 0
0.0004622956020966601 -0.0010527313278367333 -0.004414222509778172 138 116 0
0.00046229560209666006 -0.0005349791203248786 -0.004143103453689503 105 149 0
-5.545659384253143e-05 -0.010372270692724884 -0.0015420653938756903 0 121 133
-5.5456593842531334e-05 -0.009854518485213029 -0.0022963329735709572 0 180 74
-5.545659384253125e-05 -0.009336766277701174 -0.002970195044058081 0 232 22
-5.5456593842531185e-05 -0.00881901407018932 -0.003548779837589135 34 220 0
-5.545659384253111e-05 -0.008301261862677463 -0.00412736463112019 103 151 0
-5.545659384253109e-05 -0.0077835101489325915 -0.004303213322990544 125 129 0
-5.545659384253104e-05 -0.007265757941420737 -0.004709641320379895 173 81 0
-5.5456593842531056e-05 -0.006748005733908882 -0.004613282693732004 162 92 0
-5.545659384253104e-05 -0.006230253526397027 -0.0047070747196045135 173 81 0
-5.5456593842531036e-05 -0.005712501318885173 -0.004735252026231664 177 77 0
-5.545659384253103e-05 -0.005194749111373318 -0.00479548172276515 184 70 0
-5.545659384253103e-05 -0.004676996903861463 -0.0048236600169262655 187 67 0
-5.545659384253103e-05 -0.004159244696349608 -0.004820725065981889 187 67 0
-5.545659384253103e-05 -0.0036414924888377533 -0.004817790115037513 186 68 0
-5.5456593842531036e-05 -0.003123740281325898 -0.004753160954689358 179 75 0
-5.545659384253104e-05 -0.0026059880738140435 -0.004688530806807238 171 83 0
-5.545659384253105e-05 -0.0020882358663021888 -0.004654850960926364 167 87 0
-5.545659384253107e-05 -0.0015704835353485883 -0.004483451603335917 146 108 0
-5.545659384253103e-05 -0.0010527313278367333 -0.004802173252912894 185 69 0
-5.5456593842531144e-05 -0.0005349791203248786 -0.0038649255048180606 72 182 0
-5.5456593842531185e-05 -1.7226941744682915e-05 -0.0035197576956548125 30 224 0
-0.0005732087820666135 -0.010372270692724884 -0.0020448381924374195 0 160 94
-0.0005732087820666135 -0.009854518485213029 -0.0021094678465525566 0 165 89
-0.0005732087820666134 -0.009336766277701174 -0.003020414602553992 0 236 18
-0.0005732087820666133 -0.00881901407018932 -0.003525028658193712 31 223 0
-0.0005732087820666131 -0.008301261862677463 -0.004266874048141566 120 134 0
-0.0005732087820666131 -0.0077835101489325915 -0.004238697235281397 117 137 0
-0.0005732087820666131 -0.007265757941420737 -0.004705467014309276 173 81 0
-0.0005732087820666131 -0.006748005733908882 -0.004708401965253652 173 81 0
-0.0005732087820666131 -0.006230253526397027 -0.0047113349411300985 174 80 0
-0.0005732087820666131 -0.005712501318885173 -0.004683157634502948 170 84 0
-0.0005732087820666131 -0.005194749111373318 -0.004779517248684803 182 72 0
-0.0005732087820666131 -0.004676996903861463 -0.004844147396566923 190 64 0
-0.0005732087820666131 -0.004159244696349608 -0.004750355370694414 178 76 0
-0.000573208782066613 -0.0036414924888377533 -0.004921753740750896 199 55 0
-0.000573208782066613 -0.003123740281325898 -0.005018113354932751 211 43 0
-0.0005732087820666131 -0.0026059880738140435 -0.004652651722786012 167 87 0
-0.0005732087820666131 -0.0020882358663021888 -0.0047490103494339025 178 76 0
-0.0005732087820666131 -0.0015704835353485883 -0.004655218323561394 167 87 0
-0.0005732087820666131 -0.0010527313278367333 -0.0044793701254580215 146 108 0
-0.0005732087820666133 -0.0005349791203248786 -0.0037787962487480045 62 192 0
-0.0005732087820666131 -1.7226941744682915e-05 -0.004356420665497966 131 123 0
-0.0005732087820666133 0.0005005252638383946 -0.003949991186807668 82 172 0
-0.0005732087820666133 0.001018277502210686 -0.0032494187913985994 0 253 1
-0.0010909609895784682 -0.009854518485213029 -0.0019496888011298348 0 153 101
-0.0010909609895784682 -0.009336766277701174 -0.0025038948374306235 0 196 58
-0.001090960989578468 -0.00881901407018932 -0.0032044682203736575 0 250 4
-0.001090960989578468 -0.008301261862677463 -0.0037586742566744465 59 195 0
-0.001090960989578468 -0.0077835101489325915 -0.0042872083600176275 123 131 0
-0.0010909609895784678 -0.007265757941420737 -0.004463057051887983 144 110 0
-0.0010909609895784678 -0.006748005733908882 -0.004638905249991355 165 89 0
-0.0010909609895784678 -0.006230253526397027 -0.004699133958990876 172 82 0
-0.0010909609895784678 -0.005712501318885173 -0.004792925984863384 183 71 0
-0.0010909609895784678 -0.005194749111373318 -0.004886718010735893 195 59 0
-0.0010909609895784678 -0.004676996903861463 -0.0048220868753198086 187 67 0
-0.0010909609895784678 -0.004159244696349608 -0.0051875494950005124 231 23 0
-0.0010909609895784678 -0.0036414924888377533 -0.004842381685837264 189 65 0
-0.0010909609895784678 -0.003123740281325898 -0.004870559979998381 193 61 0
-0.0010909609895784678 -0.0026059880738140435 -0.004930788688997901 200 54 0
-0.0010909609895784678 -0.0020882358663021888 -0.004716480980622408 174 80 0
-0.0010909609895784678 -0.0015704835353485883 -0.004682801134741534 170 84 0
-0.001090960989578468 -0.0010527313278367333 -0.0044249925552019165 139 115 0
-0.001090960989578468 -0.0005349791203248786 -0.004422058098024522 139 115 0
-0.001090960989578468 -1.7226941744682915e-05 -0.004325698977609649 127 127 0
-0.001090960989578468 0.0005005252638383946 -0.004261067842193564 120 134 0
-0.001090960989578468 0.001018277502210686 -0.0037564542803208267 59 195 0
-0.0016087131970903233 -0.010372270692724884 -0.0005807909444091624 0 46 208
-0.0016087131970903231 -0.009854518485213029 -0.0009259597411063758 0 73 181
-0.0016087131970903231 -0.009336766277701174 -0.002317259805826099 0 181 73
-0.001608713197090323 -0.00881901407018932 -0.0033060657147065808 5 249 0
-0.001608713197090323 -0.008301261862677463 -0.003918893742245618 78 176 0
-0.001608713197090323 -0.0077835101489325915 -0.004346904294442958 130 124 0
-0.001608713197090323 -0.007265757941420737 -0.004286675091676456 123 131 0
-0.0016087131970903227 -0.006748005733908882 -0.004631842407072721 164 90 0
-0.0016087131970903227 -0.006230253526397027 -0.00497701021623597 206 48 0
-0.0016087131970903227 -0.005712501318885173 -0.004753725824117414 179 75 0
-0.0016087131970903227 -0.005194749111373318 -0.004850084450765305 190 64 0
-0.0016087131970903227 -0.004676996903861463 -0.004789855741765785 183 71 0
-0.0016087131970903227 -0.004159244696349608 -0.005047665308839368 214 40 0
-0.0016087131970903227 -0.0036414924888377533 -0.004953873282966859 203 51 0
-0.0016087131970903227 -0.003123740281325898 -0.004956808233911236 203 51 0
-0.0016087131970903227 -0.0026059880738140435 -0.004959741209787682 204 50 0
-0.0016087131970903227 -0.0020882358663021888 -0.004783893011684309 182 72 0
-0.0016087131970903227 -0.0015704835353485883 -0.0046080448135809365 161 93 0
-0.0016087131970903227 -0.0010527313278367333 -0.004641724659461811 165 89 0
-0.0016087131970903227 -0.0005349791203248786 -0.004547932633589302 154 100 0
-0.001608713197090323 -1.7226941744682915e-05 -0.0043720844354859295 133 121 0
-0.001608713197090323 0.0005005252638383946 -0.004405763293832839 137 117 0
-0.001608713197090323 0.001018277502210686 -0.004040300674152134 93 161 0
-0.001608713197090323 0.0015360297097225407 -0.003946509635813591 82 172 0
-0.001608713197090323 0.0020537819172343954 -0.003474498026498784 25 229 0
-0.0021264655280439234 -0.009336766277701174 -0.0018298090905003973 0 143 111
-0.0021264655280439234 -0.00881901407018932 -0.003092312012885529 0 241 13
-0.0021264655280439234 -0.008301261862677463 -0.003873639504526398 73 181 0
-0.0021264655280439234 -0.0077835101489325915 -0.0040969238966449524 100 154 0
-0.0021264655280439234 -0.007265757941420737 -0.0047707864608990585 181 73 0
-0.0021264655280439234 -0.006748005733908882 -0.004425618157968828 139 115 0
-0.0021264655280439234 -0.006230253526397027 -0.00479108028388255 183 71 0
-0.0021264655280439234 -0.005712501318885173 -0.004851310967950001 190 64 0
-0.0021264655280439234 -0.005194749111373318 -0.004945102006288544 202 52 0
-0.0021264655280439234 -0.004676996903861463 -0.004911423147941635 198 56 0
-0.0021264655280439234 -0.004159244696349608 -0.005005214186280179 209 45 0
-0.0021264655280439234 -0.0036414924888377533 -0.00503339149290733 212 42 0
-0.0021264655280439234 -0.003123740281325898 -0.00496876134502521 205 49 0
-0.0021264655280439234 -0.0026059880738140435 -0.004710952765485592 174 80 0
-0.0021264655280439234 -0.0020882358663021888 -0.004886800963588964 195 59 0
-0.0021264655280439234 -0.0015704835353485883 -0.004628992384049346 164 90 0
-0.0021264655280439234 -0.0010527313278367333 -0.004722782434853925 175 79 0
-0.0021264655280439234 -0.0005349791203248786 -0.004551384064797443 154 100 0
-0.0021264655280439234 -1.7226941744682915e-05 -0.00457956235895856 158 96 0
-0.0021264655280439234 0.0005005252638383946 -0.004278013925035253 122 132 0
-0.0021264655280439234 0.001018277502210686 -0.004181655298387363 110 144 0
-0.0021264655280439234 0.0015360297097225407 -0.004117025150505243 102 152 0
-0.0021264655280439234 0.0020537819172343954 -0.0036890150920748854 51 203 0
-0.0021264655280439234 0.0025715340013045046 -0.002888228243651062 0 225 29
-0.002644217735555778 -0.009336766277701174 -0.002675916835186087 0 209 45
-0.002644217735555778 -0.00881901407018932 -0.002740547970602172 0 214 40
-0.002644217735555778 -0.008301261862677463 -0.003729352891948689 56 198 0
-0.002644217735555778 -0.0077835101489325915 -0.004030901325871995 92 162 0
-0.002644217735555778 -0.007265757941420737 -0.004535515381511715 153 101 0
-0.002644217735555778 -0.006748005733908882 -0.00463187499569357 164 90 0
-0.002644217735555778 -0.006230253526397027 -0.004634808959103982 164 90 0
-0.002644217735555778 -0.005712501318885173 -0.004731167585751872 176 78 0
-0.002644217735555778 -0.005194749111373318 -0.004827527199933728 188 66 0
-0.002644217735555778 -0.004676996903861463 -0.00512907464632307 224 30 0
-0.002644217735555778 -0.004159244696349608 -0.00513200860973348 224 30 0
-0.002644217735555778 -0.0036414924888377533 -0.0047255811061111125 175 79 0
-0.002644217735555778 -0.003123740281325898 -0.0050707489152743606 217 37 0
-0.002644217735555778 -0.0026059880738140435 -0.004976956889401852 206 48 0
-0.002644217735555778 -0.0020882358663021888 -0.005041588024817937 213 41 0
-0.002644217735555778 -0.0015704835353485883 -0.004635158546127639 165 89 0
-0.002644217735555778 -0.0010527313278367333 -0.004806556916184121 185 69 0
-0.002644217735555778 -0.0005349791203248786 -0.0045832725240655655 158 96 0
-0.002644217735555778 -1.7226941744682915e-05 -0.005262931912695005 240 14 0
-0.002644217735555778 0.0005005252638383946 -0.004481604914821118 146 108 0
-0.002644217735555778 0.001018277502210686 -0.003953070811477936 83 171 0
-0.002644217735555778 0.0015360297097225407 -0.004298238620641185 124 130 0
-0.002644217735555778 0.0020537819172343954 -0.004027119564552517 91 163 0
-0.002644217735555778 0.0025715340013045046 -0.0038512713664491443 70 184 0
-0.002644217735555778 0.0030892862088163597 -0.0034448428752928114 21 233 0
-0.003161969943067633 -0.00881901407018932 -0.002531959071418767 0 198 56
-0.003161969943067633 -0.008301261862677463 -0.003259321288233975 0 254 0
-0.003161969943067633 -0.0077835101489325915 -0.003760564396683712 59 195 0
-0.003161969943067633 -0.007265757941420737 -0.004461137285859763 144 110 0
-0.003161969943067633 -0.006748005733908882 -0.004489314592486914 147 107 0
-0.003161969943067633 -0.006230253526397027 -0.0047125999721394345 174 80 0
-0.003161969943067633 -0.005712501318885173 -0.004541200614548988 153 101 0
-0.003161969943067633 -0.005194749111373318 -0.004859922264125964 192 62 0
-0.003161969943067633 -0.004676996903861463 -0.00513104082644765 224 30 0
-0.003161969943067633 -0.004159244696349608 -0.00506641067856553 216 38 0
-0.003161969943067633 -0.0036414924888377533 -0.0049700520519176394 205 49 0
-0.003161969943067633 -0.003123740281325898 -0.00503028076091716 212 42 0
-0.003161969943067633 -0.0026059880738140435 -0.0048159730525416675 186 68 0
-0.003161969943067633 -0.0020882358663021888 -0.004909765078414176 198 56 0
-0.003161969943067633 -0.0015704835353485883 -0.0047383667083576945 177 77 0
-0.003161969943067633 -0.0010527313278367333 -0.004766544014984846 180 74 0
-0.003161969943067633 -0.0005349791203248786 -0.004464996568595505 144 110 0
-0.003161969943067633 -1.7226941744682915e-05 -0.004493173875222655 147 107 0
-0.003161969943067633 0.0005005252638383946 -0.004459495016875746 143 111 0
-0.003161969943067633 0.001018277502210686 -0.004394864375226644 136 118 0
-0.003161969943067633 0.0015360297097225407 -0.004298504761044789 124 130 0
-0.003161969943067633 0.0020537819172343954 -0.004127105897221324 103 151 0
-0.003161969943067633 0.0025715340013045046 -0.004030747270573434 92 162 0
-0.003161969943067633 0.0030892862088163597 -0.003772937703499851 61 193 0
-0.003161969943067633 0.0036070384163282144 -0.0036765785830849777 49 205 0
-0.003161969943067633 0.00412479062384007 -0.0028757932159621026 0 224 30
-0.003679722150579488 -0.00881901407018932 -0.0024298436155211316 0 190 64
-0.003679722150579488 -0.008301261862677463 -0.0031410354574242625 0 245 9
-0.003679722150579488 -0.0077835101489325915 -0.0035690455158546206 36 218 0
-0.003679722150579488 -0.007265757941420737 -0.004248705398251043 118 136 0
-0.003679722150579488 -0.006748005733908882 -0.004550253338407366 154 100 0
-0.003679722150579488 -0.006230253526397027 -0.004721650720929883 175 79 0
-0.003679722150579488 -0.005712501318885173 -0.004755330566810757 179 75 0
-0.003679722150579488 -0.005194749111373318 -0.004851691168526578 191 63 0
-0.003679722150579488 -0.004676996903861463 -0.004916320328874732 198 56 0
-0.003679722150579488 -0.004159244696349608 -0.004950000174755607 202 52 0
-0.003679722150579488 -0.0036414924888377533 -0.005014630322637726 210 44 0
-0.003679722150579488 -0.003123740281325898 -0.0051109889492856175 222 32 0
-0.003679722150579488 -0.0026059880738140435 -0.005050760240286097 214 40 0
-0.003679722150579488 -0.0020882358663021888 -0.005053695191230474 215 39 0
-0.003679722150579488 -0.0015704835353485883 -0.004830409811577953 188 66 0
-0.003679722150579488 -0.0010527313278367333 -0.004802231517416837 185 69 0
-0.003679722150579488 -0.0005349791203248786 -0.004708440479078293 173 81 0
-0.003679722150579488 -1.7226941744682915e-05 -0.004804799105726184 185 69 0
-0.003679722150579488 0.0005005252638383946 -0.004486078443683173 147 107 0
-0.003679722150579488 0.001018277502210686 -0.004310229751812818 125 129 0
-0.003679722150579488 0.0015360297097225407 -0.004406588378460708 137 117 0
-0.003679722150579488 0.0020537819172343954 -0.004312796846355182 126 128 0
-0.003679722150579488 0.0025715340013045046 -0.0042190058080166385 114 140 0
-0.003679722150579488 0.0030892862088163597 -0.003947887245694953 82 172 0
-0.003679722150579488 0.0036070384163282144 -0.003919708951533836 79 175 0
-0.003679722150579488 0.00412479062384007 -0.003317716146660242 6 248 0
-0.003679722150579488 0.004642542831351924 -0.0033513959925411166 10 244 0
-0.004197474111207852 -0.008301261862677463 -0.0026983521255729698 0 211 43
-0.004197474111207852 -0.0077835101489325915 -0.003300344436679581 4 250 0
-0.004197474111207851 -0.007265757941420737 -0.003801586557595353 64 190 0
-0.004197474111207851 -0.006748005733908882 -0.004273597673143177 121 133 0
-0.004197474111207851 -0.006230253526397027 -0.004639060292823882 165 89 0
-0.004197474111207851 -0.005712501318885173 -0.004699289001823402 172 82 0
-0.004197474111207851 -0.005194749111373318 -0.004793081027695911 183 71 0
-0.004197474111207851 -0.004676996903861463 -0.004759402169349002 179 75 0
-0.004197474111207851 -0.004159244696349608 -0.004819631865882488 187 67 0
-0.004197474111207851 -0.0036414924888377533 -0.00499548006398586 208 46 0
-0.004197474111207851 -0.003123740281325898 -0.004824080706395413 187 67 0
-0.004197474111207851 -0.0026059880738140435 -0.004917872732267922 198 56 0
-0.004197474111207851 -0.0020882358663021888 -0.004746474362211441 178 76 0
-0.004197474111207851 -0.0015704835353485883 -0.004712794516330566 174 80 0
-0.004197474111207851 -0.0010527313278367333 -0.004498486807955074 148 106 0
-0.004197474111207851 -0.0005349791203248786 -0.0042841795933465645 122 132 0
-0.004197474111207851 -1.7226941744682915e-05 -0.004555298649435233 155 99 0
-0.004197474111207851 0.0005005252638383946 -0.0045523636984908565 155 99 0
-0.004197474111207851 0.001018277502210686 -0.004487733550608736 147 107 0
-0.004197474111207851 0.0015360297097225407 -0.004391373936426881 135 119 0
-0.004197474111207851 0.0020537819172343954 -0.004295014816012008 124 130 0
-0.004197474111207851 0.0025715340013045046 -0.004230385161896871 116 138 0
-0.004197474111207851 0.0030892862088163597 -0.004058986298073407 95 159 0
-0.004197474111207851 0.0036070384163282144 -0.003994355162657321 87 167 0
-0.004197474111207851 0.00412479062384007 -0.0038979965360094308 76 178 0
-0.004197474111207851 0.004642542831351924 -0.0037265976721859665 55 199 0
-0.004197474111207852 0.005160295038863779 -0.003298587613755609 4 250 0
-0.004715226318719706 -0.008301261862677463 -0.0030639411496012113 0 239 15
-0.004715226318719706 -0.0077835101489325915 -0.003097620995482086 0 242 12
-0.0047152263187197055 -0.007265757941420737 -0.003926816727247884 79 175 0
-0.0047152263187197055 -0.006748005733908882 -0.0042283646674042075 116 138 0
-0.0047152263187197055 -0.006230253526397027 -0.004656374725834566 167 87 0
-0.0047152263187197055 -0.005712501318885173 -0.004721005861250651 175 79 0
-0.0047152263187197055 -0.005194749111373318 -0.00478563600913277 183 71 0
-0.0047152263187197055 -0.004676996903861463 -0.004881994635780661 194 60 0
-0.0047152263187197055 -0.004159244696349608 -0.004915674481661535 198 56 0
-0.0047152263187197055 -0.0036414924888377533 -0.0049803046295436556 206 48 0
-0.0047152263187197055 -0.003123740281325898 -0.004952127322916504 203 51 0
-0.0047152263187197055 -0.0026059880738140435 -0.004923949028755388 199 55 0
-0.0047152263187197055 -0.0020882358663021888 -0.005095348386345834 220 34 0
-0.0047152263187197055 -0.0015704835353485883 -0.004824228836490183 187 67 0
-0.0047152263187197055 -0.0010527313278367333 -0.00473043779815164 176 78 0
-0.0047152263187197055 -0.0005349791203248786 -0.004670208101618154 169 85 0
-0.0047152263187197055 -1.7226941744682915e-05 -0.0047348382495002745 176 78 0
-0.0047152263187197055 0.0005005252638383946 -0.004641046223627765 165 89 0
-0.0047152263187197055 0.001018277502210686 -0.004643981174572142 166 88 0
-0.0047152263187197055 0.0015360297097225407 -0.004550189148699633 154 100 0
-0.0047152263187197055 0.0020537819172343954 -0.0044899604397001126 147 107 0
-0.0047152263187197055 0.0025715340013045046 -0.004266675553814575 120 134 0
-0.004715226318719706 0.0030892862088163597 -0.0029067296924878364 0 227 27
-0.0047152263187197055 0.0036070384163282144 -0.00410479898624991 101 153 0
-0.0047152263187197055 0.00412479062384007 -0.004076620692088794 97 157 0
-0.0047152263187197055 0.004642542831351924 -0.003982829159983267 86 168 0
-0.0047152263187197055 0.005160295038863779 -0.003617366540302562 42 212 0
-0.004715226318719706 0.005678047246375634 -0.0028630999481412604 0 224 30
-0.005232978526231562 -0.0077835101489325915 -0.002775209425244389 0 217 37
-0.005232978526231562 -0.007265757941420737 -0.003475782808187423 25 229 0
-0.005232978526231561 -0.006748005733908882 -0.004054368095485461 95 159 0
-0.005232978526231561 -0.006230253526397027 -0.0045829012112946765 158 96 0
-0.005232978526231561 -0.005712501318885173 -0.00467669224963322 169 85 0
-0.005232978526231561 -0.005194749111373318 -0.00458033362298533 158 96 0
-0.005232978526231561 -0.004676996903861463 -0.004945796242666034 202 52 0
-0.005232978526231561 -0.004159244696349608 -0.00491211639678516 198 56 0
-0.005232978526231561 -0.0036414924888377533 -0.004847485261369075 190 64 0
-0.005232978526231561 -0.003123740281325898 -0.004844552285492629 190 64 0
-0.005232978526231561 -0.0026059880738140435 -0.0049383443113651376 201 53 0
-0.005232978526231561 -0.0020882358663021888 -0.004360719894615175 132 122 0
-0.005232978526231561 -0.0015704835353485883 -0.004767148385771508 180 74 0
-0.005232978526231561 -0.0010527313278367333 -0.004733469527424599 176 78 0
-0.005232978526231561 -0.0005349791203248786 -0.004730534576480223 176 78 0
-0.005232978526231561 -1.7226941744682915e-05 -0.0046659044285981026 168 86 0
-0.005232978526231561 0.0005005252638383946 -0.004494506058541622 148 106 0
-0.005232978526231561 0.001018277502210686 -0.004554734767541142 155 99 0
-0.005232978526231561 0.0015360297097225407 -0.003725539529542326 55 199 0
-0.005232978526231561 0.0020537819172343954 -0.004399401106262467 136 118 0
-0.005232978526231561 0.0025715340013045046 -0.004303042479614577 125 129 0
-0.005232978526231561 0.0030892862088163597 -0.0043001075286702006 124 130 0
-0.005232978526231561 0.0036070384163282144 -0.0038720974702398424 73 181 0
-0.005232978526231561 0.00412479062384007 -0.004143216032561529 105 149 0
-0.005232978526231561 0.004642542831351924 -0.0038854069592549278 74 180 0
-0.005232978526231562 0.005160295038863779 -0.003343848270445602 9 245 0
-0.005232978526231562 0.005678047246375634 -0.002161483235564063 0 169 85
-0.005750730733743417 -0.0077835101489325915 -0.002502014078994028 0 195 59
-0.005750730733743416 -0.007265757941420737 -0.0035664971844575942 36 218 0
-0.005750730733743416 -0.006748005733908882 -0.00410805587326692 101 153 0
-0.005750730733743416 -0.006230253526397027 -0.0045748261460617804 157 97 0
-0.005750730733743416 -0.005712501318885173 -0.0046711847727096715 169 85 0
-0.005750730733743416 -0.005194749111373318 -0.004767544386891527 180 74 0
-0.005750730733743416 -0.004676996903861463 -0.004832174534773647 188 66 0
-0.005750730733743416 -0.004159244696349608 -0.0047383825089011376 177 77 0
-0.005750730733743416 -0.0036414924888377533 -0.004710204214740022 174 80 0
-0.005750730733743416 -0.003123740281325898 -0.004881603572330469 194 60 0
-0.005750730733743416 -0.0026059880738140435 -0.004853426265703317 191 63 0
-0.005750730733743416 -0.0020882358663021888 -0.0048563602291137285 191 63 0
-0.005750730733743416 -0.0015704835353485883 -0.00485929419252414 191 63 0
-0.005750730733743416 -0.0010527313278367333 -0.004862228155934551 192 62 0
-0.005750730733743416 -0.0005349791203248786 -0.004768436130062042 181 73 0
-0.005750730733743416 -1.7226941744682915e-05 -0.004740258823434891 177 77 0
-0.005750730733743417 0.0005005252638383946 -0.0033803134558751356 14 240 0
-0.005750730733743416 0.001018277502210686 -0.004600534617776098 160 94 0
-0.005750730733743416 0.0015360297097225407 -0.004634214463656972 164 90 0
-0.005750730733743416 0.0020537819172343954 -0.004540422437784464 153 101 0
-0.005750730733743416 0.0025715340013045046 -0.004364573745914108 132 122 0
-0.005750730733743416 0.0030892862088163597 -0.004270782213808582 121 133 0
-0.005750730733743416 0.0036070384163282144 -0.004242603919647466 117 137 0
-0.005750730733743416 0.00412479062384007 -0.00421442562548635 114 140 0
-0.005750730733743416 0.004642542831351924 -0.0036858930034441165 50 204 0
-0.005750730733743417 0.005160295038863779 -0.003367171847634123 12 242 0
-0.005750730733743417 0.005678047246375634 -0.0026933092833800166 0 210 44
-0.005750730733743417 0.0061957994538874885 -0.002726989129260891 0 213 41
-0.005750730733743417 0.006713551661399343 -0.0008965776430417624 0 71 183
-0.006268482941255271 -0.007265757941420737 -0.0024027807409736338 0 188 66
-0.0062684829412552705 -0.006748005733908882 -0.003600127159873229 40 214 0
-0.0062684829412552705 -0.006230253526397027 -0.004154333689941001 107 147 0
-0.0062684829412552705 -0.005712501318885173 -0.0045948483972048605 160 94 0
-0.0062684829412552705 -0.005194749111373318 -0.004623025703832011 163 91 0
-0.0062684829412552705 -0.004676996903861463 -0.004589346845485102 159 95 0
-0.0062684829412552705 -0.004159244696349608 -0.004954809465165806 203 51 0
-0.0062684829412552705 -0.0036414924888377533 -0.004125612745866043 103 151 0
-0.0062684829412552705 -0.003123740281325898 -0.004301461931503381 124 130 0
-0.0062684829412552705 -0.0026059880738140435 -0.004707890422659714 173 81 0
-0.0062684829412552705 -0.0020882358663021888 -0.004801682448532223 185 69 0
-0.0062684829412552705 -0.0015704835353485883 -0.004798747497587847 184 70 0
-0.0062684829412552705 -0.0010527313278367333 -0.0048269257917489625 188 66 0
-0.0062684829412552705 -0.0005349791203248786 -0.0046555264341585165 167 87 0
-0.0062684829412552705 -1.7226941744682915e-05 -0.004590897273810362 159 95 0
-0.0062684829412552705 0.0005005252638383946 -0.004814181665928916 186 68 0
-0.0062684829412552705 0.001018277502210686 -0.004749551518046797 178 76 0
-0.0062684829412552705 0.0015360297097225407 -0.004578153147990315 158 96 0
-0.0062684829412552705 0.0020537819172343954 -0.0041113818876614885 102 152 0
-0.0062684829412552705 0.0025715340013045046 -0.0038098334537381828 65 189 0
-0.0062684829412552705 0.0030892862088163597 -0.004080953497360817 98 156 0
-0.0062684829412552705 0.0036070384163282144 -0.003909554633537352 77 177 0
-0.0062684829412552705 0.00412479062384007 -0.003738155769713888 57 197 0
-0.006268482941255271 0.004642542831351924 -0.0033101457112835304 5 249 0
-0.006268482941255271 0.005160295038863779 -0.0025682988400347285 0 201 53
-0.006268482941255271 0.005678047246375634 -0.0012339385024436487 0 97 157
-0.006268482941255271 0.0061957994538874885 -0.00012981974918570673 0 11 243
-0.006786235148767126 -0.006748005733908882 -0.0033324368217115038 8 246 0
-0.006786235148767125 -0.006230253526397027 -0.003760447373908844 59 195 0
-0.006786235148767125 -0.005712501318885173 -0.004532137027816995 152 102 0
-0.006786235148767125 -0.005194749111373318 -0.004703536385407441 173 81 0
-0.006786235148767125 -0.004676996903861463 -0.004609745347068897 161 93 0
-0.006786235148767125 -0.004159244696349608 -0.0045159533211963886 150 104 0
-0.006786235148767125 -0.0036414924888377533 -0.00442216129532388 139 115 0
-0.006786235148767125 -0.003123740281325898 -0.004486791443205999 147 107 0
-0.006786235148767125 -0.0026059880738140435 -0.004520471289086874 151 103 0
-0.006786235148767125 -0.0020882358663021888 -0.004492292994925757 147 107 0
-0.006786235148767125 -0.0015704835353485883 -0.004495227945870134 148 106 0
-0.006786235148767125 -0.0010527313278367333 -0.004559858093752254 155 99 0
-0.006786235148767125 -0.0005349791203248786 -0.004562792057162665 156 98 0
-0.006786235148767125 -1.7226941744682915e-05 -0.004659150683810556 167 87 0
-0.006786235148767125 0.0005005252638383946 -0.0044358662916920005 141 113 0
-0.006786235148767125 0.001018277502210686 -0.004260018093588628 119 135 0
-0.006786235148767125 0.0015360297097225407 -0.003941296937778635 81 173 0
-0.006786235148767125 0.0020537819172343954 -0.0037180110643591324 54 200 0
-0.006786235148767125 0.0025715340013045046 -0.0037209460153035086 55 199 0
-0.006786235148767125 0.0030892862088163597 -0.0038173046419513993 66 188 0
-0.006786235148767126 0.0036070384163282144 -0.003143442077697293 0 245 9
-0.006786235148767126 0.00412479062384007 -0.002872323021608624 0 224 30
-0.006786235148767126 0.004642542831351924 -0.002465895024219274 0 193 61
-0.006786235148767125 0.005160295038863779 -0.0035804599271906153 38 216 0
-0.006786235148767126 0.005678047246375634 -0.0008355885328890896 0 66 188
-0.007303987356278981 -0.006230253526397027 -0.003374372945307876 13 241 0
-0.00730398735627898 -0.005712501318885173 -0.0035502211434112483 34 220 0
-0.00730398735627898 -0.005194749111373318 -0.004022232258959072 91 163 0
-0.00730398735627898 -0.004676996903861463 -0.004462746966222932 144 110 0
-0.00730398735627898 -0.004159244696349608 -0.003995975705894106 88 166 0
-0.00730398735627898 -0.0036414924888377533 -0.003962295860013231 84 170 0
-0.00730398735627898 -0.003123740281325898 -0.004463538968462968 144 110 0
-0.00730398735627898 -0.0026059880738140435 -0.0039219807734206255 79 175 0
-0.00730398735627898 -0.0020882358663021888 -0.0037505819095971617 58 196 0
-0.00730398735627898 -0.0015704835353485883 -0.0038108111123636647 65 189 0
-0.00730398735627898 -0.0010527313278367333 -0.0035530015452900814 34 220 0
-0.007303987356278981 -0.0005349791203248786 -0.003338694824448554 9 245 0
-0.00730398735627898 -1.7226941744682915e-05 -0.0037792085441784484 62 192 0
-0.007303987356278981 0.0005005252638383946 -0.0035011713188970377 28 226 0
-0.00730398735627898 0.001018277502210686 -0.00400241343981281 88 166 0
-0.007303987356278981 0.0015360297097225407 -0.0034539834896740863 23 231 0
-0.007303987356278981 0.0020537819172343954 -0.0032666991544874867 0 254 0
-0.007303987356278981 0.0025715340013045046 -0.0033678833658560016 12 242 0
-0.007303987356278981 0.0030892862088163597 -0.0030525938905748467 0 238 16
-0.007303987356278981 0.0036070384163282144 -0.0008094233267158978 0 64 190
-0.007303987356278981 0.00412479062384007 -0.0003913819298965789 0 32 222
-0.007821739563790836 -0.005194749111373318 -0.003488517552434801 27 227 0
-0.007821739563790836 -0.004676996903861463 -0.0037900659863581076 63 191 0
-0.007821739563790836 -0.004159244696349608 -0.003886424613005998 75 179 0
-0.007821739563790836 -0.0036414924888377533 -0.004100732815148473 100 154 0
