ply
format ascii 1.0
element vertex 666
property float x
property float y
property float z
property uchar red
property uchar green
property uchar blue
end_header
-0.041448128865928836 -0.041452527692669425 0.08780376747528446 0 142 112
-0.040942080313671275 -0.041692119938217025 0.08820492056789107 0 96 158
-0.04041811933172853 -0.04192592382229516 0.0884576475168217 0 71 183
-0.04496427207500728 -0.039288654751313 0.08666781715574122 0 245 9
-0.04387169855996385 -0.039741833710462304 0.08680328168009435 0 242 12
-0.04332374399426149 -0.03996788425051359 0.08685719423639539 0 243 11
-0.04275260368726334 -0.04018644249468341 0.0867189863025033 15 239 0
-0.04221334242389546 -0.0404153022092375 0.08684493285092867 5 249 0
-0.041716090531665 -0.04065773693242905 0.08731897527744854 0 204 50
-0.04124481545520622 -0.040908565865981905 0.08800826545110939 0 121 133
-0.04077689553820229 -0.04116047908989428 0.08872535806886961 0 34 220
-0.0402057552651828 -0.04137903734504404 0.08858715041652966 0 60 194
-0.0491567062904546 -0.03694020259864915 0.08654137343758062 0 207 47
-0.046569542340201935 -0.03811976931228429 0.08807547163058746 0 43 211
-0.04549303896091395 -0.038578141213526734 0.08834409568257529 0 23 231
-0.044937198969319594 -0.03880164363820053 0.08833266843074057 0 32 222
-0.0441480081010529 -0.03894974050262397 0.08638766121519587 46 208 0
-0.043624047153088805 -0.03918354439768205 0.08664038844567863 17 237 0
-0.043068207161494454 -0.039407046822355844 0.08662896119384393 27 227 0
-0.042507747975960936 -0.039629056589655244 0.08657925861612822 43 211 0
-0.04196483271625758 -0.039856735543096475 0.08667492760912937 37 217 0
-0.04141340390129162 -0.040081663405933485 0.0867000520208953 42 212 0
-0.04089534851109406 -0.040317375637048944 0.08700171357866555 6 248 0
-0.040519797182479715 -0.04059913706747494 0.08848418601557705 0 72 182
-0.050708011795620136 -0.03575387885803016 0.08750186790931595 0 65 189
-0.04948010868092837 -0.03616332708676413 0.08651597130527557 0 210 44
-0.0490326651440353 -0.03642185700099555 0.08740273314934854 0 100 154
-0.048370992047286315 -0.03661116026301343 0.08651435709602491 0 225 29
-0.04789618373462314 -0.03686084745817092 0.08717437035061311 0 146 108
-0.047431485498190214 -0.037113801647535534 0.08791815719589517 0 55 199
-0.04681448513380488 -0.03731754017866265 0.08739994164518157 0 131 123
-0.04626653070401713 -0.03754359076263371 0.08745385532769122 0 131 123
-0.04571857620627207 -0.03776964132464487 0.08750776844709657 0 132 122
-0.04500969412110404 -0.037943689361264174 0.0862282117159207 59 195 0
-0.044531129604318584 -0.03819216276764018 0.08685710050620857 0 233 21
-0.04389923526272985 -0.03839108880780416 0.0862154756335241 78 176 0
-0.0433824155402101 -0.03862720033552762 0.08652737611688863 40 214 0
-0.042805369675445425 -0.03884385024364005 0.08634023385570905 76 178 0
-0.042257415109743054 -0.03906990078369134 0.08639414641201008 77 177 0
-0.04171815384637517 -0.03929876049824543 0.08652009296043546 67 187 0
-0.041165967987030906 -0.03952344372795188 0.0865389443902336 73 181 0
-0.040668716094800446 -0.03976587845114342 0.08701298681675347 11 243 0
-0.040308317546280614 -0.04005253638716079 0.08862101743627424 0 61 193
-0.04989362769862118 -0.035415572533382254 0.08723728710629261 0 113 141
-0.04933316844513036 -0.03563758227872177 0.08718758396547259 0 128 126
-0.04870934226662691 -0.03583911548439681 0.08661281308840242 0 211 43
-0.048166426871008944 -0.036066794393918265 0.08670848095519496 0 206 48
-0.04756857750827717 -0.03627672180995462 0.08634895782526576 6 248 0
-0.04702566224857381 -0.036504400763395846 0.08644462681826692 1 253 0
-0.04650170175483738 -0.03673820442079096 0.08669735343103832 0 230 24
-0.045983646432597135 -0.03697391667386631 0.08699901555191289 0 198 56
-0.04540536503606926 -0.03719016732929052 0.08680163549134765 0 231 23
-0.04476139427362852 -0.0373851909659446 0.08605994360487793 91 163 0
-0.04421424738049673 -0.037611502499241556 0.08612054865585464 91 163 0
-0.04365378826292052 -0.03783351228850085 0.08607084664124323 106 148 0
-0.043106641437746035 -0.03805982384375768 0.08613145225532426 106 148 0
-0.04255521262278007 -0.03828475170659469 0.08615657666709019 111 143 0
-0.04200806586556288 -0.03851106328381142 0.08621718284427551 110 144 0
-0.04146941030565496 -0.03874011872682986 0.08634814834137944 99 155 0
-0.040945449357690865 -0.03897392262188794 0.0866008755718622 71 183 0
-0.04041116073420573 -0.03920438920718376 0.0867680261516636 54 200 0
-0.03997382238598532 -0.039466184632356065 0.08773852218278079 0 183 71
-0.050832808661597895 -0.03443456329317665 0.08771997219449594 0 41 213
-0.049762853206502464 -0.034895051106299334 0.08804285331722282 0 14 240
-0.049047363088905546 -0.035066963807519176 0.0867085414495493 0 197 57
-0.048440905234556 -0.0352741094549905 0.08627768708166954 7 247 0
-0.04789295073681094 -0.035500160017001674 0.08633160020107489 8 246 0
-0.04733650504175664 -0.03572346671321113 0.08631515400056165 18 236 0
-0.046775692546194146 -0.035945362311062976 0.08626252384355954 35 219 0
-0.046258873209944755 -0.036181473579163584 0.0865744231461084 0 252 2
-0.04570668721468587 -0.03640615676495026 0.08659327344969793 3 251 0
-0.045084601694594086 -0.03660825245114652 0.08603292592631924 94 160 0
-0.0445237891990316 -0.036830148048998354 0.08598029576931712 110 144 0
-0.04396297663551179 -0.03705204362489031 0.08592766504921069 126 128 0
-0.043406530804542875 -0.03727535027718 0.08591121772248884 137 117 0
-0.04287188880307147 -0.03750570267106838 0.08607544015989953 121 133 0
-0.04232393430532641 -0.037731753233079555 0.08612935327930488 122 132 0
-0.04178026179737283 -0.03795918748751056 0.08621874760102533 117 137 0
-0.041236589357376556 -0.038186621763901446 0.08630814248585007 112 142 0
-0.040713240772688314 -0.0384206235394927 0.08656594384923336 83 171 0
-0.040221627162143614 -0.038664880230509804 0.08708670591380559 14 240 0
-0.03975074902967202 -0.03891583752960261 0.08777928631957758 0 184 70
-0.05002675612219426 -0.03409894879186479 0.0875244297147167 0 81 173
-0.04941021938401747 -0.03430283752471669 0.0870100602210195 0 156 98
-0.04874377942210545 -0.03449060041052778 0.08608218521615811 35 219 0
-0.04820512379424021 -0.03471965583158634 0.08621315015015771 24 230 0
-0.047626842465669644 -0.03493590650897043 0.08601577065269678 61 193 0
-0.04707541365070368 -0.035160834371807434 0.08604089506446269 66 188 0
-0.04652826689348649 -0.03538714594902417 0.08610150124164803 66 188 0
-0.04598112052253968 -0.03561345726661804 0.0861621062380177 65 189 0
-0.04546306520029943 -0.03584916951969339 0.08646376835889226 29 225 0
-0.04483923902179598 -0.036050702725368436 0.0858889974818221 122 132 0
-0.04428339903020163 -0.03627420515004224 0.08587757022998739 132 122 0
-0.04367088543244136 -0.03647939393010802 0.08539653707430409 212 42 0
-0.043170840359058556 -0.03672092605806325 0.08584743478764262 154 100 0
-0.042615000367464205 -0.036944428482737046 0.08583600753580792 164 90 0
-0.042146948302112235 -0.03719629890780546 0.08655200405738493 67 187 0
-0.04155553198174882 -0.0374083051125347 0.08624578607036566 120 134 0
-0.04100838515657434 -0.03763461666779154 0.0863063916844467 120 134 0
-0.04046972966462371 -0.037863672132769866 0.08643735774465491 109 145 0
-0.04005117273939014 -0.038131536535763365 0.08756347833603913 0 211 43
-0.0503297203531729 -0.03331546884425108 0.08732967396241059 0 105 149
-0.04979507835170149 -0.03354582123813947 0.08749389639982127 0 91 163
-0.04911496497226867 -0.03372916566311855 0.08645272142998589 0 236 18
-0.04861771308003821 -0.0339716003863101 0.08692676385650575 0 181 73
-0.047952215550032685 -0.03415966781182089 0.08600669798215868 61 193 0
-0.047400029554773807 -0.03438435099760757 0.0860255482857482 67 187 0
-0.046816996583476524 -0.03459906621779936 0.08578879597211404 110 144 0
-0.046282354514047795 -0.03482941858972785 0.08595301784642043 95 159 0
-0.045730169040973885 -0.035054101559811444 0.0859718680954029 100 154 0
-0.045186496600977615 -0.03528153583620233 0.08606126298022765 95 159 0
-0.044580038814585374 -0.03548868150563355 0.0856304091754522 167 87 0
-0.0440363663066318 -0.03571611576006456 0.08571980349717263 163 91 0
-0.04347992054362018 -0.03593942243431413 0.08570335673355509 173 81 0
-0.042963100821100435 -0.03617553396203759 0.08601525721691962 136 118 0
-0.04240228812166603 -0.03639742949400977 0.08596262537060459 152 102 0
-0.04183114781466789 -0.03661598773817959 0.0858244174367125 181 73 0
-0.041327462880069055 -0.03685634367267825 0.08624515472032243 127 127 0
-0.04083584920156705 -0.03710060034173548 0.08676591622179036 59 195 0
-0.04024079288407301 -0.037311430309088366 0.08642953667883388 117 137 0
-0.03976222857115948 -0.03755990378134403 0.08705842715843469 33 221 0
-0.039353697528423555 -0.037831008068091386 0.08826762479413812 0 133 121
-0.050180725963910655 -0.03278905979603982 0.0879842674040931 0 25 229
-0.04954043135188684 -0.03298527135272963 0.08727303664505134 0 127 127
-0.04890689584138103 -0.033183667061645564 0.08661781280337925 0 220 34
-0.04835546702641507 -0.033408594924482574 0.08664293721514515 0 225 29
-0.047728285523931865 -0.033609043882743925 0.08604036362607523 63 191 0
-0.047156532853657875 -0.033827404246380574 0.08589708155928262 93 161 0
-0.046609386164398005 -0.034053715845557185 0.08595768829957226 92 162 0
-0.04603763342616671 -0.03427207618723395 0.08581440566967535 122 132 0
-0.04545935241590919 -0.03448832658303531 0.08561702442829444 160 94 0
-0.044903512492272146 -0.034711829029668996 0.08560559773956404 170 84 0
-0.04435208367730618 -0.034936756892506 0.08563072215132997 174 80 0
-0.043796243685711826 -0.0351602593171798 0.08561929489949527 185 69 0
-0.0432575882617185 -0.03538931480411801 0.08575026152280778 174 80 0
-0.04270174827012415 -0.03561281722879181 0.08573883427097308 184 70 0
-0.04217778732216006 -0.03584662112384989 0.08599156150145584 155 99 0
-0.041626358507194094 -0.0360715489866869 0.08601668591322176 160 94 0
-0.041108303184953836 -0.03630726123976225 0.08631834803409633 124 130 0
-0.04058434223698974 -0.036541065134820326 0.08657107526457909 95 159 0
-0.040050053477590004 -0.03677153167619639 0.08673822471817189 79 175 0
-0.039582001412238034 -0.0370234021012648 0.0874542212397489 0 239 15
-0.03914466306401762 -0.037285197526437094 0.08842471727086608 0 118 136
-0.05042024668199387 -0.03198507855997007 0.08726380929698409 0 119 135
-0.04991001025544397 -0.03222331742969446 0.08763025994687891 0 78 176
-0.04926457820707265 -0.03241786886291887 0.08687645962851931 0 185 69
-0.0486695218895786 -0.032628698830271766 0.08654008008556283 0 237 17
-0.0480804692601996 -0.03284146884375749 0.08625344799251156 31 223 0
-0.04748541294270556 -0.03305229881111039 0.08591706844955507 89 165 0
-0.04693745851291781 -0.033278349395081445 0.08597098213206472 89 165 0
-0.046354425473663224 -0.033493064593313346 0.08573422925532627 133 121 0
-0.04580223954636164 -0.033717747801059905 0.0857530801220201 138 116 0
-0.04524142750502681 -0.033939643161248784 0.08570044934730663 154 100 0
-0.0446849816740579 -0.03416294981353847 0.08568400202058478 165 89 0
-0.04408992549247847 -0.034373779824811136 0.08534762360383691 223 31 0
-0.043586240557879644 -0.0346141357593098 0.08576836088744685 170 84 0
-0.04296923980722395 -0.03481787455005977 0.0852501465175489 255 0 0
-0.04247762599280733 -0.035062131175197214 0.08577090689280821 186 68 0
-0.041954277611991 -0.035296133016668126 0.08602870994550442 157 97 0
-0.041406323046288634 -0.035522183556719406 0.08608262250180546 157 97 0
-0.04086706178292075 -0.03575104327127351 0.08620856905023083 147 107 0
-0.04035682535637085 -0.035989282140997905 0.08657501970012565 101 153 0
-0.03984658886186364 -0.03622752098876241 0.08694146978691616 56 198 0
-0.03938502318536451 -0.03648148744103426 0.08771121348828324 0 211 43
-0.038851741082892896 -0.03671227937204787 0.08788670534581977 0 195 59
-0.038400610590371406 -0.0369696178746217 0.08874291652888017 0 90 164
-0.05018823095982307 -0.031431841799731436 0.08723047566437539 0 130 124
-0.04968218253811175 -0.03167143399135326 0.08763162874333025 0 85 169
-0.04905177945162513 -0.03187084191925666 0.08700236063153456 0 175 79
-0.04841824387316202 -0.03206923760621271 0.08634713622675816 16 238 0
-0.0478795883132541 -0.03229829304923115 0.08647810172386206 5 249 0
-0.04724918529472478 -0.03249770099909444 0.08584883417517067 106 148 0
-0.04669334530313043 -0.03272120342376823 0.08583740692333597 116 138 0
-0.04613750531153608 -0.03294470584844203 0.08582597967150127 126 128 0
-0.04556575264126208 -0.03316306621207868 0.08568269760470866 156 98 0
-0.04500529390995623 -0.03338507574171512 0.0856329944092816 171 83 0
-0.044462378650252876 -0.033612754695156344 0.08572866340228275 166 88 0
-0.04389062597997889 -0.03383111505879299 0.08558538133549014 195 59 0
-0.0433434790868471 -0.034057426592089955 0.08564598638646687 195 59 0
-0.04280919053131927 -0.034287893199345665 0.08581313752937256 179 75 0
-0.04228522951539787 -0.03452169707244386 0.08606586419675101 150 104 0
-0.04175094082395544 -0.034752163635779806 0.0862330142134481 134 120 0
-0.0412166520645557 -0.03498263017715586 0.0864001636670409 117 137 0
-0.04063837073598512 -0.035198880854539955 0.08620278416957995 155 99 0
-0.040223382792498395 -0.035467898546828885 0.0873584778729017 0 249 5
-0.039676235899366606 -0.03569421008012584 0.08741908292387843 0 248 6
-0.03920818383401464 -0.03594608050519425 0.08813507944545544 0 162 92
-0.05054302255767227 -0.03066510947137207 0.08746516915855085 0 98 156
-0.04997188231863142 -0.03088366773750177 0.08732696178776307 0 124 130
-0.049360089815835104 -0.031089089533918396 0.08685190373186973 0 194 60
-0.0488036441207808 -0.03131239623012786 0.08683545753135649 0 203 51
-0.04817174977919206 -0.03151132227029184 0.086193832658672 45 209 0
-0.04760060947219392 -0.031729880514461656 0.0860556247247799 74 180 0
-0.04702946916519578 -0.03194843875863148 0.08591741679088781 103 151 0
-0.0464772831699369 -0.03217312194441815 0.08593626709447734 109 145 0
-0.04590614293089606 -0.032391680210547856 0.08579805972368955 137 117 0
-0.04534533036737626 -0.03261357578643981 0.08574542900358313 154 100 0
-0.0447335383867649 -0.03281899736715335 0.08527037089308274 232 22 0
-0.044254974005894065 -0.033067470817449124 0.08589926080957924 148 106 0
-0.043698528378797064 -0.033290777535618474 0.08588281517217031 159 95 0
-0.04311549533954248 -0.03350549273385038 0.08564606229543184 202 52 0
-0.04259214675485423 -0.03373949450944163 0.08590386365881511 172 82 0
-0.042039960759595346 -0.033964177695228304 0.08592271396240464 178 76 0
-0.041496288319599076 -0.03419161197161919 0.08601210884722939 173 81 0
-0.04094833395776863 -0.034417662577550134 0.08606602309284335 174 80 0
-0.04045108206553817 -0.03466009730074168 0.08654006551936322 112 142 0
-0.0400073413862829 -0.034919823765244044 0.08745750979085637 0 242 12
-0.03949710489177569 -0.03515806261300855 0.08782395987764688 0 201 53
-0.03886521055018696 -0.03535698865317253 0.0871823350049624 43 211 0
-0.03837828790186392 -0.035602761289049246 0.08774196817342304 0 227 27
-0.049728012056209615 -0.03032660027278118 0.08719539967692792 0 147 107
-0.04913659573584621 -0.030538606477510416 0.08688918168990865 0 195 59
-0.04859794031185289 -0.03076766196444863 0.08702014831322118 0 185 69
-0.04795764569982906 -0.030963873521138427 0.08630891755417942 35 219 0
-0.04738589302955508 -0.031182233884775076 0.0861656354873868 65 189 0
-0.04679447670919167 -0.03139424008950432 0.08585941750036755 119 135 0
-0.046234017523658154 -0.03161624985680372 0.08580971492265184 134 120 0
-0.04566226478542686 -0.03183461019848048 0.08566643229275492 164 90 0
-0.045150196569719206 -0.03207225713947647 0.08601770446608406 121 133 0
-0.044558780839498074 -0.03228426315046252 0.08571148698756205 174 80 0
-0.04400735202453211 -0.03250919101329953 0.08573661139932798 179 75 0
-0.04343559935425813 -0.03272755137693618 0.08559332933253537 208 46 0
-0.042884170539292166 -0.03295247923977319 0.0856184537443013 213 41 0
-0.042395527070722167 -0.033197695709569874 0.08616382684566741 141 113 0
-0.041823774400448176 -0.033416056073206524 0.08602054477887482 171 83 0
-0.04128948564104844 -0.03364652261458258 0.0861876942324676 155 99 0
-0.040765524693084344 -0.03388032650964066 0.08644042146295036 126 128 0
-0.04028221580500382 -0.03412726680853216 0.08702999768922577 47 207 0
-0.0397761673832925 -0.03436685900015399 0.08743115076818063 0 252 2
-0.03935031123188033 -0.034632364713747046 0.08849678888917184 0 119 135
-0.038887104352485484 -0.034885800823790905 0.08925293333999915 0 27 227
-0.050046232090557245 -0.02954805012194609 0.08712705577335883 0 155 99
-0.049502559514646355 -0.02977548435441721 0.08721644953197497 0 151 103
-0.04891952661130638 -0.029990199596568883 0.08697969778144511 0 190 64
-0.04831306882491414 -0.030197345266000097 0.08654884397666966 0 254 0
-0.04772401599166321 -0.030410115213606172 0.08626221019430548 49 205 0
-0.04714098295240863 -0.030624830411838076 0.086025457317567 93 161 0
-0.046580170456846134 -0.030846726009689917 0.0859728271605649 109 145 0
-0.04601935775741173 -0.031068621541662098 0.08592019531424987 125 129 0
-0.04545854526184924 -0.03129051713951394 0.08586756515724775 141 113 0
-0.044902099566794924 -0.031513823835723404 0.08585111895673452 152 102 0
-0.044345654258010986 -0.03173713027231001 0.08583467157540561 163 91 0
-0.04378484176244849 -0.031959025870161854 0.08578204141840351 179 75 0
-0.04324558049908061 -0.032187885584715956 0.08590798796682889 169 85 0
-0.042762992841878636 -0.032435058943878076 0.08650354041910287 90 164 0
-0.04213594365226836 -0.03263555065803756 0.08590206319411652 187 67 0
-0.04159227121227209 -0.03286298493442845 0.08599145807894126 182 72 0
-0.04105300988094691 -0.033091844627022665 0.08611740406426233 172 82 0
-0.040513748617579025 -0.03332070434157676 0.08624335061268772 162 92 0
-0.03997007617758275 -0.033548138617967654 0.08633274549751246 157 97 0
-0.039569959602990305 -0.03382196187995983 0.08761166556851273 0 234 20
-0.039169843164312476 -0.03409578518587178 0.0888905867657216 0 74 180
-0.03861339746925817 -0.03431909188208124 0.08887414056520837 0 83 171
-0.049281618318779134 -0.029225826243088476 0.08727488106636955 0 149 105
-0.04868376895604736 -0.02943575365912483 0.08691535793644035 0 204 50
-0.04809235270364126 -0.02964775988581396 0.0866091405125254 0 252 2
-0.0475365127120469 -0.029871262310487756 0.0865977132606907 7 247 0
-0.046938663349315124 -0.03008118972652411 0.08623819013076149 69 185 0
-0.04634724702895172 -0.030293195931253347 0.08593197214374222 122 132 0
-0.045823286080987624 -0.030526999826311425 0.08618469937422499 93 161 0
-0.04525153341071364 -0.030745360189948074 0.08604141730743238 123 131 0
-0.044679780672482336 -0.030963720531624838 0.08589813467753547 152 102 0
-0.04410802852439332 -0.03118208067955841 0.08575485255613581 182 72 0
-0.04355218853279897 -0.03140558310423221 0.08574342530430111 192 62 0
-0.04302822758483488 -0.03163938699929029 0.08599615253478388 163 91 0
-0.042456474914560886 -0.03185774736292694 0.08585287046799127 193 61 0
-0.041917819354652955 -0.03208680280594538 0.08598383596509518 182 72 0
-0.04134606661642166 -0.032305163147622135 0.08584055333519826 211 43 0
-0.040878014619027 -0.03255703359465044 0.08655655041987959 114 140 0
-0.04036594619944744 -0.032794680469766774 0.0869078209038958 71 183 0
-0.03985387798373978 -0.033032327410762764 0.08725909307722494 28 226 0
-0.03941253544982258 -0.03329282881768385 0.0881964087365692 0 164 90
-0.038768564687381844 -0.03348785245433793 0.08745471685009949 16 238 0
-0.04905577903219281 -0.02867458535101301 0.08729272629481168 0 153 101
-0.0484439866653111 -0.028880007191349404 0.08681766936512696 0 224 30
-0.04786095362605652 -0.02909472238958131 0.08658091648838849 8 246 0
-0.0472719009966775 -0.029307492403067043 0.08629428439533723 59 195 0
-0.046711088297243096 -0.029529387935039224 0.08624165254902219 75 179 0
-0.0461546426701461 -0.029752694653208574 0.08622520691161326 86 168 0
-0.04557759673742412 -0.02996934453936112 0.08603806408732936 122 132 0
-0.04502115104236981 -0.03019265123557058 0.08602161788681613 133 121 0
-0.04444410517760513 -0.030409301143683013 0.08583447562563655 169 85 0
-0.04390043319183652 -0.030636735182410942 0.08592386989274994 164 90 0
-0.043343987428824914 -0.030860041856660515 0.0859074231291324 175 79 0
-0.04279603299903716 -0.031086092440631572 0.08596133681164204 175 79 0
-0.04223522036756006 -0.03130798799456364 0.08590870552843133 192 62 0
-0.04171187191878642 -0.03154198981407467 0.0861665080180232 162 92 0
-0.04115105928730932 -0.031763885368006735 0.08611387673481248 178 76 0
-0.04062771083853568 -0.031997887187517754 0.08637167922440438 149 105 0
-0.04011089098010132 -0.03223399867132144 0.0866835785815603 111 143 0
-0.0396192771656847 -0.0324782552964589 0.0872043389568196 43 211 0
-0.03920249725602099 -0.03274669392851264 0.08834518416269894 0 151 103
-0.048935209178894344 -0.02815736147531865 0.08818284965607742 0 43 211
-0.0482402244645459 -0.02833590034157443 0.08701844860011568 0 203 51
-0.04764237510181412 -0.028545827757610786 0.08665892547018648 4 250 0
-0.047064093569371634 -0.028762078369115224 0.08646154428341263 41 213 0
-0.046492340899097644 -0.02898043873275187 0.08631826221662 71 183 0
-0.04592058822882366 -0.02919879909638852 0.0861749801498274 100 154 0
-0.04534883555854967 -0.02941715946002517 0.08603169808303479 130 124 0
-0.04478837630505885 -0.029639169205364684 0.08598199494221478 146 108 0
-0.044227917051568026 -0.029861178950704198 0.08593229180139476 162 92 0
-0.04367648882674434 -0.030086106619798016 0.08595741672165795 166 88 0
-0.043098207430216466 -0.030302357275222225 0.08576003666109269 204 50 0
-0.04255529217051311 -0.030530036228663453 0.08585570565409385 198 56 0
-0.042021003411113374 -0.030760502770039513 0.08602285510768663 182 72 0
-0.04147808815141001 -0.03098818172348074 0.08611852410068777 176 78 0
-0.040966019799787756 -0.03122582862055696 0.0864697951478083 133 121 0
-0.040453951584080106 -0.031463475561552955 0.08682106732113744 90 164 0
-0.0400243478591234 -0.03172777027527006 0.08785565249207518 0 206 48
-0.03951829936945477 -0.03196736244493199 0.08825680500792574 0 161 93
-0.049230312176781595 -0.02737134123004689 0.08792295456076847 0 76 178
-0.0486591719037621 -0.027589899485196655 0.08778474690842854 0 101 153
-0.04801807947297695 -0.02778585323282426 0.08706690530483545 0 203 51
-0.04740107872232125 -0.02798959202357423 0.08654869093493751 27 227 0
-0.046829938415323104 -0.02820815026774405 0.08641048300104542 56 198 0
-0.046269125783845996 -0.028430045821676117 0.08635785171783468 72 182 0
-0.045697985476847856 -0.028648604065845937 0.08621964378394259 101 153 0
-0.04510292929526843 -0.028859434077118603 0.08588326536719472 159 95 0
-0.04456828729379701 -0.029089786471006986 0.08604748780460542 143 111 0
-0.044029025962471824 -0.0293186461636012 0.08617343378992649 133 121 0
-0.04345198061989211 -0.029535295856010554 0.08598629147413986 169 85 0
-0.042899794760547845 -0.029759979085717 0.08600514290393799 175 79 0
-0.04233898206111344 -0.02998187461768918 0.08595251105762297 191 63 0
-0.041815633544382495 -0.030215876415240317 0.08621031298411055 161 93 0
-0.04126344768503822 -0.03044055964494676 0.08622916441390868 167 87 0
-0.04072418642167034 -0.03066941935950086 0.08635511096233406 157 97 0
-0.04020083783698209 -0.030903421135092108 0.08661291232571734 127 127 0
-0.03970358594475164 -0.031145855858283653 0.0870869547522372 66 188 0
-0.039274924651701425 -0.03141045511170046 0.08812934905368926 0 184 70
-0.0388833722265852 -0.03168704581343201 0.08947923293708049 0 14 240
-0.04844904160132763 -0.02704373477480823 0.08793275933397716 0 88 166
-0.047821860166801726 -0.027244183755029468 0.08733018630801154 0 175 79
-0.047209346501084166 -0.02744937251313536 0.08684915258922393 0 246 8
-0.04661793018072075 -0.027661378717864598 0.08654293460220466 44 210 0
-0.04604617751044677 -0.027879739081501244 0.08639965253541204 73 181 0
-0.04550752195053884 -0.028108794524519684 0.08653061803251597 62 192 0
-0.04490403444203592 -0.028316900016650243 0.08612437639074302 131 123 0
-0.04433228163584732 -0.02853526033636712 0.0859810931977418 160 94 0
-0.043814226245649755 -0.028770972567482584 0.08628275475551206 124 130 0
-0.04320171317007447 -0.028976161131845285 0.0858017215452217 203 51 0
-0.04265028435510851 -0.02920108899468229 0.08582684595698763 208 46 0
-0.042166975602942594 -0.02944802933749357 0.08641642330947163 130 124 0
-0.041595222796754 -0.029666389657210447 0.08627314011647043 159 95 0
-0.04108315458104635 -0.02990403659820644 0.08662441228979954 116 138 0
-0.040536007823829164 -0.03013034817542317 0.08668501846698488 115 139 0
-0.04001795250158892 -0.030366060428498518 0.08698668058785945 79 175 0
-0.03958061421595744 -0.03062785577778516 0.08795717604222057 0 206 48
-0.03916562630644936 -0.03089687348105403 0.08911287002709448 0 61 193
-0.04877680720381469 -0.026268269230192685 0.08794351131075608 0 86 168
-0.04825345861912644 -0.026502271005783933 0.08820131267413936 0 59 195
-0.047562855893743865 -0.026682225878431862 0.08707322142847886 0 215 39
-0.04694585514308817 -0.026885964669181833 0.08655500705858092 41 213 0
-0.046397900577385805 -0.027112015209233117 0.08660891961488196 41 213 0
-0.04582676027038766 -0.027330573453402937 0.08647071168098985 70 184 0
-0.045255620031346824 -0.027549131719532643 0.08633250431020208 99 155 0
-0.044707665601559074 -0.0277751823035037 0.08638641799271173 99 155 0
-0.04406657323873122 -0.027971136073091193 0.08566857695222294 213 41 0
-0.04358398564948654 -0.0282183094542132 0.08626412996760123 134 120 0
-0.04303603160596915 -0.02844435977856141 0.08631804246929521 134 120 0
-0.04244697884067554 -0.028657129748127366 0.08603140925003533 185 69 0
-0.04192363025598729 -0.028891131523718618 0.08628921061341861 156 98 0
-0.04132857407440786 -0.029101961534991283 0.08595283219667074 214 40 0
-0.0408313221821774 -0.029344396258182828 0.0864268746231906 152 102 0
-0.04028764974218113 -0.02957183053457372 0.08651626950801534 147 107 0
-0.03980908536131029 -0.02982030398486949 0.08714515942451186 63 191 0
-0.03937282025744024 -0.03008244612467659 0.08812454742207183 0 190 64
-0.03894033826878525 -0.03034581074938005 0.08913528287323727 0 64 190
-0.03840107697143872 -0.030574670452954204 0.08926122914011049 0 55 199
-0.04799026979215499 -0.02593896089035905 0.08790967408710254 0 104 150
-0.04737775612643743 -0.02614414964846494 0.08742864036831492 0 175 79
-0.046726395550730465 -0.026336785323190476 0.08662571539341245 37 217 0
-0.04617924865759867 -0.026563096856487434 0.08668632044438916 37 217 0
-0.04562781991059001 -0.026788024741284326 0.08671144541925938 41 213 0
-0.04506736065709919 -0.02701003448662384 0.08666174227843937 57 197 0
-0.044463873216553575 -0.027218140000714288 0.08625550119977073 126 128 0
-0.043879008388141245 -0.02743226327021779 0.0860035698464666 171 83 0
-0.043336093128437884 -0.027659942223659018 0.08609923883946774 165 89 0
-0.0427931783909195 -0.02788762096139717 0.08619490777786183 160 94 0
-0.04226921737499811 -0.02812142483449536 0.08644763444524028 131 123 0
-0.04169093591051293 -0.028337675467959685 0.08625025382157074 168 86 0
-0.04117886769480528 -0.028575322408955682 0.08660152599489987 125 129 0
-0.040635952367144616 -0.028803001340437024 0.0866971944247967 119 135 0
-0.04014730896653193 -0.029048217832193596 0.08724256808926714 48 206 0
-0.03969763969198371 -0.029306028516237204 0.0881108871411131 0 191 63
-0.03927178347261424 -0.029571534207870377 0.08917652469900002 0 58 196
-0.03877173853514604 -0.02981306637974538 0.08962742353854718 0 6 248
-0.048294253371122475 -0.025155810312348464 0.08772336490190212 0 127 127
-0.047733440875559974 -0.025377705910200304 0.0876707347449 0 142 112
-0.04710639168594971 -0.02557819762435979 0.08706925751991366 0 229 25
-0.04651733885269879 -0.025790967571965865 0.08678262373754948 21 233 0
-0.04596089322560179 -0.02601427429013521 0.08676617810014056 32 222 0
-0.04540008066208199 -0.026236169866027167 0.08671354738003413 48 206 0
-0.04482894035508385 -0.026454728110196987 0.08657533944614204 77 177 0
-0.044245907315829267 -0.02666944330842889 0.08633858656940357 120 134 0
-0.043668861451064585 -0.026886093216541326 0.086151444308224 156 98 0
-0.04312518901106831 -0.027113527492932214 0.08624083919304874 152 102 0
-0.042581517025299706 -0.02734096153166014 0.08633023346016214 147 107 0
-0.04202933103004082 -0.02756564471744681 0.08634908376375167 153 101 0
-0.041485658590044557 -0.027793078993837702 0.08643847864857641 148 106 0
-0.040941986150048286 -0.028020513270228593 0.08652787353340116 143 111 0
-0.03988811099032541 -0.02848619730844736 0.08698399836785645 93 161 0
-0.03946727362180612 -0.028753324803544776 0.0880912228680474 0 200 54
-0.039038612362734565 -0.02901792406794152 0.08913361745105158 0 70 184
-0.03844955956346229 -0.02923069402652754 0.08884698395023956 0 115 139
-0.047508189174317685 -0.024826654948871228 0.0876934485674176 0 145 109
-0.04691677285395428 -0.025038661153600466 0.08738723058039834 0 193 61
-0.04627280209151354 -0.025233684790254545 0.08664553869392863 49 205 0
-0.045794701587207 -0.02548230813873248 0.08727827236041724 0 222 32
-0.04518652291797886 -0.025688897717969318 0.08683315906530333 38 216 0
-0.0446684675277813 -0.025924609949084784 0.08713482062307358 2 252 0
-0.0440412860932554 -0.02612505892930602 0.08653224759710795 99 155 0
-0.04346300469672753 -0.02634130958473023 0.0863348675365427 136 118 0
-0.04292008930110956 -0.026568988494251683 0.08643053540333524 131 123 0
-0.04238143439930121 -0.026798043765486817 0.08656150197204071 120 134 0
-0.041842778771435975 -0.02702709918654537 0.08669246690604032 109 145 0
-0.041291350160341925 -0.027252027115262034 0.08671759300711916 114 140 0
-0.04079130508695912 -0.02749355924321727 0.0871684907204577 56 198 0
-0.040257016327559375 -0.027724025784593327 0.08733564017405047 40 214 0
-0.039788964262207405 -0.02797589620966174 0.08805163669562749 0 204 50
-0.03936310817875254 -0.028241401945214687 0.08911727537972301 0 71 183
-0.0388744647441612 -0.028486618425991317 0.0896626487626413 0 6 248
-0.04784810002516451 -0.024055114020344336 0.08780483798552033 0 129 125
-0.04725904725987089 -0.024267883989910297 0.08751820476626046 0 175 79
-0.04666399107829146 -0.024478714001182962 0.08718182634951259 0 226 28
-0.04607493824504054 -0.024691483948789037 0.08689519256714841 19 235 0
-0.04552275224978165 -0.024916167134575708 0.08691404287073794 24 230 0
-0.04496630662268466 -0.025139473852745054 0.08689759723332899 35 219 0
-0.04438327358343007 -0.025354189050976958 0.08666084435659054 79 175 0
-0.04382246088399566 -0.025576084582949143 0.0866082125102755 95 159 0
-0.043299112435222026 -0.025810086402460162 0.0868660149998674 65 189 0
-0.042704056117727984 -0.026020916369813053 0.08652963545691092 123 131 0
-0.04216038419991668 -0.026248350430500868 0.08661903028712861 119 135 0
-0.041656699265317856 -0.026488706364999528 0.08703976757073856 65 189 0
-0.04106164308373843 -0.026699536376272193 0.08670338915399069 123 131 0
-0.04055140658923122 -0.026937775224036706 0.0870698392407812 77 177 0
-0.04008013158072973 -0.027188604179549443 0.08775912997754633 0 241 13
-0.03864710392749336 -0.027934885863047196 0.08966788636722636 0 12 242
-0.047053814734853525 -0.023723302016040802 0.0877068006764866 0 156 98
-0.046455965304164445 -0.02393322941011727 0.08734727698345311 0 211 43
-0.045864549051758345 -0.024145235636806397 0.08704105955953816 4 250 0
-0.045292796177612435 -0.024363595934563387 0.08689777580343264 34 220 0
-0.04476883522964834 -0.024597399829621468 0.08715050303391539 5 249 0
-0.04416065656042021 -0.024803989408858307 0.08670538973880149 79 175 0
-0.04360019730692939 -0.025025999154197818 0.08665568659798147 95 159 0
-0.043061541882936066 -0.02525505464113603 0.08678665322129399 84 170 0
-0.0425101130679701 -0.025479982503973035 0.08681177763305992 89 165 0
-0.041954273598560715 -0.025703484712943758 0.08680035032661816 99 155 0
-0.04145422852517791 -0.025945016840898994 0.08725124803995671 41 213 0
-0.04090279991408386 -0.02616994476961566 0.08727637414103555 46 208 0
-0.04036414428621862 -0.026399000190674215 0.08740733907503516 35 219 0
-0.03986409921283581 -0.026640532318629447 0.08785823678837368 0 234 20
-0.03897995591714956 -0.02716106391723681 0.08972078501486608 0 4 250
-0.0473968858722146 -0.02295278231005465 0.08784437669723116 0 137 117
-0.046825745701131065 -0.023171340598144245 0.08770616988954769 0 163 91
-0.04621928777882421 -0.02337848622365568 0.08727531495856361 0 227 27
-0.04564814760774068 -0.02359704451174528 0.08713710815088013 0 253 1
-0.04504168968543382 -0.02380419013725672 0.08670625321989606 69 185 0
-0.04452486989495676 -0.024040301643020293 0.08701815314015628 32 222 0
-0.04395372965591593 -0.02425885990915 0.0868799457693685 61 193 0
-0.04339291709239613 -0.024480755485041954 0.08682731504926208 77 177 0
-0.04284924451648525 -0.02470818971751307 0.08691670880787822 72 182 0
-0.04232589606771161 -0.02494219153702409 0.08717451129747011 43 211 0
-0.041736843824602965 -0.025154961290886974 0.08688787802360318 93 161 0
-0.04120220175517424 -0.025385313662815472 0.08705209989790956 77 177 0
-0.04069196532862434 -0.025623552532539867 0.08741855054780438 32 222 0
-0.04014829268475616 -0.025850986743051103 0.08750794374331622 27 227 0
-0.03965667907421145 -0.02609524343406821 0.08802870580788844 0 218 36
-0.03921666279505969 -0.02635617341012539 0.08897701101086675 0 101 153
-0.03867740153169181 -0.026585033124679486 0.08910295755929212 0 92 162
-0.046613174534698175 -0.022624387198140403 0.08783395672888342 0 152 102
-0.046021758282292075 -0.022836393424829526 0.08752773930496845 0 200 54
-0.04543034196192867 -0.023048399629558767 0.08722152131794919 0 248 6
-0.044918273610306404 -0.023286046526634987 0.08757279236506972 0 209 45
-0.044333408781894075 -0.02350016979613849 0.08732086101176556 0 250 4
-0.043777568790299724 -0.02372367222081229 0.08730943375993086 4 250 0
-0.04317971942756795 -0.023933599636848643 0.08694991063000167 66 188 0
-0.0426238795039309 -0.02415710208348233 0.08693848394127127 76 178 0
-0.04208522401198027 -0.02438615754846065 0.08706945000147949 65 189 0
-0.041500359773710215 -0.024600280624220962 0.0868175191566726 111 143 0
-0.04101171630514022 -0.02484549709401765 0.08736289225803873 39 215 0
-0.04046028749017426 -0.02507042495685466 0.08738801666980466 43 211 0
-0.039971644089561574 -0.02531564144861123 0.0879333903342751 0 230 24
-0.03952197481501336 -0.02557345213265484 0.08880170938612104 0 123 131
-0.0469726789036956 -0.02185917776591852 0.0881077009435691 0 115 139
-0.04638362613840198 -0.02207194773548448 0.08782106772430923 0 160 94
-0.04578856995682255 -0.022282777746757146 0.08748468930756137 0 212 42
-0.045227757257388146 -0.02250467327872933 0.08743205746124634 0 226 28
-0.04465661695039 -0.02272323152289915 0.08729384952735425 0 252 2
-0.04408547664339186 -0.02294178976706897 0.08715564159346215 26 228 0
-0.043524664147829364 -0.023163685364920812 0.08710301143646003 42 212 0
-0.042953523840831224 -0.02338224360909063 0.08696480350256794 71 183 0
-0.042382383533833085 -0.02360080185326045 0.08682659556867585 100 154 0
-0.04179935049457849 -0.023815517051492353 0.08658984269193738 143 111 0
-0.04128911459021355 -0.024053755705513675 0.08695629328722515 97 157 0
-0.04074985332684567 -0.024282615420067773 0.08708223983565053 87 167 0
-0.040239616968253074 -0.024520854311752053 0.08744869104864965 42 212 0
-0.03974236494010801 -0.02476328899102383 0.0879227323489609 0 237 17
-0.039263800627194465 -0.02501176246327949 0.0885516228285617 0 162 92
-0.038820060049875156 -0.025271488960721684 0.08946906794471132 0 49 205
-0.04553966609681536 -0.021724083713277036 0.08731141806078781 0 241 13
-0.04500537740537292 -0.021954550276612982 0.0874785680774849 0 227 27
-0.04443362473509893 -0.02217291064024963 0.08733528601069229 0 253 1
-0.04387778474350458 -0.02239641306492343 0.08732385875885758 8 246 0
-0.043317325490013756 -0.022618422810262943 0.08727415561803756 24 230 0
-0.04273246072955874 -0.02283254610172633 0.08702222482783772 69 185 0
-0.04215417933303087 -0.023048796757150544 0.08682484476727248 107 147 0
-0.04160275051806489 -0.02327372461998755 0.08684996917903841 112 142 0
-0.04105983578054651 -0.0235014033577257 0.0869456381174325 106 148 0
-0.040586819977718756 -0.023751669788797454 0.08762050437429757 15 239 0
-0.04006285902975466 -0.023985473683855535 0.08787323160478033 0 243 11
-0.03956281395637186 -0.02422700581181077 0.08832412931811888 0 191 63
-0.03911314474978094 -0.024484816517814263 0.08919244893306913 0 84 170
-0.045939323719077246 -0.020971849499324995 0.08791787808566079 0 160 94
-0.04535027088582633 -0.021184619446931067 0.08763124430329661 0 205 49
-0.044779130646785494 -0.021403177713060776 0.08749303693250883 0 231 23
-0.044226944787441214 -0.021627860942767217 0.08751188836230696 0 236 18
-0.043674758792182335 -0.02185254412855389 0.08753073866589647 0 241 13
-0.0430797024746883 -0.022063374095906783 0.08719435912294 43 211 0
-0.0425188899111685 -0.022285269671798738 0.08714172840283359 59 195 0
-0.041929837145874886 -0.022498039641364695 0.0868550951835737 110 144 0
-0.041386164705878616 -0.022725473917755583 0.08694449006839847 105 149 0
-0.040862816643375335 -0.022959475477643758 0.08720229137717468 75 179 0
-0.040365564751144875 -0.023201910200835302 0.08767633380369455 14 240 0
-0.03982189231114861 -0.023429344477226194 0.0877657286885193 9 245 0
-0.03934708393052813 -0.023679031650423798 0.0884257413800032 0 184 70
-0.038836847503978214 -0.023917270520148193 0.088792192029898 0 143 111
-0.03838940393310649 -0.024175800423399674 0.08967895359241884 0 34 220
-0.04517470539415971 -0.02064962414915502 0.08806566565068301 0 155 99
-0.04455816865598293 -0.020853512882006917 0.0875512961569858 0 230 24
-0.04405812358260012 -0.02109504500996215 0.08800219387032433 0 178 76
-0.04350228359100576 -0.021318547434635952 0.08799076661848962 0 187 67
-0.04292400219447789 -0.02153479809006016 0.08779338655792437 0 221 33
-0.0423074653203865 -0.021738686778992284 0.08727901593801855 46 208 0
-0.041756036573377835 -0.021963614663789176 0.08730414091288878 51 203 0
-0.041243968357670184 -0.022201261604785173 0.08765541308621792 7 247 0
-0.040705313251989915 -0.022430316810140644 0.08778637796561047 0 252 2
-0.04018135230402583 -0.022664120705198722 0.08803910519609323 0 226 28
-0.039620893050535004 -0.022886130450538236 0.08798940205527322 0 240 14
-0.03915284105314035 -0.02313800089756654 0.08870539913995454 0 153 101
-0.03856797622472801 -0.023352124167070044 0.08845346778665039 0 194 60
-0.044973498523979166 -0.02010634303501519 0.0882876187337824 0 132 122
-0.044367040737586926 -0.020313488704446405 0.08785676492900693 0 196 58
-0.043823368093718736 -0.020540922914957634 0.08794615812451877 0 192 62
-0.043284106966265466 -0.020769782673431506 0.08807210579915274 0 183 71
-0.04273192097100658 -0.020994465859218176 0.08809095610274227 0 188 66
-0.04216078073196575 -0.021213024125347882 0.08795274873195448 0 213 41
-0.041612826166263384 -0.02143907466539917 0.08800666128825552 0 214 40
-0.04106487180443293 -0.02166512527133011 0.08806057553386946 0 214 40
-0.04051268633135902 -0.021889808241413705 0.08807942578285194 0 219 35
-0.039960500336100144 -0.022114491427200372 0.08809827608644147 0 224 30
-0.03942123907273226 -0.022343351141754474 0.08822422263486684 0 215 39
-0.03886905307747338 -0.022568034327541148 0.08824307293845637 0 221 33
-0.03841424643453496 -0.022824184910079245 0.0890688229940888 0 119 135
-0.037939438053914476 -0.023073872083276846 0.08972883568557269 0 40 214
-0.04422324222795453 -0.019788758665202542 0.08855441219971036 0 110 144
-0.04361072856223697 -0.01999394742330843 0.08807337848092275 0 181 73
-0.04313771282736652 -0.020244213876340074 0.0887482453008921 0 100 154
-0.04259056607014934 -0.0204705254535568 0.08880885147807745 0 100 154
-0.0420562773787069 -0.020700992016892742 0.08897600149477454 0 85 169
-0.04137385324703032 -0.020883589739866565 0.08791567928922545 0 232 22
-0.04092418417635402 -0.02114140048978983 0.08878400003038434 0 125 129
-0.04034590316609651 -0.02135765088559119 0.08858661878900342 0 159 95
-0.03978544391260569 -0.021579660630930704 0.0885369156481834 0 173 81
-0.03922960392101133 -0.021803163055604504 0.0885254883963487 0 182 72
-0.038695315365483506 -0.022033629662860224 0.08869263953925441 0 168 86
-0.03822726316421692 -0.022285500044008862 0.0894086349346228 0 81 173
-0.03769297457471044 -0.022515966640284636 0.08957578579597635 0 66 188
-0.03718692598310586 -0.022755558777006746 0.08997693746717043 0 21 233
-0.04344273351435341 -0.019461398456838037 0.08857052964798702 0 122 132
-0.04292591365591905 -0.019697509940641726 0.08888242900514293 0 89 165
-0.04238224121592278 -0.019924944217032614 0.08897182388996767 0 84 170
-0.04183428685409234 -0.020150994822963557 0.08902573813558164 0 85 169
-0.041317466961679324 -0.020387106295787303 0.0893376372111854 0 51 203
-0.04071100914130842 -0.02059425195423857 0.0889067831248578 0 116 138
-0.040139869356495245 -0.020812809982705315 0.08876857513635865 0 141 113
-0.03956282349173057 -0.02102945989081775 0.08858143287517906 0 174 80
-0.039014869129900126 -0.021255510496748693 0.08863534712079302 0 174 80
-0.03846268313464125 -0.021480193682535363 0.08865419742438255 0 179 75
-0.03794586327620688 -0.021716305166339052 0.08896609678153845 0 146 108
-0.0374021907682533 -0.021943739420770058 0.0890554911032589 0 141 113
-0.036850004772994424 -0.02216842260655673 0.08907434140684843 0 146 108
-0.03630205041116398 -0.02239447321248767 0.08912825565246238 0 147 107
-0.03576278914779609 -0.02262333292704177 0.08925420220088776 0 138 116
-0.03529151407133731 -0.02287416186059462 0.0899434923745486 0 54 200
-0.03473070140588155 -0.023096057403546748 0.08989086080978571 0 69 185
-0.032570914824177885 -0.02401061045388577 0.09037193138943878 0 36 218
-0.03202296048172539 -0.024236661051812106 0.09042584563302629 0 36 218
-0.03146651469799373 -0.024459967709604905 0.09040939858647007 0 46 208
-0.030895374358359033 -0.024678525967256167 0.09027119065599092 0 72 182
-0.030385137897830476 -0.02491676482600062 0.09063764102433358 0 31 223
-0.029861789483035493 -0.02515076665649158 0.09089544379547763 0 4 250
-0.02876730075587399 -0.025603326633306826 0.09101503749286921 0 4 250
-0.02822362828189907 -0.02583076089871777 0.09110443209614182 0 0 254
-0.026496392524232033 -0.02648197147187236 0.09057533650943092 0 92 162
-0.02590733975893842 -0.026694741441438324 0.09028870329017105 0 137 117
-0.025346527195418626 -0.026916637017330273 0.09023607257006463 0 152 102
-0.02485491344895931 -0.027160893664427612 0.09075683350842825 0 91 163
-0.023750391136882765 -0.027610211460733017 0.09079328852888265 0 101 153
-0.04222896775903317 -0.019397152420676623 0.08959096034282024 0 9 245
-0.04169031216514659 -0.019626207852715117 0.089721925558372 0 0 255
-0.04113447217355223 -0.019849710277388917 0.0897104983065373 0 9 245
-0.04056271950327824 -0.020068070641025566 0.08956721623974469 0 35 219
-0.03995923241502433 -0.020276175884513224 0.08916097369870823 0 96 158
-0.03942494382551785 -0.020506642480788994 0.08932812456006178 0 82 172
-0.03881676512231106 -0.02071323204904589 0.08888301098339574 0 148 106
-0.03818958368778516 -0.02091368102926713 0.0882804379574301 0 235 19
-0.037683535198116534 -0.021153273198929068 0.08868159047328064 0 189 65
-0.03712307601258302 -0.02137528296622847 0.08863188789556493 0 203 51
-0.036551323274351726 -0.02159364330790523 0.08848860526566801 0 230 24
-0.03600417644917724 -0.021819954863162072 0.08854921087974904 0 229 25
-0.035469887825692104 -0.022050421448457903 0.08871636145955045 0 215 39
-0.03493123226578418 -0.02227947689147634 0.08884732695665436 0 205 49
-0.03433981594542077 -0.022491483096205578 0.08854110896963509 0 253 1
-0.03392125895222989 -0.022759347477239192 0.089667228997915 0 112 142
-0.033317771245223414 -0.02296745300133564 0.08926098680668951 0 173 81
-0.03280570302951576 -0.023205099942331636 0.08961225898001865 0 135 119
-0.032197524292330325 -0.02341168949960859 0.08916714512180045 0 201 53
-0.0316503776224484 -0.023638001090780597 0.08922775186006365 0 200 54
-0.031089918382216183 -0.023860010830643274 0.08917804871785712 0 214 40
-0.03053848953461366 -0.024084938706961725 0.08920317313303598 0 219 35
-0.029995574274910307 -0.024312617660402953 0.08929884212603713 0 214 40
-0.02946128558346787 -0.024543084223738895 0.08946599214273422 0 199 55
-0.028943230323816557 -0.024778796400928588 0.08976765368685272 0 167 87
-0.028358365563361528 -0.02499291969239198 0.08951572289665288 0 208 46
-0.027786612689215624 -0.02521127999014897 0.08937243914054736 0 234 20
-0.027318560691820964 -0.02546315043717727 0.09008843622522868 0 147 107
-0.026694734445360208 -0.025664683620892435 0.0895136647850542 0 231 23
-0.02613427525982669 -0.025886693388191828 0.08946396220733849 0 245 9
-0.02559561983583337 -0.026115748875130042 0.08959492883065101 0 235 19
-0.025083551552168418 -0.026353395794166148 0.08994620044087585 0 196 58
-0.024571483200546154 -0.02659104269124237 0.09029747148799637 0 158 96
-0.024059414984838507 -0.02682868963223836 0.09064874366132551 0 119 135
-0.02351649972513515 -0.027056368585679592 0.09074441265432666 0 114 140
-0.022998444368916248 -0.027292080827775005 0.09104607449364907 0 82 172
-0.0224923952551267 -0.02753167318020019 0.09144722621945021 0 36 218
-0.04089733984394792 -0.01929482012438996 0.08963476770608053 0 25 229
-0.04034515384868904 -0.019519503310176628 0.08965361800967006 0 30 224
-0.03975009818929458 -0.019730333105746217 0.08931723953831514 0 82 172
-0.03917895788229643 -0.019948891349916037 0.08917903160442305 0 108 146
-0.038601912017531756 -0.02016554125802847 0.08899188934324347 0 140 114
-0.03802486622072438 -0.020382191188100793 0.08880474764516819 0 172 82
-0.03743581345543076 -0.020594961157666753 0.0885181144259083 0 217 37
-0.03684075727385133 -0.020805791168939415 0.08818173600916043 16 238 0
-0.03626961696685319 -0.021024349413109236 0.08804352807526834 45 209 0
-0.03569257103413121 -0.021240999299261785 0.08785638525098446 81 173 0
-0.03513175853856871 -0.021462894897113623 0.08780375509398235 97 157 0
-0.03458808596265783 -0.021690329129584743 0.08789314885259848 92 162 0
-0.034048824631332644 -0.021919188822178956 0.08801909483791956 82 172 0
-0.0335008702695022 -0.0221452394281099 0.08807300908353351 82 172 0
-0.03294442430798704 -0.022368546134325356 0.08805656177046342 93 161 0
-0.032387978680890044 -0.022591852852494706 0.08804011613305449 104 150 0
-0.03184871734956486 -0.02282071254508892 0.08816606211837556 94 160 0
-0.0313384809423929 -0.023058951406808706 0.08853251276624395 49 205 0
-0.030782035260597203 -0.023282258097541333 0.0885160665643442 59 195 0
-0.030229849232701764 -0.023506941296809445 0.08853491687134667 65 189 0
-0.029686176792705493 -0.023734375573200336 0.08862431175617141 60 194 0
-0.029146915529337614 -0.023963235287754434 0.08875025830459679 50 204 0
-0.028594729664624972 -0.024187918419615335 0.08876910859453456 56 198 0
-0.028055468401257087 -0.024416778134169436 0.08889505514295994 46 208 0
-0.027511795961260816 -0.02464421241056032 0.08898445002778468 41 213 0
-0.026934750028538835 -0.024860862296712874 0.0887973072035008 77 177 0
-0.026424513601988924 -0.025099101166437272 0.0891637578533956 31 223 0
-0.025880841094035347 -0.02532653542086827 0.08925315217511605 27 227 0
-0.025357492577304408 -0.025560537218419412 0.08951095410160363 0 252 2
-0.024860240685073948 -0.025802971941610953 0.0899849965281235 0 197 57
-0.0243368921003857 -0.026036973717202205 0.09024279789150678 0 171 83
