ply
format ascii 1.0
element vertex 725
property float x
property float y
property float z
end_header
0.007011597044765949 -0.004912604112178087 -0.0030290763825178138
0.007011597044765949 -0.004368769936263561 -0.0029305610805749885
0.007011597044765949 -0.0038249355275183916 -0.0026457831263542167
0.007011597044765949 -0.003281101118773222 -0.002547267358750104
0.007011597044765949 -0.0027372667100280523 -0.0024840047117322675
0.007011597044765949 -0.0021934323012828827 -0.002585217356681823
0.007011597044765949 -0.001649597892537713 -0.002003092784434556
0.007011597044765949 -0.0011057634837925434 -0.0015403872821480027
0.007011597044765949 -0.0005619291332550347 -0.0018111831741407505
0.007011597044765949 -1.809476270864252e-05 -0.0018142659682780496
0.007011597044765949 0.0005257396260276437 -0.0017846681876108042
0.007011597044765949 0.0010695740347728133 -0.0017550704069435588
0.007011597044765949 0.001613408443517983 -0.00228510471060872
0.007011597044765949 0.0021572427358478308 -0.0017029796727001658
0.007011597044765949 0.0027010771445930004 -0.0016733834054321042
0.007011597044765949 0.00324491155333817 -0.0015748665900900951
0.007011597044765949 0.003788745729252696 -0.001545268693007528
0.007011597044765949 0.004332580137997866 -0.0015806452138349405
0.007011597044765949 0.004876414779573679 -0.0015837269602343431
0.007011597044765949 0.005420248955488205 -0.0016516135074198237
0.007011597044765949 0.005964083597064018 -0.001686988864094018
0.007011597044765949 0.006507917772978544 -0.0016237256349995724
0.007011597044765949 0.00705175194889307 -0.0014390188734978429
0.007011597044765949 0.0075955865904688835 -0.0009432304068468502
0.007011597044765949 0.008139421232044697 -0.00033549842191859993
0.006467762403190137 -0.011438616551458836 -0.004329889081418513
0.006467762403190137 -0.010350947268307209 -0.004409502260386943
0.006467762403190137 -0.00980711355805397 -0.00440642051398754
0.006467762403190137 -0.009263278916478157 -0.00440333830192685
0.006467762403190137 -0.008719444274902344 -0.004335452336817979
0.006467762403190137 -0.008175610564649105 -0.00426756590604782
0.006467762403190137 -0.007631776388734579 -0.004199679940938949
0.006467762403190137 -0.007087941747158766 -0.003974576015025376
0.006467762403190136 -0.00654410757124424 -0.003525004489347338
0.006467762403190136 -0.0060002729296684265 -0.0034571185242384663
0.006467762403190136 -0.0054564387537539005 -0.003094562562182545
0.006467762403190136 -0.004912604112178087 -0.0029145299922674886
0.006467762403190136 -0.004368769936263561 -0.0025519730988889924
0.006467762403190136 -0.0038249355275183916 -0.0025488913524895898
0.006467762403190136 -0.003281101118773222 -0.00218633422628045
0.006467762403190136 -0.0027372667100280523 -0.0020851215813308946
0.006467762403190136 -0.0021934323012828827 -0.001983908237889408
0.006467762403190136 -0.001649597892537713 -0.002082425169646739
0.006467762403190136 -0.0011057634837925434 -0.0020793427247554055
0.006467762403190136 -0.0005619291332550347 -0.002264049602672457
0.006467762403190136 -1.809476270864252e-05 -0.0021961636375635854
0.006467762403190136 0.0005257396260276437 -0.002016130369156598
0.006467762403190136 0.0010695740347728133 -0.0017453338950872413
0.006467762403190136 0.001613408443517983 -0.0019300406565889707
0.006467762403190136 0.0021572427358478308 -0.001959637971594929
0.006467762403190136 0.0027010771445930004 -0.0020581549033522597
0.006467762403190136 0.00324491155333817 -0.0018781215185299507
0.006467762403190136 0.003788745729252696 -0.00184274511411786
0.006467762403190136 0.004332580137997866 -0.0018073690589517346
0.006467762403190136 0.004876414779573679 -0.0018369663739576927
0.006467762403190136 0.005420248955488205 -0.0017357536125928155
0.006467762403190136 0.005964083597064018 -0.0021196266170591107
0.006467762403190136 0.006507917772978544 -0.0018488297937437883
0.006467762403190136 0.00705175194889307 -0.0018134532729163757
0.006467762403190136 0.0075955865904688835 -0.0016334200045093885
0.006467762403190136 0.008139421232044697 -0.00048901664558798
0.006467762403190136 0.008683254942297935 -0.00048593487008474686
0.006467762403190136 0.009227090515196323 -0.0003847210609819732
0.006467762403190136 0.009770924225449562 -2.2165168047648993e-05
0.005923928227275611 -0.011438616551458836 -0.004126999992877244
0.005923928227275611 -0.010350947268307209 -0.004583101719617843
0.005923928227275611 -0.00980711355805397 -0.004348569083958863
0.005923928227275611 -0.009263278916478157 -0.004383945371955632
0.005923928227275611 -0.008719444274902344 -0.004285428673028945
0.005923928227275611 -0.008175610564649105 -0.004100720863789319
0.005923928227275611 -0.007631776388734579 -0.004136097151786088
0.005923928227275611 -0.007087941747158766 -0.003901564283296465
0.005923928227275611 -0.00654410757124424 -0.0039046455640345803
0.005923928227275611 -0.0060002729296684265 -0.0040846788324415675
0.00592392822727561 -0.0054564387537539005 -0.0035295202396810046
0.00592392822727561 -0.004912604112178087 -0.0027655172161757937
0.00592392822727561 -0.004368769936263561 -0.002381643978878855
0.00592392822727561 -0.0038249355275183916 -0.0023847264237701884
0.00592392822727561 -0.003281101118773222 -0.0022000186145305625
0.00592392822727561 -0.0027372667100280523 -0.00210150284692645
0.00592392822727561 -0.0021934323012828827 -0.002136878203600644
0.00592392822727561 -0.001649597892537713 -0.0020736148580908767
0.00592392822727561 -0.0011057634837925434 -0.0022987190168350926
0.00592392822727561 -0.0005619291332550347 -0.0023999318946152917
0.00592392822727561 -1.809476270864252e-05 -0.0024030141066759816
0.00592392822727561 0.0005257396260276437 -0.0019072255818173283
0.00592392822727561 0.0010695740347728133 -0.002356796991080045
0.00592392822727561 0.001613408443517983 -0.002258280757814645
0.00592392822727561 0.0021572427358478308 -0.002261362969875335
0.00592392822727561 0.0027010771445930004 -0.002162846038118004
0.00592392822727561 0.00324491155333817 -0.002064329804852604
0.00592392822727561 0.003788745729252696 -0.0021655424498021594
0.00592392822727561 0.004332580137997866 -0.0019310094648972147
0.00592392822727561 0.004876414779573679 -0.00211104261688888
0.00592392822727561 0.005420248955488205 -0.0020814449526369563
0.00592392822727561 0.005964083597064018 -0.002018182072788476
0.00592392822727561 0.006507917772978544 -0.0019549187272787085
0.00592392822727561 0.00705175194889307 -0.0019253209466114634
0.00592392822727561 0.0075955865904688835 -0.0016405446222051972
0.00592392822727561 0.008139421232044697 -0.0016759205609560006
0.00592392822727561 0.008683254942297935 -0.0006778968381695442
0.00592392822727561 0.009227090515196323 -2.1671161448465866e-05
0.00592392822727561 0.009770924225449562 -0.00047124281991273094
0.00592392822727561 0.010314758867025375 -8.537618668923826e-06
0.005380093585699797 -0.011982451193034649 -0.0019235544605180615
0.0053800935856997975 -0.010894781909883022 -0.0037818271666765204
0.0053800935856997975 -0.010350947268307209 -0.004244531970471143
0.0053800935856997975 -0.00980711355805397 -0.004343049135059117
0.0053800935856997975 -0.009263278916478157 -0.004406312480568885
0.0053800935856997975 -0.008719444274902344 -0.0044359094463288775
0.0053800935856997975 -0.008175610564649105 -0.004368023946881293
0.0053800935856997975 -0.007631776388734579 -0.004431286826729774
0.0053800935856997975 -0.007087941747158766 -0.00394100323319435
0.0053800935856997975 -0.00654410757124424 -0.004324875306338071
0.0053800935856997975 -0.0060002729296684265 -0.0038345910143107167
0.0053800935856997975 -0.0054564387537539005 -0.003733377903699874
0.005380093585699797 -0.004912604112178087 -0.0032838063780218354
0.005380093585699797 -0.004368769936263561 -0.002442680299282073
0.005380093585699797 -0.0038249355275183916 -0.001993109006434678
0.005380093585699797 -0.003281101118773222 -0.001676370273344218
0.005380093585699797 -0.0027372667100280523 -0.0014512661146000021
0.005380093585699797 -0.0021934323012828827 -0.0014158895937725895
0.005380093585699797 -0.001649597892537713 -0.0001032137006404803
0.005380093585699797 -0.0011057634837925434 -0.0015653810696676367
0.005380093585699797 -0.0005619291332550347 -0.0019492541905492538
0.005380093585699797 -1.809476270864252e-05 -0.0024119592271745196
0.005380093585699797 0.0005257396260276437 -0.002510475926101207
0.005380093585699797 0.0010695740347728133 -0.002507394878193735
0.005380093585699797 0.001613408443517983 -0.0024395077489316455
0.005380093585699797 0.0021572427358478308 -0.002371621783822774
0.005380093585699797 0.0027010771445930004 -0.002191589213907718
0.005380093585699797 0.00324491155333817 -0.002156212693080305
0.005380093585699797 0.003788745729252696 -0.0021531297825276843
0.005380093585699797 0.004332580137997866 -0.002085244515910744
0.005380093585699797 0.004876414779573679 -0.00211484171450138
0.005380093585699797 0.005420248955488205 -0.0020794656593352548
0.005380093585699797 0.005964083597064018 -0.0020115796942263833
0.005380093585699797 0.006507917772978544 -0.0019762034062296143
0.005380093585699797 0.00705175194889307 -0.0020394665189087382
0.005380093585699797 0.0075955865904688835 -0.0020040899980813256
0.005380093585699797 0.008139421232044697 -0.0018240568460896605
0.005380093585699797 0.008683254942297935 -0.001887320191599428
0.005380093585699797 0.009227090515196323 -0.0016165232518687838
0.005380093585699797 0.009770924225449562 -0.0007753976969979697
0.004836259409785271 -0.011982451193034649 -0.002465739147737622
0.004836259409785271 -0.011438616551458836 -0.001757931197062134
0.0048362594097852716 -0.010894781909883022 -0.0037439325824379917
0.0048362594097852716 -0.010350947268307209 -0.004014728590846061
0.0048362594097852716 -0.00980711355805397 -0.004285525530576705
0.0048362594097852716 -0.009263278916478157 -0.004353412427008151
0.0048362594097852716 -0.008719444274902344 -0.004421297926455735
0.0048362594097852716 -0.008175610564649105 -0.004456674214452504
0.0048362594097852716 -0.007631776388734579 -0.0044920509681105605
0.0048362594097852716 -0.007087941747158766 -0.004428787622600793
0.0048362594097852716 -0.00654410757124424 -0.004530000966042279
0.0048362594097852716 -0.0060002729296684265 -0.004345293622463941
0.0048362594097852716 -0.0054564387537539005 -0.004110759589821099
0.004836259409785271 -0.004912604112178087 -0.0034029516391456123
0.004836259409785271 -0.004368769936263561 -0.0021563693881034847
0.004836259409785271 -0.0038249355275183916 -0.0016936637694016092
0.004836259409785271 -0.003281101118773222 -0.0015951474197208875
0.004836259409785271 -0.0027372667100280523 -0.001310370629653334
0.004836259409785271 -0.0021934323012828827 -0.0009755935752764339
0.004836259409785271 -0.001649597892537713 -0.0015444348100572818
0.004836259409785271 -0.0011057634837925434 -0.0013099006609991186
0.004836259409785271 -0.0005619291332550347 -0.001246637431904673
0.004836259409785271 -1.809476270864252e-05 -0.0017369226552546018
0.004836259409785271 0.0005257396260276437 -0.0020994786173105236
0.004836259409785271 0.0010695740347728133 -0.002279511652886867
0.004836259409785271 0.001613408443517983 -0.0025503085926175113
0.004836259409785271 0.0021572427358478308 -0.002215531654655933
0.004836259409785271 0.0027010771445930004 -0.002532269805669784
0.004836259409785271 0.00324491155333817 -0.002600156236439943
0.004836259409785271 0.003788745729252696 -0.002365623833611607
0.004836259409785271 0.004332580137997866 -0.002302359556779265
0.004836259409785271 0.004876414779573679 -0.00275193084962666
0.004836259409785271 0.005420248955488205 -0.002144200494512915
0.004836259409785271 0.005964083597064018 -0.0021795770153403278
0.004836259409785271 0.006507917772978544 -0.002081060083582997
0.004836259409785271 0.00705175194889307 -0.001982543151825666
0.004836259409785271 0.0075955865904688835 -0.0015986700309440487
0.004836259409785271 0.008139421232044697 -0.002048241905868053
0.004836259409785271 0.008683254942297935 -0.0020836184266954656
0.004836259409785271 0.009227090515196323 -0.001475886558182537
0.004836259409785271 0.009770924225449562 -0.0012413534568622702
0.004836259409785271 0.010314758867025375 -0.0003340062976349139
0.004292424768209457 -0.011438616551458836 -0.0018861335702240463
0.004292424768209457 -0.010894781909883022 -0.002706821076571941
0.004292424768209458 -0.010350947268307209 -0.0035850103013217445
0.004292424768209458 -0.00980711355805397 -0.004710206296294927
0.004292424768209458 -0.009263278916478157 -0.004393467679619788
0.004292424768209458 -0.008719444274902344 -0.0044919843785464755
0.004292424768209458 -0.008175610564649105 -0.004676691722124814
0.004292424768209458 -0.007631776388734579 -0.0046736099757254115
0.004292424768209458 -0.007087941747158766 -0.004703207872807979
0.004292424768209458 -0.00654410757124424 -0.0046678311191499225
0.004292424768209458 -0.0060002729296684265 -0.0046324548311531535
0.004292424768209458 -0.0054564387537539005 -0.004269898869097232
0.004292424768209458 -0.004912604112178087 -0.003663176670670509
0.004292424768209457 -0.004368769936263561 -0.0015419754199683662
0.004292424768209457 -0.0038249355275183916 -0.0013355448609217997
0.004292424768209457 -0.003281101118773222 -0.0009729879093356425
0.004292424768209457 -0.0021934323012828827 -0.00048099950072355514
0.004292424768209457 -0.001649597892537713 -0.00047791772522032207
0.004292424768209457 -0.0011057634837925434 -0.00025281385751441067
0.004292424768209457 -0.0005619291332550347 -0.0005375904729589814
0.004292424768209457 -1.809476270864252e-05 -0.0005671882536262268
0.004292424768209457 0.0005257396260276437 -0.0009940909221768375
0.004292424768209457 0.0010695740347728133 -0.0013288673944771285
0.004292424768209457 0.001613408443517983 -0.001961186062544584
0.004292424768209457 0.0021572427358478308 -0.0019258095417171712
0.004292424768209457 0.0027010771445930004 -0.0023885145783424373
0.004292424768209457 0.00324491155333817 -0.002385433297604322
0.004292424768209457 0.003788745729252696 -0.0020686946809291835
0.004292424768209457 0.004332580137997866 -0.00213195732794702
0.004292424768209457 0.004876414779573679 -0.0019519241759553547
0.004292424768209457 0.005420248955488205 -0.0017718914896249767
0.004292424768209457 0.005964083597064018 -0.001736514968797564
0.004292424768209457 0.006507917772978544 -0.0016686290036886926
0.004292424768209457 0.00705175194889307 -0.0016007436206564303
0.004292424768209457 0.0075955865904688835 -0.0015328566078096624
0.004292424768209457 0.008139421232044697 -0.0017175633693113919
0.004292424768209457 0.008683254942297935 -0.0016163504915311928
0.004292424768209457 0.009227090515196323 -0.0017148669576272364
0.004292424768209457 0.009770924225449562 -0.0006762485718354577
0.003748590359464288 -0.011982451193034649 -0.0024831083137542005
0.003748590359464288 -0.011438616551458836 -0.0019009832758456464
0.003748590359464288 -0.010894781909883022 -0.0037005878984928127
0.003748590359464288 -0.010350947268307209 -0.004571556113660335
0.003748590359464288 -0.00980711355805397 -0.004045062232762574
0.003748590359464288 -0.009263278916478157 -0.004361801315099
0.003748590359464288 -0.008719444274902344 -0.004397177137434482
0.003748590359464288 -0.008175610564649105 -0.004622280597686767
0.003748590359464288 -0.007631776388734579 -0.004657656885683536
0.003748590359464288 -0.007087941747158766 -0.004758870229125022
0.003748590359464288 -0.00654410757124424 -0.004729272797703742
0.003748590359464288 -0.0060002729296684265 -0.004764649085700511
0.003748590359464288 -0.0054564387537539005 -0.004735051188617944
0.003748590359464288 -0.004912604112178087 -0.004636534489691257
0.003748590359464288 -0.004368769936263561 -0.004173829220235347
0.0037485903594642878 -0.0038249355275183916 -0.0014838699717074628
0.0037485903594642878 -0.003281101118773222 -0.0006056807469576593
0.0037485903594642878 -0.0027372667100280523 -2.355616197746667e-05
0.0037485903594642878 0.0021572427358478308 -0.0010964944958686824
0.0037485903594642878 0.0027010771445930004 -0.0008117181132547553
0.0037485903594642878 0.00324491155333817 -0.0016528436681255694
0.0037485903594642878 0.003788745729252696 -0.0017207296332344408
0.0037485903594642878 0.004332580137997866 -0.0016911318525671955
0.0037485903594642878 0.004876414779573679 -0.001726508373394608
0.0037485903594642878 0.005420248955488205 -0.0016279914416372772
0.0037485903594642878 0.005964083597064018 -0.0016633679624646898
0.0037485903594642878 0.006507917772978544 -0.001564851612783968
0.0037485903594642878 0.00705175194889307 -0.0012300745584070678
0.0037485903594642878 0.0075955865904688835 -0.0012979615712538357
0.0037485903594642878 0.008139421232044697 -0.0010131846647709604
0.0037485903594642878 0.008683254942297935 -0.0009499203297309573
0.0037485903594642878 0.009227090515196323 -0.0009530031238682564
0.0037485903594642878 0.009770924225449562 -0.00045721410424448506
0.0032047559507191186 -0.011438616551458836 -0.0019435071153566237
0.0032047559507191186 -0.010894781909883022 -0.002735770540311932
0.0032047559507191186 -0.010350947268307209 -0.003828708780929446
0.0032047559507191186 -0.00980711355805397 -0.004063241649419069
0.0032047559507191186 -0.009263278916478157 -0.0043480186723172665
0.0032047559507191186 -0.008719444274902344 -0.0046827951446175575
0.0032047559507191186 -0.008175610564649105 -0.0048675015568733215
0.0032047559507191186 -0.007631776388734579 -0.004832125268876553
0.0032047559507191186 -0.007087941747158766 -0.00486172316595912
0.0032047559507191186 -0.00654410757124424 -0.004960239864885807
0.0032047559507191186 -0.0060002729296684265 -0.004689442925155163
0.0032047559507191186 -0.0054564387537539005 -0.004686362110078335
0.0032047559507191186 -0.004912604112178087 -0.004871068987995386
0.0032047559507191186 -0.004368769936263561 -0.004691035021096468
0.0032047559507191186 -0.0038249355275183916 -0.0038804700598120685
0.003204755950719118 0.004876414779573679 -0.00038023429806344173
0.003204755950719118 0.005420248955488205 -0.000344858854077756
0.003204755950719118 0.005964083597064018 -0.000443375727627426
0.003204755950719118 0.006507917772978544 -8.081879059318414e-05
0.003204755950719118 0.00705175194889307 -1.2932840945722608e-05
0.0026609215419739485 -0.011982451193034649 -0.0016386334318667646
0.002660921541973949 -0.011438616551458836 -0.002207474550232291
0.002660921541973949 -0.010894781909883022 -0.0032727546058595176
0.002660921541973949 -0.010350947268307209 -0.003722326131537556
0.002660921541973949 -0.00980711355805397 -0.004171897657215595
0.002660921541973949 -0.009263278916478157 -0.004351930692791939
0.002660921541973949 -0.008719444274902344 -0.004531963728368282
0.002660921541973949 -0.008175610564649105 -0.004711996763944626
0.002660921541973949 -0.007631776388734579 -0.004779882729053497
0.002660921541973949 -0.007087941747158766 -0.004815259017050266
0.002660921541973949 -0.00654410757124424 -0.004818340763449669
0.002660921541973949 -0.0060002729296684265 -0.004533563740551472
0.002660921541973949 -0.0054564387537539005 -0.0048503028228878975
0.002660921541973949 -0.004912604112178087 -0.005212858319282532
0.002660921541973949 -0.004368769936263561 -0.004630733747035265
0.002660921541973949 -0.0038249355275183916 -0.004666110500693321
0.002660921541973949 -0.003281101118773222 -0.004602847155183554
0.002660921541973949 -0.0027372667100280523 -0.003895038273185491
0.0021170873660594225 -0.011438616551458836 -0.001559865311719477
0.002117087366059423 -0.010894781909883022 -0.002685063052922487
0.002117087366059423 -0.010350947268307209 -0.004113517235964537
0.002117087366059423 -0.00980711355805397 -0.003933484200388193
0.002117087366059423 -0.009263278916478157 -0.004360386170446873
0.002117087366059423 -0.008719444274902344 -0.004545093514025211
0.002117087366059423 -0.008175610564649105 -0.004779627546668053
0.002117087366059423 -0.007631776388734579 -0.004842889960855246
0.002117087366059423 -0.007087941747158766 -0.004872486926615238
0.002117087366059423 -0.00654410757124424 -0.004869405180215836
0.002117087366059423 -0.0060002729296684265 -0.004768191371113062
0.002117087366059423 -0.0054564387537539005 -0.004666978493332863
0.002117087366059423 -0.004912604112178087 -0.004631602205336094
0.002117087366059423 -0.004368769936263561 -0.0045962268486619
0.002117087366059423 -0.0038249355275183916 -0.004881002940237522
0.002117087366059423 -0.003281101118773222 -0.004813116043806076
0.002117087366059423 -0.0027372667100280523 -0.00406609894707799
0.001573252957314253 -0.011982451193034649 -0.0012243337696418164
0.001573252957314253 -0.011438616551458836 -0.0014951296616345642
0.001573252957314253 -0.010894781909883022 -0.002506830031052232
0.0015732529573142533 -0.010350947268307209 -0.0035185308661311865
0.0015732529573142533 -0.00980711355805397 -0.003619743511080742
0.0015732529573142535 -0.009263278916478157 -0.0044303094036877155
0.0015732529573142535 -0.008719444274902344 -0.004531522747129202
0.0015732529573142535 -0.008175610564649105 -0.004711555782705545
0.0015732529573142535 -0.007631776388734579 -0.004746932070702314
0.0015732529573142535 -0.007087941747158766 -0.005493949633091688
0.0015732529573142535 -0.00654410757124424 -0.004786140285432339
0.0015732529573142535 -0.0060002729296684265 -0.004821517039090395
0.0015732529573142535 -0.0054564387537539005 -0.005092313978821039
0.0015732529573142535 -0.004912604112178087 -0.0047575365751981735
0.0015732529573142535 -0.004368769936263561 -0.004825422540307045
0.0015732529573142535 -0.0038249355275183916 -0.004795824643224478
0.0015732529573142535 -0.003281101118773222 -0.004561292007565498
0.0015732529573142535 -0.0027372667100280523 -0.004786395467817783
0.0015732529573142535 -0.0021934323012828827 -0.004687878768891096
0.0015732529573142533 -0.001649597892537713 -0.004403102211654186
0.0010294185485690832 -0.011982451193034649 -0.0007827598019503056
0.0010294185485690834 -0.010894781909883022 -0.002199779963120818
0.0010294185485690836 -0.010350947268307209 -0.003020467469468713
0.0010294185485690836 -0.00980711355805397 -0.0038697835989296436
0.0010294185485690836 -0.009263278916478157 -0.004054490011185408
0.0010294185485690839 -0.008719444274902344 -0.0044813938438892365
0.0010294185485690836 -0.008175610564649105 -0.004256289917975664
0.0010294185485690839 -0.007631776388734579 -0.004838414490222931
0.0010294185485690839 -0.007087941747158766 -0.004936931189149618
0.0010294185485690839 -0.00654410757124424 -0.004933848511427641
0.0010294185485690839 -0.0060002729296684265 -0.004865963477641344
0.0010294185485690839 -0.0054564387537539005 -0.004862880799919367
0.0010294185485690839 -0.004912604112178087 -0.005655145272612572
0.0010294185485690839 -0.004368769936263561 -0.005011445377022028
0.0010294185485690839 -0.0038249355275183916 -0.004943558480590582
0.0010294185485690839 -0.003281101118773222 -0.004763525910675526
0.0010294185485690839 -0.0027372667100280523 -0.004862042609602213
0.0010294185485690839 -0.0021934323012828827 -0.004891639109700918
0.0010294185485690839 -0.001649597892537713 -0.004442067816853523
0.0010294185485690836 -0.0011057634837925434 -0.0036628504749387503
0.00048558411072008333 -0.011438616551458836 -0.0017877406207844615
0.00048558411072008333 -0.010894781909883022 -0.0018231160938739777
0.00048558411072008344 -0.010350947268307209 -0.0027232717256993055
0.00048558411072008355 -0.00980711355805397 -0.003437170060351491
0.0004855841107200836 -0.009263278916478157 -0.0039672041311860085
0.00048558411072008366 -0.008719444274902344 -0.004416775424033403
0.00048558411072008366 -0.008175610564649105 -0.004641879349946976
0.0004855841107200837 -0.007631776388734579 -0.004743092227727175
0.0004855841107200837 -0.007087941747158766 -0.004844305105507374
0.0004855841107200837 -0.00654410757124424 -0.004879681393504143
0.0004855841107200837 -0.0060002729296684265 -0.004947567358613014
0.00048558411072008377 -0.0054564387537539005 -0.00526430644094944
0.0004855841107200837 -0.004912604112178087 -0.004880433436483145
0.00048558411072008366 -0.004368769936263561 -0.0042481147684156895
0.00048558411072008377 -0.0038249355275183916 -0.005119082052260637
0.0004855841107200837 -0.003281101118773222 -0.004934375174343586
0.00048558411072008377 -0.0027372667100280523 -0.005159479100257158
0.0004855841107200837 -0.0021934323012828827 -0.004696774762123823
0.0004855841107200837 -0.001649597892537713 -0.004699855111539364
0.00048558411072008366 -0.0011057634837925434 -0.004636592697352171
0.00048558411072008366 -0.0005619291332550347 -0.004351815674453974
-5.825026528327706e-05 -0.010894781909883022 -0.0016197481891140342
-5.825026528327696e-05 -0.010350947268307209 -0.0024120125453919172
-5.825026528327688e-05 -0.00980711355805397 -0.003119820961728692
-5.8250265283276804e-05 -0.009263278916478157 -0.003727552480995655
-5.825026528327673e-05 -0.008719444274902344 -0.004335283767431974
-5.82502652832767e-05 -0.008175610564649105 -0.004519991111010313
-5.8250265283276655e-05 -0.007631776388734579 -0.004946893081068993
-5.825026528327666e-05 -0.007087941747158766 -0.004845680668950081
-5.8250265283276655e-05 -0.00654410757124424 -0.004944197367876768
-5.825026528327665e-05 -0.0060002729296684265 -0.004973794333636761
-5.825026528327664e-05 -0.0054564387537539005 -0.0050370581448078156
-5.8250265283276635e-05 -0.004912604112178087 -0.0050666555762290955
-5.8250265283276635e-05 -0.004368769936263561 -0.005063572898507118
-5.825026528327664e-05 -0.0038249355275183916 -0.005060490220785141
-5.825026528327665e-05 -0.003281101118773222 -0.004992605186998844
-5.8250265283276655e-05 -0.0027372667100280523 -0.004924719221889973
-5.825026528327666e-05 -0.0021934323012828827 -0.004889342933893204
-5.825026528327668e-05 -0.001649597892537713 -0.004709308966994286
-5.825026528327664e-05 -0.0011057634837925434 -0.005044086370617151
-5.8250265283276764e-05 -0.0005619291332550347 -0.004059624392539263
-5.8250265283276804e-05 -1.809476270864252e-05 -0.0036970681976526976
-0.0006020846194587646 -0.010894781909883022 -0.0021478484850376844
-0.0006020846194587645 -0.010350947268307209 -0.0022157339844852686
-0.0006020846194587644 -0.00980711355805397 -0.003172570373862982
-0.0006020846194587644 -0.009263278916478157 -0.003702604677528143
-0.0006020846194587642 -0.008719444274902344 -0.004481821320950985
-0.0006020846194587642 -0.008175610564649105 -0.00445222482085228
-0.0006020846194587641 -0.007631776388734579 -0.00494250888004899
-0.0006020846194587641 -0.007087941747158766 -0.0049455915577709675
-0.0006020846194587641 -0.00654410757124424 -0.0049486723728477955
-0.0006020846194587641 -0.0060002729296684265 -0.004919075407087803
-0.0006020846194587641 -0.0054564387537539005 -0.0050202892161905766
-0.0006020846194587641 -0.004912604112178087 -0.005088175181299448
-0.0006020846194587641 -0.004368769936263561 -0.004989658482372761
-0.0006020846194587641 -0.0038249355275183916 -0.005169691052287817
-0.0006020846194587641 -0.003281101118773222 -0.005270904861390591
-0.0006020846194587641 -0.0027372667100280523 -0.00488703278824687
-0.0006020846194587641 -0.0021934323012828827 -0.004988245666027069
-0.0006020846194587641 -0.001649597892537713 -0.0048897285014390945
-0.0006020846194587642 -0.0011057634837925434 -0.0047050220891833305
-0.0006020846194587644 -0.0005619291332550347 -0.0039691561833024025
-0.0006020846194587642 -1.809476270864252e-05 -0.004575878847390413
-0.0006020846194587642 0.0005257396260276437 -0.0041489750146865845
-0.0006020846194587644 0.0010695740347728133 -0.003413110738620162
-0.0011459189699962733 -0.010350947268307209 -0.002047905931249261
-0.0011459189699962733 -0.00980711355805397 -0.0026300305034965277
-0.001145918969996273 -0.009263278916478157 -0.0033658959437161684
-0.001145918969996273 -0.008719444274902344 -0.0039480202831327915
-0.0011459189699962729 -0.008175610564649105 -0.004503179807215929
-0.0011459189699962729 -0.007631776388734579 -0.004687887150794268
-0.0011459189699962729 -0.007087941747158766 -0.004872593563050032
-0.0011459189699962729 -0.00654410757124424 -0.004935856442898512
-0.0011459189699962729 -0.0060002729296684265 -0.0050343736074864864
-0.0011459189699962729 -0.0054564387537539005 -0.005132890306413174
-0.0011459189699962729 -0.004912604112178087 -0.005065003409981728
-0.0011459189699962729 -0.004368769936263561 -0.005448876414448023
-0.0011459189699962729 -0.0038249355275183916 -0.005086320452392101
-0.0011459189699962729 -0.003281101118773222 -0.0051159183494746685
-0.0011459189699962729 -0.0027372667100280523 -0.005179181229323149
-0.0011459189699962729 -0.0021934323012828827 -0.004954077303409576
-0.0011459189699962729 -0.001649597892537713 -0.0049187010154128075
-0.0011459189699962729 -0.0011057634837925434 -0.004647905007004738
-0.0011459189699962729 -0.0005619291332550347 -0.004644822794944048
-0.0011459189699962729 -1.809476270864252e-05 -0.004543609451502562
-0.0011459189699962729 0.0005257396260276437 -0.0044757225550711155
-0.001145918969996273 0.0010695740347728133 -0.003945688717067242
-0.0016897533787414432 -0.010894781909883022 -0.0006100487662479284
-0.001689753378741443 -0.010350947268307209 -0.0009726057178340854
-0.001689753378741443 -0.00980711355805397 -0.0024339936207979918
-0.0016897533787414427 -0.009263278916478157 -0.0034726113080978394
-0.0016897533787414427 -0.008719444274902344 -0.004116311203688383
-0.0016897533787414425 -0.008175610564649105 -0.004565882962197065
-0.0016897533787414425 -0.007631776388734579 -0.004502619616687298
-0.0016897533787414425 -0.007087941747158766 -0.004865175113081932
-0.0016897533787414425 -0.00654410757124424 -0.005227731075137854
-0.0016897533787414425 -0.0060002729296684265 -0.004993198439478874
-0.0016897533787414425 -0.0054564387537539005 -0.005094411317259073
-0.0016897533787414425 -0.004912604112178087 -0.005031148437410593
-0.0016897533787414425 -0.004368769936263561 -0.005301945377141237
-0.0016897533787414425 -0.0038249355275183916 -0.00520342867821455
-0.0016897533787414425 -0.003281101118773222 -0.005206511355936527
-0.0016897533787414425 -0.0027372667100280523 -0.005209592171013355
-0.0016897533787414425 -0.0021934323012828827 -0.005024885293096304
-0.0016897533787414425 -0.001649597892537713 -0.00484017888084054
-0.0016897533787414425 -0.0011057634837925434 -0.004875555168837309
-0.0016897533787414425 -0.0005619291332550347 -0.004777038469910622
-0.0016897533787414425 -1.809476270864252e-05 -0.00459233159199357
-0.0016897533787414425 0.0005257396260276437 -0.004627706948667765
-0.0016897533787414427 0.0010695740347728133 -0.004243833944201469
-0.0016897533787414427 0.001613408443517983 -0.004145318176597357
-0.0016897533787414427 0.0021572427358478308 -0.003649528604000807
-0.002233587903901934 -0.00980711355805397 -0.0019219871610403063
-0.002233587903901934 -0.009263278916478157 -0.003248089691624046
-0.002233587903901934 -0.008719444274902344 -0.004068776965141296
-0.002233587903901934 -0.008175610564649105 -0.004303309600800276
-0.002233587903901934 -0.007631776388734579 -0.005011118482798338
-0.002233587903901934 -0.007087941747158766 -0.004648562055081129
-0.002233587903901934 -0.00654410757124424 -0.005032434593886137
-0.002233587903901934 -0.0060002729296684265 -0.005095699802041054
-0.002233587903901934 -0.0054564387537539005 -0.005194215569645166
-0.002233587903901934 -0.004912604112178087 -0.005158840212970972
-0.002233587903901934 -0.004368769936263561 -0.005257355980575085
-0.002233587903901934 -0.0038249355275183916 -0.00528695248067379
-0.002233587903901934 -0.003281101118773222 -0.0052190665155649185
-0.002233587903901934 -0.0027372667100280523 -0.004948270972818136
-0.002233587903901934 -0.0021934323012828827 -0.0051329773850739
-0.002233587903901934 -0.001649597892537713 -0.004862181376665831
-0.002233587903901934 -0.0011057634837925434 -0.004960696212947369
-0.002233587903901934 -0.0005619291332550347 -0.004780663643032312
-0.002233587903901934 -1.809476270864252e-05 -0.00481026154011488
-0.002233587903901934 0.0005257396260276437 -0.004493522457778454
-0.002233587903901934 0.0010695740347728133 -0.004392309579998255
-0.002233587903901934 0.001613408443517983 -0.004324423614889383
-0.002233587903901934 0.0021572427358478308 -0.003874852089211345
-0.002233587903901934 0.0027010771445930004 -0.0030337250791490082
-0.002777422312647104 -0.00980711355805397 -0.0028107182588428263
-0.002777422312647104 -0.009263278916478157 -0.0028786051552742724
-0.002777422312647104 -0.008719444274902344 -0.003917221911251545
-0.002777422312647104 -0.008175610564649105 -0.004233960993587971
-0.002777422312647104 -0.007631776388734579 -0.004763995762914419
-0.002777422312647104 -0.007087941747158766 -0.004865209572017193
-0.002777422312647104 -0.00654410757124424 -0.0048682913184165955
-0.002777422312647104 -0.0060002729296684265 -0.004969503730535507
-0.002777422312647104 -0.0054564387537539005 -0.005070717539638281
-0.0027774223126471034 -0.004912604112178087 -0.005387455690652132
-0.0027774223126471034 -0.004368769936263561 -0.005390537437051535
-0.002777422312647104 -0.0038249355275183916 -0.004963635932654142
-0.0027774223126471034 -0.003281101118773222 -0.005326191894710064
-0.002777422312647104 -0.0027372667100280523 -0.005227675195783377
-0.002777422312647104 -0.0021934323012828827 -0.005295562092214823
-0.002777422312647104 -0.001649597892537713 -0.004868658259510994
-0.002777422312647104 -0.0011057634837925434 -0.00504869082942605
-0.002777422312647104 -0.0005619291332550347 -0.004814158659428358
-0.0027774223126471034 -1.809476270864252e-05 -0.005528056062757969
-0.002777422312647104 0.0005257396260276437 -0.004707369487732649
-0.002777422312647104 0.0010695740347728133 -0.004152209963649511
-0.002777422312647104 0.001613408443517983 -0.004514765925705433
-0.002777422312647104 0.0021572427358478308 -0.004229988902807236
-0.002777422312647104 0.0027010771445930004 -0.004045282024890184
-0.002777422312647104 0.00324491155333817 -0.003618379589170218
-0.0033212567213922735 -0.009263278916478157 -0.0026595084927976136
-0.0033212567213922735 -0.008719444274902344 -0.0034235122147947554
-0.0033212567213922735 -0.008175610564649105 -0.003950005862861872
-0.0033212567213922735 -0.007631776388734579 -0.004685870837420225
-0.0033212567213922735 -0.007087941747158766 -0.0047154673375189304
-0.0033212567213922735 -0.00654410757124424 -0.0049500009045004845
-0.0033212567213922735 -0.0060002729296684265 -0.004769967403262854
-0.0033212567213922735 -0.0054564387537539005 -0.005104744806885719
-0.003321256721392273 -0.004912604112178087 -0.005389520898461342
-0.003321256721392273 -0.004368769936263561 -0.00532163493335247
-0.0033212567213922735 -0.0038249355275183916 -0.005220422521233559
-0.0033212567213922735 -0.003281101118773222 -0.005283684935420752
-0.0033212567213922735 -0.0027372667100280523 -0.005058581475168467
-0.0033212567213922735 -0.0021934323012828827 -0.005157098174095154
-0.0033212567213922735 -0.001649597892537713 -0.004977065604180098
-0.0033212567213922735 -0.0011057634837925434 -0.00500666256994009
-0.0033212567213922735 -0.0005619291332550347 -0.004689924418926239
-0.0033212567213922735 -1.809476270864252e-05 -0.004719520919024944
-0.0033212567213922735 0.0005257396260276437 -0.00468414556235075
-0.0033212567213922735 0.0010695740347728133 -0.004616259131580591
-0.0033212567213922735 0.001613408443517983 -0.0045150453224778175
-0.0033212567213922735 0.0021572427358478308 -0.004335012286901474
-0.0033212567213922735 0.0027010771445930004 -0.004233799409121275
-0.0033212567213922735 0.00324491155333817 -0.003963002469390631
-0.0033212567213922735 0.003788745729252696 -0.003861789125949145
-0.0033212567213922735 0.004332580137997866 -0.00302066351287067
-0.003865091130137443 -0.009263278916478157 -0.0025522490032017235
-0.003865091130137443 -0.008719444274902344 -0.0032992677297443156
-0.003865091130137443 -0.008175610564649105 -0.0037488390225917105
-0.003865091130137443 -0.007631776388734579 -0.004462737124413253
-0.003865091130137443 -0.007087941747158766 -0.004779475741088391
-0.003865091130137443 -0.00654410757124424 -0.00495950784534216
-0.003865091130137443 -0.0060002729296684265 -0.004994884133338929
-0.003865091130137443 -0.0054564387537539005 -0.005096098873764277
-0.003865091130137443 -0.004912604112178087 -0.005163983907550574
-0.003865091130137443 -0.004368769936263561 -0.005199360195547343
-0.003865091130137443 -0.0038249355275183916 -0.005267246160656215
-0.0038650911301374427 -0.003281101118773222 -0.005368459038436414
-0.003865091130137443 -0.0027372667100280523 -0.0053051961585879335
-0.003865091130137443 -0.0021934323012828827 -0.005308279301971198
-0.003865091130137443 -0.001649597892537713 -0.005073745734989644
-0.003865091130137443 -0.0011057634837925434 -0.005044147837907077
-0.003865091130137443 -0.0005619291332550347 -0.004945632070302964
-0.003865091130137443 -1.809476270864252e-05 -0.005046844482421876
-0.003865091130137443 0.0005257396260276437 -0.004712068010121585
-0.003865091130137443 0.0010695740347728133 -0.0045273611322045335
-0.003865091130137443 0.001613408443517983 -0.004628573544323445
-0.003865091130137443 0.0021572427358478308 -0.004530057311058045
-0.003865091130137443 0.0027010771445930004 -0.004431541543453933
-0.003865091130137443 0.00324491155333817 -0.004146764986217023
-0.003865091130137443 0.003788745729252696 -0.004117167554795743
-0.003865091130137443 0.004332580137997866 -0.0034848486538976435
-0.003865091130137443 0.004876414779573679 -0.003520225174725056
-0.0044089253060519695 -0.008719444274902344 -0.0028342837467789654
-0.0044089253060519695 -0.008175610564649105 -0.0034666019491851334
-0.004408925306051969 -0.007631776388734579 -0.003993094433099032
-0.004408925306051969 -0.007087941747158766 -0.004488883540034295
-0.004408925306051969 -0.00654410757124424 -0.00487275654450059
-0.004408925306051969 -0.0060002729296684265 -0.0049360194243490705
-0.004408925306051969 -0.0054564387537539005 -0.005034536123275758
-0.004408925306051969 -0.004912604112178087 -0.004999160766601563
-0.004408925306051969 -0.004368769936263561 -0.005062424577772618
-0.004408925306051969 -0.0038249355275183916 -0.0052471314556896695
-0.004408925306051969 -0.003281101118773222 -0.005067097488790751
-0.004408925306051969 -0.0027372667100280523 -0.005165614653378726
-0.004408925306051969 -0.0021934323012828827 -0.004985581617802382
-0.004408925306051969 -0.001649597892537713 -0.004950205329805613
-0.004408925306051969 -0.0011057634837925434 -0.004725101869553328
-0.004408925306051969 -0.0005619291332550347 -0.004499998409301043
-0.004408925306051969 -1.809476270864252e-05 -0.004784775432199241
-0.004408925306051969 0.0005257396260276437 -0.004781692754477263
-0.004408925306051969 0.0010695740347728133 -0.004713806789368392
-0.004408925306051969 0.001613408443517983 -0.004612592980265618
-0.004408925306051969 0.0021572427358478308 -0.004511379636824132
-0.004408925306051969 0.0027010771445930004 -0.004443494137376548
-0.004408925306051969 0.00324491155333817 -0.004263461101800204
-0.004408925306051969 0.003788745729252696 -0.004195574205368758
-0.004408925306051969 0.004332580137997866 -0.004094361327588559
-0.004408925306051969 0.004876414779573679 -0.003914327826350928
-0.0044089253060519695 0.005420248955488205 -0.003464756533503533
-0.0049527594819664955 -0.008719444274902344 -0.003218289697542787
-0.0049527594819664955 -0.008175610564649105 -0.0032536662183701996
-0.004952759481966495 -0.007631776388734579 -0.004124633036553861
-0.004952759481966495 -0.007087941747158766 -0.004441372118890286
-0.004952759481966495 -0.00654410757124424 -0.004890943411737681
-0.004952759481966495 -0.0060002729296684265 -0.004958830308169127
-0.004952759481966495 -0.0054564387537539005 -0.005026716273277999
-0.004952759481966495 -0.004912604112178087 -0.005127929151058198
-0.004952759481966495 -0.004368769936263561 -0.005163305439054967
-0.004952759481966495 -0.0038249355275183916 -0.005231191404163838
-0.004952759481966495 -0.003281101118773222 -0.005201594904065133
-0.004952759481966495 -0.0027372667100280523 -0.005171997006982566
-0.004952759481966495 -0.0021934323012828827 -0.005352030508220197
-0.004952759481966495 -0.001649597892537713 -0.005067253019660712
-0.004952759481966495 -0.0011057634837925434 -0.0049687372520565995
-0.004952759481966495 -0.0005619291332550347 -0.004905473440885545
-0.004952759481966495 -1.809476270864252e-05 -0.004973359405994416
-0.004952759481966495 0.0005257396260276437 -0.004874842707067729
-0.004952759481966495 0.0010695740347728133 -0.004877925384789706
-0.004952759481966495 0.001613408443517983 -0.004779408685863019
-0.004952759481966495 0.0021572427358478308 -0.004716145806014539
-0.004952759481966495 0.0027010771445930004 -0.004481612704694272
-0.0049527594819664955 0.00324491155333817 -0.003053158521652222
-0.004952759481966495 0.003788745729252696 -0.004311581607908011
-0.004952759481966495 0.004332580137997866 -0.004281983710825444
-0.004952759481966495 0.004876414779573679 -0.004183467477560044
-0.004952759481966495 0.005420248955488205 -0.003799594240263105
-0.0049527594819664955 0.005964083597064018 -0.0030073309317231183
-0.005496594123542309 -0.008175610564649105 -0.0029150128830224284
-0.005496594123542308 -0.007631776388734579 -0.0036508780904114255
-0.005496594123542308 -0.007087941747158766 -0.0042586103081703195
-0.005496594123542308 -0.00654410757124424 -0.004813768435269595
-0.005496594123542308 -0.0060002729296684265 -0.004912284202873708
-0.005496594123542308 -0.0054564387537539005 -0.004811071790754796
-0.005496594123542308 -0.004912604112178087 -0.005194944795221091
-0.005496594123542308 -0.004368769936263561 -0.005159568041563035
-0.005496594123542308 -0.0038249355275183916 -0.005091681145131589
-0.005496594123542308 -0.003281101118773222 -0.005088600330054761
-0.005496594123542308 -0.0027372667100280523 -0.005187117494642735
-0.005496594123542308 -0.0021934323012828827 -0.004580394830554725
-0.005496594123542308 -0.001649597892537713 -0.0050072972662746915
-0.005496594123542308 -0.0011057634837925434 -0.004971921909600497
-0.005496594123542308 -0.0005619291332550347 -0.00496883923187852
-0.005496594123542308 -1.809476270864252e-05 -0.0049009532667696485
-0.005496594123542308 0.0005257396260276437 -0.004720920231193305
-0.005496594123542308 0.0010695740347728133 -0.004784183111041785
-0.005496594123542308 0.001613408443517983 -0.003913216758519412
-0.005496594123542308 0.0021572427358478308 -0.004621024243533612
-0.005496594123542308 0.0027010771445930004 -0.0045198118314147
-0.005496594123542308 0.00324491155333817 -0.004516728688031436
-0.005496594123542308 0.003788745729252696 -0.004067157395184041
-0.005496594123542308 0.004332580137997866 -0.004351933952420951
-0.005496594123542308 0.004876414779573679 -0.004081137478351594
-0.005496594123542309 0.005420248955488205 -0.0035122972913086423
-0.005496594123542309 0.005964083597064018 -0.002270369557663799
-0.006040428299456835 -0.008175610564649105 -0.0026280549354851255
-0.006040428299456834 -0.007631776388734579 -0.003746162401512266
-0.006040428299456834 -0.007087941747158766 -0.004315002355724574
-0.006040428299456834 -0.00654410757124424 -0.004805286880582572
-0.006040428299456834 -0.0060002729296684265 -0.004906499292701484
-0.006040428299456834 -0.0054564387537539005 -0.005007713101804257
-0.006040428299456834 -0.004912604112178087 -0.005075599066913129
-0.006040428299456834 -0.004368769936263561 -0.0049770823679864415
-0.006040428299456834 -0.0038249355275183916 -0.004947484470903874
-0.006040428299456834 -0.003281101118773222 -0.0051275184378027925
-0.006040428299456834 -0.0027372667100280523 -0.0050979214720428
-0.006040428299456834 -0.0021934323012828827 -0.0051010032184422025
-0.006040428299456834 -0.001649597892537713 -0.005104084964841605
-0.006040428299456834 -0.0011057634837925434 -0.005107166711241008
-0.006040428299456834 -0.0005619291332550347 -0.0050086500123143205
-0.006040428299456834 -1.809476270864252e-05 -0.004979053046554328
-0.006040428299456834 0.0005257396260276437 -0.0035505993291735658
-0.006040428299456834 0.0010695740347728133 -0.00483229011297226
-0.006040428299456834 0.001613408443517983 -0.004867666866630317
-0.006040428299456834 0.0021572427358478308 -0.004769149702042342
-0.006040428299456834 0.0027010771445930004 -0.004584442824125291
-0.006040428299456834 0.00324491155333817 -0.0044859261251986035
-0.006040428299456834 0.003788745729252696 -0.004456328693777324
-0.006040428299456834 0.004332580137997866 -0.004426730796694756
-0.006040428299456834 0.004876414779573679 -0.0038715729024261245
-0.006040428299456835 0.005420248955488205 -0.0035367957316339025
-0.006040428299456835 0.005964083597064018 -0.0028289868496358403
-0.006040428299456835 0.006507917772978544 -0.002864363370463253
-0.006040428299456835 0.00705175194889307 -0.0009417434339411564
-0.006584262941032648 -0.007631776388734579 -0.002523822709918023
-0.006584262941032647 -0.007087941747158766 -0.0037814865354448566
-0.006584262941032647 -0.00654410757124424 -0.004363611340522767
-0.006584262941032647 -0.0060002729296684265 -0.004826317541301251
-0.006584262941032647 -0.0054564387537539005 -0.004855914507061244
-0.006584262941032647 -0.004912604112178087 -0.004820538684725762
-0.006584262941032647 -0.004368769936263561 -0.005204412154853345
-0.006584262941032647 -0.0038249355275183916 -0.004333443939685822
-0.006584262941032647 -0.003281101118773222 -0.004518151283264161
-0.006584262941032647 -0.0027372667100280523 -0.004945054184645415
-0.006584262941032647 -0.0021934323012828827 -0.0050435708835721025
-0.006584262941032647 -0.001649597892537713 -0.005040488205850125
-0.006584262941032647 -0.0011057634837925434 -0.0050700861029326924
-0.006584262941032647 -0.0005619291332550347 -0.004890052136033774
-0.006584262941032647 -1.809476270864252e-05 -0.004822167567908765
-0.006584262941032647 0.0005257396260276437 -0.005056699737906457
-0.006584262941032647 0.0010695740347728133 -0.004988813772797585
-0.006584262941032647 0.001613408443517983 -0.004808781202882529
-0.006584262941032647 0.0021572427358478308 -0.004318496212363244
-0.006584262941032647 0.0027010771445930004 -0.004001756664365531
-0.006584262941032647 0.00324491155333817 -0.004286534618586303
-0.006584262941032647 0.003788745729252696 -0.004106501583009959
-0.006584262941032647 0.004332580137997866 -0.003926468547433616
-0.006584262941032648 0.004876414779573679 -0.003476897021755577
-0.006584262941032648 0.005420248955488205 -0.002697678981348873
-0.006584262941032648 0.005964083597064018 -0.0012960991589352497
-0.006584262941032648 0.006507917772978544 -0.00013635952200274996
-0.007128097116947174 -0.007087941747158766 -0.0035003109369426974
-0.007128097116947173 -0.00654410757124424 -0.003949882928282023
-0.007128097116947173 -0.0060002729296684265 -0.004760446958243848
-0.007128097116947173 -0.0054564387537539005 -0.004940480925142766
-0.007128097116947173 -0.004912604112178087 -0.004841965157538653
-0.007128097116947173 -0.004368769936263561 -0.004743447992950679
-0.007128097116947173 -0.0038249355275183916 -0.0046449312940239915
-0.007128097116947173 -0.003281101118773222 -0.004712817259132863
-0.007128097116947173 -0.0027372667100280523 -0.004748193547129632
-0.007128097116947173 -0.0021934323012828827 -0.004718595650047065
-0.007128097116947173 -0.001649597892537713 -0.004721678793430329
-0.007128097116947173 -0.0011057634837925434 -0.004789564758539201
-0.007128097116947173 -0.0005619291332550347 -0.004792646504938603
-0.007128097116947173 -1.809476270864252e-05 -0.004893858917057515
-0.007128097116947173 0.0005257396260276437 -0.004659326747059823
-0.007128097116947173 0.0010695740347728133 -0.004474619869142772
-0.007128097116947173 0.001613408443517983 -0.004139842931181193
-0.007128097116947173 0.0021572427358478308 -0.003905308898538352
-0.007128097116947173 0.0027010771445930004 -0.003908391576260329
-0.007128097116947173 0.00324491155333817 -0.004009604454040528
