ply
format ascii 1.0
element vertex 766
property float x
property float y
property float z
end_header
0.013739724182229813 0.0019248816002510293 0.08107506130181402
0.0186593227494428 0.0004650433869763781 0.07983018668562829
0.017549887703026054 0.0006914488428557963 0.079833960059701
0.016995619859694836 0.0008058985878732512 0.07982266435246305
0.016447599757394293 0.00093768488174506 0.07962810936951749
0.01589098919756585 0.0010456344478278097 0.07968552540544963
0.015323057540262693 0.0011221728008057683 0.0800749819026666
0.014748125748386928 0.0011792876684719768 0.0806697586446367
0.014172289426677207 0.0012338938170922582 0.08129105515892311
0.013624269654563918 0.0013656800076649826 0.08109650052847034
0.02297230917305452 -0.001025578881944031 0.08010925720892614
0.020159843431551826 -0.0005674384589258973 0.08125899056962314
0.019046078188712994 -0.00035304906899740265 0.08138978174382665
0.018493935347838587 -0.00023270322164647625 0.0813161598339854
0.018004676513058974 6.212403504294965e-05 0.07939814017785758
0.017443942758610012 0.0001586332485060942 0.07957648928022834
0.016891799909837107 0.0002789790739416032 0.07950286760204943
0.016340901415294855 0.0004027788851820053 0.07939273570174728
0.015785275552596893 0.0005134606245995182 0.07942127062619614
0.015231943736919853 0.0006305081826394488 0.0793825145892348
0.014669618523165655 0.0007226016803027688 0.07960754110356563
0.014068890284791153 0.000708141890923053 0.08095891613435559
0.024487372527502757 -0.0020177101465849324 0.08111152533071418
0.023414407183342995 -0.0016901160038636596 0.0800456577701865
0.022833053162960876 -0.0016508204645286038 0.08082879811322863
0.022309429795267056 -0.0014513408219639333 0.07991867489321793
0.02173545016663219 -0.001391584050572615 0.08048552474085735
0.02115874602023241 -0.0013393868165831636 0.0811322845413857
0.02062308600555731 -0.0011733098912148025 0.08057524903066153
0.020068817210640313 -0.001058860067971885 0.08056395446840381
0.019514549351512114 -0.0009444103667852668 0.08055265922449052
0.019003648993431592 -0.0007096317580697394 0.07926939761271008
0.0184306815960712 -0.0006470664161940445 0.07980655877397087
0.01789903377285496 -0.00046985305347161006 0.07913180576583423
0.017336375566565938 -0.00037868348794555147 0.07936659893249265
0.01678994737961728 -0.00024248157217519536 0.0791253665442527
0.016235679080239408 -0.00012803173325646316 0.07911407083034902
0.015679068520410965 -2.00821671737135e-05 0.07917148686628117
0.015125940714890283 9.753144421599524e-05 0.07912674722290201
0.014558009285610452 0.0001740697502433143 0.07951620372345183
0.01395319760177768 0.00014827989758863652 0.0809873459799859
0.023832220205009774 -0.0024220350610944363 0.08069433568256455
0.02328132218231116 -0.0022982352999244733 0.08058420332560344
0.02274750056558558 -0.002127054776072425 0.07997322094138658
0.02219187383028677 -0.002016372739275263 0.08000175469419236
0.02165105186676224 -0.001864615609953487 0.0795960920880711
0.021095426004064277 -0.001753933870535974 0.07962462701251997
0.020534693177505614 -0.001657424801044546 0.07980297566489748
0.019972367035861117 -0.0015653311594095078 0.08002800262922156
0.019426271809853315 -0.0014282053991635651 0.07977700451530341
0.018897878850547563 -0.0012419623422880426 0.07900679991412973
0.018343393348465374 -0.001128116520463891 0.07900188812582225
0.017792494830227643 -0.0010043167749697445 0.0788917569205071
0.017238009312348472 -0.0008904709969764293 0.0788868455955243
0.016684677724694758 -0.0007734234858871401 0.0788480895618958
0.016130191727073452 -0.0006595776797388049 0.07884317892523429
0.015573417944902634 -0.0005520809957836326 0.07890538226329287
0.015012683962430341 -0.00045557173536984845 0.07908373136233077
0.014454733352305026 -0.0003513403173094846 0.07918045099814051
0.013870655767475731 -0.0003196006508216706 0.08004346329644955
0.024810308540787508 -0.003251735335563232 0.0811781105219148
0.02369477873133802 -0.00304224197070865 0.08136065633561551
0.02318565913967576 -0.0028025223883954443 0.0800251649448914
0.022647157026513386 -0.0026443285252761174 0.07955146125805618
0.022092888255291872 -0.0025298786362869443 0.07954016600081146
0.02154090863675984 -0.0024090799068084406 0.07946175678884376
0.02099010580668984 -0.0022850160210122206 0.07934883243743658
0.020427448544088102 -0.00219384655562704 0.07958362469077708
0.019874320093989893 -0.0020762326938083223 0.0795388838790877
0.019340029401606493 -0.0019063536828424366 0.07894165945754614
0.01878922657153649 -0.0017822897970462166 0.07882873510613897
0.018238423757263478 -0.00165822586741916 0.07871581029140712
0.017686443722177245 -0.001537426934462285 0.07863739991446204
0.01712858834417301 -0.001432931282198572 0.07873132639751407
0.016574320477146312 -0.0013184816029273728 0.07872003138526311
0.016018898231745994 -0.0012072335409354547 0.07874258084332979
0.015463476418696855 -0.0010959856385910679 0.07876513100304919
0.014902577413025954 -0.000999934257020326 0.07894832022322562
0.014333126550791733 -0.0009276118200896438 0.07938234160691429
0.013758087416006448 -0.0008707937701746982 0.07998025667352009
0.024152910937597718 -0.0036622900804022737 0.08082677483038642
0.02361712492635677 -0.0034965600307597117 0.08027340802687888
0.02309478706968827 -0.0032935162851722415 0.07932560760573591
0.02253801331121293 -0.0031860195354708135 0.0793878102488075
0.021991917149416344 -0.0030488936531685717 0.07913681281654492
0.021438585553864138 -0.0029318461639947 0.07909805701457875
0.02088410002018798 -0.002818000429832223 0.07909314615292061
0.020329615430199108 -0.0027041547958106243 0.07908823437794457
0.019767289288554608 -0.002612061154175588 0.07931326134226867
0.01923346767182903 -0.0024408806303235376 0.0787022789580518
0.018681324830954624 -0.0023205347829726095 0.07862865704821055
0.018144454648971776 -0.002157812909448005 0.07810708891161722
0.017577275474159857 -0.002079186013947484 0.07847446844842192
0.01702513264118394 -0.0019588401446811385 0.07840084630691835
0.01644933229160776 -0.001904135206033027 0.07902109779741662
0.015906776271464786 -0.001757188088484846 0.07866628159194748
0.01535229074568712 -0.0016433423324069517 0.078661370498627
0.014795516719695992 -0.001535845645331978 0.07872357429667741
0.01420637820205195 -0.0015181492304232828 0.07973503350681393
0.024600516716604404 -0.004311545164464666 0.08060163284475536
0.024042661338600165 -0.004207049512200952 0.08069555932780738
0.023524008262841293 -0.0039937818512246195 0.07963968448972161
0.022956076825662967 -0.00391724356711272 0.08002914122193377
0.022433485000874623 -0.003714904489898349 0.07908878967146943
0.02188035654287793 -0.0035972906499950504 0.07904404909144237
0.021335541788839948 -0.003456612049730028 0.0787554948066299
0.020777686434531185 -0.003352116331720059 0.07884942059469491
0.020224559800721117 -0.003234502867421867 0.0788046800413307
0.019669137083477152 -0.0031232547553595082 0.07882722995605634
0.019130634954517795 -0.0029650609360710196 0.07835352673254578
0.018575213157265645 -0.0028538129898957945 0.07837607642894051
0.018023233554530595 -0.0027330142165864525 0.07829766675364816
0.01746057490009341 -0.0026418445352436983 0.0785324596819785
0.016909772117414363 -0.002517780517954967 0.07841953394059734
0.016361752471160475 -0.0023859943179844354 0.07822497896431749
0.015795554194304267 -0.002304645790465549 0.07856358881922143
0.01522610334786703 -0.0022323233097040294 0.07899760973958544
0.01468452846950008 -0.0020826545632572817 0.07861402339222374
0.01411156101685024 -0.002020089374789519 0.07915118617512086
0.013519720304129807 -0.0020098895405627534 0.08024189057808041
0.024467985222163313 -0.004918128682771048 0.08112394408298061
0.023938601598416178 -0.004734634356329123 0.08038279561418335
0.023407396499421716 -0.004556193955552894 0.07969507091199779
0.022854064911768 -0.004439146444463604 0.07965631487836929
0.02232114750653686 -0.004265457065393414 0.07901881202184982
0.021773291971388272 -0.004133212798777285 0.07881941691110002
0.02121880641401664 -0.004019367130361064 0.07881450674442889
0.02067095180675834 -0.003887123007716653 0.07861511118368583
0.020124857532336317 -0.0037499973256961703 0.07836411192478743
0.019572713755673116 -0.003629651356288944 0.07829049069660177
0.019019382168019405 -0.0035126038451996537 0.07825173466297328
0.018467239319246504 -0.003392258019764143 0.07817811298479435
0.01791046550548172 -0.0032847614234706463 0.07824031724950228
0.01735832220066216 -0.00316441550413386 0.07816669556465766
0.016797588446213194 -0.0030679062906707154 0.07834504466702842
0.016244256858559483 -0.0029508587795814252 0.07830628863339992
0.015681931165063154 -0.0028587652537630836 0.07853131583605205
0.015121197410614188 -0.002762256040299939 0.0787096649384228
0.014563246611958007 -0.0026580244657118425 0.07880638341258803
0.013987446278178807 -0.0026033194832328953 0.07942663443976163
0.013403368685451021 -0.0025715798386604996 0.08028964696973298
0.024932687957049855 -0.005519946182188971 0.08039734657447328
0.024368255658568524 -0.005433699071731786 0.08068417376540336
0.0238402564904417 -0.005246363388783505 0.07990241929108828
0.023298681840098076 -0.005096694689287398 0.07951883294705944
0.022755489294195658 -0.004951515056497526 0.07918269938882168
0.022213914643852035 -0.004801846357001418 0.07879911304479283
0.021659645848935045 -0.004687396533758502 0.07878781848253512
0.021114831110694048 -0.004546717889662643 0.07849926373439799
0.020561703556892172 -0.004429104259477317 0.07845452339936468
0.02001090164681398 -0.0043050405395682325 0.07834159882962659
0.01945892116357958 -0.004184241490794661 0.07826318821435348
0.01891734648164199 -0.0040345728789602285 0.07787960279697397
0.018351148645035453 -0.003953224489173455 0.07821821312186829
0.01781548769062232 -0.003787147452706507 0.07766117840863085
0.017246036419732397 -0.0037148247903820344 0.07809519839567981
0.01668513758679538 -0.0036187736091698635 0.07827838924082545
0.01613086974346416 -0.0035043238641524078 0.07826709353358748
0.015574258735487553 -0.0033963741822529625 0.07832450933119157
0.015009826425158482 -0.003310127104668905 0.07861133686961515
0.01444539391050156 -0.0032238799143879523 0.07889816370971887
0.013867845592996185 -0.003174024945561342 0.07956968300132002
0.013309623367119508 -0.0030705461421305065 0.0796743590749823
0.012729262811710749 -0.0030284937620970306 0.08042835780058044
0.024822529435566454 -0.006064452907294541 0.08026345977352405
0.02425696852942582 -0.005981337269100958 0.08058338896365788
0.023724919290919737 -0.005805239045825894 0.07992042282589576
0.02319371420772226 -0.005626798601218828 0.07923269766038554
0.02263694042555144 -0.005519301917263656 0.07929490099844413
0.02210489116729912 -0.00534320374877714 0.07863193543983785
0.021552747414331403 -0.005222857713623658 0.07855831351666517
0.021000604565558502 -0.0051025118881881494 0.07848469183848626
0.02045274994250322 -0.004970267809374576 0.07828529674106789
0.019901852839796414 -0.0048464682140917465 0.07817516416577587
0.019346226065005138 -0.004735786286871679 0.07820369907689331
0.018798371434051366 -0.004603542229973524 0.07800430421113727
0.01824388593986767 -0.004489696386233952 0.07799939219116746
0.017685935313945376 -0.004385465012004426 0.07809611229030188
0.017125201119246737 -0.004288955660809167 0.07827446092268224
0.0165672505328169 -0.004184724177002546 0.078371179863505
0.01600929996218405 -0.004080492649365088 0.07846789834100308
0.015463204264332607 -0.003943366839048706 0.07821690068374387
0.014873103955185613 -0.0039283390427605255 0.07925656918459588
0.014318618225080097 -0.003814493173985735 0.07925165739295555
0.013742817891300897 -0.003759788191506788 0.07987190842012915
0.025256169451874682 -0.006752460578511661 0.08044795958774426
0.0247081488777305 -0.0066206742345694125 0.08025340506145766
0.024171084369142795 -0.006458491546091253 0.07973753651326099
0.023619104758509254 -0.006337692794697329 0.07965912706963095
0.023087457383441177 -0.00616047954779159 0.07898437429982237
0.02253943773718729 -0.006028693347821058 0.07878981932354254
0.021991418098831893 -0.005896907125935107 0.07859526411560035
0.021438289640835197 -0.005779293286031808 0.07855052353557329
0.020890269978784327 -0.005647507129892114 0.07835596902261811
0.02033946716451131 -0.005523443200265057 0.07824304420788626
0.019802403575915412 -0.005361260677674032 0.07772717544135868
0.019229435234867732 -0.005298695235657457 0.0782643375159374
0.01867745560053871 -0.005177896550009791 0.07818592876729437
0.018132640862297718 -0.005037217905913929 0.07789737401915722
0.01757174207675165 -0.004941166593209246 0.07808056347432883
0.017018614082700105 -0.004823552825291805 0.07803582266930516
0.016463192269650966 -0.0047123049229474195 0.07805837282902456
0.015908924378928792 -0.004597855309422476 0.0780470785117606
0.015340992485703815 -0.004521316931409299 0.07843653523730705
0.014758640597455387 -0.0044847901093697014 0.07924894298877394
0.014194208090696957 -0.00439854289717333 0.07953576959721533
0.01366256071562888 -0.004221329650267591 0.07886101682740673
0.013091845333979363 -0.004152514771421237 0.07933211645759596
0.024601184879721908 -0.007156317525324638 0.08002582029856063
0.024058629307727102 -0.007009370523593152 0.07967100433141955
0.023501855486063823 -0.006901873949215072 0.07973320882778981
0.022972471858367444 -0.006718379633730858 0.07899206047482371
0.022424617235312163 -0.006586135554917284 0.07879266537740533
0.021882061663317354 -0.006439188553185799 0.07843784941026424
0.021331162712728446 -0.006315388648044117 0.07832771750329637
0.02078330810547015 -0.006183144525399706 0.07812832194255331
0.020219369443008294 -0.006095527756061889 0.07840067081678136
0.019676814759411326 -0.0059485810078792134 0.0780458555579587
0.019123482259664298 -0.005831533308987368 0.07800709951099878
0.01857562764450751 -0.005699289208258376 0.07780770418191807
0.0180222960568538 -0.005582241697169083 0.07776894814828957
0.017452044777211812 -0.005512140124939315 0.07822644572955335
0.016904189706008366 -0.005379895930309045 0.07802705039380693
0.016346239127477024 -0.005275664424587006 0.07812376910296737
0.015785505373028058 -0.005179155211123862 0.07830211820533811
0.015213816056460225 -0.005113042304605395 0.07880177994631063
0.014648255154268836 -0.005029926655454102 0.0791217090206133
0.014061083441213248 -0.005006772399635433 0.08007547527148821
0.013483977399781489 -0.004955690276938333 0.08073402263071237
0.025044680366112626 -0.00781697988220359 0.07992125972927701
0.024489257680462635 -0.007705731682479556 0.0799438087173533
0.023944442902729176 -0.007565053147960791 0.07965525512752784
0.02340594077376982 -0.0074068593286722995 0.07918155190401728
0.02286274828315685 -0.007261679542474498 0.07884541672414319
0.02231793354491585 -0.007121000898378638 0.07855686197600606
0.02176713071484585 -0.0069969370125824186 0.07844393762459886
0.02121632702007349 -0.006872872807491133 0.07833101186988627
0.020665524197901984 -0.006748808899779496 0.07821808728681676
0.020113544579369945 -0.006628010170300991 0.07813967807484906
0.019561565904525194 -0.006507211540963366 0.07806126794956346
0.019010762170260372 -0.006383147445449174 0.07794834335316253
0.01845415160253344 -0.006275197901281843 0.07800575962075701
0.017882268383813432 -0.00620962436137277 0.07851112188344124
0.017349315332686764 -0.006036033886587204 0.07787466451903388
0.016793893063590967 -0.005924785890341541 0.07789721467208756
0.016237282511661018 -0.005816836302343374 0.07795463047635738
0.015680671959731066 -0.005708886714345206 0.07801204628062719
0.015125249690635272 -0.005597638718099544 0.07803459643368088
0.014531141789200345 -0.005593730520362774 0.07919180739105507
0.013937033616300384 -0.0055898223962101675 0.08034901961923925
0.013385054001717595 -0.005469023655773953 0.08027061029144039
0.0243761146909762 -0.008258519309789455 0.07989745481115973
0.023835292727451673 -0.008106762180467679 0.07949179220503848
0.023292737139659882 -0.00795981522256703 0.07913697670122205
0.022740594290886984 -0.007839469397131522 0.07906335502304315
0.02219977232736245 -0.007687712267809746 0.0786576924169219
0.02165721675536764 -0.007540765266078261 0.0783028764497808
0.021096482088825367 -0.007444255864812561 0.07848122553882013
0.020548627465770086 -0.0073120117859989875 0.07828183044140175
0.02000077286641028 -0.007179767641439157 0.07808243464899636
0.019452919147549826 -0.007047523772343555 0.07788303979657175
0.018900775386683607 -0.0069271777591054925 0.07780941810506142
0.018340041632234644 -0.006830668545642348 0.07798776720743217
0.017792187017077857 -0.006698424444913354 0.07778837187835144
0.01723541323490704 -0.006590927760958182 0.07785057521641003
0.016687558163703597 -0.0064586835663279114 0.07765117988066361
0.016111757814127416 -0.006403978627679802 0.07827143137116188
0.015547819206955004 -0.006316361704934054 0.07854377862375359
0.014983880088446495 -0.00622874484169496 0.0788161274913159
0.014400881937663569 -0.006194011161129375 0.07964749008659058
0.013872488750334486 -0.006007768057303214 0.07887728548208406
0.024264291665920847 -0.008807644519986741 0.07981238642240322
0.023727227125739173 -0.008645461919170257 0.07929651880085588
0.023182412387498175 -0.008504783275074396 0.07900796405271875
0.02263921984159576 -0.008359603642284524 0.078671830494481
0.022088417066815202 -0.008235539603080374 0.07855890452143748
0.02153643743248618 -0.008114740917432708 0.07848049577279445
0.0209900083492412 -0.007978538770028961 0.07823926290789841
0.020438028730709167 -0.007857740040550457 0.07816085369593072
0.019891600543760508 -0.007721538124780101 0.07791962130769077
0.019336179658601668 -0.007610290366407431 0.07794217101741693
0.0187841991437733 -0.007489491405295534 0.07786376132879315
0.018229931268848115 -0.007375041747939754 0.07785246654820453
0.017679128478270578 -0.00725097775256644 0.07773954103848568
0.017118229661130545 -0.007154926527523431 0.07792273142030662
0.01656742641450635 -0.007030862438248841 0.07780980590392206
0.016006527597366316 -0.006934811213205832 0.07799299628574302
0.015443869422671263 -0.006843641560018099 0.07822778852575209
0.014874418159679832 -0.006771318875778209 0.07866180828113871
0.014284800764349084 -0.00675495117079029 0.07968731294690672
0.024124100201846663 -0.009435481644228152 0.08055936413936937
0.023609454718375722 -0.00921109438470041 0.07938594684476141
0.023068632746952703 -0.00905933727729405 0.07898028447030249
0.02252253755253887 -0.008922211429386432 0.07872928542973501
0.02197468292948359 -0.008789967350572858 0.07852989033231662
0.02142682830642831 -0.008657723271759284 0.07833049523489824
0.02087897277127972 -0.008525479005143157 0.07813110012414844
0.020328074748581105 -0.008401679243973193 0.07802096776718731
0.019777176733780984 -0.00827787946088781 0.07791083517856387
0.019223846026626617 -0.008160832225262747 0.07787208008491614
0.0186777498885255 -0.00802370627721425 0.07762108195766655
0.01812212402582754 -0.007913024537796739 0.07764961688211543
0.01756417346309318 -0.00780879298824386 0.07774633512795116
0.017008547600395222 -0.007698111248826347 0.07777487005240004
0.016444608513480678 -0.007610494297925578 0.07804721799331303
0.015880669851018825 -0.007522877528587761 0.07831956686754107
0.015294508275104316 -0.0074969211923684555 0.07924371254409632
0.014728946932663255 -0.007413805405485048 0.07956364114840861
0.024573825328796782 -0.010078859131929973 0.08027208717866727
0.02402580476255109 -0.009947072766072306 0.08007753242071833
0.023496636135763038 -0.009762981901933181 0.07933007810319705
0.022960975173451414 -0.00959690488738165 0.07877304362162194
0.022412955527197527 -0.00946511868741112 0.0785784886453421
0.021862152736619987 -0.009341054692037807 0.07846556313562325
0.021314133090366096 -0.009209268492067275 0.0782710081593434
0.020772557488436705 -0.009059599714345706 0.07788742296029481
0.02021470211833096 -0.008955104040166575 0.0779813492116845
0.0196580915742995 -0.008847154430252989 0.07803876478429198
0.019111664299444157 -0.008710952702285186 0.07779753240938346
0.01855853581775198 -0.008593338928128143 0.0777527925243434
0.018007733042971426 -0.008469274888923994 0.07763986655129988
0.01744683424162838 -0.008373223620050146 0.07782305646979616
0.016893706656232535 -0.008255610077526496 0.0777783170614122
0.016337095648255927 -0.00814766039562705 0.0778357328590163
0.015776196870608356 -0.008051609061006947 0.07801892208252559
0.015208265441328524 -0.007975070754979628 0.07840837858307541
0.01462184944124751 -0.007949818993232147 0.07933997312364356
0.014025433624072218 -0.00795231441509526 0.08056487511994546
0.023909748402350012 -0.010507943928445354 0.08011662751381307
0.0233768309734234 -0.01033425461512142 0.0794791253522806
0.02283996081513603 -0.010171532675850557 0.07895755652070026
0.022297405243141225 -0.010024585674119072 0.07860274055355919
0.021749550620085944 -0.009892341595305498 0.0784033454561408
0.021192776837915123 -0.009784844911350326 0.0784655487941994
0.02065347334786072 -0.009628871856621871 0.07801532268158186
0.020105618764297905 -0.009496627668231205 0.0778159264258518
0.019543293550543704 -0.009404534170567884 0.07804095294018265
0.01900642428855267 -0.009241812462930415 0.07751938458525842
0.018453091788805637 -0.009124764764038569 0.0774806285382985
0.017881402888792 -0.00905865206099847 0.07798029144424841
0.017333548305229183 -0.008926407872607803 0.07778089518851836
0.016769609634868836 -0.008838791125185404 0.07805324429440873
0.01621512364514602 -0.00872494529712165 0.07804833342608487
0.015652798415594842 -0.008632851843289166 0.0782733604037404
0.015068721188597525 -0.008601112203396474 0.07913637224372404
0.014478620419454628 -0.008586084324164725 0.0801760408537415
0.02435067148853289 -0.011175743801427145 0.08008751460601829
0.02378977179484276 -0.011079692289962197 0.08027070393202732
0.023273945431490795 -0.01085858153893906 0.0791319217779477
0.02273828446917917 -0.010692504524387527 0.0785748872963726
0.022184016625847954 -0.010578054779370072 0.07856359158913466
0.021635996979594063 -0.01044626857939954 0.07836903661285481
0.02108797731754319 -0.010314482423259845 0.07817448209989963
0.0205337085226262 -0.01020003260001693 0.07816318753764191
0.02000453987609192 -0.010015941790666352 0.07741573379927646
0.019432656641574925 -0.009950368294588117 0.07792109652528537
0.018878389710337024 -0.009835918737373214 0.07790980083137883
0.01833519628393526 -0.009690738829119113 0.0775736663331603
0.017774297498389196 -0.00959468751641443 0.07775685578833193
0.017232722816451607 -0.009445018904579995 0.07737327037095242
0.016664791387171776 -0.009368480598552676 0.07776272687150224
0.01610936911807598 -0.009257232602307014 0.07778527702455591
0.015536401681223125 -0.009194667370008413 0.07832243934412839
0.014952035250932024 -0.00916373016317167 0.0791939335004614
0.014366648866706924 -0.009135621595103238 0.08009532946585438
0.013810038322675466 -0.009027671985189651 0.08015274503846186
0.023688013911223608 -0.01160089039555885 0.0798904259216252
0.02315114375293624 -0.01143816845628799 0.07936885709004485
0.022624742232583324 -0.011246399886809328 0.0785402436963312
0.022070256730501135 -0.011132554064985178 0.07853533190802373
0.021516925127050435 -0.011015506597726724 0.0784965763377199
0.02096602709645333 -0.01089170685847218 0.07838644421242112
0.020426723598500434 -0.010735733825659143 0.07793621833146593
0.01988240249232967 -0.010593685533640363 0.07763318538245792
0.01932677664542869 -0.010483003750392012 0.07766171984358211
0.018771151694824045 -0.010372322198777052 0.07769025478136242
0.018210417036180256 -0.010275812775595935 0.0778686036387394
0.017664321833867933 -0.010138686949603735 0.07761760482983425
0.01710038316350759 -0.010051070202181336 0.07788995393572462
0.016544757324505107 -0.009940388397017566 0.07791848816518648
0.015974505573019476 -0.009870286774717359 0.07837598620310923
0.015393751360189683 -0.009829326989443415 0.07914153422435939
0.014806579887005162 -0.009806172747702258 0.08009530013107366
0.014239400680599276 -0.009727545939863412 0.08046268059452769
0.024135345863685532 -0.012250908044655414 0.07967334091525771
0.02358454212152222 -0.012126843971056641 0.07956041655051911
0.02305158906249706 -0.011953253518186494 0.07892395941777408
0.022508396563985598 -0.011808073753904108 0.07858782446956232
0.021956416929656577 -0.011687275068256441 0.07850941572091931
0.02140561411538356 -0.011563211138629384 0.07839649090618746
0.020857594469129673 -0.011431424938658853 0.07820193592990761
0.020312778818795365 -0.01129074610676044 0.07791338116843906
0.0197663506397452 -0.011154544169074665 0.07767214854853677
0.01921092882669606 -0.01104329626673028 0.07769469870825617
0.01865550794153722 -0.010932048508357611 0.07771724841798232
0.018102379491439013 -0.010814434646538891 0.07767250760629293
0.017546957678389874 -0.010703186744194506 0.07769505776601232
0.016991535865340735 -0.01059193884185012 0.07771760792573172
0.01646578061542081 -0.010398377108982029 0.07687003945654794
0.015871672210548273 -0.010394468948836492 0.07802725179723043
0.015283148235093849 -0.010375067404775312 0.07902068651949143
0.014696732683160997 -0.010349815758844525 0.07995228129838762
0.014153539720704385 -0.010204635922576283 0.07961614657517248
0.02347256078649186 -0.012676408384241222 0.0794799920764323
0.022930005214497055 -0.012529461382509738 0.07912517610929122
0.0224016122551913 -0.012343218325634214 0.07835497150811754
0.021828519816800077 -0.012280999926752068 0.07889580011578355
0.021290481439914764 -0.012121519365569624 0.07840849507001062
0.020728156226160564 -0.012029425867906304 0.07863352158434146
0.02019523788514064 -0.011855736366779815 0.07799601940947758
0.01964914265913284 -0.011718610606533873 0.07774502129555941
0.01909351683592734 -0.011607928757539266 0.07777355506169661
0.018536743926357374 -0.01150043237096374 0.0778357595713983
0.017979969247890228 -0.011392935455375177 0.0778979624328008
0.01742663760494707 -0.011275888097693818 0.07785920802080865
0.01685945888618181 -0.011197261296094572 0.07822658756427905
0.016301508315548958 -0.011093029768457115 0.07832330604177713
0.015725707525723102 -0.01103832469207689 0.07894355706228501
0.015138536016995368 -0.011015170548955115 0.0798973240114798
0.014568284737353379 -0.010945068976725349 0.08035482159274358
0.023910210907303366 -0.013353289535553628 0.07954687505899337
0.023367017480901604 -0.013208109627299527 0.07921074056077484
0.022825442798964014 -0.013058441015465095 0.07882715514339533
0.02228225030045255 -0.01291326125118271 0.07849102019518357
0.021729122762447664 -0.012795647577166547 0.07844627939682561
0.02117714312811864 -0.01267484889151888 0.07836787064818258
0.02063232838987764 -0.01253417024742302 0.07807931590004545
0.020081524703003777 -0.012410106020416317 0.07796638991367051
0.019520625885863743 -0.012314054795373307 0.07814958029549146
0.01897905123552012 -0.012164386095877201 0.07776599395146261
0.018423630334564296 -0.012053138381335367 0.07778854412451343
0.017857431593762935 -0.011971789781830623 0.078127154204414
0.017315856911825345 -0.01182212116999619 0.07774356878703449
0.016751424625191753 -0.011735874026665875 0.07803039563047107
0.0161764928254175 -0.011678759180915085 0.07862517260410348
0.015653900536684005 -0.011476420031714856 0.07768482127863577
0.015149014256471994 -0.011224954562972143 0.07622516710104743
0.01445687176597769 -0.011493056389252913 0.08025772704461535
0.023249641255000605 -0.013772642932842454 0.07928854724065335
0.022708819307273063 -0.013620885759689842 0.07888288417120742
0.02216626371948127 -0.013473938801789192 0.078528068667391
0.021618409151715437 -0.013341694569567688 0.07832867194833629
0.021057675389367977 -0.013245185378019962 0.07850702128236936
0.020519637012482665 -0.013085704816837518 0.07801971623659643
0.019968738077690742 -0.012961904867865 0.0779095838663039
0.019411964256027463 -0.012854408293486922 0.07797178836267414
0.01885863266837375 -0.01273736078239763 0.07793303232904565
0.018306490739592656 -0.012617015122849257 0.07785941043253583
0.017739311108734078 -0.012538388133447459 0.07822678996267482
0.01718597946579092 -0.012421340775766098 0.07818803555068267
0.016629205699417088 -0.012313844047980088 0.07825023842541659
0.016062026988550318 -0.012235217224465425 0.07861761773722466
0.015540729791895802 -0.01202928466980609 0.0776392814338829
0.01489642320857204 -0.012164659400648347 0.08026881690918729
0.02368643975198427 -0.014451886978765406 0.0793804089942139
0.0231384191620431 -0.014320100678653996 0.07918585493125196
0.022599917064677715 -0.014161906771703831 0.07871215078109207
0.02205189738682986 -0.014030120659394973 0.07851759673146157
0.02151339528946447 -0.01387192675244481 0.07804389258130168
0.020950737106870926 -0.013780757121172493 0.07827868505297307
0.020402717444820053 -0.0136489709650328 0.0780841305400179
0.01985191371845373 -0.013524906847603189 0.07797120571195462
0.019296491944897052 -0.01341365883568171 0.07799375471336235
0.018735593127757015 -0.013317607610638701 0.0781769450951833
0.01819240152554188 -0.013172428077989708 0.07784081062362763
0.017634545259139805 -0.013067932172177185 0.07793473639836122
0.017070112956709228 -0.012981685072677709 0.07822156370512247
0.016514691198949535 -0.01287043701692539 0.07824411224320552
0.01594524032881682 -0.012798114601910127 0.07867813385855653
0.015361884323111358 -0.012764372478224331 0.07951997893610425
0.014805273767232164 -0.012656422901183871 0.07957739485620524
0.02302302058432747 -0.014879146735914846 0.07920565730102518
0.022480464988637185 -0.014732199799929617 0.07885084202887108
0.02193790941664238 -0.01458525279819813 0.07849602606172999
0.021373970793672988 -0.01449763591928322 0.07876837377764637
0.02082964969540071 -0.01435558760534902 0.07846534059697603
0.020277506846627807 -0.014235241779913511 0.07839171891879712
0.01973668397100997 -0.014083484462789182 0.07798605629934444
0.019184541106440085 -0.01396313868118451 0.0779124350844902
0.01862776730847228 -0.013855642041060176 0.07797463888587346
0.018083447098597844 -0.013713593980674784 0.07767160641352154
0.017513194914761034 -0.013643492198727044 0.07812910374979158
0.016959863327107323 -0.013526444687637753 0.07809034771616308
0.016389612039566844 -0.013456343137323402 0.07854784552908921
0.01580885781883856 -0.013415383373964876 0.07931339378200168
0.02345539053196979 -0.015570678480044302 0.0794274067738165
0.02291219710556803 -0.015425498571790201 0.07909127227559798
0.02237062241573195 -0.015275829981871186 0.0787076870898808
0.021819819640951393 -0.015151765942667036 0.07859476111683729
0.02127179999469751 -0.015019979742696504 0.07840020614055745
0.020723780356342113 -0.014888193520810554 0.07820565093261526
0.020172977518373617 -0.014764129656929754 0.07809272681287042
0.019624956967924913 -0.014632343247241249 0.07789817159159682
0.019076937321671025 -0.014500557047270716 0.07770361661531698
0.018532122575531534 -0.014359878425090277 0.07741506209884216
0.01796769119309276 -0.014273631491477933 0.07770188918727251
0.017411079721171004 -0.01416568173759263 0.07775930520987323
0.016846647402943442 -0.014079434681923991 0.07804613297995913
0.01627871600525758 -0.014002896288234997 0.07843558855385963
0.015705748552607743 -0.013940331099767233 0.07897275133675674
0.015123396188566427 -0.013903804238614904 0.07978515966071376
0.022265014989686787 -0.01580770908654871 0.07844031691556336
0.02170706440325695 -0.015703477602742086 0.0785370358563861
0.021159209780201672 -0.015571233523928512 0.07833764075896774
0.020607066931428768 -0.015450887698493005 0.07826401908078882
0.020056168908730153 -0.015327087937323042 0.07815388672382771
0.019511846882567584 -0.015185039479417123 0.07785085399315061
0.018965751648661294 -0.015047913741086598 0.07759985611089479
0.018412420061007576 -0.014930866229997309 0.0775611000772663
0.01785679511040293 -0.014820184678382349 0.07758963501504659
0.017282331513685644 -0.01476176802236575 0.07817065285436062
0.016721597759236678 -0.014665258808902605 0.07834900195673136
0.016154419040471418 -0.014586632007303358 0.07871638150020177
0.015573664807895394 -0.014545672276817962 0.07948193010060775
0.022686563297201867 -0.01652926429220279 0.07897943633597743
0.022143370798690405 -0.01638408452792041 0.07864330138776565
0.021595351136639535 -0.016252298371780716 0.07844874687481047
0.021042223559142183 -0.016134684807341645 0.07840400723476418
0.020489096021137288 -0.01601707113332548 0.07835926643640621
0.019947521370793662 -0.015867402433829374 0.07797568009237736
0.01939671764442734 -0.015743338316399763 0.0778627552643141
0.018853525138017385 -0.015598158574032798 0.07752662054776466
0.018298103324968243 -0.015486910671688413 0.07754917070748406
0.017737205459413985 -0.015390859524870862 0.07773235994432477
0.017169273110142345 -0.015314321052956409 0.0781218166632055
0.01661385129709321 -0.015203073150612024 0.0781443668229249
0.01603987168425533 -0.015143316335389866 0.07871121620723966
0.015475439381824751 -0.015057069235890388 0.0789980435140009
0.01489408491329447 -0.015017773580738636 0.07978118361871497
0.022017999812724887 -0.016970800261793692 0.07895559531492317
0.021482213801483938 -0.01680507021215113 0.07840222851141562
0.020915035090617172 -0.016726443388636464 0.07876960782322372
0.020362892241844267 -0.01660609756320096 0.0786959861450448
0.019816797015836465 -0.016468971802955014 0.07844498803112664
0.019281010131994666 -0.0163032414559328 0.077891620055976
0.01872767852854397 -0.016186193988674352 0.07785286448567216
0.01816373985818362 -0.016098577241251952 0.07812521359156253
0.017606967011801596 -0.01599108067935308 0.07818741624796556
0.01704623233736082 -0.015894571300002797 0.07836576556866721
0.01649533431466221 -0.015770771538832832 0.07825563321170609
0.015919533957187534 -0.01571606662210014 0.07887588493386669
0.015375212858915263 -0.01557401830816594 0.07857285175319635
0.021899538775314507 -0.0175383434231038 0.0790652208393946
0.02136103664635515 -0.01738014960381531 0.07859151761588404
0.020805614888595458 -0.017268901548062994 0.07861406615396711
0.020249004297173044 -0.01716095206964192 0.07867148311654859
0.01969587675916815 -0.017043338395625756 0.07862674231819061
0.01914785618502397 -0.016911552051683508 0.07843218779190402
0.018593588333794257 -0.01679710232858147 0.07842089231632839
0.018039320435173593 -0.016682652736971948 0.07840959823072677
0.017486193809262016 -0.016565039250758334 0.07836485744570022
0.016933065359163807 -0.016447425388939618 0.07832011663401084
0.016376454799335367 -0.01633947582285687 0.07837753266994298
0.015823327261330476 -0.016221862148840704 0.07833279187158501
0.015243957488324005 -0.016177061050891242 0.079057734350642
0.01466997741549022 -0.01611730415272552 0.07962458384412223
0.021227104853897522 -0.017990618631957358 0.07915489674820922
0.02069023469166091 -0.017827896703644205 0.07863332803246006
0.020115771983341458 -0.017769480301176414 0.0792143465800925
0.0195612864496653 -0.01765563456701394 0.07920943571843436
0.019003334947192904 -0.017551402906362475 0.07930615476175686
0.01848530457671539 -0.017336407466648423 0.07823201601277363
0.017904550308596147 -0.01729544783478241 0.07899756565566012
0.017358456026275632 -0.017158322174677346 0.07874656662842405
0.0168075570914837 -0.017034522225704826 0.07863643425813151
0.016255414242710802 -0.016914176400269317 0.0785628125799526
0.015697463616788504 -0.016809945026039788 0.07865953267908701
0.015121663318552522 -0.016755239944941457 0.07927978266378011
0.014563712244482059 -0.016651008454895234 0.07937650252458647
0.013998151385732379 -0.01656789268520914 0.07969643032474633
0.020562823580436318 -0.018420273036761536 0.07900545871878266
0.020000165413639755 -0.018329103361658383 0.07924025072712938
0.019444743600590616 -0.018217855459313998 0.07926280088684877
0.01889047478987664 -0.01810340567990192 0.07925150678791573
0.01832781662702933 -0.018012235993841056 0.07948629868043129
0.01778931450991771 -0.01785404214167944 0.07901259510942724
0.017241295775757136 -0.017722256129511463 0.07881804014647882
0.016694866676715166 -0.01758605402593855 0.07857680774490745
0.0161405987780945 -0.017471604434329026 0.07856551365930582
0.015587471232191119 -0.01735399078222828 0.07852077309261019
0.015024813065394561 -0.017262821107125126 0.07875556510095691
0.014469390819994241 -0.01715157304513321 0.07877811455902359
0.013916263274090858 -0.017033959393032462 0.07873337399232797
0.013361995375470195 -0.01691950980142294 0.07872207990672635
0.012805384359595095 -0.016811560141438912 0.07877949593599277
0.012230452575617822 -0.016754445251857285 0.07937427244630053
0.011679649564915448 -0.016630381187617914 0.07926134670158651
0.009453945476111761 -0.016196532957399336 0.07946934253142701
0.008899677417162194 -0.016082083332777643 0.07945804844348196
0.008347697701574624 -0.01596128450091904 0.07937963841887345
0.007799677827297409 -0.015829498253997872 0.07918508343926076
0.007235245422702905 -0.015743251098149946 0.07947191039686206
0.006674346483652715 -0.015647199871547036 0.07965510100867892
0.005565427823829435 -0.015419362311921184 0.07964373548423785
0.0050100060186787886 -0.015308114387661378 0.07966628541229491
0.003369669515005204 -0.014902426036564383 0.07897342828908661
0.002826476544650099 -0.01475724622221156 0.07863729379753381
0.002275673730377084 -0.014633182292584503 0.07852436898280196
0.0017062229036860783 -0.014560859757034438 0.07895838932401014
0.000600007419051246 -0.014325519838932425 0.07886771974951542
0.019313365157672326 -0.018821239879092972 0.07975129042071921
0.01875659047130669 -0.018713742985419828 0.07981349351378406
0.018204447626483038 -0.018593397149026608 0.07973987171977397
0.017656593003427756 -0.018461153070213038 0.0795404766223556
0.017117291369153947 -0.018305180303428016 0.07909024960975158
0.016559339842986073 -0.018200948708522804 0.07918696934806108
0.016021301473999255 -0.018041468125424943 0.0786996640706258
0.015488384052971132 -0.017867778790185588 0.078062161677431
0.01492282316657673 -0.01778466309720346 0.078382090288409
0.014371924664135982 -0.017660863307878475 0.07827195861976917
0.013824070056877687 -0.017528619185234063 0.07807256305902614
0.013269584538998513 -0.01741477340724075 0.07806765173404333
0.012711633480725036 -0.01731054187336369 0.07816437113152504
0.01215485969855422 -0.017203045189408517 0.07822657446958362
0.011612303898536083 -0.017056098140726395 0.07787175849910968
0.011023165396689027 -0.01703840168198686 0.07888321724592155
0.01048386250038842 -0.016882428678888745 0.07843299044664916
0.009919923723914903 -0.01679481188607561 0.07870533931921077
0.009381885191809079 -0.01663533124584935 0.07821803380761352
0.008827399474108542 -0.016521485544420962 0.07821312363859896
0.008276501326709672 -0.016397685757574866 0.07810299127981518
0.00772316951103263 -0.016280638199534937 0.07806423524285384
0.007167543534323006 -0.016169956436642104 0.07809277016563629
0.006609592833881506 -0.01606572492936016 0.0781894891047926
0.006047267620127309 -0.015973631431696843 0.07841451561912345
0.005502946278034723 -0.015831583114642844 0.07811148289844494
0.004955091710268891 -0.015699338882421338 0.07791208617939022
0.004379290896747557 -0.01564463387178737 0.0785323378948851
0.003845469303717455 -0.015473453282189062 0.07792135481568124
0.0032945712573233654 -0.015349653586765356 0.07781122315370712
0.00273779697961343 -0.015242156918485999 0.07787342764341167
0.0021738583408470527 -0.015154540083401925 0.07814577582265271
0.001609919709979168 -0.015066923226402434 0.07841812377023141
0.001045981047517314 -0.014979306457064617 0.07869047264445946
0.0004903542727260398 -0.01486862452984455 0.0787190075555769
-7.19709489266473e-05 -0.014776531054096646 0.07894403430157008
-0.000637531807676329 -0.014693415284410552 0.07926396210172991
0.0180956679487412 -0.019134078088530813 0.07956554350939504
0.01754254041073631 -0.019016464414514652 0.07952080271103706
0.017000966636942786 -0.018866796001440485 0.07913721742282015
0.01645294607859558 -0.0187350096136674 0.07894266243320888
0.01590651788769768 -0.01859880770885475 0.07870143016080011
0.015360089684952042 -0.01846260583691523 0.07846019823588483
0.014816897170643595 -0.018317426116463684 0.07812406375099773
0.014275322032659347 -0.018167757410727976 0.07774047832695251
0.01372730238640546 -0.018035971210757444 0.07754592335067267
0.01318087421525379 -0.01789976925115625 0.07730469049910806
0.012630070929137132 -0.017775705271458754 0.07719176614103516
0.012074649147681962 -0.017664457281452696 0.07721431537410522
0.011518038383525667 -0.01755650760267305 0.07727173071171752
0.010963770484905003 -0.017442058011063525 0.0772604366261159
0.010411790563830438 -0.01732125910158197 0.07718202625083725
0.009859810815489754 -0.017200460392458983 0.0771036175005278
0.009303200108339292 -0.017092510725416996 0.0771610328389733
0.00873876764557981 -0.017006263592905354 0.07744786014339113
0.008186787902347517 -0.01688546483775072 0.07736945092960078
0.007633660128420805 -0.016767851138699334 0.0773247103595723
0.007078238209258495 -0.01665660319096421 0.07734726028596292
0.006521627535418388 -0.016548653601406144 0.07740467632022864
0.005968499997413496 -0.01643103992738998 0.07735993552187068
0.005411889209561724 -0.01632309031435659 0.07741735155446997
0.004856467396512586 -0.016211842412012206 0.07743990171418937
0.00431003877721275 -0.016075640336594317 0.07719866862429671
0.0037456064668836796 -0.015989393259010255 0.07748549616272028
0.0031901846775300173 -0.015878145290919618 0.07750804562745267
0.0026292854280388035 -0.015782093906229075 0.07769123530762091
0.002061353990860481 -0.015705555622117173 0.07808069203983306
0.0015004552132129088 -0.015609504287497071 0.07826388126334236
0.0009325237760345866 -0.01553296600338517 0.0786533379955545
0.00037162408629370035 -0.015436914480962512 0.07883652720573235
-0.00019103411999531889 -0.015345744915436454 0.07907132037239076
-0.0007519329055413841 -0.01524969360273177 0.07925450982756238
0.017424353561595152 -0.019583247196936247 0.07962238077296802
0.0168800333675177 -0.01944119909272002 0.07931934783729143
0.016333937213619597 -0.019304073188502358 0.07906835017336653
0.01578784201525652 -0.01916694735155245 0.0788173512486302
0.015239987392201244 -0.019034703272738873 0.07861795615121181
0.01470878231690226 -0.01885626280621639 0.07793023075403924
0.0141566390120827 -0.018735916886879603 0.07785660906919462
0.013627255368589336 -0.01855242261522623 0.07711546117955319
0.013060076618230105 -0.01847379590128866 0.07748284164967292
0.012536708729151502 -0.018273608758543766 0.07656523863872776
0.011992387630879228 -0.01813156044460957 0.07626220545805742
0.01142213612321391 -0.018061458825429158 0.07671970303598837
0.010868804519763214 -0.01794441135817071 0.07668094746568453
0.01031203037976042 -0.017836914647620414 0.07674315126206852
0.009757544739971091 -0.017723068868067196 0.07673824016708161
0.009204212949705914 -0.017606021409426603 0.07669948505760281
0.008619081840325426 -0.017577205428700587 0.07759340250386074
0.008087032473169836 -0.017401107190707102 0.07693043648010713
0.007532546727267334 -0.017287261365763147 0.07692552515179148
0.00697577281528787 -0.017179764702163494 0.0769877289515083
0.006417822106947877 -0.017075533216796973 0.07708444812232697
0.005863336573271719 -0.016961687482634498 0.07707953726066882
0.00531119349647549 -0.01684134161024835 0.07700591557915706
0.004753242910045654 -0.01673711012644173 0.07710263451997981
0.004197616599199529 -0.01662642827120752 0.07713116920610064
0.0036320557443990944 -0.016543312490563716 0.0774510968904293
0.0030741051184767967 -0.016439081116334187 0.07754781698956371
0.0025117794881684054 -0.0163469874151925 0.07777284233891718
0.0019462185859770173 -0.016263871766041205 0.07809277141321984
0.0013822799235151631 -0.016176254996703388 0.0783651202874479
0.0008199547097609676 -0.016084161499040066 0.07859014680177873
0.0002527750710038996 -0.01600553453155369 0.07895752656358004
0.017310024205735214 -0.020139326457509352 0.07961082430982323
0.016762005471574644 -0.020007540445341372 0.07941626934687482
0.01621120173730982 -0.01988347634982718 0.07930334475047389
0.0156726996201982 -0.019725282497665565 0.07882964117946983
0.015124679954198085 -0.01959349635248358 0.07863508678234582
0.014602088129409744 -0.01939115727526921 0.07769473523188147
0.01406913463013491 -0.019217566684666947 0.07705827762914608
0.013525942115826462 -0.0190723869642154 0.07672214314425899
0.012979513952573282 -0.01893618498269879 0.07648091006103204
0.01243308527008551 -0.01879998308260425 0.07623967882443805
0.011875229899979762 -0.018695487408425117 0.07633360507582773
0.011320961812828231 -0.01858103766028786 0.07632230982858158
0.010763106442722483 -0.01847654198610873 0.07641623607997126
0.010207684303435337 -0.01836529396950755 0.07643878577136672
0.009652262407968504 -0.018254045956026164 0.07646133500277034
0.009095651685021057 -0.01814609633281502 0.07651875080454051
0.008529453656491649 -0.018064747997677755 0.07685736205374075
0.007978650757010836 -0.017940683932797474 0.07674443607887459
0.007420795150983269 -0.01783618823358312 0.07683836255859375
0.006864184500838639 -0.0177282385782788 0.07689577789787246
0.006303285593382418 -0.017632187264014214 0.07707896758303999
0.0057826951833426276 -0.017424294995022876 0.07607991465050817
0.005190854624126319 -0.01741409507469434 0.07717061789682247
0.004634244064297877 -0.01730614550861159 0.07722803393275463
0.004073344799009679 -0.017210094167751884 0.07741122407624752
0.0035124460213621068 -0.017114042833131782 0.0775944132997568
0.0029497878466670556 -0.017022873179944047 0.07782920553976587
0.0023888886129728266 -0.01692682175142267 0.07801239475660943
0.001867306665708264 -0.016721680634518697 0.0770424235551419
0.0012673142295762435 -0.0167340998620269 0.07837222758438858
0.0006943467848248958 -0.016671534651643716 0.07890939013562337
0.0001264144395025056 -0.016594996168771553 0.07929884673867292
0.01553850429256738 -0.02033648254275338 0.07940075255161912
0.014994183186396615 -0.020194434250734597 0.07909771960261111
0.014467781713434652 -0.020002665549763425 0.07826910481892345
0.013943394294874737 -0.019805307227349796 0.07738140455035329
0.013400838699184453 -0.019658360291364568 0.0770265892781992
0.012858283127189644 -0.019511413289633083 0.07667177331105812
0.012315727107046674 -0.019364466172084902 0.07631695710558899
0.0117678724760929 -0.01923222211518675 0.07611756223983293
0.011202311361675168 -0.01914910637525398 0.07643749084747808
0.010651413315281077 -0.019025306679830267 0.07632735918550397
0.010093462410511726 -0.018921075059851435 0.07642407742634044
0.009532728542051097 -0.01882456582291297 0.07660242652704474
0.008978242829458952 -0.018710720075452936 0.0765975158945493
0.00841268176693866 -0.018627604393289473 0.07691744496650856
0.007858196140156214 -0.01851375854578919 0.07691253317637842
0.007294257249671032 -0.018426141729500734 0.07718488204727361
0.00673748331399609 -0.018318645131647337 0.07724708654197743
0.006171922353082484 -0.018235529305612792 0.07756701399297734
0.005618590710139325 -0.018118481947931434 0.07752825958098519
0.005046901637391804 -0.018052369044532765 0.07802792086196592
0.0044960035909977145 -0.01792856934910906 0.0779177891999918
0.0039403772801515895 -0.01781788749387485 0.07794632388611263
0.0033731985613863285 -0.017739260692275605 0.07831370342958303
0.0028187130277101714 -0.01762541495811313 0.07830879256792489
0.0022579788172145494 -0.01752890565074871 0.07848714166362993
0.001697245058816338 -0.01743239644824327 0.07866549088183183
0.0011349198806053576 -0.017340302851960566 0.07889051635368219
0.0005677411302461269 -0.017261676138022996 0.07925789682380192
0.014335225788957028 -0.02060931685245987 0.07879213258874693
0.013798160796677941 -0.020447134146784396 0.07827626484470271
