ply
format ascii 1.0
element vertex 772
property float x
property float y
property float z
end_header
0.05162251740694046 -0.007002062164247036 0.0925000011920929
0.05186428129673004 -0.007002062164247036 0.0925000011920929
0.05204971507191658 -0.006994491908699274 0.09239999949932098
0.05229121819138527 -0.006994491908699274 0.09239999949932098
0.05253271758556366 -0.006994491908699274 0.09239999949932098
0.05271710455417633 -0.0069869221188127995 0.09229999780654907
0.05295834690332413 -0.0069869221188127995 0.09229999780654907
0.053199589252471924 -0.0069869221188127995 0.09229999780654907
0.05344082787632942 -0.0069869221188127995 0.09229999780654907
0.05368207022547722 -0.0069869221188127995 0.09229999780654907
0.053923312574625015 -0.0069869221188127995 0.09229999780654907
0.054164547473192215 -0.0069869221188127995 0.09229999780654907
0.05440578982234001 -0.0069869221188127995 0.09229999780654907
0.05464702844619751 -0.0069869221188127995 0.09229999780654907
0.054888270795345306 -0.0069869221188127995 0.09229999780654907
0.0551295131444931 -0.0069869221188127995 0.09229999780654907
0.0553707517683506 -0.0069869221188127995 0.09229999780654907
0.0561552532017231 -0.006994491908699274 0.09239999949932098
0.05639675259590149 -0.006994491908699274 0.09239999949932098
0.05669955536723137 -0.007002062164247036 0.0925000011920929
0.05694131925702095 -0.007002062164247036 0.0925000011920929
0.05718308314681053 -0.007002062164247036 0.0925000011920929
0.057486917823553085 -0.007009631488472223 0.09259999543428421
0.05772894248366356 -0.007009631488472223 0.09259999543428421
0.05797096714377403 -0.007009631488472223 0.09259999543428421
0.058338724076747894 -0.0070247710682451725 0.09279999881982803
0.058707524091005325 -0.007039910648018122 0.09299999475479126
0.0371389165520668 -0.006899158004671335 0.09439999610185623
0.03722723573446274 -0.006869924254715443 0.09399999678134918
0.03735332563519478 -0.006847999058663845 0.09369999915361404
0.03755809739232063 -0.00684069050475955 0.09359999746084213
0.0377623476088047 -0.006833381950855255 0.09349999576807022
0.03796607628464699 -0.00682607339695096 0.09339999407529831
0.03816928714513779 -0.0068187653087079525 0.093299999833107
0.038330793380737305 -0.0068041482008993626 0.09309999644756317
0.03849126026034355 -0.00678953155875206 0.09290000051259995
0.038692373782396317 -0.006782223004847765 0.09279999881982803
0.03885101154446602 -0.006767605897039175 0.09259999543428421
0.03905082121491432 -0.006760298274457455 0.0925000011920929
0.03925010561943054 -0.00675298972055316 0.09239999949932098
0.03949160501360893 -0.00675298972055316 0.09239999949932098
0.039690107107162476 -0.006745681166648865 0.09229999780654907
0.039931345731019974 -0.006745681166648865 0.09229999780654907
0.04017258808016777 -0.006745681166648865 0.09229999780654907
0.04041383042931557 -0.006745681166648865 0.09229999780654907
0.040655069053173065 -0.006745681166648865 0.09229999780654907
0.04089631140232086 -0.006745681166648865 0.09229999780654907
0.04113755002617836 -0.006745681166648865 0.09229999780654907
0.04137879237532616 -0.006745681166648865 0.09229999780654907
0.041620030999183655 -0.006745681166648865 0.09229999780654907
0.041906628757715225 -0.00675298972055316 0.09239999949932098
0.042148128151893616 -0.00675298972055316 0.09239999949932098
0.04243550822138786 -0.006760298274457455 0.0925000011920929
0.042677272111177444 -0.006760298274457455 0.0925000011920929
0.042919036000967026 -0.006760298274457455 0.0925000011920929
0.043207455426454544 -0.006767605897039175 0.09259999543428421
0.04344948008656502 -0.006767605897039175 0.09259999543428421
0.04378587380051613 -0.006782223004847765 0.09279999881982803
0.044028423726558685 -0.006782223004847765 0.09279999881982803
0.04436637833714485 -0.006796839646995068 0.09299999475479126
0.044609446078538895 -0.006796839646995068 0.09299999475479126
0.04494897648692131 -0.0068114567548036575 0.09319999814033508
0.045192569494247437 -0.0068114567548036575 0.09319999814033508
0.045484915375709534 -0.0068187653087079525 0.093299999833107
0.04577777907252312 -0.00682607339695096 0.09339999407529831
0.046021897345781326 -0.00682607339695096 0.09339999407529831
0.046315547078847885 -0.006833381950855255 0.09349999576807022
0.04655992239713669 -0.006833381950855255 0.09349999576807022
0.04680430144071579 -0.006833381950855255 0.09349999576807022
0.04704868048429489 -0.006833381950855255 0.09349999576807022
0.047293055802583694 -0.006833381950855255 0.09349999576807022
0.047588277608156204 -0.00684069050475955 0.09359999746084213
0.0478329174220562 -0.00684069050475955 0.09359999746084213
0.048077553510665894 -0.00684069050475955 0.09359999746084213
0.04832219332456589 -0.00684069050475955 0.09359999746084213
0.04856683313846588 -0.00684069050475955 0.09359999746084213
0.04881146550178528 -0.00684069050475955 0.09359999746084213
0.04905610531568527 -0.00684069050475955 0.09359999746084213
0.049248069524765015 -0.006833381950855255 0.09349999576807022
0.049492448568344116 -0.006833381950855255 0.09349999576807022
0.04973682761192322 -0.006833381950855255 0.09349999576807022
0.04992774873971939 -0.00682607339695096 0.09339999407529831
0.05011814832687378 -0.0068187653087079525 0.093299999833107
0.05030802637338638 -0.0068114567548036575 0.09319999814033508
0.050497375428676605 -0.0068041482008993626 0.09309999644756317
0.05063170939683914 -0.00678953155875206 0.09290000051259995
0.0508197546005249 -0.006782223004847765 0.09279999881982803
0.05106230452656746 -0.006782223004847765 0.09279999881982803
0.05119427293539047 -0.006767605897039175 0.09259999543428421
0.05138075351715088 -0.006760298274457455 0.0925000011920929
0.05162251740694046 -0.006760298274457455 0.0925000011920929
0.05186428129673004 -0.006760298274457455 0.0925000011920929
0.05204971507191658 -0.00675298972055316 0.09239999949932098
0.05229121819138527 -0.00675298972055316 0.09239999949932098
0.05247586593031883 -0.006745681166648865 0.09229999780654907
0.05271710455417633 -0.006745681166648865 0.09229999780654907
0.05295834690332413 -0.006745681166648865 0.09229999780654907
0.053199589252471924 -0.006745681166648865 0.09229999780654907
0.05344082787632942 -0.006745681166648865 0.09229999780654907
0.05368207022547722 -0.006745681166648865 0.09229999780654907
0.053923312574625015 -0.006745681166648865 0.09229999780654907
0.054164547473192215 -0.006745681166648865 0.09229999780654907
0.05440578982234001 -0.006745681166648865 0.09229999780654907
0.05464702844619751 -0.006745681166648865 0.09229999780654907
0.054888270795345306 -0.006745681166648865 0.09229999780654907
0.05724489688873291 -0.006767605897039175 0.09259999543428421
0.05761108174920082 -0.006782223004847765 0.09279999881982803
0.05785362794995308 -0.006782223004847765 0.09279999881982803
0.05815878137946129 -0.00678953155875206 0.09290000051259995
0.037217602133750916 -0.006666522938758135 0.09459999948740005
0.037306442856788635 -0.0066383350640535355 0.094200000166893
0.03739318996667862 -0.006610146723687649 0.09380000084638596
0.037598226219415665 -0.0066030994057655334 0.09369999915361404
0.03780273720622063 -0.006596052087843418 0.09359999746084213
0.038006726652383804 -0.00658900523558259 0.09349999576807022
0.0382101945579052 -0.006581957917660475 0.09339999407529831
0.038371965289115906 -0.006567864213138819 0.09319999814033508
0.038532692939043045 -0.006553769577294588 0.09299999475479126
0.038734070956707 -0.006546723190695047 0.09290000051259995
0.03885101154446602 -0.006525581702589989 0.09259999543428421
0.03905082121491432 -0.006518534850329161 0.0925000011920929
0.0392925851047039 -0.006518534850329161 0.0925000011920929
0.03949160501360893 -0.006511487532407045 0.09239999949932098
0.039690107107162476 -0.006504440680146217 0.09229999780654907
0.039931345731019974 -0.006504440680146217 0.09229999780654907
0.04017258808016777 -0.006504440680146217 0.09229999780654907
0.04041383042931557 -0.006504440680146217 0.09229999780654907
0.040655069053173065 -0.006504440680146217 0.09229999780654907
0.04089631140232086 -0.006504440680146217 0.09229999780654907
0.04113755002617836 -0.006504440680146217 0.09229999780654907
0.04142362251877785 -0.006511487532407045 0.09239999949932098
0.041665125638246536 -0.006511487532407045 0.09239999949932098
0.041906628757715225 -0.006511487532407045 0.09239999949932098
0.04219374433159828 -0.006518534850329161 0.0925000011920929
0.04243550822138786 -0.006518534850329161 0.0925000011920929
0.042677272111177444 -0.006518534850329161 0.0925000011920929
0.04296543076634407 -0.006525581702589989 0.09259999543428421
0.043207455426454544 -0.006525581702589989 0.09259999543428421
0.043496403843164444 -0.006532628554850817 0.09269999712705612
0.04378587380051613 -0.006539675872772932 0.09279999881982803
0.044075869023799896 -0.006546723190695047 0.09290000051259995
0.04431867599487305 -0.006546723190695047 0.09290000051259995
0.044609446078538895 -0.006553769577294588 0.09299999475479126
0.04490074887871742 -0.006560816895216703 0.09309999644756317
0.045192569494247437 -0.006567864213138819 0.09319999814033508
0.04543616250157356 -0.006567864213138819 0.09319999814033508
0.04572876915335655 -0.006574911065399647 0.093299999833107
0.04597262665629387 -0.006574911065399647 0.093299999833107
0.04626601189374924 -0.006581957917660475 0.09339999407529831
0.04651012644171715 -0.006581957917660475 0.09339999407529831
0.04675424098968506 -0.006581957917660475 0.09339999407529831
0.04704868048429489 -0.00658900523558259 0.09349999576807022
0.047293055802583694 -0.00658900523558259 0.09349999576807022
0.047588277608156204 -0.006596052087843418 0.09359999746084213
0.0478329174220562 -0.006596052087843418 0.09359999746084213
0.048077553510665894 -0.006596052087843418 0.09359999746084213
0.04832219332456589 -0.006596052087843418 0.09359999746084213
0.04856683313846588 -0.006596052087843418 0.09359999746084213
0.04881146550178528 -0.006596052087843418 0.09359999746084213
0.04905610531568527 -0.006596052087843418 0.09359999746084213
0.049248069524765015 -0.00658900523558259 0.09349999576807022
0.049492448568344116 -0.00658900523558259 0.09349999576807022
0.04973682761192322 -0.00658900523558259 0.09349999576807022
0.04992774873971939 -0.006581957917660475 0.09339999407529831
0.05011814832687378 -0.006574911065399647 0.093299999833107
0.05030802637338638 -0.006567864213138819 0.09319999814033508
0.050443135201931 -0.006553769577294588 0.09299999475479126
0.05063170939683914 -0.006546723190695047 0.09290000051259995
0.0508197546005249 -0.006539675872772932 0.09279999881982803
0.05100727826356888 -0.006532628554850817 0.09269999712705612
0.05119427293539047 -0.006525581702589989 0.09259999543428421
0.05138075351715088 -0.006518534850329161 0.0925000011920929
0.05162251740694046 -0.006518534850329161 0.0925000011920929
0.05186428129673004 -0.006518534850329161 0.0925000011920929
0.05210604518651962 -0.006518534850329161 0.0925000011920929
0.05229121819138527 -0.006511487532407045 0.09239999949932098
0.05253271758556366 -0.006511487532407045 0.09239999949932098
0.05277422070503235 -0.006511487532407045 0.09239999949932098
0.05295834690332413 -0.006504440680146217 0.09229999780654907
0.053199589252471924 -0.006504440680146217 0.09229999780654907
0.05344082787632942 -0.006504440680146217 0.09229999780654907
0.05368207022547722 -0.006504440680146217 0.09229999780654907
0.053923312574625015 -0.006504440680146217 0.09229999780654907
0.054164547473192215 -0.006504440680146217 0.09229999780654907
0.05440578982234001 -0.006504440680146217 0.09229999780654907
0.05464702844619751 -0.006504440680146217 0.09229999780654907
0.054947737604379654 -0.006511487532407045 0.09239999949932098
0.03725694492459297 -0.00642605684697628 0.09470000118017197
0.037385646253824234 -0.006405699532479048 0.09439999610185623
0.0374729186296463 -0.006378556601703167 0.09399999678134918
0.0376383513212204 -0.0063649858348071575 0.09380000084638596
0.03780273720622063 -0.0063514141365885735 0.09359999746084213
0.03804737702012062 -0.0063514141365885735 0.09359999746084213
0.0382101945579052 -0.006337842438369989 0.09339999407529831
0.03841313719749451 -0.006331057287752628 0.093299999833107
0.03857412561774254 -0.006317485589534044 0.09309999644756317
0.038734070956707 -0.0063039143569767475 0.09290000051259995
0.03893492370843887 -0.006297128740698099 0.09279999881982803
0.03909303620457649 -0.006283557042479515 0.09259999543428421
0.0392925851047039 -0.006276771426200867 0.0925000011920929
0.03949160501360893 -0.006269985809922218 0.09239999949932098
0.03973310813307762 -0.006269985809922218 0.09239999949932098
0.03997461125254631 -0.006269985809922218 0.09239999949932098
0.04017258808016777 -0.00626320019364357 0.09229999780654907
0.04041383042931557 -0.00626320019364357 0.09229999780654907
0.040655069053173065 -0.00626320019364357 0.09229999780654907
0.04089631140232086 -0.00626320019364357 0.09229999780654907
0.04118211939930916 -0.006269985809922218 0.09239999949932098
0.04142362251877785 -0.006269985809922218 0.09239999949932098
0.041665125638246536 -0.006269985809922218 0.09239999949932098
0.0419519804418087 -0.006276771426200867 0.0925000011920929
0.04219374433159828 -0.006276771426200867 0.0925000011920929
0.04243550822138786 -0.006276771426200867 0.0925000011920929
0.042677272111177444 -0.006276771426200867 0.0925000011920929
0.04296543076634407 -0.006283557042479515 0.09259999543428421
0.043207455426454544 -0.006283557042479515 0.09259999543428421
0.043496403843164444 -0.0062903426587581635 0.09269999712705612
0.04378587380051613 -0.006297128740698099 0.09279999881982803
0.044028423726558685 -0.006297128740698099 0.09279999881982803
0.04431867599487305 -0.0063039143569767475 0.09290000051259995
0.044609446078538895 -0.006310699507594109 0.09299999475479126
0.044852517545223236 -0.006310699507594109 0.09299999475479126
0.045192569494247437 -0.006324271205812693 0.09319999814033508
0.04538741335272789 -0.006317485589534044 0.09309999644756317
0.04567975923418999 -0.006324271205812693 0.09319999814033508
0.04597262665629387 -0.006331057287752628 0.093299999833107
0.04626601189374924 -0.006337842438369989 0.09339999407529831
0.04651012644171715 -0.006337842438369989 0.09339999407529831
0.04675424098968506 -0.006337842438369989 0.09339999407529831
0.04704868048429489 -0.006344628054648638 0.09349999576807022
0.047293055802583694 -0.006344628054648638 0.09349999576807022
0.047537434846162796 -0.006344628054648638 0.09349999576807022
0.0478329174220562 -0.0063514141365885735 0.09359999746084213
0.048077553510665894 -0.0063514141365885735 0.09359999746084213
0.04832219332456589 -0.0063514141365885735 0.09359999746084213
0.04856683313846588 -0.0063514141365885735 0.09359999746084213
0.04881146550178528 -0.0063514141365885735 0.09359999746084213
0.04900369420647621 -0.006344628054648638 0.09349999576807022
0.049248069524765015 -0.006344628054648638 0.09349999576807022
0.049492448568344116 -0.006344628054648638 0.09349999576807022
0.04968363046646118 -0.006337842438369989 0.09339999407529831
0.04992774873971939 -0.006337842438369989 0.09339999407529831
0.05011814832687378 -0.006331057287752628 0.093299999833107
0.05030802637338638 -0.006324271205812693 0.09319999814033508
0.050443135201931 -0.006310699507594109 0.09299999475479126
0.05063170939683914 -0.0063039143569767475 0.09290000051259995
0.0508197546005249 -0.006297128740698099 0.09279999881982803
0.05100727826356888 -0.0062903426587581635 0.09269999712705612
0.05119427293539047 -0.006283557042479515 0.09259999543428421
0.051436297595500946 -0.006283557042479515 0.09259999543428421
0.05162251740694046 -0.006276771426200867 0.0925000011920929
0.05186428129673004 -0.006276771426200867 0.0925000011920929
0.05210604518651962 -0.006276771426200867 0.0925000011920929
0.052347809076309204 -0.006276771426200867 0.0925000011920929
0.052589572966098785 -0.006276771426200867 0.0925000011920929
0.05283133685588837 -0.006276771426200867 0.0925000011920929
0.05301572382450104 -0.006269985809922218 0.09239999949932098
0.05325722694396973 -0.006269985809922218 0.09239999949932098
0.053498730063438416 -0.006269985809922218 0.09239999949932098
0.053740233182907104 -0.006269985809922218 0.09239999949932098
0.053981732577085495 -0.006269985809922218 0.09239999949932098
0.054223231971263885 -0.006269985809922218 0.09239999949932098
0.054464735090732574 -0.006269985809922218 0.09239999949932098
0.054706234484910965 -0.006269985809922218 0.09239999949932098
0.054947737604379654 -0.006269985809922218 0.09239999949932098
0.058778777718544006 -0.006344628054648638 0.09349999576807022
0.059086285531520844 -0.0063514141365885735 0.09359999746084213
0.03729628771543503 -0.006185066886246204 0.09479999542236328
0.03742525354027748 -0.0061654942110180855 0.09449999779462814
0.03751278296113014 -0.0061393966898322105 0.0940999984741211
0.03767847642302513 -0.006126347929239273 0.09389999508857727
0.03784312680363655 -0.006113299634307623 0.09369999915361404
0.03804737702012062 -0.006106775254011154 0.09359999746084213
0.038251105695962906 -0.0061002508737146854 0.09349999576807022
0.03845430538058281 -0.006093726493418217 0.09339999407529831
0.03861555829644203 -0.006080677732825279 0.09319999814033508
0.03877576068043709 -0.006067628972232342 0.09299999475479126
0.03893492370843887 -0.006054580677300692 0.09279999881982803
0.03909303620457649 -0.006041531916707754 0.09259999543428421
0.0392925851047039 -0.006035007536411285 0.0925000011920929
0.039534345269203186 -0.006035007536411285 0.0925000011920929
0.03973310813307762 -0.006028483156114817 0.09239999949932098
0.03997461125254631 -0.006028483156114817 0.09239999949932098
0.0402161106467247 -0.006028483156114817 0.09239999949932098
0.04045761376619339 -0.006028483156114817 0.09239999949932098
0.04069911688566208 -0.006028483156114817 0.09239999949932098
0.04094062000513077 -0.006028483156114817 0.09239999949932098
0.04118211939930916 -0.006028483156114817 0.09239999949932098
0.04142362251877785 -0.006028483156114817 0.09239999949932098
0.04171021655201912 -0.006035007536411285 0.0925000011920929
0.0419519804418087 -0.006035007536411285 0.0925000011920929
0.04219374433159828 -0.006035007536411285 0.0925000011920929
0.04243550822138786 -0.006035007536411285 0.0925000011920929
0.0427234061062336 -0.006041531916707754 0.09259999543428421
0.04296543076634407 -0.006041531916707754 0.09259999543428421
0.043207455426454544 -0.006041531916707754 0.09259999543428421
0.043496403843164444 -0.006048056297004223 0.09269999712705612
0.04378587380051613 -0.006054580677300692 0.09279999881982803
0.044028423726558685 -0.006054580677300692 0.09279999881982803
0.04431867599487305 -0.00606110505759716 0.09290000051259995
0.0445614829659462 -0.00606110505759716 0.09290000051259995
0.04480429366230965 -0.00606110505759716 0.09290000051259995
0.04509558901190758 -0.006067628972232342 0.09299999475479126
0.04538741335272789 -0.0060741533525288105 0.09309999644756317
0.04567975923418999 -0.006080677732825279 0.09319999814033508
0.04592335224151611 -0.006080677732825279 0.09319999814033508
0.04621647670865059 -0.006087202113121748 0.093299999833107
0.04651012644171715 -0.006093726493418217 0.09339999407529831
0.04675424098968506 -0.006093726493418217 0.09339999407529831
0.04704868048429489 -0.0061002508737146854 0.09349999576807022
0.047293055802583694 -0.0061002508737146854 0.09349999576807022
0.047537434846162796 -0.0061002508737146854 0.09349999576807022
0.0478329174220562 -0.006106775254011154 0.09359999746084213
0.048077553510665894 -0.006106775254011154 0.09359999746084213
0.04832219332456589 -0.006106775254011154 0.09359999746084213
0.04856683313846588 -0.006106775254011154 0.09359999746084213
0.04881146550178528 -0.006106775254011154 0.09359999746084213
0.04905610531568527 -0.006106775254011154 0.09359999746084213
0.049248069524765015 -0.0061002508737146854 0.09349999576807022
0.049492448568344116 -0.0061002508737146854 0.09349999576807022
0.04968363046646118 -0.006093726493418217 0.09339999407529831
0.04992774873971939 -0.006093726493418217 0.09339999407529831
0.05006442964076996 -0.006080677732825279 0.09319999814033508
0.05025404691696167 -0.0060741533525288105 0.09309999644756317
0.050443135201931 -0.006067628972232342 0.09299999475479126
0.05063170939683914 -0.00606110505759716 0.09290000051259995
0.0508197546005249 -0.006054580677300692 0.09279999881982803
0.05106230452656746 -0.006054580677300692 0.09279999881982803
0.05119427293539047 -0.006041531916707754 0.09259999543428421
0.051436297595500946 -0.006041531916707754 0.09259999543428421
0.05167832225561142 -0.006041531916707754 0.09259999543428421
0.05192034691572189 -0.006041531916707754 0.09259999543428421
0.05210604518651962 -0.006035007536411285 0.0925000011920929
0.052347809076309204 -0.006035007536411285 0.0925000011920929
0.05264642462134361 -0.006041531916707754 0.09259999543428421
0.05283133685588837 -0.006035007536411285 0.0925000011920929
0.05307310074567795 -0.006035007536411285 0.0925000011920929
0.05331486463546753 -0.006035007536411285 0.0925000011920929
0.05355662852525711 -0.006035007536411285 0.0925000011920929
0.05379839241504669 -0.006035007536411285 0.0925000011920929
0.05404015630483627 -0.006035007536411285 0.0925000011920929
0.054281916469335556 -0.006035007536411285 0.0925000011920929
0.05452368035912514 -0.006035007536411285 0.0925000011920929
0.0582900233566761 -0.0061002508737146854 0.09349999576807022
0.0585344024002552 -0.0061002508737146854 0.09349999576807022
0.05884164571762085 -0.006106775254011154 0.09359999746084213
0.03746485710144043 -0.005924766883254051 0.09459999948740005
0.037592511624097824 -0.005905977450311184 0.09429999440908432
0.037718601524829865 -0.005887188948690891 0.09399999678134918
0.037883512675762177 -0.0058746631257236 0.09380000084638596
0.03804737702012062 -0.005862136837095022 0.09359999746084213
0.038292016834020615 -0.005862136837095022 0.09359999746084213
0.03849547728896141 -0.005855873692780733 0.09349999576807022
0.038656990975141525 -0.0058433483354747295 0.093299999833107
0.03881745785474777 -0.005830822046846151 0.09309999644756317
0.03897687792778015 -0.0058182962238788605 0.09290000051259995
0.03917746990919113 -0.005812033079564571 0.09279999881982803
0.039335060864686966 -0.0057995072565972805 0.09259999543428421
0.039534345269203186 -0.005793244577944279 0.0925000011920929
0.03977610915899277 -0.005793244577944279 0.0925000011920929
0.03997461125254631 -0.00578698143362999 0.09239999949932098
0.0402161106467247 -0.00578698143362999 0.09239999949932098
0.04045761376619339 -0.00578698143362999 0.09239999949932098
0.04069911688566208 -0.00578698143362999 0.09239999949932098
0.04094062000513077 -0.00578698143362999 0.09239999949932098
0.04118211939930916 -0.00578698143362999 0.09239999949932098
0.04146845266222954 -0.005793244577944279 0.0925000011920929
0.04171021655201912 -0.005793244577944279 0.0925000011920929
0.0419519804418087 -0.005793244577944279 0.0925000011920929
0.04219374433159828 -0.005793244577944279 0.0925000011920929
0.04243550822138786 -0.005793244577944279 0.0925000011920929
0.0427234061062336 -0.0057995072565972805 0.09259999543428421
0.04296543076634407 -0.0057995072565972805 0.09259999543428421
0.043207455426454544 -0.0057995072565972805 0.09259999543428421
0.04344948008656502 -0.0057995072565972805 0.09259999543428421
0.04373868927359581 -0.00580577040091157 0.09269999712705612
0.044028423726558685 -0.005812033079564571 0.09279999881982803
0.044270969927310944 -0.005812033079564571 0.09279999881982803
0.0445135161280632 -0.005812033079564571 0.09279999881982803
0.04480429366230965 -0.0058182962238788605 0.09290000051259995
0.04509558901190758 -0.005824558902531862 0.09299999475479126
0.04533866047859192 -0.005824558902531862 0.09299999475479126
0.04558173194527626 -0.005824558902531862 0.09299999475479126
0.04592335224151611 -0.0058370851911604404 0.09319999814033508
0.04621647670865059 -0.0058433483354747295 0.093299999833107
0.04651012644171715 -0.005849611014127731 0.09339999407529831
0.04675424098968506 -0.005849611014127731 0.09339999407529831
0.04704868048429489 -0.005855873692780733 0.09349999576807022
0.04734363779425621 -0.005862136837095022 0.09359999746084213
0.047588277608156204 -0.005862136837095022 0.09359999746084213
0.0478329174220562 -0.005862136837095022 0.09359999746084213
0.048077553510665894 -0.005862136837095022 0.09359999746084213
0.04832219332456589 -0.005862136837095022 0.09359999746084213
0.04856683313846588 -0.005862136837095022 0.09359999746084213
0.04881146550178528 -0.005862136837095022 0.09359999746084213
0.04905610531568527 -0.005862136837095022 0.09359999746084213
0.049248069524765015 -0.005855873692780733 0.09349999576807022
0.049492448568344116 -0.005855873692780733 0.09349999576807022
0.04968363046646118 -0.005849611014127731 0.09339999407529831
0.04992774873971939 -0.005849611014127731 0.09339999407529831
0.05006442964076996 -0.0058370851911604404 0.09319999814033508
0.05025404691696167 -0.005830822046846151 0.09309999644756317
0.050443135201931 -0.005824558902531862 0.09299999475479126
0.05063170939683914 -0.0058182962238788605 0.09290000051259995
0.0508197546005249 -0.005812033079564571 0.09279999881982803
0.05106230452656746 -0.005812033079564571 0.09279999881982803
0.05130484700202942 -0.005812033079564571 0.09279999881982803
0.05149184539914131 -0.00580577040091157 0.09269999712705612
0.05173413082957268 -0.00580577040091157 0.09269999712705612
0.05197641998529434 -0.00580577040091157 0.09269999712705612
0.05221870541572571 -0.00580577040091157 0.09269999712705612
0.05240439996123314 -0.0057995072565972805 0.09259999543428421
0.05264642462134361 -0.0057995072565972805 0.09259999543428421
0.052888449281454086 -0.0057995072565972805 0.09259999543428421
0.05313047394156456 -0.0057995072565972805 0.09259999543428421
0.053372498601675034 -0.0057995072565972805 0.09259999543428421
0.05361452326178551 -0.0057995072565972805 0.09259999543428421
0.05385655164718628 -0.0057995072565972805 0.09259999543428421
0.05409857630729675 -0.0057995072565972805 0.09259999543428421
0.057189926505088806 -0.0058433483354747295 0.093299999833107
0.05749533697962761 -0.005849611014127731 0.09339999407529831
0.05773945525288582 -0.005849611014127731 0.09339999407529831
0.0580456480383873 -0.005855873692780733 0.09349999576807022
0.05835236608982086 -0.005862136837095022 0.09359999746084213
0.03754406049847603 -0.005689517594873905 0.09479999542236328
0.037632375955581665 -0.005665510892868042 0.09439999610185623
0.03779885545372963 -0.005653508007526398 0.094200000166893
0.0379238985478878 -0.005635503213852644 0.09389999508857727
0.038128674030303955 -0.005629501771181822 0.09380000084638596
0.038292016834020615 -0.00561749842017889 0.09359999746084213
0.03849547728896141 -0.005611496511846781 0.09349999576807022
0.03869842365384102 -0.005605495069175959 0.09339999407529831
0.03885915130376816 -0.005593492183834314 0.09319999814033508
0.03901883214712143 -0.005581488832831383 0.09299999475479126
0.0392196886241436 -0.005575487390160561 0.09290000051259995
0.03937754034996033 -0.005563484039157629 0.09269999712705612
0.03957708179950714 -0.0055574821308255196 0.09259999543428421
0.03977610915899277 -0.005551481153815985 0.0925000011920929
0.04001787304878235 -0.005551481153815985 0.0925000011920929
0.04025963693857193 -0.005551481153815985 0.0925000011920929
0.04050140082836151 -0.005551481153815985 0.0925000011920929
0.04074316471815109 -0.005551481153815985 0.0925000011920929
0.040984928607940674 -0.005551481153815985 0.0925000011920929
0.04122668877243996 -0.005551481153815985 0.0925000011920929
0.04146845266222954 -0.005551481153815985 0.0925000011920929
0.04171021655201912 -0.005551481153815985 0.0925000011920929
0.0419519804418087 -0.005551481153815985 0.0925000011920929
0.04219374433159828 -0.005551481153815985 0.0925000011920929
0.04243550822138786 -0.005551481153815985 0.0925000011920929
0.0427234061062336 -0.0055574821308255196 0.09259999543428421
0.04296543076634407 -0.0055574821308255196 0.09259999543428421
0.043207455426454544 -0.0055574821308255196 0.09259999543428421
0.04344948008656502 -0.0055574821308255196 0.09259999543428421
0.04369150474667549 -0.0055574821308255196 0.09259999543428421
0.043980978429317474 -0.005563484039157629 0.09269999712705612
0.044270969927310944 -0.005569485481828451 0.09279999881982803
0.0445135161280632 -0.005569485481828451 0.09279999881982803
0.04475606232881546 -0.005569485481828451 0.09279999881982803
0.0450471006333828 -0.005575487390160561 0.09290000051259995
0.045289911329746246 -0.005575487390160561 0.09290000051259995
0.045532722026109695 -0.005575487390160561 0.09290000051259995
0.04587407782673836 -0.005587490275502205 0.09309999644756317
0.04616694152355194 -0.005593492183834314 0.09319999814033508
0.04651012644171715 -0.005605495069175959 0.09339999407529831
0.04675424098968506 -0.005605495069175959 0.09339999407529831
0.04704868048429489 -0.005611496511846781 0.09349999576807022
0.04734363779425621 -0.00561749842017889 0.09359999746084213
0.047588277608156204 -0.00561749842017889 0.09359999746084213
0.0478329174220562 -0.00561749842017889 0.09359999746084213
0.048077553510665894 -0.00561749842017889 0.09359999746084213
0.04832219332456589 -0.00561749842017889 0.09359999746084213
0.04856683313846588 -0.00561749842017889 0.09359999746084213
0.04881146550178528 -0.00561749842017889 0.09359999746084213
0.04905610531568527 -0.00561749842017889 0.09359999746084213
0.049248069524765015 -0.005611496511846781 0.09349999576807022
0.049492448568344116 -0.005611496511846781 0.09349999576807022
0.04968363046646118 -0.005605495069175959 0.09339999407529831
0.04992774873971939 -0.005605495069175959 0.09339999407529831
0.05011814832687378 -0.0055994936265051365 0.093299999833107
0.05030802637338638 -0.005593492183834314 0.09319999814033508
0.050443135201931 -0.005581488832831383 0.09299999475479126
0.05063170939683914 -0.005575487390160561 0.09290000051259995
0.05087452009320259 -0.005575487390160561 0.09290000051259995
0.05111732706427574 -0.005575487390160561 0.09290000051259995
0.051360130310058594 -0.005575487390160561 0.09290000051259995
0.05154739320278168 -0.005569485481828451 0.09279999881982803
0.051789939403533936 -0.005569485481828451 0.09279999881982803
0.05208855867385864 -0.005575487390160561 0.09290000051259995
0.05233136937022209 -0.005575487390160561 0.09290000051259995
0.05251758545637131 -0.005569485481828451 0.09279999881982803
0.052760131657123566 -0.005569485481828451 0.09279999881982803
0.05305979773402214 -0.005575487390160561 0.09290000051259995
0.05324522778391838 -0.005569485481828451 0.09279999881982803
0.05348777770996094 -0.005569485481828451 0.09279999881982803
0.053730323910713196 -0.005569485481828451 0.09279999881982803
0.05397287383675575 -0.005569485481828451 0.09279999881982803
0.05427384376525879 -0.005575487390160561 0.09290000051259995
0.05445796251296997 -0.005569485481828451 0.09279999881982803
0.05470051243901253 -0.005569485481828451 0.09279999881982803
0.054943058639764786 -0.005569485481828451 0.09279999881982803
0.05524507537484169 -0.005575487390160561 0.09290000051259995
0.05548788607120514 -0.005575487390160561 0.09290000051259995
0.05573069304227829 -0.005575487390160561 0.09290000051259995
0.05603375285863876 -0.005581488832831383 0.09299999475479126
0.05633733421564102 -0.005587490275502205 0.09309999644756317
0.05664144456386566 -0.005593492183834314 0.09319999814033508
0.05694607272744179 -0.0055994936265051365 0.093299999833107
0.0572512224316597 -0.005605495069175959 0.09339999407529831
0.05755689740180969 -0.005611496511846781 0.09349999576807022
0.05786309391260147 -0.00561749842017889 0.09359999746084213
0.037712108343839645 -0.005430262070149183 0.09459999948740005
0.037879105657339096 -0.005418781656771898 0.09439999610185623
0.03800467401742935 -0.005401561036705971 0.0940999984741211
0.038128674030303955 -0.005384340416640043 0.09380000084638596
0.03833292797207832 -0.005378600209951401 0.09369999915361404
0.03853665292263031 -0.005372860003262758 0.09359999746084213
0.03873985633254051 -0.0053671193309128284 0.09349999576807022
0.03890084847807884 -0.005355639383196831 0.093299999833107
0.039102744311094284 -0.005349898710846901 0.09319999814033508
0.03926190361380577 -0.005338418297469616 0.09299999475479126
0.03942001983523369 -0.005326937884092331 0.09279999881982803
0.039619822055101395 -0.005321197677403688 0.09269999712705612
0.039819106459617615 -0.005315457470715046 0.09259999543428421
0.04006113484501839 -0.005315457470715046 0.09259999543428421
0.04025963693857193 -0.005309717264026403 0.0925000011920929
0.04050140082836151 -0.005309717264026403 0.0925000011920929
0.04074316471815109 -0.005309717264026403 0.0925000011920929
0.040984928607940674 -0.005309717264026403 0.0925000011920929
0.04122668877243996 -0.005309717264026403 0.0925000011920929
0.04146845266222954 -0.005309717264026403 0.0925000011920929
0.04171021655201912 -0.005309717264026403 0.0925000011920929
0.0419519804418087 -0.005309717264026403 0.0925000011920929
0.04219374433159828 -0.005309717264026403 0.0925000011920929
0.04243550822138786 -0.005309717264026403 0.0925000011920929
0.0427234061062336 -0.005315457470715046 0.09259999543428421
0.04296543076634407 -0.005315457470715046 0.09259999543428421
0.043207455426454544 -0.005315457470715046 0.09259999543428421
0.04344948008656502 -0.005315457470715046 0.09259999543428421
0.04369150474667549 -0.005315457470715046 0.09259999543428421
0.04393353313207626 -0.005315457470715046 0.09259999543428421
0.04417555779218674 -0.005315457470715046 0.09259999543428421
0.04446554556488991 -0.005321197677403688 0.09269999712705612
0.04470783472061157 -0.005321197677403688 0.09269999712705612
0.04499861225485802 -0.005326937884092331 0.09279999881982803
0.045289911329746246 -0.005332678556442261 0.09290000051259995
0.045532722026109695 -0.005332678556442261 0.09290000051259995
0.04587407782673836 -0.0053441585041582584 0.09309999644756317
0.04616694152355194 -0.005349898710846901 0.09319999814033508
0.04651012644171715 -0.005361379124224186 0.09339999407529831
0.04675424098968506 -0.005361379124224186 0.09339999407529831
0.04704868048429489 -0.0053671193309128284 0.09349999576807022
0.04734363779425621 -0.005372860003262758 0.09359999746084213
0.047588277608156204 -0.005372860003262758 0.09359999746084213
0.0478329174220562 -0.005372860003262758 0.09359999746084213
0.048128921538591385 -0.005378600209951401 0.09369999915361404
0.04837382212281227 -0.005378600209951401 0.09369999915361404
0.04861872270703316 -0.005378600209951401 0.09369999915361404
0.04881146550178528 -0.005372860003262758 0.09359999746084213
0.04905610531568527 -0.005372860003262758 0.09359999746084213
0.049300745129585266 -0.005372860003262758 0.09359999746084213
0.049492448568344116 -0.0053671193309128284 0.09349999576807022
0.04968363046646118 -0.005361379124224186 0.09339999407529831
0.04992774873971939 -0.005361379124224186 0.09339999407529831
0.05011814832687378 -0.005355639383196831 0.093299999833107
0.05030802637338638 -0.005349898710846901 0.09319999814033508
0.050443135201931 -0.005338418297469616 0.09299999475479126
0.05068620666861534 -0.005338418297469616 0.09299999475479126
0.05111732706427574 -0.005332678556442261 0.09290000051259995
0.051360130310058594 -0.005332678556442261 0.09290000051259995
0.05160294100642204 -0.005332678556442261 0.09290000051259995
0.05190155655145645 -0.005338418297469616 0.09299999475479126
0.052144624292850494 -0.005338418297469616 0.09299999475479126
0.052387695759534836 -0.005338418297469616 0.09299999475479126
0.05263076722621918 -0.005338418297469616 0.09299999475479126
0.052930694073438644 -0.0053441585041582584 0.09309999644756317
0.05317402631044388 -0.0053441585041582584 0.09309999644756317
0.053417354822158813 -0.0053441585041582584 0.09309999644756317
0.05366068705916405 -0.0053441585041582584 0.09309999644756317
0.05390401929616928 -0.0053441585041582584 0.09309999644756317
0.05457532778382301 -0.005338418297469616 0.09299999475479126
0.054818399250507355 -0.005338418297469616 0.09299999475479126
0.0550614669919014 -0.005338418297469616 0.09299999475479126
0.055364008992910385 -0.0053441585041582584 0.09309999644756317
0.05554760992527008 -0.005338418297469616 0.09299999475479126
0.05585067346692085 -0.0053441585041582584 0.09309999644756317
0.05615425482392311 -0.005349898710846901 0.09319999814033508
0.05645836517214775 -0.005355639383196831 0.093299999833107
0.05676298961043358 -0.005361379124224186 0.09339999407529831
0.05700710415840149 -0.005361379124224186 0.09339999407529831
0.03791923448443413 -0.00517753092572093 0.09449999779462814
0.038045063614845276 -0.005161094479262829 0.094200000166893
0.03820997104048729 -0.005150136537849903 0.09399999678134918
0.03833292797207832 -0.005133700091391802 0.09369999915361404
0.03853665292263031 -0.005128221120685339 0.09359999746084213
0.03873985633254051 -0.005122742149978876 0.09349999576807022
0.03894253820180893 -0.005117263179272413 0.09339999407529831
0.039102744311094284 -0.005106305703520775 0.09319999814033508
0.03930412232875824 -0.005100826732814312 0.09309999644756317
0.03950497508049011 -0.005095347762107849 0.09299999475479126
0.0397053062915802 -0.005089869257062674 0.09290000051259995
0.039905112236738205 -0.005084390286356211 0.09279999881982803
0.04006113484501839 -0.005073432344943285 0.09259999543428421
0.04030315950512886 -0.005073432344943285 0.09259999543428421
0.040545184165239334 -0.005073432344943285 0.09259999543428421
0.04078720882534981 -0.005073432344943285 0.09259999543428421
0.04102923348546028 -0.005073432344943285 0.09259999543428421
0.041271258145570755 -0.005073432344943285 0.09259999543428421
0.04151328280568123 -0.005073432344943285 0.09259999543428421
0.0417553074657917 -0.005073432344943285 0.09259999543428421
0.041997332125902176 -0.005073432344943285 0.09259999543428421
0.04223935678601265 -0.005073432344943285 0.09259999543428421
0.04248138144612312 -0.005073432344943285 0.09259999543428421
0.0427234061062336 -0.005073432344943285 0.09259999543428421
0.04296543076634407 -0.005073432344943285 0.09259999543428421
0.043207455426454544 -0.005073432344943285 0.09259999543428421
0.04344948008656502 -0.005073432344943285 0.09259999543428421
0.04369150474667549 -0.005073432344943285 0.09259999543428421
0.04393353313207626 -0.005073432344943285 0.09259999543428421
0.04417555779218674 -0.005073432344943285 0.09259999543428421
0.04441757872700691 -0.005073432344943285 0.09259999543428421
0.044659603387117386 -0.005073432344943285 0.09259999543428421
0.04495012015104294 -0.005078911315649748 0.09269999712705612
0.045241158455610275 -0.005084390286356211 0.09279999881982803
0.04548370838165283 -0.005084390286356211 0.09279999881982803
0.0458247996866703 -0.005095347762107849 0.09299999475479126
0.04616694152355194 -0.005106305703520775 0.09319999814033508
0.04651012644171715 -0.005117263179272413 0.09339999407529831
0.04675424098968506 -0.005117263179272413 0.09339999407529831
0.047098997980356216 -0.005128221120685339 0.09359999746084213
0.04734363779425621 -0.005128221120685339 0.09359999746084213
0.04763912037014961 -0.005133700091391802 0.09369999915361404
0.0478840209543705 -0.005133700091391802 0.09369999915361404
0.04818028584122658 -0.005139179062098265 0.09380000084638596
0.04837382212281227 -0.005133700091391802 0.09369999915361404
0.04861872270703316 -0.005133700091391802 0.09369999915361404
0.04881146550178528 -0.005128221120685339 0.09359999746084213
0.04905610531568527 -0.005128221120685339 0.09359999746084213
0.049300745129585266 -0.005128221120685339 0.09359999746084213
0.049492448568344116 -0.005122742149978876 0.09349999576807022
0.04968363046646118 -0.005117263179272413 0.09339999407529831
0.04992774873971939 -0.005117263179272413 0.09339999407529831
0.05006442964076996 -0.005106305703520775 0.09319999814033508
0.05030802637338638 -0.005106305703520775 0.09319999814033508
0.050443135201931 -0.005095347762107849 0.09299999475479126
0.05063170939683914 -0.005089869257062674 0.09290000051259995
0.05087452009320259 -0.005089869257062674 0.09290000051259995
0.05111732706427574 -0.005089869257062674 0.09290000051259995
0.05141541361808777 -0.005095347762107849 0.09299999475479126
0.05165848508477211 -0.005095347762107849 0.09299999475479126
0.05195736512541771 -0.005100826732814312 0.09309999644756317
0.05220069736242294 -0.005100826732814312 0.09309999644756317
0.05244402959942818 -0.005100826732814312 0.09309999644756317
0.052743952721357346 -0.005106305703520775 0.09319999814033508
0.0530444011092186 -0.005111784674227238 0.093299999833107
0.05377596616744995 -0.005111784674227238 0.093299999833107
0.05401981994509697 -0.005111784674227238 0.093299999833107
0.054263677448034286 -0.005111784674227238 0.093299999833107
0.054507531225681305 -0.005111784674227238 0.093299999833107
0.054751381278038025 -0.005111784674227238 0.093299999833107
0.05499523505568504 -0.005111784674227238 0.093299999833107
0.05517988279461861 -0.005106305703520775 0.09319999814033508
0.05548294261097908 -0.005111784674227238 0.093299999833107
0.0557268001139164 -0.005111784674227238 0.093299999833107
0.055970653891563416 -0.005111784674227238 0.093299999833107
0.056214507669210434 -0.005111784674227238 0.093299999833107
0.03812583535909653 -0.004925323184579611 0.09439999610185623
0.03829127177596092 -0.004914888180792332 0.094200000166893
0.03845565766096115 -0.004904453177005053 0.09399999678134918
0.03861899673938751 -0.0048940181732177734 0.09380000084638596
0.038781289011240005 -0.004883583169430494 0.09359999746084213
0.038984235376119614 -0.004878365434706211 0.09349999576807022
0.03918665647506714 -0.004873147699981928 0.09339999407529831
0.03938855603337288 -0.004867930430918932 0.093299999833107
0.039589934051036835 -0.004862713161855936 0.09319999814033508
0.039748042821884155 -0.00485227769240737 0.09299999475479126
0.03994811326265335 -0.004847060889005661 0.09290000051259995
0.0401909239590168 -0.004847060889005661 0.09290000051259995
0.04039020836353302 -0.004841843154281378 0.09279999881982803
0.04063275456428528 -0.004841843154281378 0.09279999881982803
0.04083125665783882 -0.004836625419557095 0.09269999712705612
0.04102923348546028 -0.004831407684832811 0.09259999543428421
0.041271258145570755 -0.004831407684832811 0.09259999543428421
0.04151328280568123 -0.004831407684832811 0.09259999543428421
0.0417553074657917 -0.004831407684832811 0.09259999543428421
0.041997332125902176 -0.004831407684832811 0.09259999543428421
0.04223935678601265 -0.004831407684832811 0.09259999543428421
0.04248138144612312 -0.004831407684832811 0.09259999543428421
0.0427234061062336 -0.004831407684832811 0.09259999543428421
0.04296543076634407 -0.004831407684832811 0.09259999543428421
0.043207455426454544 -0.004831407684832811 0.09259999543428421
0.04344948008656502 -0.004831407684832811 0.09259999543428421
0.04369150474667549 -0.004831407684832811 0.09259999543428421
0.04393353313207626 -0.004831407684832811 0.09259999543428421
0.04417555779218674 -0.004831407684832811 0.09259999543428421
0.04441757872700691 -0.004831407684832811 0.09259999543428421
0.044659603387117386 -0.004831407684832811 0.09259999543428421
0.04490163177251816 -0.004831407684832811 0.09259999543428421
0.045241158455610275 -0.004841843154281378 0.09279999881982803
0.04548370838165283 -0.004841843154281378 0.09279999881982803
0.0458247996866703 -0.00485227769240737 0.09299999475479126
0.04616694152355194 -0.004862713161855936 0.09319999814033508
0.04651012644171715 -0.004873147699981928 0.09339999407529831
0.04680430144071579 -0.004878365434706211 0.09349999576807022
0.047098997980356216 -0.004883583169430494 0.09359999746084213
0.04734363779425621 -0.004883583169430494 0.09359999746084213
0.04763912037014961 -0.00488880043849349 0.09369999915361404
0.0479351244866848 -0.0048940181732177734 0.09380000084638596
0.04818028584122658 -0.0048940181732177734 0.09380000084638596
0.048425447195768356 -0.0048940181732177734 0.09380000084638596
0.048670608550310135 -0.0048940181732177734 0.09380000084638596
0.04886361584067345 -0.00488880043849349 0.09369999915361404
0.04905610531568527 -0.004883583169430494 0.09359999746084213
0.049300745129585266 -0.004883583169430494 0.09359999746084213
0.049492448568344116 -0.004878365434706211 0.09349999576807022
0.04968363046646118 -0.004873147699981928 0.09339999407529831
0.04992774873971939 -0.004873147699981928 0.09339999407529831
0.05011814832687378 -0.004867930430918932 0.093299999833107
0.05030802637338638 -0.004862713161855936 0.09319999814033508
0.050443135201931 -0.00485227769240737 0.09299999475479126
0.05068620666861534 -0.00485227769240737 0.09299999475479126
0.05092927813529968 -0.00485227769240737 0.09299999475479126
0.051172349601984024 -0.00485227769240737 0.09299999475479126
0.05141541361808777 -0.00485227769240737 0.09299999475479126
0.051714032888412476 -0.004857495427131653 0.09309999644756317
0.05201317369937897 -0.004862713161855936 0.09319999814033508
0.053402483463287354 -0.004878365434706211 0.09349999576807022
0.053589485585689545 -0.004873147699981928 0.09339999407529831
0.05389123782515526 -0.004878365434706211 0.09349999576807022
0.05413561686873436 -0.004878365434706211 0.09349999576807022
0.054321832954883575 -0.004873147699981928 0.09339999407529831
0.054565947502851486 -0.004873147699981928 0.09339999407529831
0.0548100583255291 -0.004873147699981928 0.09339999407529831
0.05505417659878731 -0.004873147699981928 0.09339999407529831
0.05529829114675522 -0.004873147699981928 0.09339999407529831
0.05554240942001343 -0.004873147699981928 0.09339999407529831
0.05578652396798134 -0.004873147699981928 0.09339999407529831
0.038247000426054 -0.004693462047725916 0.09470000118017197
0.038413215428590775 -0.004683549515902996 0.09449999779462814
0.03857838734984398 -0.0046736374497413635 0.09429999440908432
0.038701336830854416 -0.004658768884837627 0.09399999678134918
0.0388227254152298 -0.004643900785595179 0.09369999915361404
0.03902592882514 -0.004638944286853075 0.09359999746084213
0.03922861069440842 -0.004633988253772259 0.09349999576807022
0.03943077102303505 -0.0046290322206914425 0.09339999407529831
0.03967488929629326 -0.0046290322206914425 0.09339999407529831
0.039876263588666916 -0.004624076187610626 0.093299999833107
0.04007711634039879 -0.00461912015452981 0.09319999814033508
0.040277447551488876 -0.004614163655787706 0.09309999644756317
0.04047725349664688 -0.00460920762270689 0.09299999475479126
0.0406765416264534 -0.004604251589626074 0.09290000051259995
0.04091935232281685 -0.004604251589626074 0.09290000051259995
0.04111785069108009 -0.004599295556545258 0.09279999881982803
0.04136039689183235 -0.004599295556545258 0.09279999881982803
0.04160294681787491 -0.004599295556545258 0.09279999881982803
0.041800398379564285 -0.004594339057803154 0.09269999712705612
0.04204268753528595 -0.004594339057803154 0.09269999712705612
0.042284972965717316 -0.004594339057803154 0.09269999712705612
0.04248138144612312 -0.004589383024722338 0.09259999543428421
0.0427234061062336 -0.004589383024722338 0.09259999543428421
0.04296543076634407 -0.004589383024722338 0.09259999543428421
0.043207455426454544 -0.004589383024722338 0.09259999543428421
0.04344948008656502 -0.004589383024722338 0.09259999543428421
0.04364432767033577 -0.0045844269916415215 0.0925000011920929
0.04388609156012535 -0.0045844269916415215 0.0925000011920929
0.04412785544991493 -0.0045844269916415215 0.0925000011920929
0.04441757872700691 -0.004589383024722338 0.09259999543428421
0.044659603387117386 -0.004589383024722338 0.09259999543428421
0.04490163177251816 -0.004589383024722338 0.09259999543428421
0.045192405581474304 -0.004594339057803154 0.09269999712705612
0.04548370838165283 -0.004599295556545258 0.09279999881982803
0.0458247996866703 -0.00460920762270689 0.09299999475479126
0.04616694152355194 -0.00461912015452981 0.09319999814033508
