ply
format ascii 1.0
element vertex 753
property float x
property float y
property float z
end_header
0.0067948441760515 0.0038408467690062044 0.066460524979158
0.006904220368163056 0.004338839241240943 0.06659218969801377
0.00701277396836114 0.004845169561633003 0.06666215536236908
0.0071200379614141 0.005364572144546867 0.0666353895868331
0.007229837192666159 0.005858276662985348 0.06679878463826135
0.007337101234071082 0.006377679471686981 0.06677201889259309
0.007445654834269168 0.00688400979207904 0.0668419845569484
0.007567353114467744 0.007257104732781433 0.06789787570204567
0.007666526902577235 0.007858510904787633 0.0672642951180302
0.007784103325080303 0.008273385278315119 0.06801102358059412
0.007896055288595922 0.008745270986383571 0.06833587855604623
0.003531140105345221 -0.00831781103871678 0.06182473773089579
0.003747395081348429 -0.007296509329380694 0.061900733014025544
0.0038550477270815823 -0.006781048304398362 0.061903129182107844
0.003964365353038241 -0.006282460769820191 0.06203039391389046
0.004073682966691125 -0.0057838731105301164 0.06215765772282027
0.004183447856758893 -0.005289821939261169 0.06231848418444883
0.004294306950525706 -0.004806860260098108 0.06256137492990235
0.00440643626443982 -0.0043367736196281885 0.06289953938375581
0.004517295336675027 -0.003853811722219295 0.06314242851421695
0.004628786978066156 -0.0033772601574670823 0.0634327567220438
0.00473964605645325 -0.0028942983224141414 0.06367564631393131
0.004850505137916288 -0.002411336518539176 0.06391853613653205
0.004960270224467854 -0.0019172844752971389 0.06407936294834471
0.005072399562989518 -0.0014471980842510265 0.06441752924790375
0.005182164607341007 -0.000953146329152707 0.0645783564912751
0.0052914821634140975 -0.00045455880211647164 0.06470561957819759
0.00539871188055242 6.519048793675905e-05 0.06467628651165223
0.005514615694358469 0.0004970196119763394 0.06529755444935853
0.005629003623597349 0.0009442134882057752 0.06580512425358688
0.005734080742665087 0.0014857820181562722 0.06561433233624255
0.005842556115303222 0.0019929057114931974 0.0656784282142444
0.0059514463227847165 0.0024958245991677295 0.06577363911224557
0.006060336535149985 0.002998743532418687 0.06586884989885697
0.006162123003145467 0.0035736666856899437 0.06543123870712463
0.006278026800465394 0.004005495618890702 0.06605250720668006
0.006386916958111028 0.004508414569868691 0.06614771658661146
0.006496681967952299 0.005002465958878352 0.06630854483832446
0.006605572193943529 0.005505384932987263 0.06640375574775939
0.006713637612667045 0.00601666349434977 0.0664371050353762
0.006822113063715155 0.006523787371669004 0.06650120187706564
0.006929765813842093 0.007039248770281929 0.06650359868166636
0.007037831244869383 0.007550527206932533 0.06653694889213599
0.007147148856984296 0.008049114881811594 0.06666421258570919
0.00725800792614356 0.008532076810398463 0.0669071014854571
0.007372815846937651 0.008975014339252178 0.06744616943928908
0.007489044638558207 0.009403548392003983 0.06809181794968576
0.0030207245789515033 -0.00821805177213383 0.06189689492216049
0.003236743137927782 -0.007194353723567966 0.06195515758867862
0.003345296629118166 -0.0066880237300395344 0.0620251222704457
0.0034538503260201784 -0.006181692958071943 0.06209508799453646
0.0035632266163736315 -0.005683700049850658 0.06222675288848427
0.003672602719471119 -0.005185708107136393 0.06235841812438759
0.003781978913120645 -0.0046877156504906425 0.062490082958599945
0.0038933507728414417 -0.004209951402270628 0.0627714340560492
0.004007571934508002 -0.0037610678743557184 0.06326649894421457
0.004116948221785511 -0.003263074934956459 0.06339816360744918
0.004230064842856181 -0.0028029957076657836 0.06381038169234801
0.004340864583214827 -0.0023194324182792274 0.06404882059587938
0.004453981313293199 -0.0018593528641249238 0.06446103966336647
0.004562534907339396 -0.0013530224813769125 0.06453100486629537
0.004675651589065804 -0.0008929431530103745 0.06494322390391474
0.004785450865593883 -0.0003992383776061513 0.06510661875449751
0.004895250102997829 9.446607847637825e-05 0.06527001426735216
0.005002514115612856 0.0006138688210510904 0.06524324816068022
0.00511106776108696 0.0011201993984088921 0.06531321362419007
0.005217237664494059 0.0016506913912076187 0.06520438672425892
0.005326613888741312 0.0021486839907346902 0.06533605157737195
0.005437413665094074 0.0026322473571186817 0.06557449096076369
0.005549365561008558 0.003104132855538653 0.06589934536175199
0.005655535487053666 0.0036346249768202496 0.06579051836139808
0.005763674313846602 0.004145160184833643 0.06582937007336452
0.005870938252395711 0.004664562604315694 0.06580260380653441
0.005981737998906245 0.005148125831346299 0.06604104317149216
0.006090701576925073 0.00565030130426327 0.06614175589862599
0.006199665100440052 0.006152476613748426 0.06624246813446569
0.006307803975584951 0.006663012047549587 0.06628131987629984
0.006417603205299038 0.007156716581577056 0.06644471481237148
0.006521244940320187 0.007712833904909413 0.0661462627567267
0.006633196904364484 0.008184719607619151 0.06647111777183266
0.00674216043403135 0.008686894854748356 0.06657183046909874
0.0068529602787837825 0.009170458517765505 0.06681027000914855
0.00697600137159143 0.009529942617594246 0.06796687970860364
0.0070845550611880765 0.010036273463609533 0.06803684488475055
0.007194354401447837 0.010529978308911643 0.06820024091876704
0.007307470924685132 0.01099005709607495 0.06861245885921542
0.0025122049532453924 -0.008137514006810526 0.06211128958917708
0.0027234445108915936 -0.00706537567238556 0.06181110007704602
0.002834935958874868 -0.006588825010784413 0.06210142816540201
0.0029430014727643387 -0.006077545982257385 0.06213477739739766
0.0030527665808475087 -0.005583494157261178 0.062295605824202724
0.0031636255656066208 -0.005100532804961746 0.062538495587068
0.0032716909889440515 -0.004589254290366203 0.0625718452207546
0.0033831825336312527 -0.004112703177189524 0.06286217336884603
0.0034916578941273217 -0.0036055798138017753 0.06292627061222641
0.0035978871927110955 -0.003075688780765135 0.062821893291887
0.003713448635292877 -0.0026403904323010646 0.06341748684302638
0.003831661073734993 -0.0022319627600340605 0.0642119201048279
0.00394504838227018 -0.0017746258077101854 0.06464443408973443
0.004053523730462475 -0.001267502319610533 0.064708530410262
0.004164382863353421 -0.000784540321125777 0.06495142049344366
0.00427414790770491 -0.00029048856602745796 0.065112247736815
0.004382213340270171 0.00022078985503415762 0.0651455980626412
0.004491530926671131 0.0007193774326083246 0.06527286162592395
0.004597188063692677 0.0012550672186677882 0.06512557254322535
0.004704417805006981 0.0017748166216149026 0.06509623949161386
0.004812893183797003 0.0022819402525958757 0.06516033583104211
0.004927701037729394 0.002724877469227446 0.06569940374357262
0.005030508860717187 0.0032894479191450726 0.06533840086269094
0.0051402739142965065 0.003783499580709464 0.06549922879820187
0.005248749310840765 0.004290623294596884 0.06556332514859718
0.005358514319144065 0.004784674699195532 0.0657241532849536
0.005468279324371421 0.005278726134972158 0.06588498119059681
0.005575509089861706 0.005798475650813155 0.06585564815391919
0.0056870006360868796 0.006275026748400846 0.06614597641736722
0.005793229933132681 0.006804917797026475 0.06604159898167121
0.0059021201123099195 0.007307836529758633 0.06613680997659499
0.006011437620031046 0.0078064238310071015 0.06626407303364977
0.006120755230607988 0.00830501152147515 0.06639133661186637
0.006229645408247254 0.008807930269796297 0.06648654749143357
0.006341774820403268 0.00927801734625276 0.06682471212037906
0.006449840245278672 0.009789295845259316 0.06685806186942228
0.006571023348371904 0.010167614088273788 0.06787530461890277
0.006687867796889412 0.010589909232187899 0.06856712369141392
0.006790675483785301 0.011154479092854299 0.0682061204940779
0.006905063457447107 0.011601673234696495 0.06871369003347391
0.001920565507503285 -0.00882110201537785 0.06416336922952233
0.002114006446496012 -0.007568555659292488 0.06252818246741516
0.00221664761685529 -0.007002295112022865 0.06215467519909928
0.002323911463314388 -0.006482893190883311 0.06212790921860353
0.0024316229914597377 -0.005968026138530608 0.06213470751402752
0.0025397618666046363 -0.005457490704729447 0.06217355925586167
0.0026491379573983487 -0.004959498637303278 0.06230522356891219
0.0027568493949916588 -0.00444463209888206 0.06231202226602712
0.00287158734287052 -0.004000986751524735 0.06284584904834163
0.002975229094809358 -0.003444869599671245 0.06254739826161947
0.0030899671424680893 -0.003001223831916362 0.06308122533438262
0.003199766379872035 -0.0025075193758338325 0.06324462084723727
0.0033139875415385944 -0.002058635847918922 0.06373968573540266
0.0034331790449580284 -0.0016601306137628918 0.0646075472244977
0.0035474002066245877 -0.0012112470858479816 0.06510261211266308
0.0036599352889305965 -0.0007452726257930937 0.06547120789827977
0.003771307197003357 -0.00026750815178531323 0.06575255902559674
0.0038802707266702226 0.00023466709534389167 0.06585327172286282
0.004005447879837632 0.0005725010144217797 0.06717009265749191
0.004095402209407632 0.001267355535790335 0.0658450040402981
0.004199043968604762 0.0018234729720165755 0.06554655199958719
0.004301685075933783 0.002389733179414011 0.06517304492114973
0.004408949042787148 0.0029091357538384363 0.065146278557397
0.004517502666945432 0.003415466368283224 0.06521624332130031
0.0046268789181747524 0.003913458957182814 0.06534790887752
0.004736255160176242 0.004411451639616331 0.06547957374160009
0.00484705490053489 0.004895014929002887 0.06571801264513144
0.004956018431739726 0.0053971901605431045 0.06581872545775413
0.005064572086441662 0.005903520644366978 0.06588869161340358
0.005173948270863358 0.006401513194546656 0.06602035575547635
0.005282087146008258 0.006912048628347817 0.0660592074973105
0.005391050667985263 0.007414223953421961 0.06615991961779359
0.005500426860096818 0.0079122164256567 0.06629158433664936
0.005609390488005583 0.008414392108772449 0.0663922972090075
0.005717101920984976 0.008929258693960631 0.06639909556005262
0.005826065547355769 0.009431434392665368 0.06649980831705417
0.005936865295404275 0.009914997604106985 0.06673824779736853
0.006044576825087597 0.0104298646408707 0.06674504620814911
0.006156528789131893 0.01090175034358044 0.06706990122325507
0.006275720092991585 0.01130025473694136 0.06793776213145282
0.0014025886595820805 -0.00864470067423449 0.06366838446208178
0.001520087872635949 -0.008229042268651475 0.06440931458486267
0.0016033929000796214 -0.007466789248153261 0.06258548703495354
0.001708470091675305 -0.006925220379521115 0.06239469516241076
0.00181354707755936 -0.00638365228932813 0.062203902247544324
0.0019211999167003668 -0.005868190361194733 0.06220629853509751
0.002028852774297035 -0.005352728620129189 0.0622086962069299
0.002136918094778652 -0.004841450494753228 0.06224204531945466
0.002244983518116083 -0.004330171980157685 0.06227539495314126
0.002354301028913153 -0.0038315847100871916 0.06240265824090923
0.0024615307429755313 -0.003311835388855985 0.06237332494365069
0.002572389914990609 -0.002828873071049535 0.06261621436456045
0.0026838814781334716 -0.002352322144940711 0.06290654389693108
0.00280138059294544 -0.0019366641753442416 0.06364747384461991
0.002925718802147633 -0.0015903263046456245 0.06490136742981127
0.0030401066830345494 -0.0011431326542039547 0.06540893720417189
0.0031498717350758976 -0.0006490809770505749 0.06556976502432622
0.0032620011065698073 -0.000178994204326817 0.06590793020018701
0.0033747651114602547 0.00028465916479575185 0.06629370007356682
0.003476059005871091 0.0008645754357102773 0.06581914127355182
0.003587550614289973 0.0013411266187848435 0.06610947060507698
0.0036968681523389694 0.0018397139705712444 0.066236734138492
0.003799159164992554 0.0024095227616548072 0.06583696797568186
0.0039030715236924645 0.0029628974666202432 0.06555881200945651
0.0040093007587603405 0.003492788248600151 0.06545443442106924
0.0041143778897002855 0.004034357016156434 0.06526364159580596
0.004227141942173711 0.0044980106188612645 0.06564941144137519
0.004331635865837877 0.005045490099551927 0.06541487836264874
0.004439288614426843 0.00556095151375384 0.06541727505189288
0.004550780204390065 0.006037502883896262 0.06570760299913882
0.004660097730566853 0.006536089998076875 0.06583486744047279
0.004762905613994601 0.007100660730229211 0.06547386459692575
0.004879134385621523 0.007529194985637859 0.06611951160768662
0.004987199802807066 0.008040473562589353 0.06615286077994682
0.005096964910890237 0.008534525387585559 0.06631368920675189
0.005206729920731508 0.00902857677659522 0.0664745174584649
0.005320117229266696 0.009485913728919096 0.06690703144337141
0.005422925008300657 0.010050484087440838 0.06654602796330594
0.005530990525266071 0.01056176308478989 0.0665793774260148
0.0056472194120525815 0.010990297604706215 0.06722502588079032
0.005758710863111799 0.011466848235129386 0.06751535419985949
0.005878742951561423 0.011856833241660663 0.06844626432916207
0.001007365499030142 -0.008105905161835257 0.06430847934568978
0.001105462579411869 -0.007493585406317095 0.06359413958122456
0.0012028297522134013 -0.006873867257412256 0.06282505261242466
0.0012970613176892013 -0.006222369240744515 0.061820791714354395
0.0014095964483471736 -0.005756394554901861 0.06218938752983881
0.0015168604882141242 -0.005236991730611241 0.06216262166881394
0.0016230302584375402 -0.004706500177570028 0.06205379377136067
0.0017315838524837382 -0.0042001697948220165 0.06212375897428959
0.0018397226247728236 -0.003689634750240438 0.0621626101949619
0.0019486861559776607 -0.0031874595187002214 0.0622633230075846
0.0020576497838864245 -0.0026852838355844715 0.06236403587994274
0.0021707663988052074 -0.002225204545937844 0.06277625350341517
0.002286982374506653 -0.0017965405901493384 0.06342094074726082
0.0024224226623910487 -0.0015627341518258463 0.06550755314048534
0.0025335574868202474 -0.0010825672976028915 0.06577112524796959
0.0026466741685466544 -0.0006224879692363536 0.06618334428558896
0.002869948278236063 0.0003276651710939451 0.0667858251575801
0.002978501943656728 0.0008339959042153472 0.06685579031879314
0.0030898738488457913 0.00131176040745248 0.06713714122981648
0.0031947735015383973 0.0018551277487754844 0.06693303832877297
0.003302912303656224 0.002365662944032878 0.06697188951066764
0.003406007868596396 0.0029273167266710117 0.06663246938432531
0.003510272855281175 0.0034771172652305338 0.0663807620373339
0.003610760965935056 0.004065200657729728 0.06584576668819753
0.003719724543953885 0.0045673761306467 0.06594647941533135
0.003822365617609236 0.00513363622634079 0.06557297208728004
0.003930919205503547 0.005639966671444754 0.06564293682878254
0.004043454287809556 0.006105941131499641 0.06601153261439924
0.0041511657284788095 0.0066208076387428835 0.06601833154222739
0.004261965571693271 0.007104371317349022 0.06625677096692059
0.004372765312051918 0.007587934606735578 0.06649520987045195
0.004481728841718783 0.008090109853864783 0.06659592256771804
0.004591105130534265 0.008588102777675053 0.06672758734630925
0.004700481316493932 0.009086095312265743 0.06685925160373861
0.00480985761915116 0.009584088095775123 0.06699091742053921
0.004916027496844305 0.010114579991268954 0.0668820903903176
0.00502582682480029 0.010608284961282969 0.0670454855014813
0.005133090866205213 0.011127687769984601 0.06701871975581303
0.005254789067194291 0.011500782081786723 0.06807461215335618
0.0003801783647048645 -0.008429181617159588 0.063694298011912
0.0004960822103767552 -0.007997352458171063 0.06431556654133513
0.0005817532890292484 -0.0072590818953029174 0.06266920623866448
0.0006792121218748282 -0.006640292818902738 0.0619069942925345
0.0007944096113054748 -0.006201306848063774 0.062475296488705485
0.0008989036132179061 -0.005653826728729724 0.06224076208543526
0.001006969145563038 -0.00514254788727055 0.06227411270171012
0.0011126261436805824 -0.0046068588409303385 0.06212682399083474
0.001220691560866126 -0.004095580263978843 0.06216017316309494
0.0013279212687766166 -0.0035758308803916852 0.06213083940441
0.0014368114510297995 -0.0030729121788375035 0.062226050630047006
0.0015448769649192696 -0.0025616331503104757 0.06225939986204266
0.001653767141020565 -0.0020587143864003424 0.06235461062625325
0.0017635321523998084 -0.001564663012979669 0.06251543899332287
0.0018779201207628216 -0.0011174688174285393 0.06302300813527933
0.0020205799115138837 -0.0009568411880053376 0.06565113134443347
0.002140241832158622 -0.000563104851055166 0.06655428038771943
0.002256145621356136 -0.00013127583552506638 0.06717554827804782
0.0032191567586158853 0.004567315756416396 0.06675729007607598
0.003331286075605944 0.00503740236570834 0.06709545476064263
0.0034291236234327057 0.0056523513292636015 0.06636165577759234
0.0035367764280634954 0.0061678128913083404 0.06636405307348721
0.0036456666057027623 0.006670731639629485 0.0664592639530544
0.0037537321211302045 0.007182010652567526 0.06649261330040666
0.0038634971309714763 0.007676062041577188 0.06665344155211966
0.0039715625496949914 0.008187340602939694 0.06668679083973648
0.0040813276485503315 0.008681392521469829 0.06684761857440194
0.004194091654209765 0.009145045882797903 0.06723338850546005
0.004301744493350771 0.0096605078109313 0.06723578479301323
0.004413873816492718 0.010130594357867293 0.0675739499390063
0.004523191440911404 0.010629181908034451 0.0677012145554323
0.0046316668796557384 0.011136305910065588 0.06776531047426894
0.004746474613578356 0.011579242469515041 0.06830437879889557
-1.555236488022223e-05 -0.007885239089355069 0.0642963052512425
8.290551599872409e-05 -0.007276576432468249 0.06360902756844528
0.00017754675064947162 -0.006629227987160849 0.06263547979255953
0.00028308405457278104 -0.006092325712243373 0.06247921333890238
0.0003879837734491985 -0.0055489579679341445 0.06227511000681447
0.0004922488236498756 -0.004999157178317889 0.0620234029278709
0.0005984186061770654 -0.00446866574998858 0.06191457595327044
0.0007073821373819022 -0.003966490518448363 0.06201528876589313
0.0008155209035191004 -0.003455955411510833 0.062054139525139045
0.0009227848466821249 -0.002936553038795746 0.06202737360437874
0.0010347368091884503 -0.0024646673204970185 0.06235222850412809
0.0011432903847789868 -0.0019583367506811515 0.06242219232277779
0.0012494602640101033 -0.0014278448707763082 0.06231336540791278
0.0013602601133764522 -0.0009442812545261234 0.06255180529403238
0.0014790635943858921 -0.0005418444303335665 0.06339057009736294
0.0032597264143483977 0.007115436599194395 0.06779561703507468
0.003368689931326996 0.007617611974932751 0.06789632878064882
0.0034759538698761047 0.008137014394414801 0.06786956251381872
0.003589070599762229 0.008597093950517727 0.06828178156688622
0.003698446792174169 0.009095086419707743 0.06841344630827256
-0.0006312917798142284 -0.008324550415031507 0.06454076773715584
-0.0005299978604584245 -0.0077446340390175915 0.064066209009753
-0.00043500554683028074 -0.007100844154348616 0.0631189941464642
-0.0003321976634025332 -0.006536273422196282 0.06275799130291716
-0.00022938997645858324 -0.005971703562017035 0.06239698810918604
-0.00012316067787480987 -0.005441812528980396 0.06229261078884663
-1.693137929103649e-05 -0.0049119214959437545 0.06218823346850722
8.929773203677051e-05 -0.004382031428414133 0.062083856490123324
0.00019695049292951187 -0.0038665701389241232 0.062086254102220254
0.000305015910115055 -0.003355291561972629 0.06211960327448047
0.00041349126445923727 -0.002848168136228928 0.06218370005643446
0.0005256206843051105 -0.0023780811377174032 0.06252186526216297
0.0006301145987414455 -0.0018306015634928126 0.062287331491296886
0.0007340269260611562 -0.0012772269822917755 0.06200917539128096
0.0008499307625052166 -0.0008453977297693248 0.06263044322856451
0.0009579961858426468 -0.0003341192151737816 0.06266379286225111
0.0010673137449916806 0.00016446828068447834 0.0627910561798868
0.0011848129235353317 0.0005801263201788334 0.06353198731100936
-0.0010328719220787192 -0.0077213155775714545 0.06470401879065532
-0.000938640180112756 -0.007069816486273781 0.06369975674313333
-0.0008482578570163327 -0.00637929942081101 0.06240676646872516
-0.0007374582102856687 -0.0058957366141779615 0.06264520554323429
-0.000634362569255966 -0.00533408261285161 0.06230578615033302
-0.0005281925994728097 -0.004803590219015281 0.062196958833777044
-0.00042265531092921887 -0.004266687788207927 0.06204069122655388
-0.00031494386718402146 -0.0037518213121426605 0.062047490385095216
-0.00020680508874304916 -0.0032412863299170337 0.06208634206719393
-9.825149469685048e-05 -0.0027349559471690223 0.06215630727012285
1.1547848638853407e-05 -0.0022412511330448877 0.06231970353485254
0.00012134707681496861 -0.0017475465834284303 0.06248309835556758
0.00023031060801980557 -0.0012453713518882133 0.06258381116819028
0.0003392742236247954 -0.0007431955440605606 0.06268452311769562
0.0004441738550251171 -0.0001998283448607922 0.06248042041801186
0.0005535501093303812 0.0002981642128608212 0.06261208620494475
0.0006715469786283158 0.0007087776246721494 0.06339034696266603
-0.0016482220624483373 -0.008164571486576112 0.06497767052921898
-0.0015431448708526539 -0.007623002617943964 0.06478687865667622
-0.001447472438405783 -0.006986106464354316 0.06389067655849774
-0.0013518000090348556 -0.0063492102795866924 0.06299447422960605
-0.0012445703886004606 -0.005829461441108994 0.06296514110332528
-0.0011463448306674804 -0.005218443942878355 0.06226043788318666
-0.0010391150199011755 -0.0046986941700716146 0.06223110464566356
-0.0009328859147252554 -0.004168804040186041 0.06212672720585326
-0.0008248204975397121 -0.003657525463234546 0.06216007637811345
-0.0007257883700953027 -0.003054684840766396 0.061515877635142824
-0.0006082892429795585 -0.002639026995881831 0.06225680850568446
-0.0005002237290900882 -0.0021277479673548027 0.06229015773768011
-0.00039514664650210627 -0.0015861794255862855 0.0620993648825491
-0.0002823826331528139 -0.0011225261422031505 0.062485135390390224
-0.00017472978170803228 -0.0006070643387816568 0.06248753260079621
-6.583960560673711e-05 -0.00010414557487152363 0.0625827433650068
4.5651987432427125e-05 0.0003724057640929227 0.06287307154296595
0.0001513091306058617 0.0009080954877964346 0.06272578292169374
0.0002610741358332182 0.00140214692357306 0.06288661082733694
0.00037320352535122185 0.0018722338715466533 0.06322477555670519
-0.0021537115713055463 -0.008114743802626985 0.06541931549303778
-0.0019546695435240296 -0.006918970467369993 0.06420424212711531
-0.0018565724646802738 -0.006306650696262843 0.06348990224729348
-0.0017588389773759818 -0.005690648399874744 0.06274830532903475
-0.0016526690045168817 -0.005160156037216393 0.06263947824319197
-0.0015495733850187845 -0.004598501817644209 0.062300057235298294
-0.0014382016220019142 -0.0041207380209997285 0.06258140827301209
-0.0013370764133516662 -0.0035391130134549346 0.06209420248034688
-0.0012298124763405294 -0.0030197105783838964 0.06206743609816017
-0.0011212588699905561 -0.0025133803203477886 0.0621374022239419
-0.0010118825919408774 -0.0020153872874146012 0.06226906619503691
-0.0009033289855909046 -0.0015090570293784934 0.06233903232081862
-0.0008048712167956034 -0.0009003946681773264 0.06165175342471994
-0.0006881857646210596 -0.00047648792640588 0.0623316468705998
-0.0005788095586677589 2.150440552796699e-05 0.062463312627664955
-0.00046800976995714863 0.0005050679207022899 0.06270175156106404
-0.0003607457845940479 0.0010244705815610944 0.06267498520874505
-0.00025260700000118814 0.0015350055014307696 0.06271383735227015
-0.00013838576580668313 0.001983889368027329 0.06320890228523712
-1.998015589217987e-05 0.0023903597568634984 0.06401782090521707
-0.0025690486362321308 -0.007372070112599426 0.0645507364878623
-0.0024609831069629423 -0.006860791239962278 0.06458408687342396
-0.0023638947699888843 -0.006238246791950633 0.06379408563761713
-0.0022644423438814417 -0.005639667777383963 0.06318141886948747
-0.002162655818306165 -0.005064744491858868 0.06274380839976247
-0.0020598479348784174 -0.004500173759706533 0.062382805556215434
-0.00195419094291276 -0.003964484651010369 0.062235516383913655
-0.0018469612226984953 -0.003444735392135114 0.06220618354808151
-0.0017397315086361172 -0.0029249860709039074 0.062176850250822965
-0.0016316660914505734 -0.0024137074939524126 0.06221019942308318
-0.001524013233853905 -0.0018982457528868698 0.06221259709491557
-0.0014195193255694572 -0.0013507661163063274 0.06197806286262309
-0.001306132113738197 -0.0008934296155579845 0.06241057678779417
-0.0011895911324837788 -0.0004680585066131807 0.06307963409606
-0.0010921323809624079 0.00015072996232158662 0.06231742324376057
-0.0009812732634511805 0.0006336921166962221 0.06256031217337622
-0.0008756161202777462 0.001169381840399734 0.06241302355210401
-0.0007612282547705476 0.0016165756467312834 0.06292059217289862
-0.0006527528155946459 0.0021236992864447296 0.062984689922507
-0.000543435256445612 0.002622286782302989 0.0631119532401427
-0.00043130590912768437 0.0030923734421328644 0.06345011840106962
-0.002969496348587008 -0.006780315146171248 0.06479893741701659
-0.0028710384784738645 -0.006171652380161513 0.06411165892672313
-0.0027715087508272105 -0.005573856899307874 0.06350479021204217
-0.0026707084896636 -0.004988936769937374 0.06299320432304685
-0.002569908228499989 -0.004404016640566871 0.06248161843405153
-0.0024637384521246863 -0.0038735251498816107 0.06237279099802466
-0.002360642910874854 -0.0033118715689528155 0.06203337131467474
-0.002250843682698739 -0.002818167019336359 0.06219676613538979
-0.0021435797456876016 -0.00229876458426532 0.06216999975320309
-0.002035440864390815 -0.001788229212820112 0.06220885195646364
-0.001927729432949392 -0.0012733626120429416 0.062215650192152167
-0.001819590660660307 -0.0007628275674613626 0.06225450141282448
-0.0017110369637582939 -0.00025649679549377084 0.062324467136915244
-0.001602483357408321 0.000249833462542337 0.062394433262696954
-0.0014931071277106058 0.000747826269687758 0.06252609720392424
-0.001383730885709116 0.0012458189521212747 0.06265776206800433
-0.0012747673545042788 0.0017479941836614915 0.06275847488062702
-0.0011639675293139123 0.0022315576870177937 0.06299691475181277
-0.0010597025459208606 0.002781358437914137 0.06274520625872228
-0.0009386916574645385 0.003161421186491759 0.06374953732983298
-0.0008255750088720856 0.0036215005878417307 0.06416175520291928
-0.0034872945532678887 -0.006605725887542146 0.06431736205249039
-0.0033796416925952768 -0.00609026417765458 0.06431975995503597
-0.0032832730322363258 -0.005460427901567741 0.06347579328246104
-0.003181486512812936 -0.004885504553686694 0.06303818235130963
-0.0030828630200533374 -0.004278520550201779 0.06236332649795536
-0.0029739729591116305 -0.0037756020507993242 0.062458535818151306
-0.002871681955524167 -0.0032057936208429137 0.0620587712514329
-0.0027632066134837597 -0.00269867007038731 0.06212286711053409
-0.0026547312468358027 -0.0021915467693555133 0.06218696481534088
-0.002545840986334355 -0.0016886274291579432 0.06228217471643412
-0.0024386112784238645 -0.0011688780455707847 0.06225284095774917
-0.0023309585236830103 -0.0006534166937248234 0.062255238108419715
-0.0022211934155998395 -0.00015936486872861763 0.06241606653522478
-0.002114964207568106 0.000370525650376538 0.062311689616576314
-0.002007734457457539 0.0008902753221074148 0.062282355426332696
-0.00189434720957809 0.0013476121733554274 0.06271486845851869
-0.0017871174893638244 0.0018673614322306823 0.06268553562268654
-0.0016773524116085229 0.0023614132066889573 0.06284636357313135
-0.0015664932879454084 0.0028443752987076403 0.06308925296417339
-0.0014486379915971384 0.0032564233457213123 0.0638568967468875
-0.0013478249913864214 0.003841213372483816 0.06334627127611223
-0.0012338915359479839 0.004293013552332264 0.06381975434705824
-0.0011160362459673846 0.0047050618428607326 0.06458739675296007
-0.0038886060857650463 -0.006005215392747357 0.06450077317863669
-0.0037874809738187255 -0.005423590836778095 0.06401356732623606
-0.0036883071947448184 -0.004822184573186592 0.06337998606450056
-0.0035871818924665877 -0.004240559082888289 0.06289278010085761
-0.003485714498741635 -0.003662403918546301 0.06243124732129968
-0.0033795446256624055 -0.003131911976285506 0.06232241994500825
-0.003273374746431289 -0.002601420096380663 0.06221359303014324
-0.003165663302686091 -0.0020865536203153964 0.06222039218868459
-0.003058399268971027 -0.0015671507336688247 0.06219362586623332
-0.0029511353319598903 -0.001047748298597786 0.0621668594840466
-0.0028417591260065894 -0.0005497559666639392 0.06229852524111177
-0.002738117292743542 6.36179265496215e-06 0.062000073360559044
-0.0026250006716728724 0.0004664410199456372 0.062412291445457874
-0.0025168618510318236 0.0009769762903149826 0.062451142695997906
-0.00240915036508655 0.0014918430545239674 0.06245794142298057
-0.00229777851151764 0.0019696073650999337 0.0627392920590034
-0.0021888149077848584 0.0024717829353218 0.06284000491642767
-0.002076863005934271 0.0029436685525446645 0.0631648588634565
-0.0019683093815602033 0.0034499989858306074 0.06323482454274569
-0.001858510116634474 0.003943703615972434 0.06339821984378781
-0.0017491338808389458 0.0044416960872596676 0.06352988561928695
-0.0016338913219799988 0.0048802271999646655 0.0641015583867443
-0.004489963726292335 -0.006590300241614438 0.06582394169001762
-0.0043860513145724716 -0.006036925084125965 0.06554578472688433
-0.00429608723638182 -0.005342171523105967 0.06422143810188786
-0.00420075648282863 -0.004701812088772329 0.06329960815065402
-0.004100412787053052 -0.00411226418125695 0.06275377727055435
-0.003997605103185045 -0.0035476942898997298 0.06239277384611003
-0.0038882875923879753 -0.003049107019829237 0.06252003713387798
-0.0037843752589163766 -0.002495732500984152 0.062241881495288455
-0.0036804629254447783 -0.0019423579821390667 0.06196372585669893
-0.0035689712902055373 -0.001465806355030902 0.062254053603099394
-0.0034617415761431596 -0.0009460570337996954 0.06222472030584084
-0.0033524240653460893 -0.0004474697637292021 0.062351983593608815
-0.00324734688605418 9.409922961484737e-05 0.06216119079821326
-0.0031375818746749366 0.000588150603035521 0.06232201916528286
-0.0030291064842825656 0.0010952743792788917 0.062386115054251776
-0.0029206310692826455 0.0016023979060984547 0.06245021278892629
-0.0028097720001233817 0.0020853598346853236 0.0626931016886742
-0.0026989128584361723 0.002568322101953842 0.0629359906332237
-0.0025908473928986657 0.0030796009046931035 0.06296933983535163
-0.0024810823573434403 0.0035736523910076604 0.06313016821735512
-0.00237022325758645 0.00405661446247585 0.0633730571360037
-0.0022621577921030167 0.004567892991712876 0.06340640771097711
-0.0021487705440077845 0.005025229661802044 0.06383892165854897
-0.002039005502732239 0.005519281448078339 0.0639997486712071
-0.0019241976149103938 0.00596221859525441 0.06453881774873736
-0.0048006829299650335 -0.005301405872999331 0.06473014136660556
-0.0047090013959526535 -0.004624057698652816 0.06353459927251465
-0.004610904317108897 -0.004011737927545665 0.06282025939269283
-0.0045053670039577574 -0.003474835746162118 0.06266399363117525
-0.004405837188835008 -0.002877039720199019 0.06205712428409012
-0.004292720561612451 -0.0024169605552642965 0.062469342830415366
-0.004189078818901444 -0.0018608433098768792 0.0621708913515536
-0.004081367309211756 -0.00134597607045632 0.06217768826269838
-0.003974103353744957 -0.000826573822453137 0.06215092326479087
-0.0038651398409957818 -0.00032439840384506464 0.06225163469313436
-0.0037578757888250556 0.0001950042957336506 0.062224869754962296
-0.003649737004232196 0.0007055392156033258 0.0622637218984874
-0.0035403607683825934 0.0012035319603927947 0.06239538630114109
-0.003428408866532006 0.001675417577615659 0.06272024024816991
-0.003322238987300889 0.002205909457520502 0.06261141333330489
-0.00321028706127432 0.00267779518763725 0.06293626729526758
-0.0031030230451517832 0.0031971975367162957 0.0629095032500806
-0.002992223280617155 0.0036807609389967353 0.06314794216854583
-0.0028840844777303426 0.004191296126459635 0.0631867934081188
-0.002771549407782182 0.004657270437724192 0.06355538964372814
-0.0026617501433420943 0.005150975156681474 0.06371878448684398
-0.0025523739013406047 0.0056489678391149906 0.06385044935092407
-0.002438152691322081 0.006097851592817667 0.06434551426895717
-0.0023189612723028006 0.006496356250686262 0.06521337662116958
-0.005323058934128232 -0.005080416642718734 0.06390521204520092
-0.005215406094987225 -0.004564954714585337 0.06390760833275409
-0.005120075329130261 -0.003924595404963601 0.06298577930437305
-0.005015581517549741 -0.0033771162199585925 0.06275124501234514
-0.004913795097906222 -0.002802193292475102 0.062313633790745074
-0.004806565389995731 -0.002282443908887944 0.06228430003206014
-0.004698090035651548 -0.0017753204831442433 0.062348396814014134
-0.0045908602187333565 -0.0012555707726934556 0.062319064037917433
-0.004483630516974753 -0.0007358213267503453 0.06228972981780608
-0.004379136596386531 -0.00018834181488170646 0.06205519650836642
-0.00427066114533842 0.00031878206243752616 0.06211929335005585
-0.00415672774434976 0.000770582352356395 0.06259277455686225
-0.004052815368678086 0.0013239571593451987 0.06231461848671405
-0.0039430503089468785 0.0018180087585536382 0.06247544688365139
-0.0038353975665097986 0.002333470235111503 0.062477843111469124
-0.0037214640683856434 0.0027852706142882143 0.06295132620878273
-0.0036152348120019463 0.003315161359181136 0.06284694932000201
-0.0035037432431387636 0.003791712585251699 0.06313727748302729
-0.0034042906835777802 0.00439029213191927 0.06252461125496013
-0.003285358696712831 0.004791426853766679 0.06337301250569469
-0.003169797205563302 0.00522672524685967 0.06396860700208766
-0.003065884829891627 0.005780100053848473 0.06369045093193944
-0.0029537554583977175 0.006250186826572232 0.06402861610780022
-0.00284289638616251 0.006733148723981125 0.06427150523826135
-0.002728962972870074 0.0071849488891880895 0.06474498736792056
-0.0057237195307362305 -0.004486502383217235 0.0641374342332893
-0.005624902930235926 -0.0038814757330610412 0.06347706255467973
-0.0055230716616081026 -0.0033070088297373354 0.06304282245463397
-0.005423897973086235 -0.0027056030800773154 0.06240924159458942
-0.005315759188493376 -0.0021950681602076407 0.06244809373811454
-0.005210221797093971 -0.0016581653401807049 0.06229182665205322
-0.005099421941575736 -0.001174601786286471 0.06253026699959922
-0.004995157006534647 -0.0006248012611778939 0.06227855847664101
-0.004890257375134325 -8.143406197812556e-05 0.06207445577695726
-0.004780881084780872 0.0004165588462431572 0.06220612067090507
-0.004671081856604756 0.0009102633958596143 0.06236951549162011
-0.004563370364507596 0.0014251300977126478 0.062376314680029174
-0.004451998462586723 0.0019028946340763802 0.06265766534591974
-0.004344734525575586 0.0024222970691474186 0.06263089896373301
-0.004233934712688994 0.0029058606972156248 0.06286933791206596
-0.0041257958797441706 0.0034163958428730656 0.0629081900854588
-0.0040132608277660305 0.0038823702523900225 0.06327678539471523
-0.0039051220125754437 0.004392905315141018 0.06331563755714101
-0.0037961584699840413 0.004895080873102478 0.06341634900391847
-0.003686782233918655 0.005393073436733101 0.06354801432195804
-0.003576982938934914 0.00588677802506947 0.06371141055682
-0.0034661831440724166 0.00637034147788784 0.06394984995164549
-0.0033563839158963016 0.006864046027504298 0.06411324477236054
-0.003244432050093903 0.007335931294227493 0.06443809961237444
-0.003134632764337993 0.007829635976097787 0.0646014951550968
-0.0030154413637743746 0.008228140821034237 0.06546935612303001
-0.006233452812948261 -0.004393660651347549 0.06426078069472053
-0.00613442061033153 -0.0037908193590580333 0.06361658039649294
-0.006031612920311636 -0.003226249530056765 0.06325557743347501
-0.00593216040057621 -0.002627670032736587 0.06264291049436758
-0.005827666479987988 -0.0020801905208679486 0.06240837718492792
-0.005721437259652479 -0.0015503001264746965 0.06230400118913228
-0.005613371745763009 -0.0010390210979476684 0.06233735042112793
-0.005506142056308181 -0.0005192715272926542 0.06230801527816377
-0.0053984892831116646 -3.8103625145482524e-06 0.06231041381311352
-0.005290423769222194 0.0005074686660124787 0.06234376304510918
-0.005182771014481339 0.0010229300178584404 0.06234616019577971
-0.005075541245915111 0.0015426795025214617 0.06231682738981529
-0.004966223692917964 0.002041267060735673 0.06244409024602458
-0.0048577483508775565 0.002548390611191277 0.06250818610512576
-0.004746256721358636 0.003024941938337703 0.06279851522087157
-0.004637366496905377 0.003527860928035602 0.06289372601494989
-0.004527601479805813 0.004021912601418015 0.06305455301267417
-0.004420371728993821 0.004541662003174591 0.06302522019574269
-0.004307607698106075 0.005005315550623016 0.06341098979916499
-0.004196748586530952 0.005488277586194757 0.0636538791827401
-0.004089518817964723 0.006008027070857779 0.06362454637677567
-0.003979753770537291 0.006502078794778122 0.06378537385086021
-0.003869988771461822 0.0069961302929107 0.06394620129507703
-0.003757859454471763 0.007466216902202644 0.06428436597964368
-0.003648969230018504 0.007969135891900542 0.064379576773722
-0.0035324283454680134 0.008394506549269813 0.06504863402225239
-0.003424362831578543 0.008905785577796843 0.06508198325424804
-0.006639612621440173 -0.00374400374151681 0.06408051374095602
-0.006539124648152322 -0.0031559211043258556 0.06354551887899951
-0.006437293270516797 -0.00258145387413852 0.06311127976154199
-0.006335072152368467 -0.0020109370805690393 0.06270627339090196
-0.006231430415809347 -0.0014548197728256702 0.0624078214506138
-0.006123718881512109 -0.0009399527828289186 0.06241462020746418
-0.006016454938349085 -0.0004205504101138318 0.06238785428670386
-0.00590749142559991 8.162500849424057e-05 0.06248856571504736
-0.00579977989745456 0.0005964920608469435 0.062495364010471344
-0.005693610018223444 0.0011269839407517864 0.06238653709560632
-0.005582810217209059 0.0016105473312142057 0.0626249769518582
-0.005475546231845958 0.0021299499920730105 0.06259821059953921
-0.005364746491487311 0.0026135132814595666 0.06283664950307057
-0.005255782887754528 0.003115688851681433 0.06293736236049485
-0.0051444109858336555 0.0035934533880451654 0.06321871302638542
-0.005033039114240651 0.004071217873870967 0.06350006321591571
-0.00492813945839449 0.004614585278308008 0.06329596007370622
-0.004819585822202289 0.005120915675697503 0.06336592621792192
-0.004710209598440678 0.00561890836404003 0.06349759061310868
-0.004600410303456938 0.006112612952376397 0.06366098684797064
-0.0044906110207769715 0.00660631766542467 0.06382438215997982
-0.004381234833279332 0.007104310184426373 0.06395604653276579
-0.004270435086768798 0.007587873411456976 0.06419448589772354
-0.004161058832463534 0.00808586596917859 0.06432615168465643
-0.0040512596042874185 0.008579570518795047 0.06448954650537149
-0.003940459757997014 0.00906313416622321 0.06472798616077789
-0.0038262385963304542 0.00951201769413812 0.06522305104894327
-0.007155582065717406 -0.0035879541032604627 0.0637361298027955
-0.007047516745235788 -0.0030766759778845017 0.06376947891532025
-0.006950057993714417 -0.0024578875089497345 0.06300726806302083
-0.0068455640792780825 -0.0019104079347251443 0.06277273429215477
-0.006742756292554261 -0.0013458376541483422 0.0624117313888723
-0.006635103453413255 -0.0008303757260149441 0.062414127676425485
-0.0065274506986724 -0.0003149143741689826 0.06241652482709602
-0.006420220978458136 0.0002048348847062721 0.06238719199126388
-0.006312155464568665 0.0007161139132332993 0.06242054122325953
-0.006204502703675924 0.001231575202723309 0.06242293883535646
-0.00609561249152644 0.0017344943171331124 0.06251814870658198
-0.00598672226707318 0.0022374133068310117 0.06261335950066031
-0.00588049307134522 0.002767303950648071 0.06250898165915904
-0.005768363669523442 0.0032373907739097606 0.06284714731138008
-0.005658598628247897 0.0037314425601860557 0.06300797432403822
-0.005549281080971071 0.0042300298184385285 0.06313523854959285
-0.005441628295632489 0.004745491313165811 0.06313763571916406
-0.005331863254411019 0.005239542825939872 0.06329846410466766
-0.005223387876106638 0.0057466665457363 0.06336255998616964
-0.005113622816375432 0.0062407181449447395 0.06352338838310698
-0.005004305263378285 0.006739305703158952 0.06365065123931626
-0.004892813718691083 0.0072158568163356316 0.06394097938740768
-0.0047661669905413135 0.007538793948584152 0.06536803216786058
-0.004673626406130527 0.008207434013178284 0.0642369273180258
-0.004564736230029232 0.008710352777088417 0.0643321380822364
-0.004454971128097948 0.009204404664440577 0.06449296604761506
-0.004341583919342632 0.009661741196366896 0.06492547974207293
-0.004223012755127271 0.01006653279954732 0.06574681946948852
-0.0075543125749955985 -0.0030136062051014773 0.06411313386414098
-0.007455138892625619 -0.0024122003930855057 0.06347955254267003
-0.007354338737393766 -0.0018272806217566105 0.06296796590179966
-0.007252871231585167 -0.0012491251617289686 0.0625064343355432
-0.0071456071794144425 -0.0007297224621502525 0.06247966939737114
-0.0070358079512383275 -0.0002360179125337953 0.06264306421808617
-0.006932166214679207 0.00032009939520957396 0.06234461227779801
-0.0068232025867704426 0.0008222750783253231 0.06244532515015615
-0.006713826380817143 0.00132026741025917 0.06257699090722131
-0.006605272756874642 0.0018265982058628036 0.06264695475573874
-0.006498008765359654 0.0023460008043656565 0.06262018886484616
-0.006381792786582264 0.0027746647289761863 0.063264876339405
-0.006278697178956373 0.0033363187109425826 0.06292545623943027
-0.006169733611703347 0.0038384942929824695 0.06302616815906789
-0.006061179981177392 0.00434482466391246 0.06309613429978347
-0.005951803763082026 0.004842817325795484 0.0632277986914701
-0.005841003992881152 0.0053263807545354275 0.06346623761343544
-0.005733292512871982 0.005841247399941518 0.06347303679437757
-0.005613722273802896 0.006235913027642181 0.06436930920000121
-0.005514192391872522 0.006833709092325191 0.06376244126706301
-0.005404393163696406 0.007327413641941649 0.06392583608777806
-0.005295839557346433 0.007833743899977756 0.06399580221355977
-0.00518161834732791 0.008282627653680433 0.06449086713159288
-0.005076718715927588 0.0088259948528802 0.06428676443190914
-0.004964766759573149 0.00929788063353488 0.06461161887023209
-0.004849031646138422 0.009731418642300114 0.06522023871940046
-0.004724752619441226 0.010078354959162789 0.06646970047498267
-0.008061764608112462 -0.00294388511000196 0.06440756984298743
-0.007967442959202018 -0.002293298753444443 0.06341005851934127
-0.007866149124246368 -0.0017133829537179651 0.0629355006550558
-0.007763858126810791 -0.001143574461405603 0.062535735626911
-0.007656628316044486 -0.0006238246885988633 0.0625064023893879
-0.007549398608133995 -0.00010407530501170483 0.06247706863070295
-0.007441745853393141 0.00041138604683425666 0.0624794657813735
-0.007331980745309971 0.0009054378718304622 0.06264029420817856
-0.0072230905692086764 0.0014083566357405955 0.06273550497238915
-0.007116861325128752 0.0019382475053454215 0.06263112716075563
-0.007007971112979268 0.0024411666197552244 0.06272633703198113
-0.006899495758635087 0.002948290045498925 0.06279043381393512
-0.006791020331762959 0.0034554138099242753 0.06285453064069069
-0.006682544929066813 0.003962537461455742 0.06291862745251241
-0.0065727798935115885 0.004456588947770299 0.06307945583451588
-0.006463889699116341 0.004959507979273656 0.06317466569477434
-0.0063372429503521744 0.0052824453444094924 0.06460171780152163
-0.006244997733212084 0.005954079092983206 0.06344845963196823
-0.006136932267674577 0.006465357895722468 0.06348180883409615
-0.006027167207943371 0.0069594094949309085 0.0636426372310335
-0.005916308132632219 0.007442371361161825 0.06388552659220782
-0.0058065431274048635 0.007936422796938451 0.06404635449785102
-0.005697652902951605 0.00843934178663635 0.06414156529192935
-0.005588762726850309 0.008942260550546482 0.06423677605613995
-0.005473201190640543 0.009377559381764062 0.06483236943630158
-0.005360437186519082 0.009841212758681125 0.06521813925200308
-0.005242938056327395 0.010256870572387715 0.06595907035325793
-0.005134872542437924 0.010768149600914741 0.06599241958525358
-0.005001953066294587 0.011027505728483857 0.06788996400802105
-0.008463022068550964 -0.0023439269510934844 0.06459506523701365
-0.008370471895560767 -0.0016753847928856988 0.06346468318176918
-0.008269346693062406 -0.0010937597229849533 0.06297747692767758
-0.008166705538082845 -0.0005274990198254502 0.06260396850579569
-0.008058566753489985 -1.6964099955775165e-05 0.0626428206493208
-0.007949603234588924 0.0004852112562963454 0.0627435325390907
-0.007845961401325877 0.001041329015615247 0.062445080658537974
-0.007726391192153093 0.001435994230460288 0.0633413544185731
-0.007620221283025674 0.001966486523220753 0.0632325261492966
-0.007517125693423878 0.0025281403299373143 0.06289310649581441
-0.007409861756412742 0.003047542765008353 0.06286634011362768
-0.007301308077534823 0.0035538733617261104 0.06293630628421099
-0.007193169256893774 0.004064408632095455 0.06297515753475103
-0.00708236948005537 0.004547971909663991 0.06321359737606905
-0.0069729932742637795 0.005045964696258919 0.06334526084490287
-0.006867455834566485 0.005582867468571386 0.06318899516155474
-0.006758079604652986 0.006080860094557961 0.0633206600181679
-0.006647279815942376 0.0065644236097322835 0.06355909895156697
-0.006532541798179947 0.007008068964631544 0.06409292737874162
-0.006420006761149957 0.007474043167720689 0.06446152336520379
-0.006315107151281241 0.00801741058516629 0.06425741905052762
-0.0062043073564187435 0.00850097403798466 0.0644958584453531
-0.006093507606832266 0.008984537233837287 0.06473429804102407
-0.005979286348461779 0.009433421213327731 0.0652293629889249
-0.005860880780747353 0.009839891314020183 0.06603828204046353
-0.005734575187049241 0.010166286208510955 0.0674397478040976
-0.0056113393258718745 0.010523797554534371 0.06861095904127584
-0.008877997329920326 -0.0016049196977466261 0.0637536136515055
-0.008775189549348392 -0.0010403493548138726 0.06339261028679663
-0.008676963969883806 -0.00042933207482906367 0.06268790868165042
-0.008570734774155847 0.00010055856898799533 0.06258353084014914
-0.008460969775080377 0.0005946100671205727 0.06274435828436596
-0.008351204673149095 0.0010886619544727303 0.06290518624974463
-0.008241439661769852 0.0015827133278934037 0.06306601461681423
-0.008133786858677034 0.0020981749055271315 0.0630684117973525
-0.00802572138698764 0.002609453645910441 0.06310176146090683
-0.007916831210886344 0.003112372409820574 0.06319697222511743
-0.007808355796317991 0.003619496298957828 0.06326106812902019
-0.007700702993225173 0.004134957876591555 0.06326346530955845
-0.007592227614705009 0.004642081415229139 0.06332756210644631
-0.007484997863893017 0.005161830816985715 0.06329822928951484
-0.007373506295515476 0.005638382131871734 0.06358855699461384
-0.007262647190092239 0.006121344229799427 0.06383144591676256
-0.007149883134542871 0.00658499780132628 0.06421721599304497
-0.007038391526123988 0.007061548984400847 0.06450754532457012
-0.00692991618408358 0.007568672534856451 0.06457164118367131
-0.006822686466945259 0.008088421824909682 0.06454230811712597
-0.0067051872884016095 0.008504079864404037 0.06528323924824853
-0.006593057965259663 0.008974166411340028 0.06562140439424159
-0.0064791244614151875 0.00942596709047848 0.06609488612220984
-0.006385470556802273 0.01008332174911817 0.0650472901926601
-0.006240358525364077 0.01021909329843683 0.06785934534829506
-0.00928113655708548 -0.00098588330037789 0.06379993169693741
