ply
format ascii 1.0
element vertex 653
property float x
property float y
property float z
property uchar red
property uchar green
property uchar blue
end_header
0.0040131736642569586 -0.00569238753178749 0.062207318183639004 98 156 0
0.00412299969112339 -0.0052147709629217906 0.0624498282145608 77 177 0
0.004231652606923381 -0.004749752682923476 0.06278676317323138 44 210 0
0.0043414786520300855 -0.004272135918171601 0.06302927173597458 23 231 0
0.0044507205766801585 -0.0038007921470488205 0.06331879676074934 0 252 2
0.004560546615706771 -0.0033231754475923367 0.0635613058128854 0 239 15
0.004670372648653293 -0.0028455588134312466 0.06380381535441433 0 225 29
0.004781209125902125 -0.0023570908033270954 0.06396499318493201 0 218 36
0.004889862023461843 -0.0018920727192149583 0.0643019296117812 0 197 57
0.0050006984946305835 -0.0014036047744062 0.06446310793169176 0 190 64
0.005111948241768954 -0.0009106985711952514 0.06459102123971311 0 185 69
0.005225126156118769 -0.0003970853708300359 0.0645637343669188 0 192 62
0.005330293248483362 3.049774370816687e-05 0.065181249038587 0 149 105
0.00543686027950214 0.00047311526407718294 0.06568607902901784 0 115 139
0.005552026237803071 0.0010080784906195688 0.0654987724344633 0 135 119
0.005664053756129837 0.001509337383009911 0.06556408162446546 0 135 119
0.005775698161580904 0.002006481908266084 0.06566022844129922 0 133 121
0.005887342574124378 0.002503626465242372 0.06575637526245322 0 131 123
0.006005547617448719 0.0030712270712390573 0.06532444955896077 0 170 84
0.006110714677032393 0.003498810001064962 0.06594196470375739 0 127 127
0.006222359074440108 0.003995954604656296 0.0660381100364022 0 125 129
0.006333195533448666 0.0044844224188742695 0.06619928933509849 0 118 136
0.006444839939316933 0.004981566945996331 0.06629543615218637 0 115 139
0.006557246046870057 0.005486891549269008 0.06633027280980483 0 118 136
0.006669273559294646 0.005988150339056903 0.06639558298240471 0 118 136
0.0067820607852142195 0.006497567853402146 0.06639974302700236 0 123 131
0.006894466880607162 0.0070028923260840375 0.06643458066340653 0 126 128
0.00700571662166544 0.007495798463999594 0.06656249446082074 0 121 133
0.007115542666772144 0.00797341522875147 0.06680500302356394 0 108 146
0.0072217218609235264 0.008411867686639478 0.06734105040613256 0 71 183
0.0073265887281566975 0.0088362267870637 0.06798272834490324 0 26 228
0.0028362708514735485 -0.008580400134852673 0.06176638471793562 103 151 0
0.0030611869388605184 -0.007568635421826077 0.06182769724544941 112 142 0
0.0031731421954794368 -0.007068152602479712 0.06189882336286909 112 142 0
0.003285097446018263 -0.006567669848428739 0.061969949969681644 111 143 0
0.0033962929952222887 -0.006075345688344327 0.062102225725710704 103 151 0
0.003507488431542915 -0.005583022071222934 0.06223450190607474 96 158 0
0.0036186839807469395 -0.005090697911138524 0.0623667776621038 88 166 0
0.0037280364414578595 -0.004618167069784592 0.06264740552457428 62 192 0
0.0038347574447101284 -0.004173896008902172 0.06313984213006599 11 243 0
0.003945952993914153 -0.0036815718488177633 0.06327211788609505 3 251 0
0.004053694090573715 -0.003226345788204779 0.06368244611409714 0 230 24
0.004163574929463717 -0.0027481405813779246 0.06392054426833174 0 217 37
0.004271316013963095 -0.0022929146513557238 0.06433087347511957 0 190 64
0.004383271270582014 -0.001792431832009359 0.06440199959253926 0 190 64
0.004491012355081392 -0.0013372059019871594 0.06481232879932708 0 163 91
0.004601817209775084 -0.0008490774932181145 0.06497605196214094 0 155 99
0.004712622058388682 -0.000360949149744462 0.06513977561434768 0 148 106
0.004825768395124459 0.00015232476458873034 0.06511503262193542 0 155 99
0.004937723645663285 0.0006528075186397037 0.06518615922874796 0 155 99
0.0050518803696000866 0.0011769323630220884 0.06508008695602431 0 169 85
0.005163075912546105 0.0016692564951181605 0.06521236270824139 0 164 90
0.005272956744938816 0.002147461634783735 0.06545046135161474 0 150 104
0.005381773556276506 0.0026142399819344435 0.06577420472964782 0 130 124
0.005495930280213308 0.0031383648263168277 0.0656681324569242 0 144 110
0.005608268637308456 0.0036429618430336348 0.06570842241924872 0 146 108
0.005721414920642578 0.004156235518533016 0.06568367939430751 0 153 101
0.005831295753452489 0.00463444066006448 0.06592177803793499 0 140 114
0.005942872414942871 0.005130857665926063 0.06602337767033609 0 137 117
0.006054449082513345 0.005627274737083039 0.06612497681334432 0 135 119
0.006166787439608492 0.006131871753799846 0.06616526677566886 0 137 117
0.0062775922943021836 0.006620000162568891 0.06632898993848274 0 130 124
0.0063940838706010306 0.007169199482302531 0.066034982974921 0 158 96
0.006502900669183423 0.007635977734303621 0.06635872683828083 0 138 116
0.006614477330673804 0.008132394740165205 0.06646032647068192 0 135 119
0.006724358163483715 0.008610599881696667 0.06669842511430941 0 122 132
0.00682293356498522 0.008967393595556677 0.0678465096620888 0 37 217
0.006934888821604138 0.00946787641490304 0.06791763577950848 0 37 217
0.007045693770940954 0.009956005170748924 0.06808135998616598 0 30 224
0.007153434867743017 0.01041123123289227 0.06849168820269792 0 3 251
0.0023284374799229005 -0.008494103993438688 0.06196647436568681 80 174 0
0.0025577671907462416 -0.007434940441040475 0.06167252976025549 132 122 0
0.0026670091153963146 -0.006963596669917694 0.06196205478503024 105 149 0
0.0027794152229494388 -0.006458272066645017 0.06199689144264871 109 145 0
0.002890251681957998 -0.0059698042524270415 0.062158070741344995 98 156 0
0.0030000776081012125 -0.005492188095933574 0.06240058021781603 77 177 0
0.003112483715654337 -0.004986863492660897 0.06243541687543449 81 173 0
0.00322172564030441 -0.0045155197215381165 0.06272494190020923 54 200 0
0.0033337531466489075 -0.004014260997045614 0.06279025256220198 54 200 0
0.003447855082882503 -0.0034907245294428166 0.06268859020859405 75 179 0
0.0035533382768162167 -0.00305974656569674 0.06328065937132188 11 243 0
0.003656373157803097 -0.002655061554616745 0.06406979578516063 0 206 48
0.003763864350547757 -0.0022025192652161247 0.06450023903874193 0 177 77
0.003875891869052437 -0.001701260410132838 0.06456554872194895 0 178 76
0.00398571790199896 -0.0012236437759717469 0.06480805826347788 0 164 90
0.0040965543731677 -0.0007351758311629887 0.06496923658338843 0 157 97
0.004208960468560643 -0.0002298513584810967 0.06500407421979262 0 159 95
0.004320210236319746 0.00026305489885136506 0.06513198803347131 0 155 99
0.004434840544652334 0.0007922656666316935 0.06498779646102039 0 171 83
0.00454801845900215 0.001305878866996909 0.06496050958822606 0 179 75
0.004660045971248824 0.001807137694091859 0.0650258192676211 0 179 75
0.004766225164983006 0.0022455901501139807 0.06556186664993559 0 142 112
0.004883486937449449 0.0028030607282200476 0.06520586633852954 0 175 79
0.0049943234025380985 0.003291528607733413 0.06536704514783298 0 168 86
0.0051063509210427785 0.0037927874628167 0.06543235483103998 0 168 86
0.00521718735335051 0.004281255157617769 0.0655935341134718 0 161 93
0.00532802381843916 0.004769723037131135 0.06575471292277522 0 154 100
0.005441201732788976 0.00528333623749635 0.0657274260499809 0 161 93
0.005550443657439048 0.0057546800086191304 0.06601695107475565 0 144 110
0.005664545593672643 0.006278216476221928 0.06591528872114773 0 157 97
0.00577618999954091 0.00677536100334399 0.06601143553823563 0 155 99
0.00588743974667928 0.007268267206554937 0.06613934884625698 0 150 104
0.005998689487737558 0.0077611733444704935 0.0662672626436712 0 146 108
0.006110333893605825 0.008258317871592556 0.06636340946075908 0 144 110
0.006218986809405816 0.008723336151590868 0.06670034441942965 0 123 131
0.00633139291087885 0.009228660689568156 0.06673518156644097 0 125 129
0.006431684339124309 0.009603883179051345 0.06774514133989307 0 51 203
0.006535982815641396 0.010022137541554847 0.06843257829931382 0 3 251
0.006653244584330175 0.010579608120924025 0.06807657775061537 0 36 218
0.006759811618531502 0.011022225675471096 0.06858140748487963 0 2 252
0.0016851599570637567 -0.009160542899604563 0.06398608341749717 0 143 111
0.0019309274867115793 -0.007924850120072748 0.06236904170791924 40 214 0
0.0020483432186562157 -0.007365726096602896 0.062000648496900825 93 161 0
0.0021614895286911646 -0.006852452301686609 0.06197590548822409 104 150 0
0.0022742225566763927 -0.006343616830467904 0.06198442798082945 112 142 0
0.0023865609137715413 -0.005839019813751096 0.06202471794315398 115 139 0
0.0024977563622523512 -0.005346696066038918 0.06215699314473228 107 147 0
0.0026104893841574876 -0.004837860660115606 0.06216551612673049 114 140 0
0.002716733112398519 -0.004398715156934227 0.06269636909341915 58 196 0
0.0028332246765371836 -0.003849515967791371 0.06240236310864313 102 152 0
0.0029394683986981225 -0.0034103705299053837 0.06293321656472466 46 208 0
0.003050273247311723 -0.0029222421864317314 0.0630969402169314 35 219 0
0.003156994250563992 -0.002477971125549312 0.06358937682242309 0 244 10
0.0032591250098060994 -0.002082995669888054 0.06445128693422497 0 182 72
0.003365846013058369 -0.0016387246090056352 0.0649437235397167 0 149 105
0.0034741242310683835 -0.0011777302881456684 0.06531081831254157 0 125 129
0.003583476691779302 -0.0007051994467917362 0.06559144617501206 0 109 145
0.003695053353269684 -0.00020878244093015276 0.06569304580741316 0 106 148
0.003791656102101758 0.0001268263696662937 0.0669999133821513 0 9 245
0.003920788656306106 0.000811779835597712 0.06568842098217376 0 117 137
0.004037280232604953 0.0013609791553313526 0.06539441401861201 0 145 109
0.004154695958291584 0.0019201031508128677 0.06502602080378161 0 180 74
0.004267842267909333 0.0024333769438632654 0.06500127779485075 0 187 67
0.004379797537283548 0.00293385985835925 0.06507240342694366 0 187 67
0.004490993074327391 0.003426183887852874 0.06520468016175847 0 182 72
0.004602188623531415 0.003918508047937284 0.06533695591778753 0 177 77
0.004712069435720591 0.004396713135347234 0.06557505405575767 0 163 91
0.004823646097210973 0.004893130141208818 0.06567665368815877 0 161 93
0.0049356013416697085 0.005393612829964399 0.06574778078436418 0 160 94
0.005046796896953825 0.0058859370553442 0.06588005605100038 0 155 99
0.005159135254048972 0.006390534072061006 0.0659203460133249 0 158 96
0.005270711921619446 0.006886951143217983 0.06602194515633315 0 155 99
0.005381907470823471 0.007379275303302391 0.06615422091236221 0 150 104
0.005493484132313853 0.007875692309163976 0.06625582054476331 0 147 107
0.0056062171602990814 0.00838452778038268 0.06626434303736865 0 152 102
0.005717793821789463 0.008880944786244262 0.06636594266976976 0 149 105
0.005827674654599374 0.009359149927775727 0.06660404131339724 0 136 118
0.005940407682584603 0.009867985398994429 0.06661256380600258 0 141 113
0.0060492245879703015 0.010334764128663142 0.06693630773442033 0 121 133
0.006151355353292501 0.010729739649619792 0.06779821735682934 0 59 195
0.0011860611778736815 -0.008980444115929877 0.06348311665724345 0 183 71
0.0012897548428390418 -0.008568684283803927 0.06421922686465589 0 131 123
0.0014250283685438244 -0.00781778162081685 0.06241344129259588 36 218 0
0.001540194326844756 -0.007282818394274466 0.06222613469804133 67 187 0
0.0016553602973058707 -0.006747855037141296 0.062038827124701046 98 156 0
0.0017681475293055355 -0.00623843745750066 0.06204298667990582 106 148 0
0.0018809347430649263 -0.005729020073746199 0.06204714770328918 113 141 0
0.0019933407438147443 -0.005223695948141145 0.06208198429584975 117 137 0
0.002105746851367868 -0.004718371344868468 0.062116820953468196 121 133 0
0.002216996592426147 -0.004225465206952912 0.06224473475088241 114 140 0
0.0023301745128560536 -0.0037118519412923045 0.06221744738869523 126 128 0
0.002440000551882667 -0.003234235241835821 0.06245995644083129 105 149 0
0.0025492424643725575 -0.002762891601303825 0.06274948244439177 78 176 0
0.002652936129337916 -0.0023511317691778735 0.06348559265180423 0 253 1
0.002750313673801164 -0.0020072020964317164 0.06473009395629711 0 161 93
0.002856880704819942 -0.0015645845760627012 0.06523492394672796 0 126 128
0.0029677171699085923 -0.0010761166965493351 0.06539610275603139 0 119 135
0.003076370079628491 -0.0006110984818464126 0.06573303820409483 0 98 156
0.0031844368320611545 -0.00015237513472898996 0.06611715406079995 0 73 181
0.0033030968388419193 0.0004201112531145065 0.06564861004176477 0 115 139
0.0034123387513318097 0.0008914548936465026 0.06593813604532525 0 98 156
0.003523588492390088 0.0013843610315620585 0.06606604984273946 0 93 161
0.0036413275451748313 0.0019469573054127797 0.06567163169407977 0 130 124
0.0037575692171415765 0.0024934728520681674 0.06539773975584312 0 156 98
0.0038716711600503785 0.003017009349525191 0.06529607740630129 0 170 84
0.003986837130511494 0.0035519727066583608 0.06510876983296103 0 190 64
0.004094903882944157 0.0040106960537757835 0.06549288568966614 0 165 89
0.0042106084011967315 0.0045514431573377805 0.0652622276799892 0 188 66
0.004323395627116305 0.005060860671683025 0.06526638772458683 0 193 61
0.004432637557846469 0.005532204508101197 0.06555591225996871 0 176 78
0.004543887286744564 0.006025110515425969 0.06568382703616865 0 171 83
0.004661149052535801 0.006582581063677809 0.0653278267206965 0 205 49
0.004766015938009246 0.007006940359988206 0.06596950319128861 0 160 94
0.00487842204556237 0.007512264963260882 0.06600433984890705 0 162 92
0.004989258504570929 0.008000732777478856 0.06616551914760334 0 155 99
0.0051000949635794865 0.00848920059169683 0.06632669844629963 0 148 106
0.0052075861563241465 0.008941742881097448 0.06675714169988094 0 119 135
0.005324847928195475 0.009499213494644682 0.06640114089501592 0 153 101
0.005437254035748599 0.010004538097917357 0.06643597755263436 0 155 99
0.005542121009785078 0.0104288976760092 0.06707765555646296 0 110 144
0.00565136293443515 0.010900241447131982 0.06736718058123771 0 93 161
0.005752717375452781 0.011286879856519647 0.06829157735295893 0 26 228
0.000785802657228643 -0.008440704620668444 0.06410689643053857 0 141 113
0.0009074150627898978 -0.00783651162801333 0.06340070860282042 0 201 53
0.001029701568079757 -0.007225079335219175 0.06264026178804648 18 236 0
0.001154883765518493 -0.006582549589501604 0.06164673770568688 146 108 0
0.0012631619835285074 -0.006121555268641637 0.06201383247851178 110 144 0
0.0013763082935634562 -0.005608281473725348 0.06198908946983504 121 133 0
0.0014904649167770422 -0.005084157041715194 0.06188301664266064 143 111 0
0.0016024201733959601 -0.0045836742223688285 0.061954142760080315 142 112 0
0.0017147585365712 -0.0040790771403566295 0.06199443223301198 146 108 0
0.001826335198061582 -0.0035826601344950463 0.06209603186541308 142 112 0
0.0019379118595519635 -0.003086243128633462 0.06219763149781418 137 117 0
0.0020456529562115256 -0.0026310170680204784 0.06260795972581627 96 158 0
0.002150531661382564 -0.002206530837467543 0.06324868481667681 27 227 0
0.0022376559404265984 -0.0019727131594681454 0.06531848210046373 0 115 139
0.0023472273148267787 -0.0014978313575161606 0.06558148937279311 0 100 154
0.002454968399326158 -0.001042605427493961 0.06599181857958093 0 73 181
0.0026731835268286558 -0.00010280374569978604 0.06659249832562998 0 37 217
0.0027851388101484006 0.0003976791930634851 0.06666362445931413 0 37 217
0.0028944912740893687 0.0008702100691055941 0.06694425206179465 0 20 234
0.003009821130182927 0.0014069334288487549 0.06674375316374072 0 41 213
0.0031221594871001608 0.0019115304828726165 0.0667840426328604 0 43 211
0.0032391555038412223 0.0024661470982539936 0.06644943270052218 0 75 179
0.0033550715210471814 0.0030091653248296656 0.0662017536272956 0 100 154
0.003474475655668325 0.0035896432269048304 0.06567331182033788 0 146 108
0.003586052317158707 0.0040860602327664145 0.06577491145273898 0 144 110
0.003703468022402517 0.0046451841368193615 0.0654065182254561 0 178 76
0.0038154232851015267 0.005145667021461119 0.0654776438534829 0 178 76
0.003923701503111541 0.005606661342321086 0.06584473862630778 0 154 100
0.004036434525016678 0.006115496748244398 0.06585326160830599 0 159 95
0.004146315357826588 0.006593701889775861 0.06609136025193348 0 146 108
0.004256196196716591 0.007071907096602716 0.06632945840616811 0 132 122
0.004367772858206973 0.0075683241024643 0.0664310580385692 0 130 124
0.004478968407410998 0.008060648262548709 0.06656333379459826 0 125 129
0.004590163962695114 0.00855297248792851 0.06669560906123445 0 120 134
0.004701359499738956 0.009045296517422134 0.06682788579604924 0 115 139
0.004815516223675758 0.00956942136180452 0.0667218135233256 0 128 126
0.00492632107836945 0.010057549770573564 0.06688553668613947 0 121 133
0.005039467489127614 0.010570823977862081 0.0668607942319135 0 128 126
0.0051392830225425725 0.010940935731698275 0.06790905927438197 0 51 203
0.00017535480652781325 -0.008754578705732544 0.06348401108412283 0 185 69
0.0002805218661114878 -0.008326995775906641 0.06410152622891943 0 142 112
0.00041361023738349266 -0.007599559950418171 0.0624716260059432 31 223 0
0.0005358120895614066 -0.006989036765370349 0.06171799300804287 131 123 0
0.0006416313240642582 -0.006554449990589866 0.062283013916458546 70 184 0
0.0007573358811778425 -0.00601370263702018 0.06205235494426037 106 148 0
0.0008697419765707846 -0.005508378164338286 0.06208719258066455 111 143 0
0.0009843721720199736 -0.004979167939520973 0.0619430014325486 136 118 0
0.0010967782795730983 -0.004473843336248296 0.061977838090167055 140 114 0
0.001209956200003005 -0.003960230070587687 0.06195055072797987 152 102 0
0.001321600605871272 -0.003463085543465626 0.06204669754506777 149 105 0
0.0014340067134243966 -0.0029577609401929494 0.062081534202686216 153 101 0
0.0015456511192926637 -0.0024606164130708875 0.062177681019774104 149 105 0
0.001656487578301222 -0.0019721485988529147 0.06233886031847039 138 116 0
0.0017630546154000918 -0.0015295310131885052 0.06284368981950836 85 169 0
0.001843511271700557 -0.0013673183517858092 0.06545017098074615 0 111 143
0.0019452075354542044 -0.0009770090354457041 0.06634705408553965 0 46 208
0.0020503746012604726 -0.0005494260387940462 0.06696456872947325 0 3 251
0.0030708752775066525 0.004093491162919137 0.06656610057071395 0 82 172
0.0031795281666058164 0.004558509323500546 0.06690303551312006 0 61 193
0.0033013801703271244 0.005165275411678158 0.0661775621807306 0 123 131
0.003414167390166606 0.00567469286072801 0.0661817227147211 0 128 126
0.0035258117960348732 0.00617183738785007 0.06627786953180899 0 126 128
0.003638217903587998 0.006677161991122747 0.06631270618942743 0 129 125
0.003749054362596556 0.007165629805340721 0.06647388548812373 0 122 132
0.0038614604701496806 0.007670954408613397 0.06650872214574219 0 124 130
0.0039722969352383305 0.008159422288126763 0.06666990095504562 0 117 137
0.004080363687670993 0.008618145635244186 0.06705401681175073 0 92 162
0.004193150919670658 0.00912756321488482 0.06705817636695549 0 97 157
0.004301803829390557 0.009592581429587745 0.06739511181501893 0 76 178
0.004413053558288652 0.010085487436912515 0.06752302659121888 0 72 182
0.004525081189676731 0.010586746834958817 0.06758833585009093 0 72 182
0.004631260377748022 0.011025199227551437 0.0681243837220524 0 35 219
-0.00022443449741101984 -0.008209802834309634 0.06407004251336225 0 145 109
-0.00010315531125651379 -0.007609188355626919 0.06339067586166641 0 203 51
2.1648722740171943e-05 -0.006970719787421281 0.06242759054739474 45 209 0
0.00013638956713360592 -0.0064403219494098005 0.06227450181263955 72 182 0
0.00025171942645721337 -0.005903598554978463 0.06207400265459567 105 149 0
0.0003676354369879656 -0.005360580358257015 0.06182632357730298 143 111 0
0.00048179205412146034 -0.004836455991542254 0.06172025123952144 164 90 0
0.0005933687156118423 -0.00434003898568067 0.061821850871922546 160 94 0
0.0007057070787870818 -0.0038354419036684705 0.06186214034485421 164 90 0
0.0008188533888220306 -0.0033221681087521843 0.06183739733617748 175 79 0
0.0009276701874044221 -0.002855389856751094 0.062161141199537306 144 110 0
0.001039625456183523 -0.0023549069068139437 0.062232266338171256 144 110 0
0.0011537821801203244 -0.0018307820624315595 0.06212619406544761 165 89 0
0.0012636630068501443 -0.0013525769861954876 0.06236429319846795 144 110 0
0.0013661520354753855 -0.0009537539995457501 0.06319736583563952 51 203 0
0.003116980490316524 0.006619509281979993 0.06759170107235937 0 29 225
0.0032285571639670886 0.0071159264184323615 0.06769329972597476 0 27 227
0.0033417034740020374 0.007629200213348648 0.06766855671729803 0 34 220
0.0034494445586914185 0.008084426145411328 0.06807888590879232 0 7 247
0.0035606401078479427 0.008576750304985618 0.06821116166864476 0 2 252
-0.0008454548304874208 -0.008637217052804536 0.06429814725049239 0 122 132
-0.0007267948504074821 -0.008064730784377945 0.06382960321519274 0 164 90
-0.0006023150555226121 -0.00742974428885035 0.06289261624368027 0 243 11
-0.00048505328973137566 -0.006872273740598511 0.06253661592820811 33 221 0
-0.0003677915239401388 -0.00631480319234667 0.06218061561273597 85 169 0
-0.0002536895877065428 -0.005791266724743872 0.06207895325912805 105 149 0
-0.00013958765147294681 -0.005267730257141073 0.06197729090552013 126 128 0
-2.5485828122749632e-05 -0.0047441943325012914 0.061875628976247175 147 107 0
8.73013917167321e-05 -0.0042347768834514405 0.06187978951023767 154 100 0
0.00019970749926985672 -0.0037294522801787633 0.06191462616785612 158 96 0
0.0003117350116944458 -0.003228193490390869 0.061979936340455996 159 95 0
0.00042038792141434493 -0.0027631752756879465 0.06231687178851945 126 128 0
0.000536092472447838 -0.0022224279874136525 0.062086213305714115 162 92 0
0.0006523341448317829 -0.0016759124388923768 0.06181232136773158 204 50 0
0.0007575012104955499 -0.0012483294437710783 0.06242983602313532 137 117 0
0.0008699073180486743 -0.0007430048404984023 0.062464672680753786 141 113 0
0.0009811570591069527 -0.0002500987025828459 0.062592586478168 134 120 0
0.00108485071191213 0.00016166099895232146 0.06332869766436619 53 201 0
-0.0012398416095432399 -0.00803442364021411 0.06444933354049666 0 117 137
-0.00111465939386423 -0.007391893698610362 0.06345580798995845 0 200 54
-0.0009859220636482722 -0.006711184627021057 0.06217612757915738 78 176 0
-0.0008760412308383612 -0.0062329794854895934 0.062414226222784856 57 197 0
-0.0007590452197601899 -0.0056783629335377195 0.062079616780093654 106 148 0
-0.0006448884897432964 -0.00515423802385994 0.06197354401797714 127 127 0
-0.0005301477399929869 -0.004623840532925299 0.06182045423937833 154 100 0
-0.0004174147180878501 -0.004115005127001987 0.061828977221376535 162 92 0
-0.0003050763670727932 -0.003610408175580572 0.061869267673093926 165 89 0
-0.00019312111045387487 -0.0031099253562342074 0.0619403937905136 165 89 0
-8.23162679203667e-05 -0.0026217970780559466 0.062104117932113206 153 101 0
2.848858677332493e-05 -0.002133668669286902 0.06226784109492707 141 113 0
0.00014006524826370645 -0.001637251663425319 0.062369440727328175 137 117 0
0.00025164192191427163 -0.0011408345269729495 0.06247103938094354 133 121 0
0.0003669717751577876 -0.0006041111978370045 0.06227054071229253 166 88 0
0.00047816731220162983 -0.00011178716834337951 0.06240281744710732 158 96 0
0.0005814013222605 0.00029503633212827935 0.063175925755191 73 181 0
-0.001861221348979857 -0.008465697599935845 0.06470636726872306 0 92 162
-0.0017460553906789255 -0.00793073437339346 0.0645190606741685 0 112 142
-0.0016222037178718286 -0.007302493414248692 0.06363263190085898 0 187 67
-0.0014983520389846407 -0.006674252389808532 0.0627462026381566 10 244 0
-0.0013851741246348251 -0.006160639189443316 0.06271891576536227 22 232 0
-0.001263680378136468 -0.005557720501663401 0.06202227892881742 114 140 0
-0.001150502457706561 -0.005044107236002792 0.06199499156663024 126 128 0
-0.0010364006282762722 -0.004520571246067618 0.06189332914796442 147 107 0
-0.0009239945207231478 -0.004015246642794941 0.06192816580558288 151 103 0
-0.0008032457617385114 -0.003420328534132339 0.061291493787518754 236 18 0
-0.0006995521089333337 -0.0030085688325971723 0.06202760497371694 155 99 0
-0.0005871460013802093 -0.0025032442293244955 0.06206244163133539 159 95 0
-0.0004719800309190944 -0.0019682808721913246 0.06187513405799511 190 64 0
-0.0003639132845665227 -0.0015095575903692946 0.06225925040409309 152 102 0
-0.00025112606472704074 -0.0010001401413194423 0.06226341093808358 160 94 0
-0.00013948165885877364 -0.0005029956141973814 0.062359557755171484 156 98 0
-3.0239728128609537e-05 -3.165177777920844e-05 0.06264908229055337 129 125 0
8.439057412388661e-05 0.000497558924705728 0.0625048912074953 155 99 0
0.00019522703313244478 0.0009860267389237012 0.06266607050619159 144 110 0
0.00030387997563326207 0.0014510451383389215 0.06300300548112665 111 143 0
-0.002371852851533488 -0.008409451181581193 0.06513168138613172 0 59 195
-0.002131258178489804 -0.007229310807642357 0.06393100827546473 0 164 90
-0.0020096457729285497 -0.006625117814987243 0.06322482044774658 0 224 30
-0.0018876977524045528 -0.006017320581975179 0.062491618623216914 50 204 0
-0.0017735410284677507 -0.0054931957375927935 0.06238554635049328 71 183 0
-0.0016565449991493054 -0.004938578989754741 0.062050935439623464 120 134 0
-0.0015471926452416932 -0.004466048626068433 0.06233156323703605 94 160 0
-0.0014283769418619529 -0.003891890012055469 0.061850484871651866 161 93 0
-0.0013152306318270043 -0.0033786162171391817 0.06182574186297513 172 82 0
-0.001203275387368269 -0.0028781335283836014 0.06189686895918054 172 82 0
-0.0010920798260040615 -0.0023858092377084072 0.06202914373642387 164 90 0
-0.0009801245815453262 -0.001885326548952826 0.06210027083262928 164 90 0
-0.0008588453832306376 -0.001284711939679328 0.0614209032021477 255 0 0
-0.0007544001703329833 -0.0008648810747078219 0.06209652053617698 181 73 0
-0.000643204633289141 -0.00037255704521419787 0.06222879727099179 173 81 0
-0.0005333237943991385 0.00010564816161265779 0.0624668954252264 152 102 0
-0.00042017748436419034 0.000618921956528945 0.062442152416549664 164 90 0
-0.00030783913334913324 0.001123518907950359 0.06248244286826706 167 87 0
-0.0002011181033960371 0.0015677900882496844 0.06297487949002324 116 138 0
-9.826158188907543e-05 0.0019705596589979515 0.06377837224358673 27 227 0
-0.002753534858810306 -0.007670216875781478 0.06426023528223027 0 133 121
-0.0026411287634173636 -0.007164892403099586 0.06429507291863444 0 136 118
-0.002518584741938226 -0.0065506945892619675 0.06351389835841302 0 203 51
-0.00239822423934729 -0.005959946048462437 0.06290847750059443 1 253 0
-0.0022800192021030403 -0.005392345507761143 0.06247655228649485 61 193 0
-0.002162757436311803 -0.0048348749595093 0.0621205519710227 113 141 0
-0.0020481272347825227 -0.004305664669396594 0.06197636033351389 139 115 0
-0.0019349493204327073 -0.003792051469031379 0.06194907346071958 150 104 0
-0.001821771406082892 -0.003278438268666163 0.061921786587925264 162 92 0
-0.0017093652985297671 -0.002773113665393487 0.06195662324554371 166 88 0
-0.0015965780786902856 -0.0022636962163436357 0.06196078377953421 174 80 0
-0.0014808735215767013 -0.0017229488627739493 0.061730124807336015 210 44 0
-0.0013733823288320417 -0.0012704065733733303 0.06216056806091731 166 88 0
-0.0012688036944096782 -0.0008491428663142341 0.06282544615789462 93 161 0
-0.0011466018543919466 -0.00023861981185719586 0.06207181413878003 193 61 0
-0.0010367758092852417 0.00023899695289467983 0.062314322701523234 172 82 0
-0.0009221455070327458 0.0007682076553796163 0.06217013161846517 198 56 0
-0.0008155784638537846 0.0012108253063394167 0.06267496063011027 145 109 0
-0.0007035509368885518 0.0017120840849534327 0.06274027179776036 145 109 0
-0.0005923011897501822 0.0022049902881643812 0.0628681851057817 138 116 0
-0.00048364828003028286 0.002670008502867303 0.06320512055384514 105 149 0
-0.003148967735594536 -0.007078656531832454 0.0644956142758078 0 121 133
-0.0030276885372798475 -0.0064780419225589575 0.06381624664532623 0 180 74
-0.00290739942712161 -0.005888060080255256 0.06321657223854046 0 232 22
-0.002788283531391365 -0.005310677636840608 0.06271133107918221 34 220 0
-0.00266916763566112 -0.004733295193425957 0.062206089919823945 103 151 0
-0.002555011012447534 -0.004209170761415803 0.06210001709264955 125 129 0
-0.002438015001369363 -0.003654554209463929 0.061765407649958325 173 81 0
-0.0023272101466756717 -0.0031664258006948837 0.061929130812772196 162 92 0
-0.002214063836640723 -0.0026531520057785974 0.06190438780409546 173 81 0
-0.0021017254856256665 -0.002148555054357183 0.06194467825581285 177 77 0
-0.001988992451560346 -0.0016397195178430863 0.06195320025902533 184 70 0
-0.001876654088385107 -0.0011351224358308882 0.061993489731956994 187 67 0
-0.0017646988439263714 -0.0006346397470753061 0.0620646168281624 187 67 0
-0.0016527435994676363 -0.00013415705831972566 0.062135743924367826 186 68 0
-0.0015415480381034286 0.00035816723235546825 0.06226801870161115 179 75 0
-0.0014303524888994038 0.0008504913924398776 0.06240029445764021 171 83 0
-0.0013187758274090216 0.0013469083983014612 0.06250189409004131 167 87 0
-0.0012088949739783755 0.0018251135939544375 0.06273999323932614 146 108 0
-0.0010929789512874404 0.0023681319212666674 0.062492313183247716 185 69 0
-0.0009925285408132127 0.002745061754666478 0.06348947631203908 72 182 0
-0.0008847874504116576 0.003200287787291125 0.06389980453622919 30 224 0
-0.0036482316069158045 -0.006900330913996118 0.06400593746790181 0 160 94
-0.0035354443931564145 -0.006390913530241661 0.06401009849128517 0 165 89
-0.0034122358967332875 -0.005769579778870936 0.06317543965291486 0 236 18
-0.0032940308534089467 -0.0052019791728742494 0.06274351394942242 31 223 0
-0.003172904618032584 -0.004603007265079039 0.06207645846466421 120 134 0
-0.00306126030072735 -0.004105863019738424 0.06217260374851562 117 137 0
-0.0029435212599248743 -0.003543266913785542 0.06177818707184651 173 81 0
-0.0028314937353401026 -0.003042007993406862 0.06184349626566066 173 81 0
-0.0027194662350756966 -0.002540749334209753 0.06190880741704627 174 80 0
-0.002607821817047247 -0.0020436046764969063 0.062004953255348425 170 84 0
-0.0024946438905372485 -0.0015299913455409059 0.06197766540376838 182 72 0
-0.002381856670697767 -0.0010205738964910553 0.061981825937758875 190 64 0
-0.002271020211689209 -0.0005321060822730809 0.06214300523645516 178 76 0
-0.0021569182815357043 -8.569679965676584e-06 0.06204134337224011 199 55 0
-0.0020437403550257064 0.0005050436509903238 0.06201405552066007 211 43 0
-0.0019362491501208638 0.000957586070981728 0.062444497795455634 167 87 0
-0.0018230712357710484 0.0014711992713469435 0.06241721092266132 178 76 0
-0.0017122347500616636 0.0019596672049818228 0.06257839023762209 167 87 0
-0.0016024087049549586 0.002437283969733698 0.06282089880036529 146 108 0
-0.0014990439668518495 0.002845511386434179 0.06358348467243664 62 192 0
-0.0013799399031572978 0.003422766802322559 0.06307919537839081 131 123 0
-0.001272953163849437 0.0038698916617528802 0.06355024257902604 82 172 0
-0.0011695884008308469 0.004278119304193764 0.06431282698698491 0 253 1
-0.004042866738371236 -0.00630020328972062 0.06417710420250758 0 153 101
-0.003924051034991495 -0.005726044675707656 0.06369602583712339 0 196 58
-0.0038034330101311886 -0.00513253054856927 0.06306987674446446 0 250 4
-0.0036846173067514483 -0.004558371934556304 0.06258879837908028 59 195 0
-0.00356611782628478 -0.003987608636244959 0.06213316446252839 123 131 0
-0.003451961096267887 -0.003463483726567181 0.062027091700411874 144 110 0
-0.0033378043723310846 -0.0029393588821847957 0.06192101942768823 165 89 0
-0.0032250713504259473 -0.0024305234762614846 0.06192954240968644 172 82 0
-0.0031119250403909993 -0.0019172496813451975 0.06190479940100971 183 71 0
-0.0029987787303560505 -0.0014039758864289103 0.061880056392332974 195 59 0
-0.0028875831933122082 -0.0009116518569352862 0.06201233312714777 187 67 0
-0.0027710916170133612 -0.00036245253720164426 0.06171832616358602 231 23 0
-0.0026633505203538 9.2773523411339e-05 0.062128654391588115 189 65 0
-0.00255101215717856 0.0005973706054235381 0.06216894386451978 193 61 0
-0.0024382791352734233 0.00110620601134685 0.06217746684651799 200 54 0
-0.002328926668482413 0.0015787369179961742 0.062458094219595604 174 80 0
-0.002217349980291204 0.0020751540432746634 0.06255969386826118 170 84 0
-0.0021085331695486296 0.0025419324258665376 0.06288343675283528 139 115 0
-0.001996577919009803 0.0030424151799175107 0.06295456335964783 139 115 0
-0.0018857730766542093 0.003530543495402826 0.06311828700804258 127 127 0
-0.0017745775400275672 0.004022867523030562 0.06325056374260324 120 134 0
-0.0016687998015531033 0.004457008621317755 0.0638189252507885 59 195 0
-0.004677169176936323 -0.006870256859680636 0.0654742994008904 0 46 208
-0.004560927492392196 -0.006323741180568576 0.06520040648412213 0 73 181
-0.004431804076375152 -0.005638885851571232 0.0638896496263287 0 181 73
-0.004307636846826695 -0.005007256061568556 0.06297782136327267 5 249 0
-0.004188099290680842 -0.0044253453174057985 0.06243864031926295 78 176 0
-0.004070837625612821 -0.0038678751815261884 0.062082639449340046 130 124 0
-0.003959587884554543 -0.003374969043610632 0.06221055324675425 123 131 0
-0.0038433462182506884 -0.0028284535603847476 0.06193666179816459 164 90 0
-0.0037271045458667426 -0.002281938011863472 0.06166276986018205 206 48 0
-0.0036178626151365787 -0.0018105941754452987 0.061952294395563934 179 75 0
-0.0035046847007867634 -0.001296980975080083 0.06192500752276962 190 64 0
-0.003393434953648394 -0.0008040747718691351 0.06205292083079096 183 71 0
-0.003278268983187279 -0.0002691114147359635 0.061865613257450686 214 40 0
-0.003167432524178721 0.0002193563994820093 0.06202679255614699 203 51 0
-0.003055404999593949 0.0007206153198606889 0.06209210174996113 203 51 0
-0.0029433774993295435 0.0012218739790577995 0.062157412901346736 204 50 0
-0.0028335514542228383 0.0016994907438096748 0.06239992146408994 182 72 0
-0.0027237253824153066 0.002177107627978456 0.06264243004309761 161 93 0
-0.0026113192748621816 0.0026824322312511326 0.06267726670071606 165 89 0
-0.002500482815853624 0.003170900045469106 0.06283844599941235 154 100 0
-0.0023906567770049254 0.003648516782232644 0.06308095455834357 133 121 0
-0.002278250682029184 0.004153841253048648 0.06311579219449363 137 117 0
-0.002170759482609317 0.004606383572303494 0.06354623545214104 93 161 0
-0.0020599230114405763 0.0050948515171122515 0.06370741377205161 82 172 0
-0.001953743829449377 0.005533303844409477 0.06424346213340595 25 229 0
-0.004943261388004901 -0.0055915066514106914 0.06438142427578925 0 143 111
-0.004815723939497621 -0.004923683364300857 0.06319832358952605 0 241 13
-0.004694111533936367 -0.004319490371645739 0.062492135761807906 73 181 0
-0.004579370802426331 -0.003789093076597275 0.062339047451387686 100 154 0
-0.004459081686188002 -0.0031991111689981815 0.06173937255520905 181 73 0
-0.004351340595608533 -0.0027438851736805896 0.062149701272604004 139 115 0
-0.004234849025389778 -0.0021946859192423416 0.06185569479843512 183 71 0
-0.004122115979164275 -0.0016858502521374605 0.06186421582286187 190 64 0
-0.0040089696812895086 -0.0011725765878119578 0.06183947379297086 202 52 0
-0.0038973930076389445 -0.0006761594513595903 0.06194107244658623 198 56 0
-0.0037842467097641786 -0.00016288578703408697 0.06191633041669523 209 45 0
-0.0036719083587491213 0.00034171116438732685 0.061956620868412644 212 42 0
-0.0035607128095450965 0.0008340353244717363 0.0620888966244417 205 49 0
-0.003451895998802522 0.0013008137070636108 0.06241263950901581 174 80 0
-0.00333773927486572 0.0018249385514459955 0.06230656723629216 195 59 0
-0.003228922437422319 0.0022917170534547757 0.06263031013713075 164 90 0
-0.0031157761517077356 0.0028049905871894935 0.06260556908602546 175 79 0
-0.0030058953128177333 0.0032831957940163484 0.06284366724026008 154 100 0
-0.0028935569559005 0.0037877928480402104 0.06288395670937977 158 96 0
-0.002785278744387778 0.0042487871017388955 0.06325105197134338 122 132 0
-0.0026744738830188795 0.004736915540362168 0.06341477513822337 110 144 0
-0.0025632783338148547 0.005229239700446576 0.06354705089425244 102 152 0
-0.002456557330562585 0.005673510761328996 0.06403948749974414 51 203 0
-0.0023544266101814867 0.006068485966982563 0.06490139857406728 0 225 29
-0.0054382975595927505 -0.005367778661949912 0.06355145401153155 0 209 45
-0.005325510327593086 -0.004858361082309276 0.06355561356673632 0 214 40
-0.005201343110204811 -0.004226731422897382 0.06264378628246602 56 198 0
-0.005085638659894535 -0.0036859845469953195 0.062413127245209934 92 162 0
-0.0049674336165701945 -0.003118383940998633 0.061981201541717476 153 101 0
-0.0048542556900601965 -0.002604770610042633 0.06195391369013743 164 90 0
-0.004742228177635607 -0.0021035118202547384 0.06201922386273731 164 90 0
-0.004629050263285792 -0.0015898986198895227 0.06199193698994299 176 78 0
-0.004515872336775794 -0.0010762852889335222 0.06196464913836295 188 66 0
-0.004400167791822392 -0.0005355380659546212 0.061733991144950484 224 30 0
-0.004288140279397804 -3.4279276166725246e-05 0.06179930131755036 224 30 0
-0.004181153515352377 0.0004128458463110527 0.06227034656086829 175 79 0
-0.004064911842968431 0.0009593613948323293 0.06199645462288575 217 37 0
-0.003954075383959873 0.0014478292090503032 0.06215763392158204 206 48 0
-0.0038412881519602087 0.0019572467886909387 0.0621617934767868 213 41 0
-0.0037343013855343204 0.002404371769404054 0.06263284069394065 165 89 0
-0.003620199455380816 0.002927908171711459 0.06253117882972559 185 69 0
-0.0035109575246506522 0.0033992520081296317 0.06282070336510746 158 96 0
-0.0033905970343978136 0.0039900004556454325 0.06221528299286976 240 14 0
-0.0032882266652526702 0.004387549135554081 0.06305790662096047 146 108 0
-0.0031827434768039323 0.0048185269985636 0.06364997676654013 83 171 0
-0.003066501804419987 0.005365042547084875 0.06337608482855761 124 130 0
-0.0029578488947000874 0.0058300607617877975 0.06371302027662105 91 163 0
-0.002848022876294209 0.006307677407122769 0.06395552882309978 70 184 0
-0.0027410361244089654 0.0067548023990097635 0.06442657504520341 21 233 0
-0.005833533701998599 -0.004774105421903184 0.06377099674155068 0 198 56
-0.005712585807861881 -0.004177048758553525 0.06311829612833862 0 254 0
-0.0055944223801245325 -0.0036098944018673703 0.06268971144488461 59 195 0
-0.005473804361344318 -0.0030163803400243753 0.06206356284161854 144 110 0
-0.005361466010329261 -0.0025117833886029606 0.06210385329333593 147 107 0
-0.005246725159855736 -0.0019813854852960893 0.061950764069187876 174 80 0
-0.005136844333125917 -0.0015031804090600183 0.06218886320220822 153 101 0
-0.0050209283104349816 -0.0009601620817477881 0.0619411831461298 192 62 0
-0.004905598457191466 -0.000423438752611843 0.06174068447747877 224 30 0
-0.004794402907987441 6.888540747256727e-05 0.06187296023350783 216 38 0
-0.004683598053293749 0.0005570138162416115 0.062036683396321714 205 49 0
-0.0045708650313886125 0.0010658492221649234 0.06204520637831992 212 42 0
-0.004461512564597602 0.001538380128814248 0.06232583375139753 186 68 0
-0.004348366254562653 0.0020516539237305344 0.0623010907427208 198 56 0
-0.004238485388971824 0.0025298592499742954 0.06253918891321988 177 77 0
-0.004126147037956767 0.00303445620139571 0.06257947936493728 180 74 0
-0.0040178688138666615 0.0034954505875510683 0.06294657364836931 144 110 0
-0.0039055304691096113 0.004000047510984145 0.06298686409627473 147 107 0
-0.003793953795876247 0.004496464645570625 0.06308846274963596 143 111 0
-0.003682758246077107 0.0049887887702138685 0.06322073899912399 136 118 0
-0.003571953403543598 0.005476917048392128 0.0633844631407236 124 130 0
-0.003462072570733687 0.005955122189923591 0.06362256178435109 103 151 0
-0.0033512677427408226 0.006443250479275731 0.06378628493090048 92 162 0
-0.0032424509441584303 0.0069100287312768216 0.06411002879426031 61 193 0
-0.003131646095544831 0.007398157074750474 0.06427375244646705 49 205 0
-0.0030295153302226318 0.007793132595707122 0.06513566206887605 0 224 30
-0.006340245995904629 -0.004675769789588714 0.0638808496857005 0 190 64
-0.006219497218679719 -0.0040808514850399335 0.06324417619945778 0 245 9
-0.006102235559691789 -0.0035233814144557157 0.06288817581892774 36 218 0
-0.005981875057100853 -0.002932632873656185 0.06228275496110914 118 136 0
-0.00586617050606736 -0.0023918855853818912 0.062052096478303814 154 100 0
-0.005752068588074038 -0.0018683493136652713 0.061950435592874484 175 79 0
-0.005639662480520915 -0.0013630247103925941 0.06198527225049293 179 75 0
-0.0055264845418507335 -0.0008494112488458094 0.061957983420127156 191 63 0
-0.005413697334171434 -0.00033999393038674336 0.06196214493290338 198 56 0
-0.00530129122661831 0.00016533067288593446 0.06199698159052183 202 52 0
-0.0051885040067788275 0.000674748121935785 0.06200114212451235 210 44 0
-0.005075326092429012 0.001188361322301001 0.06197385525171803 222 32 0
-0.004964076345290643 0.0016812675255119497 0.062101768559739375 214 40 0
-0.004852048820705871 0.002182526445890629 0.06216707775355352 215 39 0
-0.0047428068754350634 0.0026538702711349227 0.06245660328398561 188 66 0
-0.004631162469566796 0.0031510147982569845 0.0625527501010735 185 69 0
-0.004520325998398056 0.003639482743065742 0.06271392842098406 173 81 0
-0.004407148090306246 0.00415309591544262 0.06268664154437777 185 69 0
-0.004299081332210692 0.004611819325989547 0.06307075691143588 147 107 0
-0.0041892552865088716 0.005089436055300257 0.06331326596763806 125 129 0
-0.004076077372159056 0.005603049255665472 0.06328597909484375 137 117 0
-0.003965240907070407 0.006091517135178838 0.06344715790414718 126 128 0
-0.0038544044626024924 0.00657998496057069 0.06360833620779326 114 140 0
-0.003745751546802502 0.007045003240569005 0.06394527116646384 82 172 0
-0.003634107140934235 0.007542147767691068 0.06404141798355173 79 175 0
-0.0035295285065118716 0.007963411474750161 0.06470629608052902 6 248 0
-0.0034171223989587465 0.00846873607802284 0.06474113273814748 10 244 0
-0.006730402917297204 -0.004027552358134521 0.06369158003853918 0 211 43
-0.00661099889555946 -0.0034470749990223714 0.06316313865591641 4 250 0
-0.006492835373178986 -0.002879920295259378 0.06273455501630601 64 190 0
-0.0063750317922067696 -0.0023166310787177354 0.06233494343436409 121 133 0
-0.0062585402159079226 -0.0017674317589840955 0.06204093647080234 165 89 0
-0.006145807194002786 -0.0012585963530607831 0.06204945945280055 172 82 0
-0.006032660883967837 -0.000745322558144496 0.062024716444123815 183 71 0
-0.005921084210317273 -0.0002489054216921285 0.062126315097739186 179 75 0
-0.005808351176251953 0.000259930114821969 0.06213483710095166 187 67 0
-0.005694194452315151 0.0007840549592043533 0.062028764828228035 208 46 0
-0.005584313625585331 0.0012622600354404243 0.06226686396124838 187 67 0
-0.0054711673155503834 0.0017755338303567115 0.062242120952571645 198 56 0
-0.005361286476660381 0.002253739037183567 0.06248021910680626 178 76 0
-0.005249709788469172 0.002750156162462056 0.06258181875547184 174 80 0
-0.0051403573216781615 0.00322268706911138 0.06286244612854945 148 106 0
-0.005031004848807059 0.0036952180410560966 0.0631430730122342 122 132 0
-0.004915674995741458 0.004231941407499097 0.06294257385037832 155 99 0
-0.004803719751699923 0.004732424094388789 0.0630137009463296 155 99 0
-0.004692524195820691 0.005224748284327426 0.06314597670642477 147 107 0
-0.004581719353287183 0.005712876562505685 0.06330970084802438 135 119 0
-0.004470914504673584 0.006201004905979338 0.06347342450023112 124 130 0
-0.004359718976090293 0.006693329011942234 0.06360569975060283 116 138 0
-0.004249838143280382 0.0071715341534736975 0.06384379839423032 95 159 0
-0.00413864260623654 0.007663858182967323 0.0639760751290451 87 167 0
-0.004027837751542848 0.008151986591736366 0.06413979829185898 76 178 0
-0.003917956918732938 0.00863019173326783 0.06437789693548646 55 199 0
-0.003811235915480669 0.009074462794150251 0.06487033354097818 4 250 0
-0.007231356045309576 -0.0038673678202567653 0.06333787174031473 0 239 15
-0.007118950044559759 -0.0033620436946517115 0.0633727083328753 0 242 12
-0.006996748204542026 -0.002751520640194673 0.0626190763137607 79 175 0
-0.006881043653508534 -0.0022107733519203783 0.06238841783095537 116 138 0
-0.006763781887717296 -0.0016533028036685386 0.06203241751548322 167 87 0
-0.006650994655717633 -0.0011438852240279026 0.06203657707068798 175 79 0
-0.00653820743587815 -0.0006344677749780512 0.06204073760467847 183 71 0
-0.006425029521528336 -0.00012085457461283615 0.06201345073188416 194 60 0
-0.006312623413975211 0.0003844700286598417 0.06204828738950261 198 56 0
-0.0061998361941357286 0.0008938874777096922 0.06205244792349312 206 48 0
-0.006088191776107279 0.0013910321354225386 0.06214859376179528 203 51 0
-0.005976547370239012 0.0018881766625446004 0.06224474057888317 199 55 0
-0.0058624454279253245 0.0024117131954427893 0.062143077735882374 220 34 0
-0.005753792497584689 0.002876731464267225 0.06248001368960316 187 67 0
-0.005642956026415949 0.0033651994090759833 0.06264119200951372 176 78 0
-0.005531706291437763 0.003858105481696147 0.06276910629632079 169 85 0
-0.005418919077856287 0.004367522902757661 0.06277326682649931 176 78 0
-0.005308082619264929 0.004855990715109746 0.06293444612494146 165 89 0
-0.00519605508800495 0.005357249665342652 0.06299975532282172 166 88 0
-0.005085218628996392 0.005845717479560624 0.06316093462151802 154 100 0
-0.004973968881858024 0.0063386236827715735 0.06328884792953937 147 107 0
-0.004864726983908777 0.0068099673344774484 0.06357837293804965 120 134 0
-0.004769481545081229 0.007130999872022403 0.06499448963887028 0 227 27
-0.004642737512015318 0.007790302502215633 0.06387525178526568 101 153 0
-0.004531093106147051 0.008287447029337694 0.06397139860235357 97 157 0
-0.004420256641058402 0.00877591490885106 0.06413257741165698 86 168 0
-0.004312765448313742 0.00922845719825168 0.06456302066523831 42 212 0
-0.004210061865424742 0.009629584328703224 0.0653788236069537 0 224 30
-0.007628374995544493 -0.0032928398627722856 0.06370090586177206 0 217 37
-0.0075077569706841875 -0.0026993257356338982 0.06307475676911313 25 229 0
-0.007388641068873851 -0.002121943226923857 0.06256951512036199 95 159 0
-0.007270141493764057 -0.0015511795815356738 0.062113882247653726 158 96 0
-0.007156995195889292 -0.001037905917210171 0.062089140217762726 169 85 0
-0.0070461903411956 -0.0005497775084411262 0.06225286338057659 158 96 0
-0.006929698764896754 -5.781887074860458e-07 0.061958856417014846 202 52 0
-0.006818122103406372 0.0004958388171540987 0.062060456049415944 198 56 0
-0.00670692656636253 0.0009881628466477227 0.06219273278423075 190 64 0
-0.006594971297583429 0.001488645796584873 0.06226385792286469 190 64 0
-0.006481824987548481 0.00200191959150116 0.06223911491418796 201 53 0
-0.006376946288457532 0.002426405756758703 0.06287984049444137 132 122 0
-0.006259950244598442 0.0029810224934228744 0.06254523057862177 180 74 0
-0.006148373570947878 0.003477439629875243 0.06264682923223713 176 78 0
-0.006036418326489143 0.003977922318630823 0.06271795632844254 176 78 0
-0.005925222783543124 0.004470246450726896 0.06285023208065962 168 86 0
-0.005815341945070321 0.004948451655687863 0.06308833023464011 148 106 0
-0.005702608916489977 0.005457287091465401 0.06309685322070442 155 99 0
-0.005600827981384111 0.005848505711438014 0.06398692104044572 55 199 0
-0.005480538877305965 0.006438487488446323 0.06338724712305283 136 118 0
-0.005369734049313101 0.0069266157777984625 0.06355097026960221 125 129 0
-0.005257778804854365 0.007427098466554044 0.06362209736580762 124 130 0
-0.005151057801602095 0.007871369527436464 0.06411453397129932 73 181 0
-0.005035727948358579 0.00840809285657241 0.0639140353026483 105 149 0
-0.004926911143696097 0.008874871173868891 0.06423777867661527 74 180 0
