ply
format ascii 1.0
element vertex 721
property float x
property float y
property float z
end_header
-0.0016335325201906675 -0.014273354243240674 -0.002286941045895218
-0.001267245255938926 -0.013836830080147158 -0.0032376807648688546
-0.0009009573930445729 -0.013400305203619156 -0.0031665489077568046
-0.0005346695301502197 -0.012963780327091156 -0.003412297461181878
-0.00016838166725586663 -0.012527255450563154 -0.0034433107357472173
0.00019790559699587492 -0.012090731287469637 -0.0034400811418890944
0.0005641928612476164 -0.011654207124376119 -0.0034368524793535462
0.0009304807241419696 -0.011217682247848118 -0.00320098316296935
0.001296768287715017 -0.010781157728037359 -0.0038109470624476663
0.00166305615060937 -0.010344632851509359 -0.003877235809341072
0.0020293437141824175 -0.0099081083316986 -0.004396734759211539
0.002395631277755465 -0.00947158381188784 -0.004016839899122714
0.002761919140649818 -0.009035058935359839 -0.00408312864601612
0.003128206704222865 -0.00859853441554908 -0.0034473910927772513
0.0034944942677959125 -0.00816200989573832 -0.0037981781642884007
0.0038607821306902656 -0.00772548501921032 -0.0037949490360915652
0.0042270696942633135 -0.0072889604993995605 -0.003723816014826297
0.004593357407497013 -0.00685243580123018 -0.0026922733522951594
-0.002802633122507374 -0.014780116133402323 -0.0019145433325320474
-0.0024363452596130207 -0.014343591256874323 -0.0018113149562850586
-0.0020700573967186676 -0.013907066380346321 -0.002871399046853184
-0.0017037701324669262 -0.013470542217252805 -0.0024691675789654246
-0.0013374822695725731 -0.013034017340724803 -0.003412371035665273
-0.0009711944066782198 -0.012597492464196803 -0.0034494393039494744
-0.0006049065437838668 -0.012160967587668802 -0.0037331860512495032
-0.0002386192795321252 -0.011724443424575284 -0.0036299582570791236
0.00012766798471961635 -0.011287919261481767 -0.003667026758193969
0.0004939558476139695 -0.010851394384953765 -0.0036360134836286298
0.0008602434111870168 -0.010414869865143006 -0.004107085056602954
0.00122653127408137 -0.009978344988615006 -0.0040760720148682586
0.0015928188376544174 -0.009541820468804247 -0.004147205036133527
0.001959106401227465 -0.009105295948993487 -0.0039014548528939477
0.002325394264121818 -0.008668771072465487 -0.004007509443908929
0.002691681827694865 -0.008232246552654728 -0.004196152556687593
0.0030579693912679124 -0.007795722032843968 -0.003845365485176443
0.0034242572541622654 -0.007359197156315967 -0.003398046363145112
0.003790544817735313 -0.006922672636505208 -0.0037779419217258683
0.004156832530969013 -0.006486147938335827 -0.0032262690365314475
0.00452312031903304 -0.0060496231509871365 -0.002114549744874238
-0.0032391576423181335 -0.014413828569829276 -0.0013293821830302468
-0.00287286977942378 -0.013977303693301276 -0.002071041613817214
-0.002506581916529427 -0.013540778816773274 -0.0027586494106799355
-0.0021402946522776855 -0.013104254653679757 -0.0027896626852452746
-0.0017740067893833324 -0.012667729777151755 -0.003426458686590194
-0.0014077189264889783 -0.012231204900623755 -0.0036199986934661857
-0.0010414310635946252 -0.011794680024095755 -0.003616768401116132
-0.0006751437993428837 -0.011358155861002237 -0.003810308873653411
-0.0003088565350911421 -0.01092163169790872 -0.004056059289723634
5.743132780321104e-05 -0.010485106821380718 -0.0041223475709557525
0.0004237188913762584 -0.010048582301569959 -0.004153360612690448
0.0007900067542706115 -0.009612057425041958 -0.004219649359583854
0.001156294317843659 -0.0091755329052312 -0.004148515872657298
0.0015225818814167062 -0.00873900838542044 -0.004214804619550704
0.0018888697443110592 -0.00830248350889244 -0.0040261615067720405
0.0022551573078841065 -0.00786595898908168 -0.004057175014168023
0.002621444871457154 -0.00742943446927092 -0.0038213054649531833
0.002987732734351507 -0.00699290959274292 -0.0036326625850051633
0.0033540202979245536 -0.00655638507293216 -0.003526609390974044
0.003720308011158254 -0.006119860374762779 -0.0028908716049045316
0.0040865957992222805 -0.005683335587414089 -0.0020095198415219775
-0.004041969426380634 -0.014484065169349747 -0.0020160037092864505
-0.0036756821621288928 -0.014047541006256228 -0.0017176078399643293
-0.0033093942992345393 -0.013611016129728228 -0.0025003505870699874
-0.0029431064363401862 -0.013174491253200228 -0.0028802461456507436
-0.0025768191720884448 -0.01273796709010671 -0.003212131327018141
-0.002210531309194091 -0.01230144221357871 -0.0035920271184295407
-0.0018442434462997376 -0.011864917337050708 -0.0035952562466263762
-0.0014779555834053845 -0.011428392460522708 -0.0038790034595876923
-0.0011116683191536429 -0.010991868297429189 -0.003916071262210607
-0.0007453810549019014 -0.010555344134335672 -0.004022125154733657
-0.00037909319200754826 -0.01011881925780767 -0.004093258641660213
-1.2805628434500924e-05 -0.009682294737996911 -0.0044731530360877505
0.0003534822344598522 -0.009245769861468911 -0.004122366197407245
0.0007197697980328995 -0.008809245341658152 -0.004677747841924428
0.0010860573616059469 -0.008372720821847392 -0.004230429884046315
0.0014523452245003 -0.007936195945319392 -0.004036888014525174
0.0018186327880733474 -0.007499671425508632 -0.004040118306875228
0.0021849203516463946 -0.007063146905697873 -0.003973829559981822
0.0025512082145407477 -0.006626622029169873 -0.003675433807075023
0.0029174957781137943 -0.006190097509359113 -0.003377038286998867
0.0032837834913474946 -0.005753572811189733 -0.0026894300244748584
0.0036500712794115212 -0.005317048023841042 -0.002575325779616832
0.004016358917814895 -0.0048805234148509725 -0.0018042686861008397
-0.004478494302908635 -0.014117777306455394 -0.0020947514567524186
-0.004112207038656893 -0.013681253143361875 -0.0017628647619858378
-0.0037459191757625403 -0.013244728266833875 -0.002425423124805092
-0.003379631312868187 -0.012808203390305873 -0.0031130316201597443
-0.0030133440486164458 -0.012371679227212357 -0.0030418990645557633
-0.002647056185722092 -0.011935154350684356 -0.0037044568452984086
-0.002280768322827739 -0.011498629474156355 -0.0037707455921918145
-0.0019144804599333855 -0.011062104597628354 -0.003837034571915864
-0.0015481931956816439 -0.010625580434534836 -0.004030574578791856
-0.0011819059314299024 -0.01018905627144132 -0.004133802838623523
-0.0008156180685355492 -0.009752531394913317 -0.004096734337508678
-0.0004493305049625019 -0.009316006875102558 -0.004290274344384669
-8.304264206814878e-05 -0.008879481998574558 -0.004287045914679765
0.0002832449215048986 -0.008442957478763799 -0.00418099109083414
0.0006495324850779459 -0.00800643295895304 -0.003992348443716764
0.001015820347972299 -0.007569908082425038 -0.0038862950168550006
0.0013821079115453464 -0.007133383562614279 -0.0037802418228238812
0.0017483954751183937 -0.00669685904280352 -0.0040259906090795985
0.002114683338012746 -0.006260334166275519 -0.0029659071005880824
0.0024809709015857933 -0.005823809646464759 -0.002962678438052534
0.0028472586148194936 -0.00538728494829538 -0.002326940651983022
-0.005281306685613748 -0.014188014619410346 -0.0018595695728436106
-0.0049150188227193945 -0.013751489742882346 -0.0020482121035456653
-0.004548731558467653 -0.013314965579788828 -0.002561944536864757
-0.0041824436955733 -0.012878440703260828 -0.0026330768596380945
-0.0038161558326789465 -0.012441915826732826 -0.0033075606916099782
-0.003449868568427205 -0.012005391663639309 -0.003496203804388642
-0.003083580705532851 -0.011568866787111309 -0.003684846684336662
-0.002717292842638498 -0.011132341910583309 -0.0037219149526208635
-0.0023510049797441446 -0.010695817034055307 -0.003910557366907596
-0.001984717715492403 -0.01025929287096179 -0.004016611259430646
-0.0016184304512406617 -0.009822768707868272 -0.004530343692749738
-0.0012521425883463087 -0.009386243831340272 -0.003978671040385961
-0.0008858550247732612 -0.008949719311529512 -0.004049803130328654
-0.0005195671618789081 -0.00851319443500151 -0.004333550576120614
-0.00015327959830586075 -0.008076669915190751 -0.004140010569244622
0.0002130079652671866 -0.007640145395379993 -0.004177079070359468
0.0005792958281615397 -0.007203620518851992 -0.004146065562963485
0.0009455833917345871 -0.0067670959990412324 -0.004149293992668389
0.0013118709553076344 -0.006330571479230473 -0.003747062990441918
0.0016781588182019868 -0.005894046602702471 -0.00291691068559885
0.002044446381775034 -0.005457522082891712 -0.002618515398353338
0.0024107340950087343 -0.005020997384722332 -0.003292998997494578
0.002777021883072761 -0.004584472597373642 -0.0028081655036658044
-0.005351543342530154 -0.013385202179309299 -0.0022217587102204557
-0.004985256078278412 -0.01294867801621578 -0.0025725460145622487
-0.004618968215384059 -0.01251215313968778 -0.0025014122948050495
-0.004252680352489706 -0.01207562826315978 -0.0032430717255920167
-0.0038863930882379644 -0.011639104100066262 -0.0034366117324680086
-0.0035201052253436105 -0.011202579223538262 -0.0037873990368098016
-0.0031538173624492574 -0.010766054347010261 -0.0038906268309801813
-0.002787529499554904 -0.01032952947048226 -0.004084167536348104
-0.0024212422353031625 -0.009893005307388743 -0.0038004198577255006
-0.002054954971051421 -0.009456481144295224 -0.004151206463575362
-0.001688667108157068 -0.009019956267767224 -0.004182219970971345
-0.0013223795445840205 -0.008583431747956465 -0.004375759977847337
-0.0009560916816896674 -0.008146906871428463 -0.004406773019582032
-0.0005898041181166201 -0.007710382351617705 -0.003935701679438352
-0.0002235165545435727 -0.007273857831806945 -0.0041292416863143435
0.00014277130835078043 -0.006837332955278944 -0.004023188725113868
0.0005090588719238278 -0.006400808435468185 -0.003834545379504561
0.0008753464354968743 -0.005964283915657425 -0.0033208141103386875
0.0012416342983912274 -0.005527759039129425 -0.0029889275319874282
0.0016079218619642747 -0.005091234519318665 -0.002015755511820316
0.001974209575197975 -0.004654709821149285 -0.0013412714470177882
-0.006154356081952507 -0.013455439192942946 -0.0022790338844060893
-0.005788068219058154 -0.013018914316414946 -0.0022480217739939685
-0.005421780954806413 -0.012582390153321427 -0.00253176805563271
-0.00505549309191206 -0.012145865276793427 -0.0030028396286070342
-0.004689205229017707 -0.011709340400265425 -0.003334726439788937
-0.004322917964765964 -0.011272816237171909 -0.0036184736527502532
-0.003956630101871611 -0.010836291360643908 -0.0037245268467813726
-0.0035903422389772584 -0.010399766484115908 -0.0038305816706269975
-0.003224054376082905 -0.009963241607587906 -0.003936634864658116
-0.0028577671118311635 -0.00952671744449439 -0.0040077674202620974
-0.002491479847579422 -0.009090193281400871 -0.004078900907188653
-0.002125191984685069 -0.008653668404872871 -0.004184953868389129
-0.0017589044211120215 -0.008217143885062112 -0.004118665121495723
-0.0013926165582176684 -0.007780619008534111 -0.003599166171625256
-0.001026328994644621 -0.0073440944887233515 -0.004234903957694768
-0.0006600414310715737 -0.006907569968912592 -0.004203890915960073
-0.00029375356817722055 -0.006471045092384591 -0.004137602634727954
7.253399539582678e-05 -0.006034520572573832 -0.004071313887834548
0.0004388215589688741 -0.005597996052763073 -0.004040300380438565
0.0008051094218632268 -0.005161471176235071 -0.002861293032765388
0.0011713969854362741 -0.0047249466564243114 -0.001682284520938992
0.0015376846986699744 -0.004288421958254932 -0.0017534169601276513
-0.006224592738868913 -0.012652626752841898 -0.0022382081951946016
-0.005858305474617172 -0.01221610258974838 -0.002640439430251717
-0.005492017611722819 -0.01177957771322038 -0.002991226268932223
-0.005125729748828466 -0.01134305283669238 -0.003057515015825629
-0.004759442484576724 -0.010906528673598861 -0.0034597462508827444
-0.004393154621682371 -0.010470003797070861 -0.0038105333223938938
-0.004026866758788018 -0.01003347892054286 -0.0036218904424458738
-0.0036605788958936646 -0.009596954044014859 -0.0038154304493218656
-0.003294291631641923 -0.00916042988092134 -0.004008971154689789
-0.0029280043673901818 -0.008723905717827824 -0.004202511161565781
-0.0025617165044958287 -0.008287380841299822 -0.0042687999084591866
-0.0021954289409227812 -0.007850856321489063 -0.004080156795680523
-0.0018291410780284282 -0.0074143314449610625 -0.004273696802556515
-0.0014628535144553807 -0.006977806925150303 -0.004202564246952534
-0.0010965659508823335 -0.006541282405339544 -0.004396104719489813
-0.0007302780879879803 -0.006104757528811543 -0.0037603664677590127
-0.000363990524414933 -0.005668233009000784 -0.0034766206517815586
2.297039158114376e-06 -0.005231708489190024 -0.003192873205989599
0.00036858490205246753 -0.004795183612662024 -0.002343543572351336
0.0007348724656255148 -0.004358659092851265 -0.0031146004330366846
-0.006661117437038293 -0.012286339039608199 -0.0022675639484077688
-0.006294830172786552 -0.01184981487651468 -0.002781295450404286
-0.005928542309892199 -0.01141328999998668 -0.003065042663365602
-0.005562254446997846 -0.010976765123458678 -0.0033969278447329994
-0.005195967182746104 -0.010540240960365162 -0.0035029826685786243
-0.004829679319851751 -0.01010371608383716 -0.0035741145256906743
-0.004463391456957398 -0.00966719120730916 -0.0038099840749055143
-0.004097103594063045 -0.00923066633078116 -0.0038811163976788516
-0.003730816329811303 -0.008794142167687641 -0.004116985481232405
-0.0033645290655595615 -0.008357618004594123 -0.004085972439497709
-0.0029982412026652084 -0.007921093128066123 -0.004157105460762978
-0.002631953639092161 -0.007484568608255363 -0.004160334821790457
-0.002265665776197808 -0.007048043731727362 -0.004266389179974794
-0.0018993782126247604 -0.006611519211916603 -0.004072847776114941
-0.0015330906490517132 -0.006174994692105844 -0.004178902134299278
-0.0011668027861573601 -0.0057384698155778435 -0.003985361196100712
-0.0008005152225843127 -0.005301945295767084 -0.003739611711353063
-0.00043422765901126535 -0.004865420775956325 -0.0032922937534749504
-6.793979611691221e-05 -0.004428895899428324 -0.002246540272608399
-0.0070976421352076735 -0.011920051326374498 -0.0014550962951034305
-0.006731354870955932 -0.011483527163280981 -0.0026341041084378953
-0.006365067008061579 -0.01104700228675298 -0.003036335343495011
-0.0059987791451672256 -0.010610477410224979 -0.00328208552673459
-0.005632491880915484 -0.01017395324713146 -0.003475625533610582
-0.005266204018021131 -0.00973742837060346 -0.0036691657733172174
-0.0048999161551267776 -0.009300903494075459 -0.003862705780193209
-0.0045336282922324245 -0.008864378617547458 -0.003965933807194233
-0.0041673410279806835 -0.00842785445445394 -0.0040691620670259
-0.0038010537637289416 -0.007991330291360423 -0.004100175108760595
-0.0034347659008345886 -0.007554805414832422 -0.004345924127846956
-0.003068478337261541 -0.007118280895021663 -0.004308856092393398
-0.002702190474367188 -0.006681756018493662 -0.004202802665531635
-0.0023359029107941406 -0.006245231498682903 -0.004165734630078077
-0.001969615347221093 -0.005808706978872143 -0.0038819881156086917
-0.0016033274843267403 -0.005372182102344143 -0.003598240669816732
-0.0012370399207536928 -0.004935657582533384 -0.0026550374459475275
-0.0008707523571806454 -0.004499133062722625 -0.0023231513332575555
-0.007900454607092097 -0.011990288564499125 -0.0016972349258139727
-0.0075341667441977435 -0.011553763687971124 -0.0018858776893466709
-0.007167879479946002 -0.011117239524877606 -0.0026339171454310417
-0.0068015916170516486 -0.010680714648349606 -0.0031892990227788687
-0.0064353037541572955 -0.010244189771821606 -0.0033779421355575323
-0.006069016489905554 -0.009807665608728087 -0.0034839962609112263
-0.0057027286270112006 -0.009371140732200087 -0.00367263937368989
-0.0053364407641168475 -0.008934615855672085 -0.004052533768117428
-0.0049701529012224945 -0.008498090979144085 -0.003949305508285761
-0.004603865636970753 -0.008061566816050567 -0.003883017459884286
-0.0042375783727190116 -0.007625042652957049 -0.004118886310607195
-0.003871290509824658 -0.007188517776429049 -0.004155953414738178
-0.003505002946251611 -0.0067519932566182895 -0.004262008238583803
-0.0031387150833572575 -0.0063154683800902885 -0.004068467766046524
-0.0027724275197842105 -0.005878943860279529 -0.004105534870177507
-0.002406139956211163 -0.00544241934046877 -0.0040392461232841015
-0.00203985209331681 -0.005005894463940769 -0.0038457061164081097
-0.0016735645297437625 -0.00456936994413001 -0.003443474881350994
-0.0013072769661707155 -0.00413284542431925 -0.0024927351623773575
-0.0009409891032763623 -0.0036963205477912498 -0.0012452416121959684
-0.007970691442367124 -0.011187475974737423 -0.0017896109493449328
-0.007604404178115382 -0.010750951811643907 -0.0024264061357825994
-0.007238116315221028 -0.010314426935115906 -0.0029459057841449976
-0.006871828452326675 -0.009877902058587905 -0.003296692855656147
-0.006505541188074934 -0.009441377895494388 -0.003490232862532139
-0.006139253325180581 -0.009004853018966386 -0.003419100306928158
-0.005772965462286227 -0.008568328142438386 -0.0038664189632982016
-0.005406677599391874 -0.008131803265910384 -0.004059960134327412
-0.005040390335140133 -0.007695279102816867 -0.0038240912836045027
-0.004674103070888391 -0.007258754939723349 -0.00434359023347497
-0.004307815207994038 -0.006822230063195349 -0.004374603275209665
-0.003941527644420991 -0.006385705543384589 -0.003860871074721217
-0.0035752397815266377 -0.005949180666856588 -0.004054412245750427
-0.0032089522179535902 -0.005512656147045829 -0.0037706647999584675
-0.002842664654380543 -0.00507613162723507 -0.003767434973269701
-0.00247637679148619 -0.004639606750707069 -0.0035315656568855047
-0.0021100892279131427 -0.004203082230896309 -0.002650214359164238
-0.0017438016643400954 -0.00376655771108555 -0.0015901308506727216
-0.008773503914251546 -0.011257713212862052 -0.0017705517821013927
-0.008407216051357193 -0.01082118833633405 -0.001577011775225401
-0.008040928787105451 -0.010384664173240533 -0.0027209774125367403
-0.007674640924211098 -0.009948139296712531 -0.0032763592898845673
-0.007308353061316745 -0.009511614420184531 -0.003279589582234621
-0.006942065797065003 -0.009075090257091013 -0.0034682326950132847
-0.00657577793417065 -0.008638565380563012 -0.0036568751093000174
-0.006209490071276297 -0.008202040504035012 -0.003660104237496853
-0.005843202208381944 -0.0077655156275070105 -0.0044081429950892925
-0.005476914944130202 -0.007328991464413493 -0.0038886438123881817
-0.005110627679878461 -0.006892467301319975 -0.003891873871907592
-0.004744339816984108 -0.006455942424791974 -0.004223760217428207
-0.004378052253411061 -0.006019417904981215 -0.004030220210552216
-0.004011764390516708 -0.005582893028453215 -0.0044101146049797535
-0.00364547682694366 -0.0051463685086424555 -0.004007883369922638
-0.0032791892633706127 -0.004709843988831696 -0.0039768703281879425
-0.0029129014004762597 -0.004273319112303695 -0.003425197908654809
-0.002546613836903212 -0.0038367945924929355 -0.0025352647062391043
-0.002180326273330165 -0.003400270072682176 -0.0016150784213095903
-0.0018140384104358119 -0.0029637451961541756 -0.001548789907246828
-0.008843740702150065 -0.01045490066285396 -0.001905046054162085
-0.008477453437898323 -0.010018376499760444 -0.0024245455861091614
-0.00811116557500397 -0.009581851623232442 -0.003254697658121586
-0.007744877712109617 -0.009145326746704442 -0.0032514689955860376
-0.007378590447857875 -0.008708802583610923 -0.0032824818044900894
-0.007012302584963522 -0.008272277707082923 -0.0033857100643217564
-0.006646014722069169 -0.007835752830554923 -0.003833028255030513
-0.006279726859174816 -0.007399227954026921 -0.004131424240767956
-0.005913439594923074 -0.006962703790933404 -0.0040943557396531105
-0.005547152330671332 -0.006526179627839886 -0.0040572877041995525
-0.005180864467776979 -0.006089654751311885 -0.003868645057082176
-0.0048145769042039314 -0.005653130231501126 -0.0041143945418298244
-0.004448289041309578 -0.005216605354973125 -0.0038306473288685083
-0.004082001477736532 -0.004780080835162365 -0.003793579526245594
-0.0037157139141634843 -0.004343556315351606 -0.0033225074876099825
-0.0033494260512691313 -0.003907031438823606 -0.0025397653225809336
-0.002983138487696084 -0.0034705069190128462 -0.0015665940009057522
-0.0026168509241230363 -0.003033982399202087 -0.0011866982094943523
-0.009646553221410996 -0.010525137861224977 -0.002076167846098542
-0.009280265358516643 -0.010088612984696977 -0.0021822210401296616
-0.008913978094264901 -0.009652088821603459 -0.002817958826199174
-0.008547690231370548 -0.009215563945075458 -0.003149845637381077
-0.008181402368476195 -0.008779039068547457 -0.003220977494493127
-0.007815115104224453 -0.00834251490545394 -0.0033270311541855335
-0.0074488272413301 -0.007905990028925938 -0.003515674266964197
-0.007082539378435747 -0.007469465152397938 -0.003799421712756157
-0.006716251515541394 -0.007032940275869937 -0.004035290330648422
-0.006349964251289652 -0.006596416112776419 -0.004004277288913727
-0.005983676987037911 -0.006159891949682902 -0.003973264712840319
-0.005617389124143558 -0.005723367073154901 -0.004010332748293877
-0.00525110156057051 -0.005286842553344141 -0.003979319706559181
-0.004884813697676157 -0.00485031767681614 -0.0039483061991631985
-0.00451852613410311 -0.004413793157005381 -0.004797636065632105
-0.004152238570530062 -0.003977268637194622 -0.003618627553805709
-0.0037859507076357093 -0.003540743760666621 -0.002605321118608117
-0.0034196631440626623 -0.003104219240855862 -0.001654581050388515
-0.003053375580489615 -0.0026676947210451025 -0.0019864675123244524
-0.009716789967506712 -0.009722325346293602 -0.0022068782709538937
-0.00935050270325497 -0.009285801183200085 -0.002557665342465043
-0.008984214840360617 -0.008849276306672083 -0.0033287224359810352
-0.008617926977466264 -0.008412751430144083 -0.0027733403258025646
-0.008251639713214522 -0.007976227267050565 -0.0032581735868006945
-0.007885351850320169 -0.0075397023905225645 -0.0030223047360777855
-0.007519063987425817 -0.0071031775139945635 -0.0036591000389307737
-0.007152776124531464 -0.0066666526374665625 -0.0039048492908477783
-0.006786488860279722 -0.006230128474373045 -0.0038677819538861513
-0.00642020159602798 -0.005793604311279527 -0.0037966484669595957
-0.006053913733133627 -0.005357079434751526 -0.003725516377016902
-0.00568762616956058 -0.004920554914940767 -0.0037565280217677355
-0.005321338306666226 -0.004484030038412767 -0.003376633394509554
-0.00495505074309318 -0.0040475055186020075 -0.003270580433309078
-0.004588763179520132 -0.003610980998791248 -0.002634842647239566
-0.004222475316625779 -0.0031744561222632472 -0.0016616700449958446
-0.003856187753052732 -0.002737931602452488 -0.0011905982391908767
-0.010519602439391136 -0.009792562584418229 -0.0020906953141093254
-0.010153314576496783 -0.009356037707890228 -0.0024225814267992973
-0.00978702731224504 -0.008919513544796712 -0.002802476054057479
-0.009420739449350688 -0.00848298866826871 -0.003134362865239382
-0.009054451586456335 -0.00804646379174071 -0.0031714311335235834
-0.008688164322204593 -0.007609939628647191 -0.003242563223466277
-0.00832187645931024 -0.007173414752119191 -0.0035263104364275932
-0.007955588596415887 -0.00673688987559119 -0.003632365260273218
-0.007589300733521533 -0.006300364999063189 -0.003438824089244008
-0.007223013469269792 -0.0058638408359696715 -0.003818719880655408
-0.00685672620501805 -0.005427316672876154 -0.003787706606090069
-0.006490438342123697 -0.004990791796348153 -0.0034369193017482758
-0.006124150778550649 -0.0045542672765373935 -0.0038168139290064573
-0.005757862915656296 -0.0041177424000093926 -0.0035184186417609453
-0.005391575352083249 -0.0036812178801986337 -0.0029084542766213417
-0.005025287788510201 -0.0032446933603878744 -0.0038516575004905462
-0.004658999925615848 -0.002808168483859874 -0.005320265889167786
-0.004292712362042802 -0.002371643964049114 -0.0012321214890107515
-0.010589839185486852 -0.008989750069486855 -0.0022871480323374276
-0.01022355192123511 -0.008553225906393336 -0.002689379965886474
-0.009857264058340757 -0.008116701029865336 -0.003040166571736336
-0.009490976195446404 -0.007680176153337335 -0.0032337082084268336
-0.009124688931194662 -0.007243651990243818 -0.00304506509564817
-0.008758401068300309 -0.006807127113715817 -0.0035298983566463
-0.008392113205405956 -0.006370602237187816 -0.0036331266164779667
-0.008025825342511603 -0.005934077360659816 -0.003561993129551411
-0.007659538078259861 -0.005497553197566297 -0.00359300640411675
-0.00729325081400812 -0.0050610290344727795 -0.003659295151010156
-0.006926962951113767 -0.004624504157944779 -0.0032794005237519745
-0.006560675387540719 -0.00418797963813402 -0.003310412168502808
-0.006194387524646366 -0.003751454761606019 -0.0032392800785601143
-0.005828099961073319 -0.00331493024179526 -0.0028593854513019328
-0.005461812397500271 -0.0028784057219845005 -0.0038410201668739323
-0.005095524534605918 -0.0024418808454564995 -0.0011723871575668456
-0.011392651746550584 -0.009059987232781156 -0.0021456929389387373
-0.01102636388365623 -0.008623462356253154 -0.0023343348875641827
-0.01066007661940449 -0.008186938193159637 -0.0028054073918610816
-0.010293788756510137 -0.007750413316631636 -0.002994049340486527
-0.009927500893615784 -0.007313888440103635 -0.0034651220776140694
-0.009561213629364042 -0.0068773642770101175 -0.003219372127205134
-0.00919492576646969 -0.0064408394004821165 -0.00340801477432251
-0.008828637903575336 -0.0060043145239541155 -0.003514068434014917
-0.008462350040680983 -0.005567789647426115 -0.0034830560907721524
-0.008096062776429241 -0.005131265484332597 -0.003289515152573586
-0.0077297755121774996 -0.004694741321239079 -0.003621401265263558
-0.0073634876492831465 -0.004258216444711079 -0.0035181734710931782
-0.006997200085710099 -0.0038216919249003194 -0.0032197774853557353
-0.006630912222815746 -0.003385167048372319 -0.0031887658406049017
-0.0062646246592426985 -0.0029486425285615596 -0.0027414462529122834
-0.005898337095669651 -0.0025121180087508002 -0.0018815106013789777
-0.005532049232775298 -0.0020755931322227993 -0.0018152218544855718
-0.011462888581825611 -0.008257174643019454 -0.002257587388157845
-0.01109660131757387 -0.007820650479925936 -0.0026083742268383507
-0.010730313454679516 -0.007384125603397936 -0.0029591612983495
-0.010364025591785163 -0.006947600726869935 -0.0026754150167107586
-0.009997738327533421 -0.006511076563776417 -0.0029738110024482016
-0.009631450464639068 -0.006074551687248416 -0.0030400997493416075
-0.009265162601744715 -0.005638026810720416 -0.003442330984398723
-0.008898874738850362 -0.005201501934192415 -0.0035086192656308417
-0.008532587474598622 -0.0047649777710988975 -0.0034374862443655734
-0.00816630021034688 -0.00432845360800538 -0.0037358815316110854
-0.007800012347452526 -0.003891928731477379 -0.003264810191467405
-0.00743372478387948 -0.0034554042116666196 -0.003295823466032744
-0.007067436920985126 -0.0030188793351386186 -0.0028247514273971324
-0.006701149357412079 -0.0025823548153278593 -0.0020420092623680834
-0.012265701142889345 -0.008327411806313755 -0.0019847182556986813
-0.011899413279994992 -0.007890886929785753 -0.0023166043683886532
-0.01153312601574325 -0.007454362766692236 -0.002696498995646835
-0.011166838152848897 -0.007017837890164236 -0.0028025538194924597
-0.010800550289954544 -0.006581313013636235 -0.0029911969322711234
-0.010434263025702802 -0.006144788850542717 -0.0031798398122191433
-0.010067975162808449 -0.005708263974014716 -0.0032858930062502627
-0.009701687299914096 -0.005271739097486715 -0.0034745361190289263
-0.009335399437019743 -0.004835214220958715 -0.0036631789989769463
-0.008969112172768 -0.004398690057865197 -0.0039469264447689065
-0.008602824908516259 -0.00396216589477168 -0.003648530459031463
-0.008236537045621906 -0.0035256410182436786 -0.003582241712138057
-0.00787024948204886 -0.003089116498432919 -0.003283845260739327
-0.007503961619154506 -0.002652591621904918 -0.0028816151898354296
-0.00713767405558146 -0.0022160671020941586 -0.002329942304641009
-0.006771386492008412 -0.0017795425822833993 -0.001499789184890688
-0.01196965053555401 -0.007088075203119188 -0.002910298760980368
-0.011603362672659656 -0.006651550326591188 -0.0028042451012879614
-0.011237074809765303 -0.006215025450063187 -0.0029977851081639533
-0.010870787545513561 -0.0057785012869696695 -0.003064073855057359
-0.010504499682619208 -0.0053419764104416685 -0.003167302114889026
-0.010138211819724855 -0.0049054515339136675 -0.003465697402134538
-0.009771923956830502 -0.004468926657385667 -0.0037114466540515427
-0.00940563669257876 -0.00403240249429215 -0.003742459928616882
-0.009039349428327018 -0.003595878331198632 -0.00370539166033268
-0.008673061565432667 -0.0031593534546706307 -0.0031093480065464978
-0.00830677400185962 -0.0027228289348598714 -0.002920705126598478
-0.007940486138965266 -0.0022863040583318704 -0.0025408104993402962
-0.007574198575392219 -0.0018497795385211111 -0.0017580677522346384
-0.012772462676333751 -0.007158311503318354 -0.002316330093890429
-0.012406175412082011 -0.006721787340224835 -0.002648216672241688
-0.012039887549187658 -0.006285262463696835 -0.0028368593193590645
-0.011673599686293305 -0.005848737587168834 -0.002873926423490048
-0.011307312422041563 -0.0054122134240753164 -0.002910994924604893
-0.01094102455914721 -0.0049756885475473155 -0.0032908904831856494
-0.010574736696252857 -0.0045391636710193145 -0.003396944142878056
-0.010208448833358502 -0.004102638794491314 -0.0037288304883986716
-0.00984216156910676 -0.0036661146313977967 -0.0036978172138333325
-0.00947587430485502 -0.0032295904683042782 -0.0035042772069573407
-0.009109586441960667 -0.0027930655917762777 -0.003102045971900225
-0.00874329887838762 -0.0023565410719655184 -0.003071032697334886
-0.008377011015493267 -0.0019200161954375174 -0.002489323960617185
-0.008010723451920219 -0.001483491675626758 -0.0021909282077103858
-0.007644435888347172 -0.0010469671558159988 -0.0013903874205425388
-0.01284269993189277 -0.006355499776651789 -0.0022755407262593516
-0.012476412068998417 -0.005918974900123788 -0.002827211981639267
-0.012110124206104064 -0.005482450023595787 -0.0024473173543810853
-0.011743836941852322 -0.005045925860502269 -0.0025136061012744912
-0.01137754907895797 -0.004609400983974268 -0.002759355353191496
-0.011011261216063616 -0.004172876107446268 -0.0033110277727246293
-0.010644973353169263 -0.003736351230918267 -0.003342040581628681
-0.010278686088917521 -0.003299827067824749 -0.0030582931358367213
-0.00991239882466578 -0.002863302904731231 -0.0029871612787246713
-0.009546110961771426 -0.0024267780282032306 -0.0027985181659460076
-0.009179823398198379 -0.0019902535083924713 -0.0029017464257776746
-0.008813535535304026 -0.0015537286318644703 -0.002266008174046875
-0.008447247971730978 -0.001117204112053711 -0.002564404159784318
-0.01327922445170353 -0.005989212213078741 -0.0021079147700220355
-0.012912936588809177 -0.00555268733655074 -0.0025789863429963597
-0.012546648725914824 -0.005116162460022739 -0.0025479746982455262
-0.012180361461663082 -0.0046796382969292215 -0.002481684787198902
-0.011814073598768729 -0.0042431134204012205 -0.0025187530554831037
-0.011447785735874376 -0.00380658854387322 -0.00270739570260048
-0.011081497872980023 -0.0033700636673452194 -0.0027106259949505338
-0.01071521060872828 -0.0029335395042517014 -0.0027138544246554383
-0.010348923344476539 -0.0024970153411581837 -0.0027509229257702836
-0.009982635481582186 -0.002060490464630183 -0.0027879911940544852
-0.009616347918009138 -0.0016239659448194237 -0.0027217024471610793
-0.009250060055114785 -0.0011874410682914229 -0.002758770715445281
-0.008883772491541738 -0.0007509165484806636 -0.0020171112846583137
-0.00851748492796869 -0.0003143920286699043 -0.0014354027807712564
-0.013349461465337177 -0.005186399473656387 -0.0019522745860740551
-0.012983173602442824 -0.004749874597128386 -0.0024717741180211314
-0.012616886338191082 -0.0043133504340348685 -0.0018757299985736617
-0.012250598475296729 -0.003876825557506868 -0.001872500288300217
-0.011884310612402376 -0.003440300680978867 -0.0017664466286078104
-0.011518022749508023 -0.0030037758044508664 -0.002845009323209525
-0.01115173548525628 -0.0025672516413573483 -0.0020622655283659705
-0.010785448221004539 -0.0021307274782638307 -0.0023080159444361934
-0.010419160358110186 -0.00169420260173583 -0.0024112442042678603
-0.01005287279453714 -0.0012576780819250706 -0.0024775329511612662
-0.009686584931642785 -0.0008211532053970698 -0.0023714781273156413
-0.00932029736806974 -0.0003846286855863106 -0.0017357415053993472
-0.008954009804496692 5.189583422444873e-05 -0.0016296870307996878
-0.008587721941602339 0.0004884207107524496 -0.0012978016166016468
-0.013419698122253583 -0.004383587033555339 -0.002038558246567846
-0.013053410858001841 -0.003947062870461821 -0.0017928091110661635
-0.012687122995107488 -0.0035105379939338204 -0.0017617958365008244
-0.012320835132213135 -0.0030740131174058194 -0.0017650243826210507
-0.011954547269318782 -0.002637488240877819 -0.0015192754799500116
-0.01158826000506704 -0.002200964077784301 -0.0019903471693396577
-0.011221972740815298 -0.0017644399146907832 -0.0021789902821183213
-0.010855684877920945 -0.0013279150381627824 -0.0024148591328412303
-0.0104893973143479 -0.0008913905183520231 -0.0024180877953767785
-0.010123109451453545 -0.00045486564182402236 -0.00245515606366098
-0.009756821887880499 -1.8341122013263086e-05 -0.0022094068117439756
-0.009390534324307451 0.0004181833977974962 -0.0021783940028399238
-0.009024246461413098 0.000854708274325497 -0.002215462503954769
-0.008657958897840051 0.0012912327941362563 -0.0022186909336596736
-0.008291671334267003 0.0017277573139470156 -0.0021524021867662677
-0.00792538347137265 0.0021642821904750164 -0.0015424384037032732
-0.007559095907799602 0.0026008067102857757 -0.0016484928783029327
-0.006093945092279965 0.004346905458373641 -0.0014052602928131827
-0.0057276574164614276 0.004783430111953366 -0.001408488955348731
-0.00536136974064289 0.005219954765533091 -0.001479622209444643
-0.004995082064824354 0.0056564794191128155 -0.0016682653222233066
-0.00462879442642098 0.0060930040281028846 -0.001369869685731829
-0.004262506788017606 0.0065295286370929545 -0.0011763282818719753
-0.0035299315112108584 0.0074025778550730935 -0.0011714310385286817
-0.0031636436483165054 0.007839102731601095 -0.0011404179967939862
-0.002064780658276058 0.009148676647750613 -0.0018168222159147271
-0.0016984930947030103 0.009585201167561373 -0.0021487085614353427
-0.0013322055311299629 0.010021725687372132 -0.0022547622211277494
-0.0009659176682356098 0.010458250563900134 -0.0018074434483423838
-0.00023334224176820928 0.011331299960238893 -0.0018827822059392938
-0.013123647514918247 -0.003144250430360773 -0.0012108538066968333
-0.012757359652023894 -0.002707725553832772 -0.0011397216003388177
-0.012391071789129541 -0.0022712006773047714 -0.0012060103472322236
-0.0120247845248778 -0.0018346765142112536 -0.0013995503541082155
-0.011658497260626057 -0.0013981523511177357 -0.001846869825385512
-0.011292209397731704 -0.000961627474589735 -0.0017408153507858526
-0.010925921834158659 -0.0005251029547789757 -0.002225648844614626
-0.010559633971264304 -8.85780782509749e-05 -0.002862444147467614
-0.010193346407691258 0.00034794644155978436 -0.0025305578019469985
-0.00982705884411821 0.0007844709613705436 -0.002633785596117378
-0.009460770981223858 0.0012209958378985445 -0.0028273260686546573
-0.00909448341765081 0.0016575203577093038 -0.0028240969404578218
-0.008728195854077763 0.002094044877520063 -0.002718042815104128
-0.00836190799118341 0.002530569754048064 -0.0026469102595001468
-0.007995620427610362 0.002967094273858823 -0.00299769756384194
-0.007629332714376662 0.0034036189720282033 -0.0019661553669720897
-0.007263044926312635 0.0038401437593768937 -0.0024134744890034207
-0.006896757287909261 0.004276668368366964 -0.002129727043211461
-0.006530469612090724 0.0047131930219466885 -0.002614560769870878
-0.006164181936272187 0.005149717675526413 -0.0026113304775208243
-0.00579789426045365 0.005586242329106138 -0.0027145587373524913
-0.005431606584635113 0.006022766982685863 -0.0027455720119178304
-0.005065318946231739 0.006459291591675932 -0.0027085037436336288
-0.0046990313078283654 0.006895816200666002 -0.002602450083941222
-0.004332743594594665 0.007332340898835382 -0.002366581233218313
-0.003966456031021618 0.007768865418646141 -0.002664976520463825
-0.0036001681681272647 0.008205390295174142 -0.0028585181571543225
-0.003233880604554217 0.008641914814984901 -0.002222779905423523
-0.00286759304098117 0.00907843933479566 -0.0028327442705631265
-0.002501305178086817 0.00951496421132366 -0.002935972064733506
-0.0021350176145137696 0.00995148873113442 -0.0028648385778069505
-0.0017687300509407222 0.01038801325094518 -0.002581091597676278
-0.0014024421880463691 0.010824538127473181 -0.0022973453160375365
-0.0010361546244733216 0.01126106264728394 -0.0020135978702455768
-0.0006698667615789686 0.01169758752381194 -0.001976529601961375
-0.00030357949732722704 0.012134111686905459 -0.0017406605184078227
6.270896420973767e-05 0.012570637276867943 -0.0014087751042097818
-0.012827596665657543 -0.0019049128144104182 -0.0013256748206913482
-0.012461309401405801 -0.0014683886513169005 -0.0013627432053908717
-0.01209502213715406 -0.0010318644882233827 -0.0017426378326490532
-0.011728734274259706 -0.0005953396116953819 -0.001931280829012395
-0.011362446710686659 -0.00015881509188462264 -0.002167149679735304
-0.010996158847792306 0.00027770978464337816 -0.0024030180647969255
-0.010629871284219258 0.0007142343044541375 -0.0027349041774868974
-0.01026358372064621 0.0011507588242648968 -0.003114798804745079
-0.009897295857751858 0.0015872837007928976 -0.0033034419175237426
-0.00953100829417881 0.0020238082206036566 -0.003539311233907939
-0.009164720730605763 0.002460332740414416 -0.0036453644279390582
-0.00879843286771141 0.002896857616942417 -0.0036143523175269374
-0.008432145304138362 0.0033333821367531762 -0.003548064036294819
-0.008065857590904663 0.0037699068349225564 -0.003551292698830367
-0.007699569802840636 0.004206431622271247 -0.0036224261857569226
-0.007333282164437262 0.004642956231261317 -0.0036935580428689727
-0.006966994488618725 0.0050794808848410415 -0.0036272699944674977
-0.006600706812800188 0.005516005538420766 -0.0033288740087300548
-0.006234419136981651 0.005952530192000491 -0.003400006564334036
-0.005868131461163114 0.006389054845580216 -0.0034370748326182374
-0.00550184382275974 0.006825579454570285 -0.0034060615580528983
-0.005135556184356366 0.007262104063560355 -0.0033397728111594924
-0.004769268471122666 0.007698628761729735 -0.003376841079443694
-0.004402980907549619 0.008135153281540495 -0.003310552332550288
-0.004036693044655266 0.008571678158068495 -0.003279539057984949
-0.003670405481082218 0.009008202677879254 -0.0035154083743691453
-0.003304117917509171 0.009444727197690014 -0.003217012621462346
-0.002937830054614818 0.009881252074218014 -0.003185999812558294
-0.0025715424910417706 0.010317776594028773 -0.002992459340021015
-0.002205254927468723 0.010754301113839532 -0.0025902281049638995
-0.00183896706457437 0.011190825990367534 -0.0023966880980879077
-0.0014726795010013226 0.011627350510178294 -0.001994456863030792
-0.0011063916381069696 0.012063875386706294 -0.0018009167397394787
-0.000740104373855228 0.012500399549799812 -0.0015551664400845777
-0.0003738159123182633 0.012936925139762296 -0.0013616260839626204
-0.012897834277933801 -0.0011021007884225475 -0.0012032592203468095
-0.01253154701368206 -0.0006655766253290296 -0.001501654856838287
-0.012165259150787706 -0.00022905174880102886 -0.0017474037595093261
-0.011798971587214659 0.00020747277100973042 -0.001993154175579549
-0.011432683724320306 0.0006439976475377312 -0.002186694182455541
-0.011066396160747258 0.0010805221673484905 -0.0028743024449795498
-0.010700108597174211 0.0015170466871592498 -0.0029405914247035993
-0.010333820734279858 0.0019535715636872504 -0.0036822501569986356
-0.00996753317070681 0.0023900960834980097 -0.003302354365587236
-0.009601245607133763 0.002826620603308769 -0.004222541581839324
-0.00923495774423941 0.00326314547983677 -0.0045209378004074105
-0.008868670180666362 0.0036996699996475293 -0.004049865994602443
-0.008502382467432663 0.0041361946978169094 -0.004080879036337138
-0.008136094679368636 0.0045727194851656 -0.00400974601507187
-0.0077698070409652625 0.00500924409415567 -0.004006516654044391
-0.007403519365146725 0.005445768747735395 -0.004037528764456511
-0.007037231689328188 0.005882293401315119 -0.0031249090097844614
-0.006670944013509651 0.006318818054894844 -0.0037874674890190376
-0.006304656337691114 0.006755342708474569 -0.003784238360822202
-0.00593836869928774 0.007191867317464638 -0.0037131053395569338
-0.0055720810608843666 0.007628391926454708 -0.003607051679864527
-0.005205793347650666 0.008064916624624089 -0.0036038218531757606
-0.004839505784077619 0.008501441144434848 -0.0036701106000691665
-0.004473217921183266 0.008937966020962848 -0.00356405694037676
-0.004106930357610218 0.009374490540773607 -0.0035269886720925583
-0.0037406427940371713 0.009811015060584367 -0.003195103490725161
-0.003374354931142818 0.010247539937112367 -0.0030890488997101797
-0.0030080673675697707 0.010684064456923126 -0.0028531809803098453
-0.0026417798039967233 0.011120588976733885 -0.002521294401958586
-0.0022754919411023702 0.011557113853261887 -0.0022375469561666263
-0.0019092043775293228 0.011993638373072647 -0.0020016781054437174
-0.0015429165146349697 0.012430163249600647 -0.00162178312893957
-0.013334359154461801 -0.0007358129255281944 -0.0011582392035052193
-0.01296807189021006 -0.00029928876243467663 -0.0013468821998685611
-0.012601784027315707 0.0001372361140933242 -0.0014529356267303241
-0.01223549646374266 0.0005737606339040835 -0.001924007432535292
-0.011869208600848306 0.0010102855104320843 -0.0021126498468220247
-0.01150292103727526 0.0014468100302428436 -0.003055853070691229
-0.011136633473702213 0.0018833345500536029 -0.003691591322422029
-0.01077034561080786 0.0023198594265816034 -0.004023477435112
-0.010404058047234812 0.0027563839463923628 -0.00425934698432684
-0.010037770483661765 0.003192908466203122 -0.004495214670896531
-0.009671482620767412 0.003629433342731123 -0.004391986876726151
-0.009305195057194364 0.004065957862541882 -0.004395216703414918
-0.008938907343960663 0.0045024825607112625 -0.004291988443583251
-0.008572619555896636 0.004939007348059953 -0.004260975867509843
-0.008206331917493263 0.005375531957050023 -0.004229963757097722
-0.007840044241674726 0.005812056610629748 -0.004163675010204316
-0.007473756565856189 0.0062485812642094725 -0.003812886541709305
-0.007107468890037652 0.006685105917789197 -0.003918941132724286
-0.006741181214219115 0.007121630571368922 -0.0038157128728926195
-0.006374893575815741 0.007558155180358991 -0.0037494248244911445
-0.0060086059374123675 0.007994679789349061 -0.0035558841191232217
-0.005642318224178667 0.008431204487518442 -0.004558478947728873
-0.00527603066060562 0.008867729007329201 -0.003446760587394239
-0.004909742797711267 0.009304253883857201 -0.003380471840500833
-0.004543455234138219 0.00974077840366796 -0.003186930669471623
-0.004177167670565172 0.01017730292347872 -0.002993390662595631
-0.003810879807670819 0.01061382780000672 -0.0027476414106786264
-0.0034445922440977717 0.01105035231981748 -0.0025541014038026346
-0.0030783046805247243 0.011486876839628238 -0.0035272724926471723
-0.002712016817630371 0.01192340171615624 -0.002173643792048098
-0.0023457292540573237 0.012359926235967 -0.0016219711396843208
-0.0019794413911629707 0.012796451112495 -0.0012197399046272052
-0.01267202062683618 0.0009400478981558254 -0.001289472798816861
-0.012305732763941825 0.0013765727746838262 -0.0015878684353083385
-0.011939445200368779 0.0018130972944945855 -0.002418021904304625
-0.011573157636795731 0.0022496218143053448 -0.0033079551067203296
-0.011206869773901378 0.0026861466908333453 -0.0036587419454008354
-0.01084058221032833 0.0031226712106441046 -0.004009529016911984
-0.010474294646755283 0.003559195730454864 -0.004360316321253777
-0.01010800678386093 0.0039957206069828645 -0.004553856328129769
-0.009741719220287883 0.004432245126793624 -0.004221970215439797
-0.009375431507054182 0.004868769824963004 -0.004325198009610177
-0.009009143718990155 0.005305294612311695 -0.004219144582748414
-0.008642856080586781 0.005741819221301765 -0.00403050146996975
-0.008276568404768245 0.0061783438748814895 -0.004027272108942271
-0.007910280728949708 0.006614868528461214 -0.0036953852977603687
-0.00754399305313117 0.007051393182040939 -0.0036921566352248205
-0.007177705377312634 0.007487917835620664 -0.0034084091894328607
-0.0068114177389092595 0.007924442444610734 -0.003337275702506305
-0.006445130100505886 0.008360967053600803 -0.0030053905211389078
-0.006078842387272186 0.008797491751770184 -0.0030364021658897413
-0.005712554823699138 0.009234016271580943 -0.002522671362385155
-0.005346266960804785 0.009670541148108943 -0.0026258991565555347
-0.004979979397231738 0.010107065667919702 -0.002588830888271333
-0.00461369183365869 0.010543590187730462 -0.0022089362610131515
-0.004247403970764337 0.010980115064258462 -0.002205706434324385
-0.0038811164071912902 0.011416639584069221 -0.002017063554376365
-0.0035148288436182428 0.01185316410387998 -0.0018284204415977014
-0.0031485409807238897 0.012289688980407982 -0.0015925526386126889
-0.0027822534171508422 0.012726213500218742 -0.0012126569636166109
-0.012375970076896779 0.0021793851573889385 -0.0018321359530091299
-0.012009682513323731 0.002615909677199698 -0.0023458672221750034
-0.011643394650429378 0.0030524345537276984 -0.0027257630135864032
-0.011277107086856331 0.0034889590735384577 -0.003009510459378363
-0.010910819523283283 0.003925483593349217 -0.0032932567410171045
-0.01054453166038893 0.0043620084698772175 -0.0034818996209651245
-0.010178244096815883 0.004798532989687977 -0.003553032642230393
-0.009811956383582182 0.0052350576878573574 -0.0035220200661569847
-0.009445668595518155 0.005671582475206048 -0.004196503665298225
-0.009079380957114781 0.006108107084196118 -0.0035597078967839492
-0.008713093281296245 0.0065446317377758426 -0.003562938189134003
-0.008346805605477708 0.006981156391355567 -0.003531924914568664
-0.00798051792965917 0.007417681044935292 -0.003233528928831221
-0.007614230253840634 0.007854205698515016 -0.0031672406475991024
-0.00724794261543726 0.008290730307505087 -0.0029737001750618232
-0.006881654977033886 0.008727254916495156 -0.0029074118938297046
-0.006515367263800186 0.009163779614664537 -0.0027138714212924255
-0.006149079700227138 0.009600304134475296 -0.002647583140060307
-0.005782791837332785 0.010036829011003296 -0.00254435488022864
-0.005416504273759738 0.010473353530814055 -0.002441126620396973
-0.0050502167101866904 0.010909878050624815 -0.0020903397817164673
-0.004683928847292337 0.011346402927152815 -0.0020935684442520155
-0.00431764128371929 0.011782927446963574 -0.0020625563338398946
-0.003951353720146243 0.012219451966774333 -0.0016603249823674573
-0.0032187782936788424 0.013092501363113095 -0.0011864099651575102
-0.0028524904307844893 0.013529026239641095 -0.0011896386276930584
-0.012446207389851732 0.002982197540094051 -0.0012119320454075946
-0.011713631963384331 0.0038552469364328107 -0.0013776558917015804
-0.011347344399811284 0.0042917714562435705 -0.001583367935381831
-0.01098105653691693 0.004728296332771571 -0.0017890810267999781
-0.010614768973343883 0.00516482085258233 -0.0025307398755103363
-0.010248481260110182 0.0056013455507517105 -0.0022948710247874273
-0.009882193472046155 0.006037870338100401 -0.0021272266749292625
-0.009515905833642781 0.006474394947090471 -0.0022304549347609295
-0.009149618157824245 0.006910919600670196 -0.0014477123040705932
-0.008783330482005709 0.0073474442542499204 -0.0019993847236037267
-0.00841704280618717 0.007783968907829645 -0.001893330481834711
-0.008050755130368634 0.00822049356140937 -0.0019965581595897688
