ply
format ascii 1.0
element vertex 651
property float x
property float y
property float z
property uchar red
property uchar green
property uchar blue
end_header
-2.4871258072359584e-05 -0.010136497267438404 0.06333241376748196 0 124 130
0.00023943022102972892 -0.009663954808589174 0.06334135555951298 0 124 130
0.0005018272956458852 -0.00919637556704928 0.06383537878781166 0 88 166
0.0007672539762146931 -0.00872090063275307 0.06355771426926202 0 109 145
0.0010301503229211946 -0.008252020199213696 0.06392456513241337 0 82 172
0.0012941984894785244 -0.007780137917977001 0.0639980295686329 0 77 177
0.0015581164531818783 -0.007308595020133743 0.06410467474930372 0 70 184
0.0018215500797064688 -0.006838314339686323 0.06433467208802736 0 53 201
0.002085851562863148 -0.006365771870270108 0.06434361284729123 0 53 201
0.0023505501641609043 -0.0058921944281569456 0.06425139767839909 0 60 194
0.0026136256011281634 -0.00542284725269219 0.06457263121643624 0 37 217
0.002877800862403205 -0.004950633752873542 0.064613726664936 0 34 220
0.003144679483583188 -0.004471374802720016 0.06396623029488277 0 83 171
0.0034062024838533143 -0.004006073554618971 0.0646828938510684 0 30 224
0.0036696360474240013 -0.0035357929866768304 0.06491289117225485 0 13 241
0.00393393753058068 -0.003063250517260615 0.06492183193151872 0 13 241
0.004197547333084541 -0.002592510690830154 0.06510695450876637 0 0 254
0.0044627776174331725 -0.002117547600066486 0.06487931516147845 0 17 237
-0.002603153856092507 -0.013629751976969445 0.061036902223971984 56 198 0
-0.0020742280599439994 -0.012683825479827847 0.06097248975194682 65 189 0
-0.0015471246432389512 -0.011742648634379547 0.061372329873873886 21 233 0
-0.0010206717915998195 -0.01080316727737388 0.06193787903444827 0 227 27
-0.0007582962326661107 -0.010335644109534891 0.06243738264163765 0 190 64
-0.000494367794100301 -0.009864073860770454 0.06254134365908089 0 183 71
-0.00023077625953636834 -0.009393381643845391 0.06273111936469646 0 169 85
3.3802622457651706e-05 -0.008920116223647842 0.06266940232650693 0 174 80
0.00029644744874822524 -0.008451891297114048 0.06310031935076572 0 143 111
0.0005596478228126513 -0.007982218514125537 0.06338972971819462 0 122 132
0.0008226527534697424 -0.0075130550914695865 0.06372892256063882 0 97 157
0.0010865812570801017 -0.00704148472475127 0.0638328830630987 0 90 164
0.0013509068285566563 -0.006568879476882764 0.06383568815271409 0 90 164
0.001614498363120589 -0.006098187259957701 0.06402546385832966 0 76 178
0.0018796917744322685 -0.005623320254811014 0.06380721288454069 0 93 161
0.0021430885396934753 -0.005153135640576143 0.06404659910941891 0 76 178
0.002407540364560295 -0.004680201366774876 0.06401724951049853 0 78 176
0.0026716066064803585 -0.004208271977923249 0.0640861098707556 0 74 180
0.0029360584135655694 -0.0037353377375730717 0.06405676078786873 0 76 178
0.003199258726640035 -0.003265665061971455 0.06434617063751386 0 55 199
0.0034639678805871705 -0.0027920601298596034 0.0642512713071225 0 63 191
0.0037282934581456114 -0.0023194548661406213 0.06425407484758718 0 63 191
0.003991884990682249 -0.0018487626544990508 0.06444385106958632 0 49 205
0.004255813431275353 -0.0013771924004511212 0.06454781157064599 0 42 212
0.004520139002751909 -0.0009045871525826163 0.06455061666026136 0 42 212
-0.0036022780405296764 -0.01430508401319562 0.06048895306078148 118 136 0
-0.0030759183187709068 -0.01336584536924679 0.06107822385006417 52 202 0
-0.002545239265146791 -0.012415349570827582 0.06056722943565391 112 142 0
-0.002282683049895896 -0.01194735558044689 0.06102071706963039 60 194 0
-0.002018507804375168 -0.01147514210879584 0.06106181251778009 56 198 0
-0.0017552527845724596 -0.01100532690927968 0.06133730376592143 25 229 0
-0.0014923564378659573 -0.010536446475740304 0.06170415462907279 0 244 10
-0.0012284385432617447 -0.01006490370641791 0.06181080135749413 0 237 17
-0.0009645206425756446 -0.00959336092124504 0.06191744653676474 0 229 25
-0.000701087016051055 -0.009123080240797622 0.06214744387548837 0 213 41
-0.0004371691153649566 -0.008651537455624752 0.06225408905475898 0 205 49
-0.00017492741669661478 -0.008184363151480958 0.06278768895307947 0 166 88
8.899048196218864e-05 -0.007712820371591579 0.06289433464873365 0 159 95
0.00035123218063053043 -0.007245646067447785 0.06342793454705413 0 120 134
0.0006155337207225794 -0.006773103501211658 0.06343687685686895 0 119 135
0.0008794516214086778 -0.0063015607160387885 0.06354352203613955 0 112 142
0.0011427066412113863 -0.0058317455165226295 0.0638190132842809 0 92 162
0.0014079369107745108 -0.00535678245220736 0.06359137394069904 0 109 145
0.0016719850804017859 -0.004884900162164156 0.06366483734412953 0 104 150
0.0019364143171470716 -0.004412024757031079 0.06364124129101148 0 106 148
0.002200462483704401 -0.003940142475794382 0.06371470572723101 0 101 153
0.0024643803843904994 -0.0034685996906215137 0.06382135090650161 0 94 160
0.002728428491985163 -0.002996717511488222 0.06389481430855377 0 89 165
0.0029927299710872514 -0.0025241750526389904 0.0639037561005848 0 89 165
0.003257428585127382 -0.0020505975894021984 0.0638115414484044 0 96 158
0.0035213464858134813 -0.0015790548042293293 0.06391818662767501 0 88 166
0.003786045099853612 -0.0011054773409925373 0.06382597197549461 0 96 158
0.004050346578955701 -0.0006329348821433067 0.06383491376752565 0 95 159
0.004310600296949059 -0.00017094160974438864 0.0648748832570838 0 19 235
0.004577790216317338 0.0003091286389373289 0.06414809439775025 0 73 181
0.004839313215637169 0.000774429884561736 0.06486475819599068 0 20 234
0.00510256823542404 0.0012442450840366177 0.06514024944816627 0 0 254
-0.004603823577528732 -0.014986726525497616 0.06055776004740396 109 145 0
-0.004074958127187773 -0.014040957506534711 0.060508782802445975 116 138 0
-0.0038103792391118675 -0.013567692070486687 0.06044706421510572 124 130 0
-0.003546313003273689 -0.013095762697485535 0.060515926124513515 116 138 0
-0.00328224676338092 -0.0126238333139174 0.06058478700115416 109 145 0
-0.003018318570802249 -0.01215226349998404 0.06068874646384582 98 156 0
-0.0027547270423202005 -0.011681571298909451 0.06087852371861212 77 177 0
-0.0024915266662284786 -0.011211898510637447 0.06116793356965745 44 210 0
-0.002227935131664546 -0.010741206293712384 0.061357709275273016 23 231 0
-0.0019645383613641054 -0.010271021667150054 0.061597094467405966 0 252 2
-0.0017009468288274677 -0.009800329455508482 0.06178687068940512 0 239 15
-0.001437355298318124 -0.009329637249150403 0.061976647427787836 0 225 29
-0.0011734268536704303 -0.00885806698453549 0.062080606896080345 0 218 36
-0.0009102264836605943 -0.008388394212113962 0.062370018296276405 0 197 57
-0.0006462980410401956 -0.00791682395278254 0.06247397828095249 0 190 64
-0.0003822317991201314 -0.007444894563930913 0.06254283864120956 0 185 69
-0.000117522645172995 -0.006971289631819063 0.06244793931081822 0 192 62
0.00014451550107888716 -0.006504645873093812 0.06303340322774854 0 149 105
0.0004070203771097385 -0.0060367856818652685 0.06349996775940034 0 115 139
0.0006723924078856748 -0.00556145317466369 0.06323622339290542 0 135 119
0.0009367179706744463 -0.00508884793735183 0.06323902693304191 0 135 119
0.0012009158033320635 -0.004616575598793065 0.0632743688353674 0 133 121
0.001465113652728639 -0.0041443032303062274 0.06330971073806482 0 131 123
0.0017314990107208275 -0.0036663298118818086 0.06278785617224003 0 170 84
0.001993537091928159 -0.00319968617111044 0.06337332060415371 0 127 127
0.0022577348686350506 -0.0027274139276111113 0.06340866095595013 0 125 129
0.0025216633072008593 -0.0022558436788466737 0.06351262197339337 0 118 136
0.0027858611408431216 -0.001783571338527433 0.06354796387574074 0 115 139
0.0030503129499556266 -0.0013106370928937642 0.0635186142764703 0 118 136
0.0033146385234594775 -0.0008380318397417661 0.06352141884970211 0 118 136
0.0035792174095080876 -0.00036476640897723303 0.06345970077874544 0 123 131
0.003843669214566003 0.00010816782608945264 0.06343035221224215 0 126 128
0.004107735454458772 0.0005800972096575894 0.06349921308888279 0 121 133
0.004371326989022705 0.001050789426582652 0.06368898879449836 0 108 146
0.004633702547956415 0.0015183125944216403 0.06418849240168774 0 71 183
0.00489564053552486 0.0019846953733410545 0.06479945223989284 0 26 228
-0.005076638248196532 -0.014722950768738556 0.060611870429136135 103 151 0
-0.004547699995662755 -0.013776992014293391 0.060544349333585094 112 142 0
-0.00428339851453337 -0.01330444955016067 0.06055329060923255 112 142 0
-0.004019097035431282 -0.012831907091311438 0.06056223240126357 111 143 0
-0.0037550488648193624 -0.01236002479950776 0.06063569580471595 103 151 0
-0.0034910009483037612 -0.011888142963669125 0.06070915971895104 96 158 0
-0.0032269527776918414 -0.011416260671865444 0.060782623122403415 88 166 0
-0.002963519151167251 -0.010945979991418024 0.06101262046112706 62 192 0
-0.002700962935916357 -0.010477986001037333 0.061466108095103535 11 243 0
-0.002436914765304438 -0.010006103709233653 0.061539571498555906 3 251 0
-0.0021740184185979356 -0.009537223275694277 0.061906422361707264 0 230 24
-0.0019104086140509418 -0.009066483443939049 0.0620915444185371 0 217 37
-0.0016475122713990294 -0.008597603020966658 0.06245839631445561 0 190 64
-0.001383210790269646 -0.008125060556833935 0.06246733759010306 0 190 64
-0.0011203144476177335 -0.007656180133861543 0.06283418948602157 0 163 91
-0.0008563965469316351 -0.007184637348688672 0.06294083466529218 0 155 99
-0.0005924786482728308 -0.006713094568799295 0.06304748036094636 0 148 106
-0.00032777996918815014 -0.006239516987608624 0.06295526519378261 0 155 99
-6.347849008606164e-05 -0.005766974528759392 0.06296420698581363 0 155 99
0.00020155702998323963 -0.005292519028399735 0.06278617712907733 0 169 85
0.00046560518582548956 -0.004820636763003177 0.06285964053220153 0 164 90
0.0007292149873605437 -0.0043498969382919144 0.06304476310539306 0 150 104
0.000992470024944861 -0.003880081705324667 0.06332025383750087 0 130 124
0.0012575055450141626 -0.0034056262049650086 0.06314222398076456 0 144 110
0.0015219347639778397 -0.0029327508332830203 0.06311862844368005 0 146 108
0.0017866333170280095 -0.0024591734774331245 0.06302641327371586 0 153 101
0.0020502431195477074 -0.0019884336509613863 0.06321153584692926 0 140 114
0.002314418365068436 -0.0015162201793103348 0.06325263129507896 0 137 117
0.00257859361261646 -0.0010440067023757917 0.0632937262268451 0 135 119
0.0028430228315801374 -0.000571131330693803 0.06327013068976058 0 137 117
0.003106940732266236 -9.958854552093383e-05 0.06337677586903119 0 130 124
0.003372754766074431 0.0003768959003137948 0.0630004464570237 0 158 96
0.0036360097858771393 0.0008467110998299542 0.06327593770516503 0 138 116
0.0039001850313978683 0.0013189245714810053 0.06331703315331474 0 135 119
0.004163794833917567 0.0017896643979527435 0.06350215572652815 0 122 132
0.004423635047515587 0.0022505800042426027 0.06464745121561807 0 37 217
0.004687936528644972 0.002723122468375326 0.06465639249126554 0 37 217
0.004951854677345503 0.003194665693662763 0.06476303870890415 0 30 224
0.005214751024099519 0.0036635461273259685 0.06512988955995277 0 3 251
-0.0055500368832330105 -0.014460696927141987 0.060814725616281165 80 174 0
-0.005019626988834686 -0.013510902811863967 0.060372354453636236 132 122 0
-0.004756230218534246 -0.013040718185301638 0.060611739645769186 105 149 0
-0.0044917784094217405 -0.012567783939667967 0.06058239004649874 109 145 0
-0.004227849970855931 -0.01209621369090353 0.06068635106394198 98 156 0
-0.003964258692415611 -0.011625521935227003 0.06087612779672385 77 177 0
-0.003699806883303104 -0.011152587689593334 0.06084677819745341 81 173 0
-0.0034364101130026645 -0.010682403063031004 0.06108616338958636 54 200 0
-0.003172084541526109 -0.010209797815162498 0.061088968479201755 54 200 0
-0.002907067289412573 -0.009735389924349514 0.06091559175486761 75 179 0
-0.002644923798998715 -0.009268471568410088 0.061474206822753945 11 243 0
-0.002383596653676821 -0.00880368075319049 0.06224075767982078 0 206 48
-0.0021207836328517825 -0.008335017481740497 0.06262883294070754 0 177 77
-0.001856458057320637 -0.007862412223305007 0.06263163699755578 0 178 76
-0.0015928665268112943 -0.007391720016946928 0.0628214137359385 0 164 90
-0.0013289380841908956 -0.006920149757615506 0.06292537372061459 0 157 97
-0.0010644862791329797 -0.006447215522548821 0.06289602515411129 0 159 95
-0.000800419976222955 -0.0059752860263102975 0.06296488603215215 0 155 99
-0.0005352265481143115 -0.005500418989472997 0.06274663454230778 0 171 83
-0.00027051739416717596 -0.0050268140573611455 0.06265173521191644 0 179 75
-6.191833405700363e-06 -0.0045542088253327775 0.0626545392684365 0 179 75
0.00025618372454336465 -0.0040866856592542645 0.063154042875604 0 142 112
0.0005222545796800182 -0.003609531904182637 0.06271230109085685 0 175 79
0.0007861830202731224 -0.0031379616501347077 0.0628162615919165 0 168 86
0.0010505085958042678 -0.0026653563916992184 0.06281906564876474 0 168 86
0.001314436971352821 -0.002193786255605169 0.06292302666480777 0 161 93
0.0015783654119459248 -0.0017222160015572395 0.06302698716586744 0 154 100
0.00184307456589306 -0.001248611069445388 0.06293208783547609 0 161 93
0.0021064713361935005 -0.0007784264428830588 0.06317147302760905 0 144 110
0.002371488588307037 -0.0003040185520700755 0.0629980963032749 0 157 97
0.002635686421949299 0.000168253788249164 0.06303343820562227 0 155 99
0.0028997526638693616 0.0006401831771007918 0.06310229856587933 0 150 104
0.0031638189037621316 0.0011121125606689286 0.06317115944251998 0 146 108
0.0034280167374043935 0.001584384900988168 0.06320650134486734 0 144 110
0.0036912171134961154 0.002054057689260173 0.06349591119591268 0 123 131
0.003955668920581326 0.002526991929610351 0.06346656211302582 0 125 129
0.004216081311854559 0.0029893987328400446 0.064466115050813 0 51 203
0.0044778299964107005 0.003455287948134877 0.0651253575214354 0 3 251
0.004743900836759173 0.00393244167755682 0.06468361549024915 0 36 218
0.0050064057138511885 0.004400301871550944 0.06515017975160642 0 2 252
-0.006295568940948808 -0.014691396984409324 0.06300355682810671 0 143 111
-0.005759678157051717 -0.013727318694822849 0.06116511788168635 40 214 0
-0.005493555980476629 -0.013250031174050162 0.060710299715297386 93 161 0
-0.005228857364409202 -0.01277645370552988 0.06061808454673341 104 150 0
-0.0049642965496687385 -0.012303235371813295 0.06056096951897204 112 142 0
-0.0046998673307050605 -0.011830360000131305 0.06053737398188751 115 139 0
-0.004435819410134869 -0.011358478153725687 0.06061083686335545 107 147 0
-0.004171258597421698 -0.010885259825292593 0.06055372235197765 114 140 0
-0.0039088615207782465 -0.010417680578469207 0.06104774506389275 58 196 0
-0.003643047491024641 -0.009941196143201462 0.06067141668465241 102 152 0
-0.0033806504164084848 -0.009473616901661569 0.061165439912951085 46 208 0
-0.0031167325177496813 -0.00900207412177219 0.06127208560860527 35 219 0
-0.002854176302498786 -0.0085340801313915 0.061725573242581745 0 244 10
-0.00259315062000657 -0.00807007498200362 0.06256891137014756 0 182 72
-0.002330594404755676 -0.00760208099162293 0.06302239900412403 0 149 105
-0.002067518964776478 -0.007132733809114207 0.06334363202579948 0 125 129
-0.0018040853382518874 -0.006662453128666786 0.06357362936452313 0 109 145
-0.0015399100927311585 -0.006190239657015735 0.06361472481267283 0 106 148
-0.0012807275699067188 -0.00573103816159575 0.06492756042183334 0 9 245
-0.0010106986336351105 -0.005243568929168618 0.06347762981019435 0 117 137
-0.000744884599826915 -0.004767084483333889 0.06310130039818686 0 145 109
-0.0004787624380214973 -0.004289796988968326 0.06264648223146972 0 180 74
-0.00021406382293871588 -0.0038162195222085178 0.06255426706288388 0 187 67
5.02376759722767e-05 -0.0033436770246247052 0.0625632078224978 0 187 67
0.00031428584252960606 -0.0028717947433880096 0.06263667225871733 0 182 72
0.000578334013141525 -0.002399912451584331 0.0627101356621697 0 177 77
0.0008419437546712625 -0.0019291727324994888 0.06289525771759932 0 163 91
0.001106119000191991 -0.001456959260848437 0.06293635316574903 0 161 93
0.0013704204772667854 -0.0009844168072826978 0.06294529547416362 0 160 94
0.0016344686499059993 -0.0005125345101955267 0.06301875836123243 0 155 99
0.0018988978688696768 -3.965913851353793e-05 0.0629951628241479 0 158 96
0.0021630731164177003 0.0004325543384210051 0.06303625775591402 0 155 99
0.002427121287029619 0.0009044366302246847 0.0631097211593664 0 150 104
0.002691296532550348 0.0013766501018757375 0.0631508166075161 0 147 107
0.0029558573472908134 0.0018498684355923224 0.06309370157975473 0 152 102
0.0032200325928115428 0.002322081907243374 0.06313479702790444 0 149 105
0.0034836423953312407 0.002792821733715112 0.06331991960111785 0 136 118
0.003748203210071706 0.0032660400674316982 0.06326280457335647 0 141 113
0.004011458481943437 0.003735855717629408 0.06353829582709866 0 121 133
0.004272484166462948 0.004199860872300778 0.06438163343828089 0 59 195
-0.006766055186205579 -0.014421552936282075 0.062464581050376625 0 183 71
-0.006504508381436886 -0.013956189649417621 0.0631751812306144 0 131 123
-0.00623243185073877 -0.013463384021190536 0.06120369647822352 36 218 0
-0.005967059819962834 -0.012988051513988954 0.0609399521117286 67 187 0
-0.005701687785132307 -0.012512718996220393 0.06067620671246653 98 156 0
-0.005437108897056403 -0.012039453560172367 0.060614488125126265 106 148 0
-0.005172530015062382 -0.011566188139974818 0.060552771086936734 113 141 0
-0.004908078458018899 -0.011093254345022702 0.060523421482065444 117 137 0
-0.004643626648906392 -0.01062032009938903 0.060494071882795 121 133 0
-0.0043795604090136235 -0.010148390715820896 0.060562932759435646 114 140 0
-0.004114851253039193 -0.009674785778425551 0.06046803291266073 126 128 0
-0.0038512597205025553 -0.00920409356678398 0.060657809134659874 105 149 0
-0.003587862954256705 -0.008733908950788634 0.06089719535955998 78 176 0
-0.0033263161494880107 -0.008268545663924183 0.06160779553979775 0 253 1
-0.003066875339371201 -0.007808670974249466 0.0628548253063205 0 161 93
-0.0028043704633403488 -0.007340810783020922 0.06332138983797231 0 126 128
-0.002540442022747245 -0.0068692405289729926 0.06342535033903196 0 119 135
-0.0022772416486828186 -0.00639956774598448 0.06371476070646087 0 98 156
-0.002014236718025728 -0.005930404323328532 0.06405395354890507 0 73 181
-0.0017476996066908839 -0.005452035460226135 0.06349346109979961 0 115 139
-0.0014843028404450337 -0.004981850844230789 0.06373284732469972 0 98 156
-0.001220236600552265 -0.004509921460662654 0.06380170820134036 0 93 161
-0.0009540066312502663 -0.004032353000757965 0.06331942978882563 0 130 124
-0.0006882759243081785 -0.0035560857187730936 0.06296432477453166 0 156 98
-0.0004232586564403289 -0.003081677799792514 0.06279094805054757 0 170 84
-0.00015788662160980257 -0.002606345282023951 0.0625272026512855 0 190 64
0.00010511830904728729 -0.0021371818593680023 0.0628663954937297 0 165 89
0.00037066985865677254 -0.0016613814425458849 0.06255690883591687 0 188 66
0.0006352487447053826 -0.001188116011781351 0.06249519076496019 0 193 61
0.0008986455170331186 -0.0007179313799355292 0.06273457544070957 0 176 78
0.0011627117528712973 -0.00024600200693437836 0.06280343735011737 0 171 83
0.0014287825922536372 0.000231151719969652 0.06236169556502015 0 205 49
0.0016907205859039679 0.0006975345147395417 0.06297265385407452 0 160 94
0.0019551723950164733 0.0011704687603732115 0.06294330425480409 0 162 92
0.002219100833582283 0.00164203900913765 0.06304726527224733 0 155 99
0.0024830292721480913 0.0021136092579020866 0.06315122628969055 0 148 106
0.002745842292973131 0.0025822725293520796 0.06353930155057731 0 119 135
0.003011913134382766 0.003059426261539602 0.06309755924909653 0 153 101
0.0032763649434952714 0.003532360507173272 0.06306820964982608 0 155 99
0.00353830318313274 0.003998743736774237 0.06367916949363205 0 110 144
0.00380169995343318 0.004468928363336565 0.063918554685765 0 93 161
0.004062466786837834 0.004932258905895179 0.064827825701065 0 26 228
-0.006976613051128414 -0.013690562790291063 0.06304838592184983 0 141 113
-0.006709091570631032 -0.01320962843424811 0.06223714328712117 0 201 53
-0.006441345323930597 -0.012728108297443879 0.06136864920533582 18 236 0
-0.00617263356174055 -0.012244071855292825 0.060254223314473915 146 108 0
-0.005909558121761353 -0.011774724672784101 0.06057545633614937 110 144 0
-0.005644859505693927 -0.011301147204263819 0.0604832411675854 121 133 0
-0.005379824235666354 -0.01082669214930222 0.060305210788864666 143 111 0
-0.005115522754536969 -0.010354149685169498 0.060314152064512114 142 112 0
-0.004851093533545996 -0.009881274308204017 0.060290556011044015 146 108 0
-0.004586918288025269 -0.009409060836552964 0.060331651459193725 142 112 0
-0.00432274304250454 -0.008936847364901912 0.06037274690734343 137 117 0
-0.004059846695798038 -0.008467966931362538 0.060739597770494785 96 158 0
-0.0037979047610861142 -0.008001573865484142 0.06134955220987767 27 227 0
-0.003541882714453945 -0.007550609082412165 0.06346739419808911 0 115 139
-0.003278376095170801 -0.007080138169834237 0.06367879914616356 0 100 154
-0.003015479752518889 -0.006611257746861845 0.06404565104208207 0 73 181
-0.0024887758122776743 -0.005671122008234398 0.06454724403125069 0 37 217
-0.002224474268131035 -0.0051985794314312874 0.06455618530829835 0 37 217
-0.001961040640529444 -0.004728298748177012 0.06478618237269322 0 20 234
-0.0016956139610376374 -0.0042528238166876595 0.06450851812847236 0 41 213
-0.0014311847548163338 -0.0037799484661293 0.06448492207467607 0 43 211
-0.0011652025254310218 -0.003303025671855356 0.0640657503828911 0 75 179
-0.000899580387727859 -0.002827041354342479 0.06373830390605979 0 100 154
-0.0006327952147135627 -0.0023480259467540373 0.06311461023693628 0 146 108
-0.0003686199691928342 -0.0018758124751029868 0.06315570568508598 0 144 110
-0.00010249785563500296 -0.00139852506700069 0.06270088751729681 0 178 76
0.00016180362752167598 -0.0009259825975844744 0.06270982827656069 0 178 76
0.00042487906750087465 -0.0004566354150757506 0.06303106129823614 0 154 100
0.0006894398802140449 1.6582913357342244e-05 0.06297394678685833 0 159 95
0.0009530496827337433 0.0004873227398290805 0.06315906936007175 0 146 108
0.0012166594872807367 0.0009580625715843098 0.06334419141690158 0 132 122
0.0014808347328014648 0.0014302760432353613 0.06338528686505128 0 130 124
0.0017448829034133846 0.001902158335039042 0.06345875026850366 0 125 129
0.002008931076052598 0.0023740406321262134 0.06353221315557245 0 120 134
0.002272979242609928 0.002845922913362909 0.06360567759179198 0 115 139
0.002538014762679229 0.003320378413722567 0.06342764773505567 0 128 126
0.0028019326633653275 0.003791921198895437 0.06353429291432629 0 121 133
0.003066631529474481 0.00426549911281378 0.06344207826774674 0 128 126
0.0033268852423362486 0.004727492371838857 0.06448204906440083 0 51 203
-0.00771119865619731 -0.013892734442141232 0.062448985425958094 0 185 69
-0.007449160574989979 -0.013426090801369861 0.06303444985787178 0 142 112
-0.007177812643999141 -0.012935184033760594 0.0612485507807306 31 223 0
-0.006910094623327794 -0.012453737459015884 0.06038724630747209 131 123 0
-0.006647839086343388 -0.0119865270897555 0.060917321371503685 70 184 0
-0.006382287469662058 -0.01151072654969601 0.06060783368232392 106 148 0
-0.006117835664604141 -0.011037792314629324 0.06057848511582063 111 143 0
-0.005852642490591815 -0.010562925733757068 0.06036023413675898 136 118 0
-0.005588190681479309 -0.010089991488123397 0.06033088453748854 140 114 0
-0.005323481525504879 -0.009616386550728055 0.060235984690713625 152 102 0
-0.005059283691862617 -0.009144114210408814 0.06027132659306099 149 105 0
-0.004794831882750112 -0.008671179964775143 0.060241976993790546 153 101 0
-0.00453063404910785 -0.008198907624455902 0.06027731889613792 149 105 0
-0.00426670561054204 -0.007727337375691467 0.06038127991358115 138 116 0
-0.004004200732483892 -0.007259477179179429 0.06084784392884938 85 169 0
-0.003750401882485486 -0.006814306442538376 0.06353196867063399 0 111 143
-0.0034895210745526867 -0.0063506788620578845 0.06441220860129859 0 46 208
-0.0032274829912705455 -0.0058840352158791905 0.06499767250472596 0 3 251
-0.0008444672158005448 -0.0016199401514160633 0.06398226031560512 0 82 172
-0.0005812669027260788 -0.0011502674758144468 0.06427167016525025 0 61 193
-0.0003136655326123551 -0.0006691249132010969 0.06344007840294728 0 123 131
-4.908664859103965e-05 -0.00019585948772005515 0.06337836084837417 0 128 126
0.00021511118505122178 0.0002764128525991846 0.06341370275072154 0 126 128
0.0004795629941637281 0.0007493470982328546 0.06338435315145109 0 129 125
0.0007434914327295364 0.0012209173469972913 0.06348831416889433 0 122 132
0.001007943241842042 0.0016938515926309611 0.0634589645696239 0 124 130
0.001271871682435146 0.0021654218466788918 0.06356292507068356 0 117 137
0.001534876613092236 0.00263458526933484 0.06390211791312776 0 92 162
0.0017994555011681419 0.0031078507053828664 0.0638403993257875 0 97 157
0.0020626558752325683 0.003577523488371379 0.06412980969321641 0 76 178
0.002326722111070747 0.004049452861372531 0.0641986716026242 0 72 182
0.00259104794069821 0.004522058575773064 0.06420147514868972 0 72 182
0.0028534234976046236 0.004989581738328559 0.06470097927226269 0 35 219
-0.007921599924414558 -0.013161336890597473 0.0629929600826689 0 145 109
-0.007654189549822816 -0.012680692096335178 0.062210017849815766 0 203 51
-0.007385603879303477 -0.01219698427153786 0.061127709468222234 45 209 0
-0.007120373594970683 -0.01172202118081547 0.06090007012496855 72 182 0
-0.006854946914401876 -0.01124654624651926 0.060622405606418905 105 149 0
-0.0065893247924530265 -0.01077056195717398 0.060294959129237546 143 111 0
-0.006324289524452748 -0.010296106907495875 0.06011692926690039 164 90 0
-0.006060114278932019 -0.009823893435844824 0.06015802471505009 160 94 0
-0.005795685057941046 -0.009351018058879342 0.060134428661581994 164 90 0
-0.005530986441873621 -0.008877440590359059 0.060042213493018026 175 79 0
-0.005267731422070913 -0.0084076253908429 0.06031770474115936 144 110 0
-0.00500342993688694 -0.007935082916143192 0.06032664498403966 144 110 0
-0.004738394416817638 -0.007460627415783534 0.06014861512730336 165 89 0
-0.004474784616325235 -0.006989887594595288 0.06033373821690034 144 110 0
-0.004213639475471741 -0.006525571115439592 0.06114664844225803 51 203 0
1.6950270161470403e-06 0.0009999530642552672 0.06472561672590342 0 29 225
0.0002658702765914655 0.001472166546473302 0.06476671114128597 0 27 227
0.0005305688926588903 0.0019457440149935861 0.064674495972722 0 34 220
0.0007934652353741565 0.0024146244381310876 0.06504134785250353 0 7 247
0.001057513405970237 0.002886506729893489 0.06511481125999014 0 2 252
-0.008659710730013218 -0.013372695842948897 0.06329148297896615 0 122 132
-0.008393173681695629 -0.012894327092516887 0.0627309905284605 0 164 90
-0.00812469612276713 -0.012410901025782505 0.061676219850200935 0 243 11
-0.00785862528338479 -0.011933747298878472 0.06123447806510372 33 221 0
-0.00759255444400245 -0.011456593571974443 0.06079273628000651 85 169 0
-0.007327537191888915 -0.01098218568116146 0.060619359555672374 105 149 0
-0.007062519939775378 -0.010507777790348477 0.06044598283133823 126 128 0
-0.00679750294175816 -0.010033370355500539 0.06027260661778681 147 107 0
-0.006532924057736844 -0.009560104930019497 0.0602108890632137 154 100 0
-0.006268472248624339 -0.009087170684385826 0.06018153946394326 158 96 0
-0.006004146675120488 -0.00861456543123383 0.060184344037175076 159 95 0
-0.005740946301056061 -0.008144892648245316 0.06047375440460398 126 128 0
-0.005475394686402025 -0.007669092113469318 0.060164267231807796 162 92 0
-0.005209663978475293 -0.007192824829723972 0.0598091622175357 204 50 0
-0.004947625895240667 -0.006726181183669111 0.06039462613306581 137 117 0
-0.004683174086128161 -0.0062532469380354415 0.06036527653379537 141 113 0
-0.004419107846235392 -0.005781317554467306 0.06043413741043602 134 120 0
-0.004157561045521289 -0.005315954278169839 0.061144738623440935 53 201 0
-0.008868310552801911 -0.012636603760416514 0.06337663017297125 0 117 137
-0.008599598784529981 -0.012152567302414988 0.06226220273295862 0 200 54
-0.008329701628455657 -0.011665441512655117 0.06084583858676491 78 176 0
-0.00806609182593596 -0.01119470168618338 0.06103096115997831 57 197 0
-0.007800109597593299 -0.010717778895432453 0.06061178998459879 106 148 0
-0.007535074075496702 -0.010243323389789302 0.06043375961147891 127 127 0
-0.00726984403917834 -0.00976836073918148 0.06020611922985722 154 100 0
-0.00700528322646517 -0.009295142410748386 0.060149004718479414 162 92 0
-0.006740854009528788 -0.008822267044349888 0.060125409697778465 165 89 0
-0.006476552528399403 -0.008349724580217165 0.06013435097342592 165 89 0
-0.006212634631767895 -0.007878181805611279 0.06024099718546368 153 101 0
-0.005948716731081796 -0.007406639020438409 0.060347642364734284 141 113 0
-0.0056845414855610675 -0.006934425548787359 0.060388737812883994 137 117 0
-0.005420366235985749 -0.006462212066569323 0.06042983222826655 133 121 0
-0.0051549395574442365 -0.005986737137556607 0.060152168226100484 166 88 0
-0.0048908913908869076 -0.005514854856319911 0.060225632662320006 158 96 0
-0.00462949784962458 -0.005049891001452865 0.06097527144089353 73 181 0
-0.009606541195866023 -0.012848275030548768 0.06370567753520533 0 92 162
-0.009341169165090087 -0.012372942523347186 0.06344193316871041 0 112 142
-0.009072901041959415 -0.011890062283607353 0.062440509044906806 0 187 67
-0.008804632916801444 -0.011407182038584021 0.061439084404719624 10 244 0
-0.008539923762854307 -0.010933577106472173 0.061344185074328275 22 232 0
-0.008272441847047273 -0.010452745863059656 0.06054302018146628 114 140 0
-0.008007732691072841 -0.009979140925664313 0.060448120334691366 126 128 0
-0.007742715691028329 -0.009504733485532883 0.06027474360475637 147 107 0
-0.007478263881915822 -0.009031799239899212 0.060245394005485925 151 103 0
-0.007211030368544916 -0.008551615377481538 0.059507501075791676 236 18 0
-0.006949483567830813 -0.00808625210118407 0.06021810228879659 155 99 0
-0.006685031758718307 -0.007613317855550401 0.06018875268952616 159 95 0
-0.006419659723887782 -0.0071379853377818376 0.059925007290264086 190 64 0
-0.0061566547952579855 -0.006668821920409382 0.06026420064909186 152 102 0
-0.00589207591123667 -0.006195556494928339 0.060202483094518755 160 94 0
-0.0056278780775944085 -0.0057232841546091 0.06023782499686612 156 98 0
-0.005364481305266674 -0.005253099522763278 0.060477209672615495 129 125 0
-0.0050992878791853245 -0.004778232491209468 0.0602589586991547 155 99 0
-0.004835359440619516 -0.004306662242445032 0.060362919716597935 144 110 0
-0.004572159001510538 -0.003836989341502639 0.06065232956904348 111 143 0
-0.010080872816415613 -0.012588452715385922 0.06414617864056851 0 59 195
-0.009546706826771518 -0.011628869546848969 0.06274707161112805 0 164 90
-0.009279185346274135 -0.01114793519080601 0.06193582897639938 0 224 30
-0.00901155196111686 -0.010666709191286537 0.06109608248466628 50 204 0
-0.008746516441047559 -0.010192253690926878 0.06091805262792997 71 183 0
-0.008480534206623012 -0.009715330884325475 0.06049887990339973 120 134 0
-0.008217100832167444 -0.009245050654559607 0.06072887723652251 94 160 0
-0.007950511860768837 -0.00876654658332975 0.06015515916987167 161 93 0
-0.007685813244701411 -0.008292969114809465 0.0600629440013077 172 82 0
-0.007421511767626617 -0.007820426661243725 0.0600718863097223 172 82 0
-0.007157463592960108 -0.007348544358873061 0.06014534868040752 164 90 0
-0.006893162115885314 -0.006876001905307322 0.06015429098882212 164 90 0
-0.00662575173723898 -0.00639535710047804 0.059371347723201844 255 0 0
-0.006363954342582789 -0.005929340731730848 0.060018118762393505 181 73 0
-0.00609990617602546 -0.0054574584504941525 0.06009158319861303 173 81 0
-0.005836296371478467 -0.004986718618738922 0.06027670525544287 152 102 0
-0.005571597755411042 -0.004513141150218639 0.06018449008687889 164 90 0
-0.005307168538474658 -0.004040265783820143 0.060160895066177944 167 87 0
-0.005044612260206509 -0.0035722716807690636 0.060614382701554635 116 138 0
-0.004783344585585136 -0.0031076358567881392 0.061396081670819606 27 227 0
-0.010285236556462855 -0.011841320200836647 0.06315229381299073 0 133 121
-0.01002078475140494 -0.011368385965769964 0.06312294524648744 0 136 118
-0.00975295264064963 -0.01088664205194433 0.06223258025472971 0 203 51
-0.009485848584259224 -0.010406795577477163 0.061527662031039765 1 253 0
-0.009219463228294332 -0.009928822164336236 0.061005807981598555 61 193 0
-0.008953392388911992 -0.009451668437432205 0.06056406619650134 113 141 0
-0.008688199212872371 -0.008976801851276457 0.060345814701056114 139 115 0
-0.008423490058925235 -0.008503196919164605 0.06025091537066477 150 104 0
-0.008158780904978099 -0.008029591987052753 0.06015601604027343 162 92 0
-0.007894329095865594 -0.007556657741419084 0.060126666441002986 166 88 0
-0.0076297502118442785 -0.007083392315938042 0.06006494888642988 174 80 0
-0.007364198595162947 -0.006607591775878552 0.05975546119725012 210 44 0
-0.007101385574337908 -0.00613892850442856 0.06014353645813687 166 88 0
-0.00683954369271897 -0.0056727961947322806 0.060778975976139654 93 161 0
-0.006571825676102214 -0.005191349630554557 0.059917672535648295 193 61 0
-0.006308234141538281 -0.004720657413629494 0.06010744824126387 172 82 0
-0.006043040715456933 -0.004245790382075684 0.05988919726780307 198 56 0
-0.00578053583537149 -0.0037779301802801563 0.06035576076668772 145 109 0
-0.005516210202904975 -0.0033053248250247544 0.0603585663740869 145 109 0
-0.0052521439609849105 -0.002833395436173127 0.060427426734343974 138 116 0
-0.0049889435869204845 -0.0023637226531846144 0.06071683710177288 105 149 0
-0.010494185247071198 -0.011106137006744567 0.06332627705565402 0 121 133
-0.010226774868424864 -0.010625492201915282 0.06254333379003374 0 180 74
-0.009959694616533028 -0.010145707766211522 0.061844478942291656 0 232 22
-0.009693005551495536 -0.009666942833129707 0.0612452654693494 34 220 0
-0.009426316486458041 -0.009188177900047891 0.060646051996407144 103 151 0
-0.009161281216430468 -0.008713722845086294 0.060468021617686406 125 129 0
-0.008895298988087805 -0.008236800054335367 0.060048850442306886 173 81 0
-0.008631381087401708 -0.007765257269162496 0.060155495621577494 162 92 0
-0.008366682471334283 -0.007291679800642212 0.06006328045301352 173 81 0
-0.0081022532543979 -0.006818804434243715 0.06003968543231257 177 77 0
-0.007837692437630139 -0.006345586095243637 0.059982569888167615 184 70 0
-0.007573263216639167 -0.005872710718278157 0.05995897383469952 187 67 0
-0.0073089617395643725 -0.005400168264712418 0.05996791614311412 187 67 0
-0.007044660262489579 -0.004927625811146679 0.059976858451528725 186 68 0
-0.00678061208782307 -0.004455743508776015 0.06005032082221394 179 75 0
-0.006516563917211151 -0.003983861216972336 0.06012378422566632 171 83 0
-0.006252388671690421 -0.003511647745321285 0.06016487967381602 167 87 0
-0.005988778808180764 -0.003040907811462651 0.06035000276481322 146 108 0
-0.005723156682177324 -0.0025649235115503865 0.06002255525486471 185 69 0
-0.005462691281192922 -0.002102378555571115 0.061008605794910055 72 182 0
-0.0051997949492560884 -0.0016334981484388616 0.06137545665773324 30 224 0
-0.010964726527946627 -0.010836436446973574 0.06280132419027863 0 160 94
-0.010700147645952606 -0.010363171026776023 0.0627396071520891 0 165 89
-0.01043209397820232 -0.009880849695957001 0.0617928081484753 0 236 18
-0.010165708620210132 -0.009402876277532583 0.06127095358265051 31 223 0
-0.009898349244252862 -0.00892236439479577 0.06050100149503195 120 134 0
-0.009634151656597737 -0.008450092489307606 0.06053634184262774 117 137 0
-0.009367921678607954 -0.00797252401884627 0.060054064979591905 173 81 0
-0.009103596101049513 -0.0074999187551272875 0.06005686852005657 173 81 0
-0.008839270531600253 -0.007027313512542274 0.060059674126055534 174 80 0
-0.008575072693903401 -0.006555041161656049 0.06009501499563575 170 84 0
-0.008310363535901677 -0.006081436218977213 0.06000011463247726 182 72 0
-0.00804578465188036 -0.005608170793496172 0.05993839707790415 190 64 0
-0.007781856213314552 -0.005136600544731735 0.06004235809534739 178 76 0
-0.007516838963228311 -0.004662192659202245 0.059868981887396824 199 55 0
-0.0072521298052265855 -0.004188587716523409 0.059774081524238326 211 43 0
-0.006989316780346956 -0.003719924434506432 0.060162155752357935 167 87 0
-0.00672460762639982 -0.003246319502394581 0.060067256421966586 178 76 0
-0.006460679124816756 -0.002774749140959756 0.06017121744081004 167 87 0
-0.006197087590252823 -0.002304056924034692 0.06036099314642561 146 108 0
-0.005935650460119459 -0.001838979468805527 0.061099529161734355 62 192 0
-0.005668965352940521 -0.0013602248385228308 0.06050132005451899 131 123 0
-0.005406320533716477 -0.0008919999295999884 0.06093223862790663 82 172 0
-0.005144883381746913 -0.0004269224303527499 0.061670773094414696 0 253 1
-0.01117340923178859 -0.0101005600105513 0.06290755377673818 0 153 101
-0.010906820260389982 -0.009622055939321441 0.06233383571008734 0 196 58
-0.01063963033791741 -0.009141985682549378 0.061607046060041436 0 250 4
-0.010373041366518801 -0.008663481611319518 0.06103332799339059 59 195 0
-0.010106558050313859 -0.008185252690088792 0.06048645773601551 123 131 0
-0.009841522528217262 -0.007710797184445641 0.060308427362895635 144 110 0
-0.00957648700814796 -0.0072363416840859835 0.06013039750615933 165 89 0
-0.00931192619543479 -0.006763123355652889 0.06007328299478153 172 82 0
-0.009047227579367365 -0.006289545887132606 0.05998106782621755 183 71 0
-0.00878252896329994 -0.005815968418612321 0.059888852657653584 195 59 0
-0.00851848079674261 -0.005344086137375626 0.059962317093873105 187 67 0
-0.008252666762934414 -0.004867601691540898 0.05958598768186561 231 23 0
-0.007989770416227912 -0.004398721258001523 0.05995283854501698 189 65 0
-0.00772534119523694 -0.003925845881036043 0.05992924249154888 193 61 0
-0.00746078038252377 -0.0034526275526029484 0.05987212798017107 200 54 0
-0.0071973467539718835 -0.002982346866872037 0.060102124802511134 174 80 0
-0.0069331714454339 -0.002510133282550598 0.06014322025206106 170 84 0
-0.0066699164215766014 -0.002040318072467455 0.060418710467435244 139 115 0
-0.006405614942474513 -0.001567775613618224 0.060427652259466266 139 115 0
-0.0061416970585853785 -0.0010962328601359682 0.060534297954792274 127 127 0
-0.005877648893012693 -0.000624350580659748 0.060607762390989924 120 134 0
-0.005615407178590039 -0.00015717624834835618 0.06114136228966046 59 195 0
-0.01191594871209597 -0.010323460878044234 0.06433412898772867 0 46 208
-0.011650218000114648 -0.009847193583731902 0.06397902294068943 0 73 181
-0.011380192110804157 -0.009359732292228183 0.06252986843742797 0 181 73
-0.011111818771059987 -0.008876577839252033 0.061501644006036735 5 249 0
-0.010844989111082944 -0.008397446490714503 0.06086661881572433 78 176 0
-0.010578918521742331 -0.007920293209208534 0.06042487650864269 130 124 0
-0.010314852281849562 -0.007448363825640398 0.06049373738528334 123 131 0
-0.010049121575950126 -0.006972096547178544 0.06013863288739482 164 90 0
-0.009783390868023392 -0.006495829263433199 0.05978352787312272 206 48 0
-0.009519994095695657 -0.006025644631587376 0.0600229125488721 179 75 0
-0.009255284941748522 -0.005552039699475524 0.059928013218480757 190 64 0
-0.008991218699828458 -0.005080110310623898 0.05999687357873783 183 71 0
-0.00872584666499793 -0.004604777792855335 0.05973312817947576 214 40 0
-0.008461918226432124 -0.004133207544090898 0.05983708919691899 203 51 0
-0.008197592648873682 -0.0036606022803719164 0.05983989273738366 203 51 0
-0.007933267079424423 -0.0031879970377869027 0.05984269834338262 204 50 0
-0.007669675544860489 -0.0027173048208618397 0.0600324740489982 182 72 0
-0.007406083947279301 -0.0022466124912663885 0.06022224975601398 161 93 0
-0.007141632138166796 -0.0017736782456327187 0.060192900156743535 165 89 0
-0.006877703699600987 -0.0013021079968682815 0.060296861174186776 154 100 0
-0.006614112179806723 -0.0008314158063503403 0.06048663687947417 133 121 0
-0.006349660375733451 -0.00035848157304412985 0.060457288312949005 137 117 0
-0.006086847339154098 0.00011018172657345981 0.060845363574185816 93 161 0
-0.0058229188965336996 0.0005817519859048813 0.0609493235588619 82 172 0
-0.005560543341654581 0.001049275143176885 0.06144882819881843 25 229 0
-0.011854799154755128 -0.009100627422830914 0.06304049546536385 0 143 111
-0.011585302077251272 -0.008614544309089032 0.06172603755233371 0 241 13
-0.011317780596753889 -0.008133609953046074 0.06091479491760504 73 181 0
-0.011052550566517412 -0.007658647318288728 0.06068715608513408 100 154 0
-0.01078547031259828 -0.007178862877301474 0.05998830072100842 181 73 0
-0.010522573967919073 -0.00670998244904559 0.06035515210054336 139 115 0
-0.010256759936138175 -0.006233498008494353 0.05997882320491944 183 71 0
-0.009992199115315823 -0.005760279658927291 0.05992170662800734 190 64 0
-0.009727500503302988 -0.005286702200973992 0.05982949249221052 202 52 0
-0.009463325253727669 -0.004814488718755957 0.059870586907593074 198 56 0
-0.009198626641714834 -0.004340911260802657 0.05977837277179625 209 45 0
-0.008934197424778452 -0.003868035894404161 0.059754777751095306 212 42 0
-0.008670149254166532 -0.0033961536026004815 0.05982824115454768 205 49 0
-0.008406894230309235 -0.002926338392517338 0.060103731369921864 174 80 0
-0.008141858710239933 -0.002451882892157681 0.059925701513185554 195 59 0
-0.007878603623365378 -0.0019820675694041502 0.060201191729959955 164 90 0
-0.007613905015407134 -0.0015084901220178343 0.060108978626930286 175 79 0
-0.00735029521086014 -0.0010377502902626046 0.06029410068376012 154 100 0
-0.007085866004638838 -0.0005648749397042458 0.06027050462996385 158 96 0
-0.006822790567671579 -9.552776423948938e-05 0.060591738168000994 122 132 0
-0.006558872651231166 0.00037601504910097713 0.060698383347621655 110 144 0
-0.006294824480619247 0.000847897340904657 0.06077184675107403 102 152 0
-0.006032268265368353 0.0013158913312853473 0.061225334385050505 51 203 0
-0.005771242649947982 0.0017798963574358543 0.06206867354398325 0 225 29
-0.012323930797945627 -0.008827253040432637 0.062156481477141985 0 209 45
-0.01205935190986972 -0.00835398760438461 0.06209476288980173 0 214 40
-0.01179097857418014 -0.007870833161975444 0.061066539491177636 56 198 0
-0.011525427209567831 -0.007395033072597507 0.06075705179639702 92 162 0
-0.011259041851575644 -0.006917059654173088 0.060235197230572225 153 101 0
-0.010994332693573918 -0.006443454711494252 0.060140296867413734 164 90 0
-0.010730007120070068 -0.005970849458342254 0.060143101440645545 164 90 0
-0.010465297966122932 -0.005497244526230403 0.060048202110254204 176 78 0
-0.010200588808121207 -0.005023639583551567 0.05995330174709571 188 66 0
-0.009935037195494465 -0.0045478390540590625 0.0596438150906831 224 30 0
-0.009670711621990614 -0.004075233800907064 0.059646619663914914 224 30 0
-0.009408066793672747 -0.0036070088690897794 0.060077536171790125 175 79 0
-0.009142336085746015 -0.0031307415853444338 0.05972243115751803 217 37 0
-0.008878407647180207 -0.0026591713365799957 0.059826392174961274 206 48 0
-0.0086138287591043 -0.002185905900531971 0.05976467358762101 213 41 0
-0.008351183875878358 -0.0017176808771782656 0.06019559216243074 165 89 0
-0.008086166625792115 -0.0012432729916487743 0.06002221595448017 185 69 0
-0.00782276985346438 -0.0007730883598029527 0.06026160063022955 158 96 0
-0.007555665813870941 -0.00029324191702639847 0.05955668292259501 240 14 0
-0.0072945602386924385 0.00017097144773838284 0.06037967088979749 146 108 0
-0.007032416736578857 0.0006378898212784218 0.06093828699080103 83 171 0
-0.006766686028652123 0.0011141571050237676 0.06058318197652894 124 130 0
-0.006503485654587697 0.0015838298880122797 0.060872592343957845 91 163 0
-0.00623989418304102 0.002054521992266955 0.0610623680481732 70 184 0
-0.005977249358777742 0.0025227469135172564 0.06149328558881557 21 233 0
-0.012532813897876754 -0.008091898871913953 0.06231375506369268 0 198 56
-0.012265513986538116 -0.0076115419645653385 0.06155894953912155 0 254 0
-0.01199914272095831 -0.007133605067222556 0.06104062031836836 59 195 0
-0.011731952800513031 -0.006653534815733985 0.060313831184706033 144 110 0
-0.011467523583576647 -0.006180659449335487 0.060290236164005084 147 107 0
-0.011202293297216559 -0.005705696353329603 0.060062596304367825 174 80 0
-0.010938683496724156 -0.005234956532141358 0.06024771939396481 153 101 0
-0.010673061370720717 -0.004758972232229094 0.0599202718840163 192 62 0
-0.010407634692179204 -0.004283497303216378 0.05964260788185023 224 30 0
-0.010143586521567285 -0.0038116150114126976 0.05971607128530261 216 38 0
-0.009879668620881186 -0.003340072226239829 0.05982271646457322 205 49 0
-0.009615107808168016 -0.0028668538978067347 0.05976560195319541 212 42 0
-0.009351674179616132 -0.002396573212075823 0.05999559877553547 186 68 0
-0.009086975563548705 -0.0019229957435555399 0.059903383606971505 198 56 0
-0.008823365695984456 -0.001452255799129922 0.060088505665201554 177 77 0
-0.008558936479048073 -0.0009793804327314247 0.060064910644500605 180 74 0
-0.008295861037041581 -0.0005100332449392096 0.06038614314979248 144 110 0
-0.008031431834874867 -3.7157904947834886e-05 0.060362548128763356 147 107 0
-0.007767256586284193 0.00043505557550972554 0.06040364254412403 143 111 0
-0.007503208401945256 0.0009069378901975099 0.06047710646431004 136 118 0
-0.007239290505313746 0.001378480664803396 0.060583752676347795 124 130 0
-0.006975680702794048 0.0018492204912751334 0.060768875249561205 103 151 0
-0.0067117628651252054 0.002320763163777615 0.0608755204274316 92 162 0
-0.006448507845322497 0.0027905783632937737 0.061151011675572936 61 193 0
-0.0061845899466636935 0.0032621211431831517 0.06125765737122712 49 205 0
-0.005923564262144182 0.003726126297854522 0.062100994982409355 0 224 30
-0.01300583873011401 -0.007828670833639587 0.06242139686520097 0 190 64
-0.012738605210661218 -0.007348486955371436 0.06168350238635599 0 245 9
-0.012472534623347901 -0.006871333679148958 0.061241760595657925 36 218 0
-0.012205430566957496 -0.00639148720468179 0.060536842371967985 118 136 0
-0.01193987895230346 -0.005915686669905792 0.0602273551991718 154 100 0
-0.01167486170627181 -0.005441278794943284 0.06005398002398838 175 79 0
-0.011410409897159305 -0.004968344549309615 0.060024630424717944 179 75 0
-0.011145700735102989 -0.004494739596063795 0.059929729028792296 191 63 0
-0.010881121855136263 -0.004021474181149738 0.05986801250698634 198 56 0
-0.010616670046023756 -0.003548539935516068 0.0598386629077159 202 52 0
-0.010352091162002442 -0.0030752745100350275 0.0597769453531428 210 44 0
-0.010087382008055305 -0.0026016695779231755 0.05968204602275145 222 32 0
-0.009823315766135243 -0.002129740189071548 0.05975090638300852 214 40 0
-0.009558990188576802 -0.0016571349253525665 0.05975370992347318 215 39 0
-0.0092955933572864 -0.001186950191403341 0.05999309563338993 188 66 0
-0.00903139552364414 -0.0007146778510841007 0.06002843753573729 185 69 0
-0.00876746708102374 -0.0002431075917526792 0.060132397520413376 173 81 0
-0.008502757941846274 0.0002304973139520502 0.06003749818969386 185 69 0
-0.008239753010146532 0.0006996607401310163 0.060376690515732606 147 107 0
-0.00797616146185558 0.0011703529799401845 0.06056646673808181 125 129 0
-0.007711452307908446 0.001643957912052036 0.06047156740769047 137 117 0
-0.007447523867315342 0.0021155281660999647 0.06057552790875013 126 128 0
-0.007183595487712198 0.002587098312760998 0.060679487892026 114 140 0
-0.006920395111620476 0.003056771101033003 0.06096889774307133 82 172 0
-0.006656197277978215 0.0035290434413522433 0.0610042396454187 79 175 0
