ply
format ascii 1.0
element vertex 721
property float x
property float y
property float z
end_header
0.004166628441219854 -0.011259078003152633 -0.002019393257796763
0.004439867541571784 -0.01078581399872868 -0.0020224906038492905
0.004713106874754357 -0.010312549591030222 -0.003259736346080898
0.004986345975106287 -0.009839285586606268 -0.002730684122070669
0.005259585075458217 -0.009366021582182315 -0.0033775132615119206
0.00553282440864079 -0.008892757174483857 -0.0031418390572071062
0.00580606350899272 -0.008419493170059904 -0.003368037054315208
0.006079302725759971 -0.007946228963998698 -0.003371134866029023
0.006352541942527223 -0.0074729647579374935 -0.0033075639512389885
0.006625781159294474 -0.006999700551876288 -0.003343111369758843
0.006899020376061726 -0.006526436345815082 -0.0029573719948530184
0.007172259592828977 -0.006053172139753877 -0.0015221077483147372
0.0017806906719456115 -0.014298687973148028 -0.0018935357220470894
0.0020539300051281846 -0.01382542356544957 -0.0019925315864384166
0.0023271688726494706 -0.013352159964300123 -0.002577486215159296
0.002600408205832044 -0.012878895556601664 -0.0025419387966394416
0.0028736475390146172 -0.012405631148903206 -0.0029276781715452662
0.0031468868721971906 -0.011932366741204748 -0.002892129821702837
0.0034201257397184766 -0.0114591031400553 -0.0027112218085676423
0.0036933648400704062 -0.010985839135631347 -0.002485023345798253
0.0039666039404223355 -0.010512575131207394 -0.002720696618780493
0.004239843273604909 -0.010039310723508936 -0.0034601395018398753
0.0045130823739568384 -0.009566046719084982 -0.003457043319940566
0.004786321474308768 -0.009092782714661029 -0.003556038020178675
0.005059560807491341 -0.008619518306962571 -0.0035529413726180783
0.005332799907843271 -0.008146254302538618 -0.00358268292620778
0.005606039124610523 -0.007672990096477413 -0.003579585812985896
0.005879278341377774 -0.0071997258904162075 -0.0035113696940243235
0.0061525175581450256 -0.006726461684355002 -0.0033304612152278415
0.006425756774912277 -0.006253197478293796 -0.003228755434975027
0.0066989959916795285 -0.005779933272232591 -0.0023835399188101283
0.0007609488700923027 -0.01497197711447465 -0.0013854813296347846
0.001307427070796162 -0.014025449105626742 -0.0011926389997825016
0.0015806664039787353 -0.013552184697928285 -0.002480561612173914
0.0018539052715000213 -0.013078921096778837 -0.002932319184765219
0.0021271446046825944 -0.012605656689080378 -0.0029354165308177462
0.0024003839378651678 -0.01213239228138192 -0.0030036324169486752
0.002673623271047741 -0.011659127873683462 -0.003105337265878915
0.002946862138569027 -0.011185864272534015 -0.002869663992896675
0.0032201012389209568 -0.010712600268110061 -0.002905212575569748
0.0034933403392728864 -0.010239336263686108 -0.0034768183249980203
0.0037665796724554597 -0.00976607185598765 -0.00357852317392826
0.004039818772807389 -0.009292807851563696 -0.003680228488519787
0.004313057873159319 -0.008819543847139743 -0.003748445538803934
0.004586297206341892 -0.008346279439441285 -0.0036494496744126073
0.004859536306693822 -0.007873015435017332 -0.0036525470204651347
0.005132775523461073 -0.007399751228956127 -0.0036228056997060767
0.005406014740228325 -0.0069264870228949215 -0.003593064146116375
0.005679253956995576 -0.006453222816833716 -0.0034074592404067508
0.005952493173762828 -0.00597995861077251 -0.002978480188176035
0.006225732390530079 -0.005506694404711305 -0.002390480134636163
0.0005609233299151311 -0.014225474180142628 -0.0016641221009194842
0.0008341626630977044 -0.013752209772444169 -0.0021931743249297133
0.0011074019962802777 -0.013278945364745711 -0.003104932839050888
0.0013806408638015637 -0.012805681763596264 -0.0030367174185812465
0.001653880196984137 -0.012332417355897806 -0.003272390225902199
0.0019271195301667102 -0.011859152948199348 -0.003302132012322544
0.0022003588633492835 -0.01138588854050089 -0.0032990346662700168
0.0024735977308705695 -0.010912624939351441 -0.0032959384843707076
0.002746836831222499 -0.010439360934927488 -0.003069739788770675
0.0030200759315744297 -0.009966096930503534 -0.003654694650322198
0.003293315264757003 -0.009492832522805077 -0.0037182655651122323
0.0035665543651089327 -0.009019568518381125 -0.004216464236378669
0.0038397934654608623 -0.008546304513957171 -0.0038521457463502875
0.004113032798643435 -0.008073040106258714 -0.0039157168939709655
0.004386271898995364 -0.007599776101834759 -0.0033060447312891475
0.004659511115762616 -0.007126511895773555 -0.00364244938828051
0.004932750332529868 -0.006653247689712349 -0.0036393527407199136
0.005205989549297119 -0.0061799834836511434 -0.0035711361560970536
0.00547922876606437 -0.005706719277589937 -0.002581887645646929
-0.00018557994530461248 -0.014425498448109503 -0.001836045295931398
8.765892221667349e-05 -0.013952234846960055 -0.001737049431540071
0.0003608982553992468 -0.013478970439261596 -0.0027536689303815356
0.0006341375885818201 -0.013005706031563138 -0.002367929555475711
0.000907376456103106 -0.01253244243041369 -0.0032724605407565823
0.0011806157892856794 -0.012059178022715233 -0.003308009123429655
0.0014538551224682534 -0.011585913615016775 -0.003580122021958231
0.0017270944556508259 -0.011112649207318318 -0.0034811266232281915
0.002000333323172112 -0.010639385606168868 -0.0035166752059012643
0.0022735724235240415 -0.010166121601744914 -0.003486933419480919
0.002546811523875972 -0.009692857597320961 -0.00393869075924158
0.0028200508570585454 -0.009219593189622503 -0.003908949438482522
0.003093289957410475 -0.008746329185198552 -0.003977166023105382
0.0033665290577624047 -0.008273065180774598 -0.003741491585969924
0.003639768390944978 -0.0077998007730761395 -0.0038431980647146693
0.003913007491296907 -0.007326536768652187 -0.004024106543511151
0.004186246708064159 -0.006853272562590981 -0.003687701886519789
0.004459485924831409 -0.006380008356529775 -0.0032587232999503604
0.004732725141598662 -0.00590674415046857 -0.00362304295413196
0.005005964358365912 -0.005433479944407364 -0.0030939891003072253
0.005279203575133164 -0.004960215738346158 -0.0020278512965887776
-0.0006588439497285661 -0.014152259347757573 -0.0012748762965202323
-0.00038560508220728006 -0.013678995746608125 -0.001986126881092786
-0.00011236574902470676 -0.013205731338909666 -0.0026455423794686786
0.00016087358415786652 -0.012732466931211208 -0.00267528393305838
0.00043411245167915253 -0.01225920333006176 -0.003285970771685242
0.0007073517848617258 -0.011785938922363303 -0.0034715754445642224
0.000980591118044299 -0.011312674514664845 -0.0034684776328504077
0.0012538304512268732 -0.010839410106966388 -0.0036540827713906756
0.0015270693187481592 -0.010366146505816938 -0.0038897572085261336
0.0018003084191000889 -0.009892882501392985 -0.003953327424824237
0.0020735475194520185 -0.009419618496969031 -0.003983069211244582
0.002346786852634592 -0.008946354089270574 -0.004046639893203973
0.0026200259529865215 -0.008473090084846622 -0.003978422842919826
0.002893265053338451 -0.007999826080422668 -0.004041993990540504
0.0031665043865210245 -0.00752656167272421 -0.003861085278913378
0.003439743486872954 -0.007053297668300257 -0.003890827065333723
0.0037129827036402052 -0.006580033462239052 -0.003664628602564334
0.003986221920407456 -0.006106769256177845 -0.0034837198909372083
0.004259461137174707 -0.00563350505011664 -0.0033820150420069686
0.004532700353941959 -0.005160240844055434 -0.0027723431121557942
0.00480593957070921 -0.0046869766379942284 -0.0019271277124062172
-0.001405347287335092 -0.014352284655104101 -0.0019333458039909595
-0.0011321079541525187 -0.013879020247405643 -0.0016471843700855964
-0.0008588690866312327 -0.013405756646256196 -0.0023978338576853267
-0.0005856297534486594 -0.012932492238557736 -0.0027621535118669263
-0.00031239042026608616 -0.012459227830859279 -0.003080430906265973
-3.9151552744800165e-05 -0.011985964229709831 -0.003444750560447573
0.00023408778043777312 -0.011512699822011373 -0.003447847440838813
0.0005073271136203473 -0.011039435414312916 -0.003719960805028676
0.0007805664468029205 -0.010566171006614458 -0.003755508689209818
0.0010538053143242065 -0.010092907405465009 -0.0038572142366319886
0.0013270444146761362 -0.009619643401041055 -0.003925431054085492
0.0016002835150280659 -0.009146379396617102 -0.004289749544113874
0.0018735228482106392 -0.008673114988918644 -0.003953345119953155
0.002146761948562569 -0.008199850984494692 -0.0044859559275209895
0.0024200010489144985 -0.007726586980070738 -0.004056978505104779
0.002693240382097072 -0.00725332257237228 -0.0038713719695806495
0.0029664794824490015 -0.0067800585679483275 -0.003874469781294464
0.0032397186992162525 -0.006306794361887122 -0.00381089886650443
0.003512957915983503 -0.0058335301558259155 -0.0035247376654297105
0.0037861971327507547 -0.00536026594976471 -0.0032385766971856347
0.004059436349518006 -0.004887001743703504 -0.0025791607331484548
0.004332675566285258 -0.004413737537642299 -0.002469734987244009
0.004605914783052509 -0.003940473331581094 -0.001730291987769305
-0.0018786116950335497 -0.014079045321921528 -0.002008864888921379
-0.0016053723618509764 -0.01360578091422307 -0.001690585748292505
-0.0013321334943296903 -0.013132517313073622 -0.002325978595763444
-0.001058894161147117 -0.012659252905375163 -0.0029853943269699803
-0.0007856548279645437 -0.012185988497676705 -0.0029171784408390513
-0.0005124159604432578 -0.011712724896527258 -0.0035525707062333814
-0.0002391766272606845 -0.0112394604888288 -0.0036161416210234157
3.40627059218888e-05 -0.010766196081130342 -0.00367971253581345
0.0003073020391044621 -0.010292931673431885 -0.0038653172086924306
0.000580540906625748 -0.009819668072282435 -0.003964312840253114
0.0008537800069776777 -0.009346404067858482 -0.003928764723241328
0.0011270191073296074 -0.008873140063434528 -0.004114369396120309
0.0014002584405121807 -0.00839987565573607 -0.004111273214221
0.0016734975408641104 -0.007926611651312119 -0.0040095667354762545
0.0019467366412160398 -0.0074533476468881645 -0.0038286587223410598
0.0022199759743986133 -0.006980083239189707 -0.003726953174918889
0.002493215074750543 -0.006506819234765754 -0.0036252483259886495
0.002766454291517794 -0.006033555028704549 -0.003860921133309602
0.0030396935082850456 -0.005560290822643342 -0.0028443022165447465
0.003312932725052297 -0.005087026616582137 -0.0028412060346454373
0.0035861719418195485 -0.004613762410520931 -0.002231534104794263
-0.0026251150326400763 -0.014279070629268056 -0.0017833254532888525
-0.002351875699457503 -0.013805806221569598 -0.0019642335828393693
-0.0020786363662749297 -0.01333254181387114 -0.002456902293488383
-0.0018053974987536439 -0.012859278212721693 -0.0025251184124499555
-0.0015321581655710706 -0.012386013805023233 -0.0031719475518912073
-0.0012589188323884973 -0.011912749397324776 -0.0033528560306876893
-0.0009856799648672112 -0.011439485796175328 -0.0035337645094841714
-0.0007124406316846372 -0.01096622138847687 -0.0035693130921572442
-0.00043920129850206384 -0.010492956980778413 -0.003750221105292439
-0.00016596196531949058 -0.010019692573079955 -0.003851926419883966
0.0001072769022017954 -0.009546428971930506 -0.004344595130532979
0.00038051600255372504 -0.009073164967506552 -0.003815541975200176
0.0006537551029056547 -0.008599900963082599 -0.0038837573956698175
0.0009269944360882279 -0.008126636555384141 -0.004155870992690324
0.0012002335364401577 -0.007653372550960188 -0.003970266319811343
0.0014734726367920871 -0.007180108546536235 -0.004005814902484416
0.0017467119699746605 -0.006706844138837777 -0.003976073116064071
0.0020199510703265903 -0.0062335801344138245 -0.00397916929796338
0.0022931902870938414 -0.005760315928352619 -0.0035934299230575557
0.002566429503861092 -0.0052870517222914125 -0.0027973146643489595
0.0028396687206283435 -0.004813787516230207 -0.0025111539289355274
0.003112907937395595 -0.004340523310169001 -0.003157983068376779
0.0033861471541628465 -0.0038672591041077962 -0.002693027956411242
-0.0028251401071559606 -0.013532566888387025 -0.002130664652213454
-0.0025519007739733873 -0.013059302480688567 -0.0024670693092048164
-0.0022786619064521013 -0.01258603887953912 -0.002398852258920669
-0.0020054225732695284 -0.01211277447184066 -0.0031101028434932228
-0.0017321832400869549 -0.011639510064142202 -0.0032957075163722034
-0.0014589443725656684 -0.011166246462992755 -0.003632112173363566
-0.001185705039383095 -0.010692982055294297 -0.003731107339262962
-0.0009124657062005219 -0.01021971764759584 -0.003916712477803229
-0.0006392263730179487 -0.009746453239897382 -0.0036445991136133666
-0.00036598750549666267 -0.009273189638747932 -0.003981003072112798
-9.274840514473302e-05 -0.008799925634323979 -0.004010744858533143
0.00018049069520719664 -0.008326661629900025 -0.004196349531412124
0.0004537300283897699 -0.007853397222201568 -0.004226091317832469
0.0007269691287416995 -0.007380133217777615 -0.003774334210902452
0.001000208229093629 -0.0069068692133536615 -0.003959938883781432
0.0012734475622762024 -0.006433604805655204 -0.003858234034851193
0.001546686662628132 -0.005960340801231251 -0.003677325556054711
0.0018199258793953831 -0.005487076595170045 -0.003184657776728272
0.0020931650961626344 -0.005013812389108839 -0.002866378519684076
0.002366404312929886 -0.004540548183047634 -0.0019331076182425018
0.0026396435296971374 -0.004067283976986428 -0.0012862780131399627
-0.003571643444762487 -0.013732592195733554 -0.0021855914965271945
-0.0032984041115799137 -0.013259327788035097 -0.0021558508742600675
-0.0030251647783973404 -0.012786063380336637 -0.002427963307127356
-0.0027519259108760544 -0.01231279977918719 -0.0028797204140573736
-0.0024786865776934815 -0.011839535371488732 -0.003197999438270926
-0.002205447244510908 -0.011366270963790275 -0.003470113035291433
-0.001932208376989622 -0.010893007362640825 -0.0035718178842216726
-0.0016589690438070486 -0.010419742954942367 -0.003673524130135774
-0.0013857297106244755 -0.00994647854724391 -0.003775228979066014
-0.0011124903774419022 -0.009473214139545452 -0.0038434450980275865
-0.0008392515099206162 -0.008999950538396003 -0.00391166191548109
-0.0005660124095686865 -0.00852668653397205 -0.004013366997241973
-0.00029277330921675693 -0.008053422529548096 -0.003949795849621295
-1.9533976034183628e-05 -0.007580158121849639 -0.003451597178354859
0.000253705124317746 -0.007106894117425685 -0.004061269108206033
0.0005269442246696757 -0.006633630113001732 -0.0040315273217856875
0.000800183557852249 -0.006160365705303274 -0.003967957105487584
0.0010734226582041785 -0.0056871017008793216 -0.0039043861906975503
0.00134666187497143 -0.005213837494818116 -0.003874644404277205
0.0016199010917386815 -0.00474057328875691 -0.0027439773548394437
0.0018931403085059326 -0.004267309082695705 -0.001613309257663786
0.002166379525273184 -0.003794044876634499 -0.0016815252602100368
-0.0037716683176411193 -0.012986088571267845 -0.0021464396268129344
-0.003498428984458546 -0.012512824163569386 -0.002532179001718759
-0.00322519011693726 -0.012039560562419938 -0.0028685831930488344
-0.002951950783754687 -0.01156629615472148 -0.0029321541078388687
-0.0026787114505721138 -0.011093031747023023 -0.0033178934827446933
-0.0024054725830508277 -0.010619768145873574 -0.0036542979069054122
-0.0021322332498682544 -0.010146503738175116 -0.00347338942810893
-0.0018589939166856811 -0.009673239330476658 -0.003658994100987911
-0.0015857545835031078 -0.0091999749227782 -0.0038445994723588224
-0.0013125157159818218 -0.008726711321628751 -0.00403020391240716
-0.0010392766156298921 -0.008253447317204798 -0.004093775060027838
-0.0007660375152779625 -0.007780183312780845 -0.003912866581231356
-0.0004927981820953892 -0.007306918905082387 -0.004098471254110336
-0.00021955908174345958 -0.006833654900658434 -0.004030255135148764
5.3680018608470065e-05 -0.00636039089623448 -0.004215860273689032
0.00032691935179104335 -0.005887126488536023 -0.0036061878781765695
0.000600158452142973 -0.00541386248411207 -0.003334076143801212
0.0008733976689102245 -0.0049405982780508645 -0.003061962546780705
0.001146636885677476 -0.004467334071989659 -0.0022474559955298896
0.0014198761024447274 -0.003994069865928453 -0.0029868991114199157
-0.004244932523702325 -0.012712849354500594 -0.0021745918784290548
-0.003971693190519752 -0.012239584946802134 -0.0026672596577554937
-0.0036984543229984655 -0.011766321345652687 -0.0029393732547760005
-0.0034252149898158927 -0.01129305693795423 -0.0032576506491750474
-0.0031519756566333193 -0.010819792530255772 -0.0033593571279197927
-0.0028787367891120333 -0.010346528929106322 -0.0034275725483894344
-0.00260549745592946 -0.009873264521407864 -0.0036537710111588235
-0.0023322581227468867 -0.009400000113709407 -0.003721987130120396
-0.0020590187895643134 -0.00892673570601095 -0.0039481851272284985
-0.0017857799220430274 -0.0084534721048615 -0.0039184438064694405
-0.0015125408216910977 -0.007980208100437546 -0.0039866603910923
-0.001239301721339168 -0.0075069440960135935 -0.003989757038652897
-0.0009660623881565948 -0.007033679688315136 -0.004091463051736355
-0.0006928232878046652 -0.006560415683891182 -0.003905857447534799
-0.0004195841874527355 -0.006087151679467229 -0.0040075634606182575
-0.00014634485427016223 -0.005613887271768771 -0.003821957623586058
0.0001268942460817674 -0.005140623267344819 -0.0035862843506038185
0.0004001334628490189 -0.004667359061283613 -0.0031573066953569646
0.0006733726796162704 -0.004194094855222407 -0.0021544301416724916
-0.004718196528126279 -0.012439610254148662 -0.0013954360038042066
-0.004444957194943705 -0.011966345846450205 -0.0025261032860726114
-0.004171718327422419 -0.011493082245300757 -0.002911842660978436
-0.0038984789942398458 -0.0110198178376023 -0.003147517098113894
-0.0036252396610572724 -0.010546553429903842 -0.0033331217709928747
-0.0033520007935359864 -0.010073289828754392 -0.0035187264438718553
-0.003078761460353413 -0.009600025421055935 -0.003704331116750836
-0.00280552212717084 -0.009126761013357477 -0.003803326981142163
-0.0025322827939882665 -0.00865349660565902 -0.0039023228455334897
-0.0022590439264669805 -0.00818023300450957 -0.0039320639334619045
-0.001985804826115051 -0.007706969000085617 -0.004167737439274788
-0.0017125657257631211 -0.007233704995661664 -0.004132188856601715
-0.0014393263925805478 -0.006760440587963206 -0.004030483774840832
-0.0011660872922286182 -0.006287176583539253 -0.003994935657829046
-0.0008928481918766886 -0.005813912579115299 -0.0037228229921311136
-0.0006196088586941153 -0.005340648171416842 -0.0034507096279412504
-0.0003463697583421857 -0.004867384166992889 -0.002546178642660379
-7.313054157493423e-05 -0.004394119960931683 -0.00222789985127747
-0.005464700168188683 -0.01263963538687221 -0.0016276467358693478
-0.00519146083500611 -0.012166370979173752 -0.0018085549818351863
-0.004918221501823536 -0.011693106571475292 -0.0025259240064769983
-0.00464498263430225 -0.011219842970325845 -0.003058534814044833
-0.004371743301119677 -0.010746578562627387 -0.0032394432928413153
-0.004098503967937104 -0.01027331415492893 -0.003341149305924773
-0.003825265100415818 -0.00980005055377948 -0.0035220577847212553
-0.0035520257672332447 -0.009326786146081022 -0.0038863762747496367
-0.0032787864340506714 -0.008853521738382565 -0.0037873804103583097
-0.003005547100868098 -0.008380257330684107 -0.0037238101940602064
-0.002732308233346812 -0.007906993729534658 -0.003950008191168308
-0.0024590691329948824 -0.007433729725110705 -0.0039855558425188065
-0.0021858300326429527 -0.0069604657206867515 -0.004087261855602264
-0.0019125906994603794 -0.006487201312988294 -0.0039016567170619965
-0.0016393515991084497 -0.00601393730856434 -0.003937204368412495
-0.0013661124987565203 -0.005540673304140387 -0.0038736334536224604
-0.001092873165573947 -0.005067408896441929 -0.0036880287807434797
-0.0008196340652220173 -0.0045941448920179765 -0.003302289405837655
-0.000546394848454766 -0.004120880685956771 -0.0023905308917164803
-0.0002731556316875146 -0.003647616479895565 -0.0011941855773329733
-0.005664725041067315 -0.0118931317624065 -0.0017162351869046686
-0.005391485707884742 -0.011419867354708041 -0.0023269213270395994
-0.005118246840363456 -0.010946603753558593 -0.002825120696797967
-0.0048450075071808825 -0.010473339345860136 -0.0031615253537893295
-0.004571768173998309 -0.010000074938161678 -0.00334713002666831
-0.004298529306477023 -0.009526811337012229 -0.003278914140537381
-0.00402528997329445 -0.009053546929313771 -0.0037078922614455223
-0.003752050640111877 -0.008580282521615313 -0.003893498098477721
-0.0034788113069293036 -0.008107018113916856 -0.0036672998685389757
-0.0032055724394080176 -0.007633754512767407 -0.0041654990054667
-0.002932333339056088 -0.0071604905083434535 -0.004195240791887045
-0.0026590942387041583 -0.0066872265039195 -0.003702571615576744
-0.002385854905521585 -0.006213962096221042 -0.003888177452608943
-0.0021126158051696553 -0.005740698091797089 -0.0036160640884190798
-0.0018393767048177259 -0.005267434087373135 -0.0036129667423665524
-0.0015661373716351526 -0.004794169679674678 -0.0033867680467665195
-0.001292898271283223 -0.004320905675250725 -0.0025415532290935516
-0.0010196590545159716 -0.003847641469189519 -0.0015249339630827306
-0.006411228479492468 -0.012093157011545367 -0.0016979575157165527
-0.006137989146309895 -0.01161989260384691 -0.001512352842837572
-0.005864749813127321 -0.011146628196148452 -0.0026094147469848394
-0.005591510945606035 -0.010673364594999003 -0.0031420255545526743
-0.005318271612423462 -0.010200100187300545 -0.003145123366266489
-0.005045032279240889 -0.009726835779602087 -0.003326031845062971
-0.004771793411719603 -0.009253572178452638 -0.003506939858198166
-0.004498554078537029 -0.00878030777075418 -0.0035100365057587624
-0.004225314745354456 -0.008307043363055723 -0.004227405413985252
-0.003952075412171883 -0.007833778955357265 -0.003729205811396241
-0.003678836544650597 -0.0073605153542078165 -0.003732303623110056
-0.003405597444298667 -0.006887251349783863 -0.004050582181662321
-0.003132358343946738 -0.006413987345359909 -0.0038649775087833405
-0.0028591190107641645 -0.005940722937661452 -0.004229295998811722
-0.002585879910412235 -0.005467458933237498 -0.003843556623905897
-0.002312640810060305 -0.004994194928813546 -0.003813814837485552
-0.002039401476877732 -0.004520930521115087 -0.0032847614493221045
-0.0017661623765258024 -0.004047666516691134 -0.0024313165340572596
-0.001492923159758551 -0.0035744023106299284 -0.0015488587087020278
-0.0012196839429912995 -0.0031011381045687233 -0.001485288143157959
-0.0066112533303170256 -0.011346653399812584 -0.0018269374268129468
-0.006338013997134452 -0.010873388992114126 -0.002325136912986636
-0.006064775129613166 -0.010400125390964677 -0.0031212521716952324
-0.005791535796430593 -0.00992686098326622 -0.0031181557569652796
-0.00551829646324802 -0.009453596575567762 -0.0031478970777243376
-0.005245057595726734 -0.008980332974418312 -0.0032468929421156645
-0.00497181826254416 -0.008507068566719855 -0.0036758705973625183
-0.004698578929361587 -0.008033804159021397 -0.003962032031267881
-0.004425339596179014 -0.007560539751322939 -0.003926483448594809
-0.004152100728657728 -0.007087276150173491 -0.0038909348659217358
-0.0038788616283057984 -0.006614012145749537 -0.003710026852786541
-0.0036056225279538687 -0.006140748141325584 -0.003945700824260712
-0.0033323831947712954 -0.005667483733627126 -0.003673587227240205
-0.0030591440944193657 -0.005194219729203173 -0.003638039343059063
-0.002785904994067436 -0.00472095572477922 -0.003186281770467758
-0.002512665660884863 -0.0042476913170807614 -0.002435632748529315
-0.0022394265605329335 -0.0037744273126568083 -0.0015023621963337064
-0.001966187343765682 -0.0033011631065956028 -0.0011380425421521068
-0.007357756841205566 -0.011546678607114695 -0.0019910431001335382
-0.007084517508022993 -0.011073414199416237 -0.002092747949063778
-0.0068112781748404195 -0.01060014979171778 -0.0027024198789149523
-0.0065380393073191335 -0.01012688619056833 -0.0030206989031285048
-0.00626479997413656 -0.009653621782869872 -0.00308891455642879
-0.005991560640953987 -0.009180357375171415 -0.003190619871020317
-0.005718321773432701 -0.008707093774021965 -0.003371528349816799
-0.0054450824402501275 -0.008233829366323508 -0.0036436417140066624
-0.005171843107067554 -0.00776056495862505 -0.003869839943945408
-0.004898603773884981 -0.007287300550926593 -0.0038400981575250626
-0.004625364906363695 -0.006814036949777144 -0.003810357069596648
-0.004352125806011765 -0.00634077294535319 -0.0038459054194390774
-0.004078886705659836 -0.005867508940929237 -0.0038161638658493757
-0.0038056473724772623 -0.005394244533230779 -0.0037864220794290304
-0.0035324082721253326 -0.004920980528806826 -0.004600928630679846
-0.0032591691717734034 -0.004447716524382873 -0.0034702604170888662
-0.00298592983859083 -0.0039744521166844154 -0.0024985005147755146
-0.0027126907382389004 -0.0035011881122604615 -0.0015867417678236961
-0.002439451521471649 -0.0030279239061992563 -0.001905020559206605
-0.007557781663674885 -0.010800175011752816 -0.002116394229233265
-0.007284542330492312 -0.010326910604054359 -0.002452798653393984
-0.007011303462971026 -0.009853647002904909 -0.00319224176928401
-0.006738064129788453 -0.009380382595206451 -0.002659630961716175
-0.0064648247966058794 -0.008907118187507994 -0.003124585375189781
-0.006191585929084593 -0.008433854586358544 -0.0028983873780816793
-0.00591834659590202 -0.007960590178660087 -0.00350907351821661
-0.005645107262719447 -0.007487325770961629 -0.0037447467911988497
-0.0053718679295368735 -0.0070140613632631715 -0.003709199372678995
-0.0050986290620155875 -0.006540797762113723 -0.003640982322394848
-0.004825389961663658 -0.006067533757689769 -0.003572766901925206
-0.004552150861311728 -0.005594269753265816 -0.003602507058531046
-0.004278911528129155 -0.005121005345567358 -0.003238188335672021
-0.004005672427777225 -0.004647741341143405 -0.0031364834867417812
-0.003732433327425296 -0.004174477336719452 -0.002526811556890607
-0.0034591939942427226 -0.003701212929020994 -0.0015935400733724239
-0.003185954893890793 -0.003227948924597041 -0.001141782617196441
-0.008304285102100038 -0.011000200260891683 -0.002004974754527211
-0.008031045768917465 -0.010526935853193226 -0.0023232533130794764
-0.007757806435734891 -0.010053671445494768 -0.0026875720359385014
-0.007484567568213605 -0.009580407844345318 -0.003005851060152054
-0.007211328235031032 -0.00910714343664686 -0.0030413996428251266
-0.006938088901848459 -0.008633879028948403 -0.0031096150632947683
-0.006664850034327173 -0.008160615427798954 -0.0033817284274846315
-0.0063916107011446 -0.007687351020100496 -0.003483434906229377
-0.006118371367962026 -0.0072140866124020386 -0.003297829069197178
-0.005845132034779453 -0.006740822204703581 -0.0036621487233787775
-0.005571893167258167 -0.006267558603554132 -0.003632407169789076
-0.005298654066906237 -0.005794294599130179 -0.0032960025127977133
-0.005025414966554308 -0.005321030594706225 -0.0036603210028260946
-0.004752175633371734 -0.004847766187007768 -0.0033741602674126625
-0.004478936533019805 -0.004374502182583814 -0.002789204940199852
-0.004205697432667875 -0.003901238178159861 -0.0036937359254807234
-0.003932458099485302 -0.003427973770461404 -0.005102130118757486
-0.003659218999133372 -0.0029547097660374503 -0.0011816034093499186
-0.00850430997497867 -0.010253696636425974 -0.0021933729294687514
-0.008231070641796097 -0.009780432228727516 -0.0025791127700358634
-0.007957831774274811 -0.009307168627578067 -0.0029155169613659386
-0.007684592441092238 -0.00883390421987961 -0.003101123264059425
-0.007411353107909665 -0.008360639812181152 -0.0029202147852629427
-0.0071381142403883786 -0.007887376211031702 -0.003385169198736549
-0.006864874907205805 -0.007414111803333245 -0.0034841650631278758
-0.006591635574023232 -0.006940847395634787 -0.0034159480128437285
-0.006318396240840659 -0.0064675829879363295 -0.003445689799264074
-0.006045157373319373 -0.005994319386786881 -0.003509260714054108
-0.005771918272967443 -0.005521055382362927 -0.003144941991195083
-0.005498679172615513 -0.005047791377938974 -0.003174682147800923
-0.00522543983943294 -0.004574526970240516 -0.003106466727331281
-0.00495220073908101 -0.0041012629658165635 -0.002742148004472256
-0.004678961638729081 -0.00362799896139261 -0.003683534683659673
-0.004405722305546507 -0.003154734553694152 -0.0011243182234466078
-0.00925081351422245 -0.01045372182735718 -0.0020577174145728354
-0.008977574181039876 -0.009980457419658723 -0.002238624962046743
-0.008704334847857303 -0.009507193011960265 -0.0026903832331299786
-0.008431095980336017 -0.009033929410810815 -0.0028712905477732424
-0.008157856647153443 -0.008560665003112358 -0.003323048818856478
-0.00788461731397087 -0.0080874005954139 -0.0030873748473823075
-0.007611378446449583 -0.007614136994264452 -0.0032682828605175023
-0.00733813911326701 -0.007140872586565993 -0.0033699881751090292
-0.007064899780084437 -0.006667608178867536 -0.003340247552841902
-0.006791660446901863 -0.006194343771169078 -0.003154641948640347
-0.006518421579380577 -0.005721080170019629 -0.003472920507192612
-0.0062451824790286485 -0.005247816165595676 -0.0033739251084625725
-0.005971943378676719 -0.004774552161171722 -0.0030877636745572094
-0.0056987040454941455 -0.004301287753473265 -0.0030580235179513697
-0.005425464945142216 -0.0038280237490493116 -0.002629044465720654
-0.005152225844790286 -0.0033547597446253585 -0.001804366940632463
-0.004878986511607713 -0.0028814953369269004 -0.0017407960258424286
-0.009450838387101082 -0.009707218202891471 -0.002165024401620031
-0.009177599053918508 -0.009233953795193013 -0.0025014283601194624
-0.008904360186397222 -0.008760690194043564 -0.002837833017110825
-0.008631120853214649 -0.008287425786345106 -0.0025657205842435364
-0.008357881520032076 -0.007814161378646649 -0.0028518820181488995
-0.00808464265251079 -0.0073408977774972 -0.002915452932938934
-0.0078114033193282155 -0.006867633369798742 -0.0033011923078447585
-0.007538163986145642 -0.006394368962100284 -0.003364762524142862
-0.007264924652963069 -0.0059211045544018265 -0.0032965461723506455
-0.006991685785441783 -0.005447840953252378 -0.0035827069077640776
-0.006718446685089854 -0.004974576948828424 -0.00313094980083406
-0.006445207584737924 -0.004501312944404471 -0.0031606915872544055
-0.006171968251555351 -0.004028048536706013 -0.0027089340146631007
-0.0058987291512034214 -0.00355478453228206 -0.0019582849927246575
-0.010197341724707609 -0.009907243510237999 -0.0019033428980037574
-0.009924102391525035 -0.009433979102539541 -0.0022216215729713444
-0.009650863058342462 -0.008960714694841084 -0.0025859400629997258
-0.009377624190821176 -0.008487451093691634 -0.002687646541744471
-0.009104384857638603 -0.008014186685993177 -0.002868555020540953
-0.00883114552445603 -0.007540922278294719 -0.003049463499337435
-0.008557906656934743 -0.0070676586771452705 -0.003151168348267675
-0.00828466732375217 -0.006594394269446812 -0.003332076827064157
-0.008011427990569597 -0.006121129861748354 -0.003512985305860639
-0.007738188657387022 -0.005647865454049897 -0.003785098902881146
-0.007464949789865736 -0.005174601852900448 -0.003498937468975783
-0.007191710689513808 -0.004701337848476495 -0.0034353665541857485
-0.006918471589161878 -0.004228073844052541 -0.003149204654619098
-0.006645232255979305 -0.003754809436354084 -0.002763466211035848
-0.006371993155627375 -0.0032815454319301304 -0.0022344123572111134
-0.006098754055275445 -0.002808281427506177 -0.0014382964000105862
-0.010124127264403667 -0.008687475478073832 -0.002790973754599691
-0.009850888396882381 -0.008214211876924383 -0.002689268440008164
-0.009577649063699808 -0.007740947469225925 -0.0028748731128871445
-0.009304409730517235 -0.007267683061527468 -0.002938444027677179
-0.009031170862995949 -0.006794419460378019 -0.003037439659237862
-0.008757931529813376 -0.0063211550526795605 -0.003323600627481938
-0.0084846921966308 -0.005847890644981104 -0.0035592739004641776
-0.008211452863448227 -0.005374626237282646 -0.003589015686884523
-0.007938213995926941 -0.004901362636133197 -0.00355346710421145
-0.007664974895575013 -0.004428098631709243 -0.0029818620532751088
-0.0073917357952230835 -0.00395483462728529 -0.0028009535744786267
-0.00711849646204051 -0.0034815702195868325 -0.0024366348516196017
-0.0068452573616885806 -0.003008306215162879 -0.0016859853640198712
-0.010870631005284698 -0.008887500552589717 -0.002221358241513372
-0.010597391672102125 -0.008414236144891259 -0.002539637498557568
-0.010324152804580839 -0.00794097254374181 -0.002720545511692763
-0.010050913471398266 -0.007467708136043352 -0.0027560929302126174
-0.009777674138215692 -0.006994443728344894 -0.0027916412800550465
-0.009504435270694406 -0.006521180127195446 -0.003155960934236646
-0.009231195937511833 -0.006047915719496987 -0.003257666248828173
-0.008957956604329258 -0.0055746513117985305 -0.0035759448073804383
-0.008684717271146685 -0.005101386904100073 -0.0035462032537907366
-0.0084114784036254 -0.004628123302950623 -0.003360598580911756
-0.00813823930327347 -0.00415485929852667 -0.0029748592060059313
-0.007865000202921541 -0.0036815952941027168 -0.002945117419585586
-0.007591760869738968 -0.003208330886404259 -0.0023872593883425
-0.007318521769387038 -0.0027350668819803056 -0.002101097954437137
-0.0070452826690351085 -0.0022618028775563525 -0.0013333802344277508
-0.011070655676526079 -0.00814099704453933 -0.002182241529226304
-0.010797416809004793 -0.00766773344338988 -0.002711293753236533
-0.01052417747582222 -0.007194469035691422 -0.0023469752632081517
-0.010250938142639646 -0.006721204627992965 -0.0024105459451675424
-0.00997769927511836 -0.006247941026843516 -0.002646219218149782
-0.009704459941935787 -0.0057746766191450576 -0.0031752726063132295
-0.009431220608753213 -0.0053014122114466 -0.003205013694241644
-0.00915798127557064 -0.004828147803748142 -0.0029329003300517806
-0.008884742408049354 -0.004354884202598694 -0.002864684909582139
-0.008611503307697424 -0.00388162019817474 -0.002683776430785657
-0.008338264207345495 -0.003408356193750787 -0.0027827722951769837
-0.008065024874162921 -0.0029350917860523295 -0.0021730996668338784
-0.007791785773810992 -0.002461827781628376 -0.0024592611007392415
-0.011543919680950032 -0.0078677579441874 -0.0020214885007590064
-0.011270680813428746 -0.00739449434303795 -0.002473245607689024
-0.010997441480246173 -0.006921229935339493 -0.002443505451083184
-0.0107242021470636 -0.006447965527641035 -0.0023799333721399316
-0.010450963279542314 -0.005974701926491586 -0.0024154819548130044
-0.01017772394635974 -0.005501437518793128 -0.002596389967948199
-0.009904484613177167 -0.00502817311109467 -0.002599487779662014
-0.009631245279994594 -0.004554908703396213 -0.002602583961561323
-0.009358006412473308 -0.004081645102246764 -0.002638132544234396
-0.009084767312121378 -0.0036083810978228105 -0.002673680894076825
-0.008811528211769448 -0.0031351170933988574 -0.0026101099792867908
-0.008538288878586875 -0.0026618526857004 -0.0026456585619598636
-0.008265049778234945 -0.0021885886812764463 -0.001934407860971988
-0.007991810677883016 -0.001715324676852493 -0.0013765499461442239
-0.011743945221127204 -0.007121255009855377 -0.0018722295062616476
-0.01147070588794463 -0.006647990602156919 -0.002370428992435337
-0.011197466554762057 -0.006174726194458462 -0.0017988233594223866
-0.010924227687240771 -0.005701462593309013 -0.0017957260133698591
-0.010650988354058198 -0.005228198185610555 -0.0016940206987783321
-0.010377749020875624 -0.004754933777912097 -0.0027283611707389363
-0.010104509687693051 -0.004281669370213639 -0.0019777107518166312
-0.009831270820171765 -0.0038084057690641908 -0.0022133849561214456
-0.009558031719819836 -0.003335141764640237 -0.0023123808205127725
-0.009284792619467906 -0.002861877760216284 -0.0023759517353028068
-0.009011553286285333 -0.0023886133525178265 -0.002274245489388705
-0.008738314185933403 -0.001915349348093873 -0.0016645744908601054
-0.008465075085581473 -0.0014420853436699196 -0.0015628683613613257
-0.0081918357523989 -0.000968820935971462 -0.0012445905013009914
-0.011943969892368582 -0.00637475150180499 -0.001954975537955762
-0.011670730559186009 -0.005901487094106532 -0.001719302264973522
-0.011397491691664723 -0.005428223492957083 -0.0016895605949684986
-0.01112425235848215 -0.004954959085258625 -0.0016926567768678078
-0.010851013025299576 -0.004481694677560167 -0.0014569837367162117
-0.010577773692117003 -0.00400843026986171 -0.0019087411928921947
-0.010304534824595717 -0.003535166668712261 -0.0020896496716886767
-0.010031295724243787 -0.0030619026642883075 -0.0023158476687967786
-0.009758056623891858 -0.0025886386598643544 -0.0023189438506960878
-0.009484817290709284 -0.002115374252165897 -0.0023544924333691606
-0.009211578190357355 -0.0016421102477419433 -0.002118819160386921
-0.008938339090005425 -0.00116884624331799 -0.002089077839627863
-0.008665099756822852 -0.0006955818356195324 -0.0021246264223009357
-0.008391860656470922 -0.00022231783119557906 -0.002127722604200245
-0.00811862143970367 0.00025094637486562643 -0.0020641516894102105
-0.007845382222936419 0.0007242105809268319 -0.001479197060689331
-0.007572143006169168 0.0011974747869880375 -0.0015809031901881107
-0.006479186197307823 0.003090531510414233 -0.0013476433232426652
-0.006205947005096929 0.003563795673942581 -0.0013507396215572962
-0.005932707821980981 0.004037059821718018 -0.001418956322595478
-0.00565946860521373 0.004510324027779224 -0.0015998649178072819
-0.005386229388446478 0.004983588233840429 -0.0013137037167325625
-0.005112990171679227 0.005456852439901635 -0.0011280977632850417
-0.004566511854560046 0.006403380650386793 -0.0011234012199565777
-0.004293272637792794 0.006876644856447999 -0.0010936597827821979
-0.0034735552203216838 0.008296437071357111 -0.0017423308454453954
-0.0032003158871391105 0.008769701479055569 -0.0020606094039976606
-0.002927076786787181 0.009242965483479523 -0.0021623147185891875
-0.0026538374536046075 0.00971622989117798 -0.0017333365976810464
-0.0021073590200701045 0.010662758303300391 -0.0018055863911286005
-0.011870756099363182 -0.00515498415977451 -0.001161207677796484
-0.011597516766180609 -0.004681719752076052 -0.0010929919080808767
-0.011324277432998036 -0.004208455344377594 -0.001156562822870911
-0.011051038099815462 -0.003735190936679137 -0.0013421674957498917
-0.010777799232294176 -0.0032619273355296878 -0.0017711464315652856
-0.010504560131942247 -0.0027886633311057342 -0.0016694403020665058
-0.010231321031590317 -0.002315399326681781 -0.0021343950647860774
-0.009958081698407744 -0.0018421349189833233 -0.002745081204921008
-0.009684842598055814 -0.00136887091455937 -0.002426802646368743
-0.009411603497703884 -0.0008956069101354168 -0.0025257980450987825
-0.009138364164521311 -0.00042234250243695904 -0.0027114031836390504
-0.008865125064169381 5.092150198699425e-05 -0.002708306536078454
-0.00859188584740213 0.0005241857080481998 -0.002606600522994996
-0.008318646630634878 0.0009974499141094052 -0.002538384636864067
-0.008045407413867627 0.0014707141201706108 -0.002874789061024786
-0.007772168197100375 0.0019439783262318162 -0.0018855411326512703
-0.007498928980333124 0.0024172425322930217 -0.0023145198356360206
-0.007225689763565872 0.0028905067383542273 -0.0020424062386155137
-0.006952450605006282 0.0033637708435968064 -0.002507361350581051
-0.006679211412795387 0.003837035007125154 -0.002504263538867236
-0.00640597222967944 0.0043102991549005916 -0.002603259403258563
-0.006132733012912188 0.004783563360961797 -0.0026330009568482646
-0.005859493796144937 0.005256827567023003 -0.0025974526070058354
-0.005586254579377685 0.005730091773084208 -0.0024957472924143085
-0.005313015479025756 0.006203355777508161 -0.0022695492953062066
-0.005039776262258504 0.0066766199835693665 -0.0025557100307196387
-0.004766537045491253 0.007149884189630572 -0.002741316333413125
-0.004493297828724001 0.007623148395691778 -0.0021316439379006633
-0.0042200587283720715 0.008096412400115731 -0.002716599265113474
-0.003946819628020142 0.008569676404539685 -0.0028155944310128697
-0.003673580294837569 0.009042940812238142 -0.0027473773807287225
-0.0034003411944856393 0.009516204816662096 -0.0024752644822001466
-0.003127101861303066 0.009989469224360554 -0.002203152049332858
-0.0028538627609511363 0.010462733228784507 -0.001931038568727673
-0.002580623427768563 0.010935997636482965 -0.001895490102469922
-0.002307384560247277 0.011409261237632412 -0.0016692917561158547
-0.0020341447614034163 0.01188252645187988 -0.0013510140124708423
-0.011797541034147483 -0.003935216476856309 -0.0012713209725916396
-0.01152430170096491 -0.0034619520691578512 -0.0013068694388493906
-0.011251062833443624 -0.002988688468008402 -0.0016711880452930938
-0.010977823733091694 -0.0025154244635844487 -0.001852096524089576
-0.010704584632739765 -0.0020421604591604955 -0.0020782945211976775
-0.010431345299557191 -0.0015688960514620377 -0.002304492052644492
-0.010158106199205262 -0.0010956320470380844 -0.0026227706111967572
-0.009884867098853332 -0.0006223680426141312 -0.0029870893340557822
-0.009611627765670759 -0.0001491036349156735 -0.0031679978128522643
-0.009338388665318829 0.0003241603695082798 -0.0033941962756216535
-0.009065149448551578 0.0007974245755694853 -0.003495901124551893
-0.008791910231784326 0.0012706887816306908 -0.003466160502284766
-0.008518671015017075 0.0017439529876918964 -0.003402590053156019
-0.008245431798249823 0.0022172171937531017 -0.0034056862350553283
-0.007972192581482572 0.0026904813998143073 -0.0034739032853394755
-0.007698953364715321 0.003163745605875513 -0.003542118938639761
-0.00742571420615573 0.003637009711118092 -0.003478548489511014
-0.007152475013944836 0.00411027387464644 -0.003192387055605651
-0.006879235830828888 0.004583538022421877 -0.0032606031745672235
-0.006605996614061637 0.005056802228483082 -0.0032961515244096526
-0.006332757397294385 0.005530066434544288 -0.003266409970819951
-0.006059518180527134 0.006003330640605493 -0.0032028390560299167
-0.005786279080175204 0.006476594645029447 -0.003238387405872346
-0.005513039863407953 0.0069498588510906525 -0.003174816723912955
-0.005239800646640701 0.007423123057151858 -0.00314507493749261
-0.00496656142987345 0.007896387263213064 -0.003371273400261999
-0.00469332232952152 0.008369651267637017 -0.003085111966356636
-0.00442008322916959 0.00884291527206097 -0.0030553708784282216
-0.004146843895987017 0.009316179679759428 -0.0028697657398879537
-0.003873604795635088 0.00978944368418338 -0.002484026364982129
-0.0036003654624525146 0.01026270809188184 -0.0022984216921031484
-0.003327126362100585 0.010735972096305791 -0.001912682200782002
-0.0030538870289180116 0.011209236504004249 -0.0017270775279030215
-0.0027806481613967256 0.011682500105153698 -0.0014914032071828853
-0.002507408362552865 0.012155765319401166 -0.0013057981850579392
-0.011997566915212378 -0.0031887122703139906 -0.0011539243860170256
-0.011724328047691092 -0.0027154486691645416 -0.001440085587091745
-0.011451088947339162 -0.002242184664740588 -0.001675758627243341
-0.011177849846987232 -0.001768920660316635 -0.0019114329479634773
-0.010904610513804659 -0.001295656252618177 -0.0020970376208424577
-0.01063137141345273 -0.0008223922481942239 -0.0027564535848796376
-0.0103581323131008 -0.00034912824377027055 -0.0028200242668390283
-0.010084892979918226 0.00012413616392818714 -0.0035312746185809383
-0.009811653879566297 0.0005974001683521405 -0.0031669549643993386
-0.009538414662799045 0.0010706643744133458 -0.004049413837492467
-0.009265175446031794 0.0015439285804745514 -0.00433557527139783
-0.008991936229264542 0.0020171927865357568 -0.003883817931637169
-0.00871869701249729 0.0024904569925969624 -0.003913559019565583
-0.008445457795730039 0.002963721198658168 -0.003845342667773367
-0.008172218578962788 0.0034369854047193735 -0.0038422457873821267
-0.007898979420403197 0.003910249509961953 -0.0038719864096492538
-0.0076257402281923025 0.0043835136734903 -0.0029967848677188167
-0.007352501045076355 0.004856777821265737 -0.0036321778316050777
-0.0070792618283091035 0.005330042027326943 -0.0036290809512138375
-0.006806022611541852 0.0058033062333881485 -0.0035608645994216212
-0.0065327833947746005 0.006276570439449354 -0.0034591592848300943
-0.006259544294422671 0.006749834443873308 -0.003456061938777567
-0.005986305077655419 0.007223098649934513 -0.003519632853567601
-0.005713065860888168 0.007696362855995719 -0.0034179273061454305
-0.005439826644120916 0.008169627062056924 -0.0033823789563030013
-0.005166587543768987 0.008642891066480878 -0.0030641013290733108
-0.004893348443417057 0.009116155070904831 -0.002962395083159209
-0.004620109110234484 0.009589419478603289 -0.002736198017373682
-0.004346870009882554 0.01006268348302724 -0.0024179189931601295
-0.004073630676699981 0.0105359478907257 -0.0021458053961396226
-0.0038003915763480515 0.011009211895149652 -0.001919607399031521
-0.003527152243165478 0.01148247630284811 -0.0015552885597571741
-0.012470830516361827 -0.0029154734027927046 -0.001110750250518323
-0.012197591648840541 -0.0024422098016432556 -0.001291658845730127
-0.011924352548488611 -0.001968945797219302 -0.0013933639274910103
-0.011651113448136682 -0.001495681792795349 -0.0018451212672516714
-0.011377874114954108 -0.001022417385096891 -0.0020260291639715446
-0.011104635014602179 -0.0005491533806729379 -0.0029305603820830597
-0.010831395914250249 -7.588937624898453e-05 -0.0035402327775955213
-0.010558156581067676 0.0003973750314494732 -0.0038585113361477865
-0.010284917480715746 0.0008706390358734265 -0.004084710031747819
-0.010011678263948495 0.0013439032419346319 -0.0043109068647027024
-0.009738439047181243 0.0018171674479958374 -0.004211911465972663
-0.009465199830413992 0.002290431654057043 -0.004215009044855834
-0.00919196061364674 0.0027636958601182484 -0.004116013180464507
-0.008918721396879489 0.003236960066179454 -0.004086271859705449
-0.008645482180112237 0.0037102242722406595 -0.004056531004607678
-0.008372243021552647 0.004183488377483239 -0.003992960322648288
-0.008099003829341752 0.004656752541011586 -0.003656554734334351
-0.007825764646225804 0.005130016688787023 -0.0037582609802484525
-0.007552525429458553 0.005603280894848229 -0.0036592651158571256
-0.0072792862126913015 0.0060765451009094345 -0.0035956948995590223
-0.00700604699592405 0.00654980930697064 -0.0034100897610187544
-0.00673280789557212 0.007023073311394594 -0.004371576942503453
-0.006459568678804869 0.007496337517455799 -0.003305440302938224
-0.006186329462037617 0.007969601723517005 -0.00324186938814819
-0.005913090245270366 0.00844286592957821 -0.003056263551115991
-0.005639851144918436 0.008916129934002164 -0.0028706588782370103
-0.0053666120445665065 0.009389393938426117 -0.0026349856052547706
-0.005093372711383933 0.009862658346124575 -0.00244938093237579
-0.0048201336110320035 0.010335922350548527 -0.0033826509024947895
-0.00454689427784943 0.010809186758246986 -0.0020845225080847753
-0.0042736551774975005 0.011282450762670938 -0.001555468887090684
-0.004000415844314928 0.011755715170369396 -0.0011697295121848594
-0.01212437785583514 -0.0012224424596127756 -0.0012366032460704459
-0.011851138522652566 -0.0007491780519143179 -0.0015227643307298435
-0.011577899422300636 -0.0002759140474903645 -0.002318880753591658
-0.011304660321948707 0.0001973499569335888 -0.0031723259016871465
-0.011031420988766133 0.0006706143646320465 -0.003508730093017222
-0.010758181888414204 0.0011438783690559998 -0.0038451347500085844
-0.010484942671646952 0.0016171425751172052 -0.004181539174169303
-0.0102117034548797 0.002090406781178411 -0.0043671438470482835
-0.00993846423811245 0.002563670987239616 -0.004048865288496018
-0.009665225021345198 0.0030369351933008217 -0.004147860687226058
-0.009391985804577946 0.0035101993993620273 -0.004046156071126462
-0.009118746587810695 0.003983463605423233 -0.0038652473594993366
-0.008845507429251104 0.004456727710665812 -0.003862150013446809
-0.00857226823704021 0.00492999187419416 -0.0035438709892332567
