ply
format ascii 1.0
element vertex 756
property float x
property float y
property float z
end_header
0.0005998703418299556 -0.012582902796566486 0.0908999964594841
0.0008374518947675824 -0.012582902796566486 0.0908999964594841
0.001076216110959649 -0.01259674597531557 0.09099999815225601
0.001312615117058158 -0.012582902796566486 0.0908999964594841
0.0015501967864111066 -0.012582902796566486 0.0908999964594841
0.0017858115024864674 -0.012569060549139977 0.09079999476671219
0.0020209038630127907 -0.012555218301713467 0.09070000052452087
0.0022554730530828238 -0.012541376054286957 0.09059999883174896
0.002492270665243268 -0.012541376054286957 0.09059999883174896
0.0027230435516685247 -0.012513689696788788 0.09039999544620514
0.002959318459033966 -0.012513689696788788 0.09039999544620514
0.0031920585315674543 -0.012499848380684853 0.09030000120401382
0.0034242752008140087 -0.012486005201935768 0.09019999951124191
0.003660027403384447 -0.012486005201935768 0.09019999951124191
0.0038914603646844625 -0.012472162954509258 0.09009999781847
0.004126951098442078 -0.012472162954509258 0.09009999781847
0.004362441599369049 -0.012472162954509258 0.09009999781847
0.004597932565957308 -0.012472162954509258 0.09009999781847
0.004833423066884279 -0.012472162954509258 0.09009999781847
0.005068914033472538 -0.012472162954509258 0.09009999781847
0.005304404068738222 -0.012472162954509258 0.09009999781847
0.005539895035326481 -0.012472162954509258 0.09009999781847
0.005781795363873243 -0.012486005201935768 0.09019999951124191
0.006017548032104969 -0.012486005201935768 0.09019999951124191
0.006260232534259558 -0.012499848380684853 0.09030000120401382
0.006503439974039793 -0.012513689696788788 0.09039999544620514
0.007236198987811804 -0.012555218301713467 0.09070000052452087
0.007473257835954428 -0.012555218301713467 0.09070000052452087
0.007718816865235567 -0.012569060549139977 0.09079999476671219
0.007964899763464928 -0.012582902796566486 0.0908999964594841
0.00820248108357191 -0.012582902796566486 0.0908999964594841
0.008440063335001469 -0.012582902796566486 0.0908999964594841
0.00868719071149826 -0.01259674597531557 0.09099999815225601
0.00892503373324871 -0.01259674597531557 0.09099999815225601
0.009162877686321735 -0.01259674597531557 0.09099999815225601
0.009400719776749611 -0.01259674597531557 0.09099999815225601
0.009638562798500061 -0.01259674597531557 0.09099999815225601
0.00988725945353508 -0.012610589154064655 0.09109999984502792
0.010136477649211884 -0.01262443047016859 0.09119999408721924
0.010386219248175621 -0.012638273648917675 0.09129999577999115
-0.010671083815395832 -0.012467551976442337 0.09179999679327011
-0.01039706077426672 -0.012426808476448059 0.09149999916553497
-0.01012460608035326 -0.012386064045131207 0.09119999408721924
-0.009875399991869926 -0.012372484430670738 0.09109999984502792
-0.00961613841354847 -0.012345321476459503 0.0908999964594841
-0.009347604587674141 -0.012304577976465225 0.09059999883174896
-0.009080639109015465 -0.012263834476470947 0.09030000120401382
-0.008825035765767097 -0.012236671522259712 0.09009999781847
-0.008580012246966362 -0.012223090045154095 0.08999999612569809
-0.008344782516360283 -0.012223090045154095 0.08999999612569809
-0.008100542239844799 -0.012209508568048477 0.08989999443292618
-0.007865574210882187 -0.012209508568048477 0.08989999443292618
-0.007622119039297104 -0.012195928022265434 0.08980000019073486
-0.007387412711977959 -0.012195928022265434 0.08980000019073486
-0.007152705918997526 -0.012195928022265434 0.08980000019073486
-0.006917999591678381 -0.012195928022265434 0.08980000019073486
-0.006683293264359236 -0.012195928022265434 0.08980000019073486
-0.006448586005717516 -0.012195928022265434 0.08980000019073486
-0.006213879678398371 -0.012195928022265434 0.08980000019073486
-0.005979172885417938 -0.012195928022265434 0.08980000019073486
-0.005744466558098793 -0.012195928022265434 0.08980000019073486
-0.0055097597651183605 -0.012195928022265434 0.08980000019073486
-0.005275053437799215 -0.012195928022265434 0.08980000019073486
-0.005045959260314703 -0.012209508568048477 0.08989999443292618
-0.004810991231352091 -0.012209508568048477 0.08989999443292618
-0.004576023202389479 -0.012209508568048477 0.08989999443292618
-0.0043410551734268665 -0.012209508568048477 0.08989999443292618
-0.004106087610125542 -0.012209508568048477 0.08989999443292618
-0.0038711195811629295 -0.012209508568048477 0.08989999443292618
-0.0036321072839200497 -0.012195928022265434 0.08980000019073486
-0.003397400490939617 -0.012195928022265434 0.08980000019073486
-0.003162694163620472 -0.012195928022265434 0.08980000019073486
-0.002927987603470683 -0.012195928022265434 0.08980000019073486
-0.0026932808104902506 -0.012195928022265434 0.08980000019073486
-0.0024585744831711054 -0.012195928022265434 0.08980000019073486
-0.002223867690190673 -0.012195928022265434 0.08980000019073486
-0.001991376280784607 -0.012209508568048477 0.08989999443292618
-0.001756408135406673 -0.012209508568048477 0.08989999443292618
-0.0015231326688081026 -0.012223090045154095 0.08999999612569809
-0.0012879034038633108 -0.012223090045154095 0.08999999612569809
-0.0010538437636569142 -0.012236671522259712 0.09009999781847
-0.0008201696909964085 -0.012263834476470947 0.09030000120401382
-0.0005848031141795218 -0.01227741502225399 0.09039999544620514
-0.0003492994583211839 -0.012304577976465225 0.09059999883174896
-0.00011275029100943357 -0.012331739999353886 0.09079999476671219
0.00012470714864321053 -0.012345321476459503 0.0908999964594841
0.0003626873076427728 -0.01235890295356512 0.09099999815225601
0.0006005303002893925 -0.01235890295356512 0.09099999815225601
0.0008383732056245208 -0.01235890295356512 0.09099999815225601
0.001076216110959649 -0.01235890295356512 0.09099999815225601
0.0013140591327100992 -0.01235890295356512 0.09099999815225601
0.0015519021544605494 -0.01235890295356512 0.09099999815225601
0.0017877782229334116 -0.012345321476459503 0.0908999964594841
0.002025360008701682 -0.012345321476459503 0.0908999964594841
0.0022579627111554146 -0.012318159453570843 0.09070000052452087
0.0024950215592980385 -0.012318159453570843 0.09070000052452087
0.0027260559145361185 -0.012290996499359608 0.09049999713897705
0.002959318459033966 -0.01227741502225399 0.09039999544620514
0.0031920585315674543 -0.012263834476470947 0.09030000120401382
0.0034242752008140087 -0.01225025299936533 0.09019999951124191
0.003660027403384447 -0.01225025299936533 0.09019999951124191
0.0038914603646844625 -0.012236671522259712 0.09009999781847
0.004126951098442078 -0.012236671522259712 0.09009999781847
0.004362441599369049 -0.012236671522259712 0.09009999781847
0.004592828918248415 -0.012223090045154095 0.08999999612569809
0.004828058648854494 -0.012223090045154095 0.08999999612569809
0.005063287913799286 -0.012223090045154095 0.08999999612569809
0.00529851671308279 -0.012223090045154095 0.08999999612569809
0.005539895035326481 -0.012236671522259712 0.09009999781847
0.005781795363873243 -0.01225025299936533 0.09019999951124191
0.006017548032104969 -0.01225025299936533 0.09019999951124191
0.006260232534259558 -0.012263834476470947 0.09030000120401382
0.006510634440928698 -0.012290996499359608 0.09049999713897705
0.007236198987811804 -0.012318159453570843 0.09070000052452087
0.007489736657589674 -0.012345321476459503 0.0908999964594841
0.007735819090157747 -0.01235890295356512 0.09099999815225601
0.007973662577569485 -0.01235890295356512 0.09099999815225601
0.008220529183745384 -0.012372484430670738 0.09109999984502792
0.008458633907139301 -0.012372484430670738 0.09109999984502792
0.008696737699210644 -0.012372484430670738 0.09109999984502792
0.008934841491281986 -0.012372484430670738 0.09109999984502792
0.009183014743030071 -0.012386064045131207 0.09119999408721924
0.00942138023674488 -0.012386064045131207 0.09119999408721924
0.009649154730141163 -0.012372484430670738 0.09109999984502792
0.009898112155497074 -0.012386064045131207 0.09119999408721924
0.010136477649211884 -0.012386064045131207 0.09119999408721924
0.010386219248175621 -0.012399645522236824 0.09129999577999115
-0.0111752450466156 -0.012254259549081326 0.09200000017881393
-0.01091101672500372 -0.01222761906683445 0.09179999679327011
-0.01062458660453558 -0.012174339964985847 0.09139999747276306
-0.01036297157406807 -0.012147699482738972 0.09119999408721924
-0.010113504715263844 -0.012134380638599396 0.09109999984502792
-0.009853719733655453 -0.01210774015635252 0.0908999964594841
-0.00959498155862093 -0.012081101536750793 0.09070000052452087
-0.009326969273388386 -0.012041141279041767 0.09039999544620514
-0.009070582687854767 -0.012014501728117466 0.09019999951124191
-0.008825035765767097 -0.012001181952655315 0.09009999781847
-0.008580012246966362 -0.011987862177193165 0.08999999612569809
-0.008335510268807411 -0.01197454147040844 0.08989999443292618
-0.008100542239844799 -0.01197454147040844 0.08989999443292618
-0.007865574210882187 -0.01197454147040844 0.08989999443292618
-0.007622119039297104 -0.011961222626268864 0.08980000019073486
-0.007387412711977959 -0.011961222626268864 0.08980000019073486
-0.006917999591678381 -0.011961222626268864 0.08980000019073486
-0.006683293264359236 -0.011961222626268864 0.08980000019073486
-0.006448586005717516 -0.011961222626268864 0.08980000019073486
-0.006213879678398371 -0.011961222626268864 0.08980000019073486
-0.005979172885417938 -0.011961222626268864 0.08980000019073486
-0.005744466558098793 -0.011961222626268864 0.08980000019073486
-0.0055097597651183605 -0.011961222626268864 0.08980000019073486
-0.005275053437799215 -0.011961222626268864 0.08980000019073486
-0.005045959260314703 -0.01197454147040844 0.08989999443292618
-0.004810991231352091 -0.01197454147040844 0.08989999443292618
-0.004576023202389479 -0.01197454147040844 0.08989999443292618
-0.0043410551734268665 -0.01197454147040844 0.08989999443292618
-0.004106087610125542 -0.01197454147040844 0.08989999443292618
-0.0038711195811629295 -0.01197454147040844 0.08989999443292618
-0.0036321072839200497 -0.011961222626268864 0.08980000019073486
-0.003397400490939617 -0.011961222626268864 0.08980000019073486
-0.003162694163620472 -0.011961222626268864 0.08980000019073486
-0.002927987603470683 -0.011961222626268864 0.08980000019073486
-0.0026932808104902506 -0.011961222626268864 0.08980000019073486
-0.0024585744831711054 -0.011961222626268864 0.08980000019073486
-0.0022263440769165754 -0.01197454147040844 0.08989999443292618
-0.001991376280784607 -0.01197454147040844 0.08989999443292618
-0.001756408135406673 -0.01197454147040844 0.08989999443292618
-0.0015231326688081026 -0.011987862177193165 0.08999999612569809
-0.0012893344974145293 -0.012001181952655315 0.09009999781847
-0.0010550133883953094 -0.012014501728117466 0.09019999951124191
-0.0008210779051296413 -0.012041141279041767 0.09039999544620514
-0.0005860969540663064 -0.012067780829966068 0.09059999883174896
-0.00035007050610147417 -0.01209442038089037 0.09079999476671219
-0.00011287446250207722 -0.01210774015635252 0.0908999964594841
0.00012484432954806834 -0.012121060863137245 0.09099999815225601
0.00036308588460087776 -0.012134380638599396 0.09109999984502792
0.0006011902005411685 -0.012134380638599396 0.09109999984502792
0.0008392945164814591 -0.012134380638599396 0.09109999984502792
0.0010773988906294107 -0.012134380638599396 0.09109999984502792
0.0013155031483620405 -0.012134380638599396 0.09109999984502792
0.001553607638925314 -0.012134380638599396 0.09109999984502792
0.0017897450597956777 -0.012121060863137245 0.09099999815225601
0.002025360008701682 -0.01210774015635252 0.0908999964594841
0.002262941561639309 -0.01210774015635252 0.0908999964594841
0.0024950215592980385 -0.012081101536750793 0.09070000052452087
0.0027290680445730686 -0.012067780829966068 0.09059999883174896
0.0029625920578837395 -0.012054461054503918 0.09049999713897705
0.0031920585315674543 -0.012027822434902191 0.09030000120401382
0.0034242752008140087 -0.012014501728117466 0.09019999951124191
0.0036559696309268475 -0.012001181952655315 0.09009999781847
0.0038914603646844625 -0.012001181952655315 0.09009999781847
0.004122370854020119 -0.011987862177193165 0.08999999612569809
0.004357599653303623 -0.011987862177193165 0.08999999612569809
0.004592828918248415 -0.011987862177193165 0.08999999612569809
0.004828058648854494 -0.011987862177193165 0.08999999612569809
0.005063287913799286 -0.011987862177193165 0.08999999612569809
0.00529851671308279 -0.011987862177193165 0.08999999612569809
0.005539895035326481 -0.012001181952655315 0.09009999781847
0.005781795363873243 -0.012014501728117466 0.09019999951124191
0.006024219561368227 -0.012027822434902191 0.09030000120401382
0.006267164833843708 -0.012041141279041767 0.09039999544620514
0.006517828442156315 -0.012067780829966068 0.09059999883174896
0.007260133512318134 -0.012121060863137245 0.09099999815225601
0.007506215944886208 -0.012134380638599396 0.09109999984502792
0.007752820383757353 -0.012147699482738972 0.09119999408721924
0.00799118634313345 -0.012147699482738972 0.09119999408721924
0.008238575421273708 -0.012161020189523697 0.09129999577999115
0.00847720354795456 -0.012161020189523697 0.09129999577999115
0.008725376799702644 -0.012174339964985847 0.09139999747276306
0.008964264765381813 -0.012174339964985847 0.09139999747276306
0.009203153662383556 -0.012174339964985847 0.09139999747276306
0.009442041628062725 -0.012174339964985847 0.09139999747276306
0.009670337662100792 -0.012161020189523697 0.09129999577999115
0.009908965788781643 -0.012161020189523697 0.09129999577999115
0.011211540549993515 -0.012280898168683052 0.09219999611377716
-0.011415702290832996 -0.01201380230486393 0.09200000017881393
-0.011138803325593472 -0.01197462622076273 0.0916999951004982
-0.010863474570214748 -0.011935451067984104 0.09139999747276306
-0.010601337999105453 -0.011909333989024162 0.09119999408721924
-0.01035160943865776 -0.011896275915205479 0.09109999984502792
-0.01009130198508501 -0.011870158836245537 0.0908999964594841
-0.009832039475440979 -0.011844041757285595 0.09070000052452087
-0.009584401734173298 -0.011830983683466911 0.09059999883174896
-0.00931665301322937 -0.011791808530688286 0.09030000120401382
-0.009070582687854767 -0.011778749525547028 0.09019999951124191
-0.008815241046249866 -0.011752632446587086 0.08999999612569809
-0.008580012246966362 -0.011752632446587086 0.08999999612569809
-0.008335510268807411 -0.011739573441445827 0.08989999443292618
-0.008100542239844799 -0.011739573441445827 0.08989999443292618
-0.007865574210882187 -0.011739573441445827 0.08989999443292618
-0.007622119039297104 -0.011726515367627144 0.08980000019073486
-0.007387412711977959 -0.011726515367627144 0.08980000019073486
-0.007152705918997526 -0.011726515367627144 0.08980000019073486
-0.006917999591678381 -0.011726515367627144 0.08980000019073486
-0.006683293264359236 -0.011726515367627144 0.08980000019073486
-0.006448586005717516 -0.011726515367627144 0.08980000019073486
-0.006213879678398371 -0.011726515367627144 0.08980000019073486
-0.005979172885417938 -0.011726515367627144 0.08980000019073486
-0.005744466558098793 -0.011726515367627144 0.08980000019073486
-0.0055097597651183605 -0.011726515367627144 0.08980000019073486
-0.005280927289277315 -0.011739573441445827 0.08989999443292618
-0.005045959260314703 -0.011739573441445827 0.08989999443292618
-0.004810991231352091 -0.011739573441445827 0.08989999443292618
-0.004576023202389479 -0.011739573441445827 0.08989999443292618
-0.0043410551734268665 -0.011739573441445827 0.08989999443292618
-0.004106087610125542 -0.011739573441445827 0.08989999443292618
-0.0038711195811629295 -0.011739573441445827 0.08989999443292618
-0.0036361515522003174 -0.011739573441445827 0.08989999443292618
-0.0034011835232377052 -0.011739573441445827 0.08989999443292618
-0.0031662159599363804 -0.011739573441445827 0.08989999443292618
-0.0029312479309737682 -0.011739573441445827 0.08989999443292618
-0.002696279902011156 -0.011739573441445827 0.08989999443292618
-0.0024613121058791876 -0.011739573441445827 0.08989999443292618
-0.0022263440769165754 -0.011739573441445827 0.08989999443292618
-0.00199359143152833 -0.011752632446587086 0.08999999612569809
-0.0017583619337528944 -0.011752632446587086 0.08999999612569809
-0.0015248251147568226 -0.01176569052040577 0.09009999781847
-0.001290765474550426 -0.011778749525547028 0.09019999951124191
-0.0010573526378720999 -0.011804865673184395 0.09039999544620514
-0.0008228944498114288 -0.011830983683466911 0.09059999883174896
-0.0005867438740096986 -0.011844041757285595 0.09070000052452087
-0.000350456073647365 -0.011870158836245537 0.0908999964594841
-0.00011299864127067849 -0.01188321691006422 0.09099999815225601
0.0001249815250048414 -0.011896275915205479 0.09109999984502792
0.00036308588460087776 -0.011896275915205479 0.09109999984502792
0.0006018501007929444 -0.011909333989024162 0.09119999408721924
0.0008402157691307366 -0.011909333989024162 0.09119999408721924
0.0010785814374685287 -0.011909333989024162 0.09119999408721924
0.0013169471640139818 -0.011909333989024162 0.09119999408721924
0.001553607638925314 -0.011896275915205479 0.09109999984502792
0.0017917118966579437 -0.011896275915205479 0.09109999984502792
0.0020275881979614496 -0.01188321691006422 0.09099999815225601
0.002262941561639309 -0.011870158836245537 0.0908999964594841
0.0024950215592980385 -0.011844041757285595 0.09070000052452087
0.0027320804074406624 -0.011844041757285595 0.09070000052452087
0.002965865656733513 -0.011830983683466911 0.09059999883174896
0.0031920585315674543 -0.011791808530688286 0.09030000120401382
0.0034242752008140087 -0.011778749525547028 0.09019999951124191
0.0036559696309268475 -0.01176569052040577 0.09009999781847
0.0038871413562446833 -0.011752632446587086 0.08999999612569809
0.004122370854020119 -0.011752632446587086 0.08999999612569809
0.004357599653303623 -0.011752632446587086 0.08999999612569809
0.004592828918248415 -0.011752632446587086 0.08999999612569809
0.004828058648854494 -0.011752632446587086 0.08999999612569809
0.005063287913799286 -0.011752632446587086 0.08999999612569809
0.00529851671308279 -0.011752632446587086 0.08999999612569809
0.005539895035326481 -0.01176569052040577 0.09009999781847
0.005775385536253452 -0.01176569052040577 0.09009999781847
0.006024219561368227 -0.011791808530688286 0.09030000120401382
0.006274097599089146 -0.011817924678325653 0.09049999713897705
0.006525022443383932 -0.011844041757285595 0.09070000052452087
0.007022290024906397 -0.01188321691006422 0.09099999815225601
0.007268111687153578 -0.011896275915205479 0.09109999984502792
0.007514454890042543 -0.011909333989024162 0.09119999408721924
0.007761321496218443 -0.011922392062842846 0.09129999577999115
0.008017473854124546 -0.011948510073125362 0.09149999916553497
0.008265647105872631 -0.011961568146944046 0.09160000085830688
0.008514342829585075 -0.01197462622076273 0.0916999951004982
0.008763561956584454 -0.011987685225903988 0.09179999679327011
0.009013303555548191 -0.012000743299722672 0.09189999848604202
0.009243429638445377 -0.011987685225903988 0.09179999679327011
0.00948336347937584 -0.011987685225903988 0.09179999679327011
0.0097127053886652 -0.01197462622076273 0.0916999951004982
0.009930672124028206 -0.011948510073125362 0.09149999916553497
-0.011668827384710312 -0.01178614143282175 0.09209999442100525
-0.011378476396203041 -0.01173495315015316 0.0916999951004982
-0.011102362535893917 -0.01169656217098236 0.09139999747276306
-0.010839702561497688 -0.011670967563986778 0.09119999408721924
-0.010589714162051678 -0.011658171191811562 0.09109999984502792
-0.010340246371924877 -0.01164537388831377 0.09099999815225601
-0.01009130198508501 -0.011632576584815979 0.0908999964594841
-0.00982119981199503 -0.01159418560564518 0.09059999883174896
-0.009563243947923183 -0.011568590998649597 0.09039999544620514
-0.009306334890425205 -0.01154299732297659 0.09019999951124191
-0.009060526266694069 -0.011530200019478798 0.09009999781847
-0.008815241046249866 -0.011517402715981007 0.08999999612569809
-0.008580012246966362 -0.011517402715981007 0.08999999612569809
-0.008335510268807411 -0.011504605412483215 0.08989999443292618
-0.008100542239844799 -0.011504605412483215 0.08989999443292618
-0.007865574210882187 -0.011504605412483215 0.08989999443292618
-0.007622119039297104 -0.011491809040307999 0.08980000019073486
-0.007387412711977959 -0.011491809040307999 0.08980000019073486
-0.007152705918997526 -0.011491809040307999 0.08980000019073486
-0.006917999591678381 -0.011491809040307999 0.08980000019073486
-0.006683293264359236 -0.011491809040307999 0.08980000019073486
-0.006448586005717516 -0.011491809040307999 0.08980000019073486
-0.006213879678398371 -0.011491809040307999 0.08980000019073486
-0.005979172885417938 -0.011491809040307999 0.08980000019073486
-0.005750862881541252 -0.011504605412483215 0.08989999443292618
-0.00551589485257864 -0.011504605412483215 0.08989999443292618
-0.005280927289277315 -0.011504605412483215 0.08989999443292618
-0.005045959260314703 -0.011504605412483215 0.08989999443292618
-0.004810991231352091 -0.011504605412483215 0.08989999443292618
-0.004576023202389479 -0.011504605412483215 0.08989999443292618
-0.0043410551734268665 -0.011504605412483215 0.08989999443292618
-0.004106087610125542 -0.011504605412483215 0.08989999443292618
-0.0038711195811629295 -0.011504605412483215 0.08989999443292618
-0.0036361515522003174 -0.011504605412483215 0.08989999443292618
-0.0034011835232377052 -0.011504605412483215 0.08989999443292618
-0.0031662159599363804 -0.011504605412483215 0.08989999443292618
-0.0029312479309737682 -0.011504605412483215 0.08989999443292618
-0.0026992792263627052 -0.011517402715981007 0.08999999612569809
-0.0024640499614179134 -0.011517402715981007 0.08999999612569809
-0.002228820463642478 -0.011517402715981007 0.08999999612569809
-0.00199359143152833 -0.011517402715981007 0.08999999612569809
-0.0017603157320991158 -0.011530200019478798 0.09009999781847
-0.0015265175607055426 -0.01154299732297659 0.09019999951124191
-0.0012936274288222194 -0.011568590998649597 0.09039999544620514
-0.0010596920037642121 -0.01159418560564518 0.09059999883174896
-0.0008238027803599834 -0.011606982909142971 0.09070000052452087
-0.0005880376556888223 -0.011632576584815979 0.0908999964594841
-0.0003508416120894253 -0.01164537388831377 0.09099999815225601
-0.00011312282003927976 -0.011658171191811562 0.09109999984502792
0.0001251187059096992 -0.011670967563986778 0.09119999408721924
0.0003634844033513218 -0.011670967563986778 0.09119999408721924
0.0006018501007929444 -0.011670967563986778 0.09119999408721924
0.0008402157691307366 -0.011670967563986778 0.09119999408721924
0.0010785814374685287 -0.011670967563986778 0.09119999408721924
0.0013169471640139818 -0.011670967563986778 0.09119999408721924
0.0015553128905594349 -0.011670967563986778 0.09119999408721924
0.0017917118966579437 -0.011658171191811562 0.09109999984502792
0.0020298161543905735 -0.011658171191811562 0.09109999984502792
0.002265430986881256 -0.01164537388831377 0.09099999815225601
0.0025005231145769358 -0.011632576584815979 0.0908999964594841
0.0027320804074406624 -0.011606982909142971 0.09070000052452087
0.002965865656733513 -0.01159418560564518 0.09059999883174896
0.0031920585315674543 -0.01155579462647438 0.09030000120401382
0.0034242752008140087 -0.01154299732297659 0.09019999951124191
0.0036559696309268475 -0.011530200019478798 0.09009999781847
0.0038871413562446833 -0.011517402715981007 0.08999999612569809
0.004122370854020119 -0.011517402715981007 0.08999999612569809
0.004357599653303623 -0.011517402715981007 0.08999999612569809
0.0045877257362008095 -0.011504605412483215 0.08989999443292618
0.004828058648854494 -0.011517402715981007 0.08999999612569809
0.005063287913799286 -0.011517402715981007 0.08999999612569809
0.00529851671308279 -0.011517402715981007 0.08999999612569809
0.005539895035326481 -0.011530200019478798 0.09009999781847
0.005781795363873243 -0.01154299732297659 0.09019999951124191
0.006024219561368227 -0.01155579462647438 0.09030000120401382
0.006281030364334583 -0.01159418560564518 0.09059999883174896
0.007030006963759661 -0.011658171191811562 0.09109999984502792
0.007276089396327734 -0.011670967563986778 0.09119999408721924
0.0075391740538179874 -0.011709359474480152 0.09149999916553497
0.007795325014740229 -0.01173495315015316 0.0916999951004982
0.00805252231657505 -0.011760547757148743 0.09189999848604202
0.008301741443574429 -0.011773345060646534 0.09200000017881393
0.008551483042538166 -0.01178614143282175 0.09209999442100525
0.008792201057076454 -0.01178614143282175 0.09209999442100525
0.009032918140292168 -0.01178614143282175 0.09209999442100525
0.00927363708615303 -0.01178614143282175 0.09209999442100525
0.009514355100691319 -0.01178614143282175 0.09209999442100525
-0.01163081917911768 -0.01150781661272049 0.09179999679327011
-0.011353660374879837 -0.011470208875834942 0.09149999916553497
-0.011078068055212498 -0.011432601138949394 0.09119999408721924
-0.01082781795412302 -0.011420066468417645 0.09109999984502792
-0.010578089393675327 -0.011407529935240746 0.09099999815225601
-0.010328883305191994 -0.011394994333386421 0.0908999964594841
-0.010069099254906178 -0.011369923129677773 0.09070000052452087
-0.009810359217226505 -0.011344851925969124 0.09049999713897705
-0.0095526659861207 -0.011319780722260475 0.09030000120401382
-0.009306334890425205 -0.011307244189083576 0.09019999951124191
-0.009060526266694069 -0.011294708587229252 0.09009999781847
-0.008815241046249866 -0.011282172985374928 0.08999999612569809
-0.008580012246966362 -0.011282172985374928 0.08999999612569809
-0.008344782516360283 -0.011282172985374928 0.08999999612569809
-0.008100542239844799 -0.011269636452198029 0.08989999443292618
-0.007865574210882187 -0.011269636452198029 0.08989999443292618
-0.007630606647580862 -0.011269636452198029 0.08989999443292618
-0.007387412711977959 -0.011257101781666279 0.08980000019073486
-0.007152705918997526 -0.011257101781666279 0.08980000019073486
-0.006917999591678381 -0.011257101781666279 0.08980000019073486
-0.006683293264359236 -0.011257101781666279 0.08980000019073486
-0.006448586005717516 -0.011257101781666279 0.08980000019073486
-0.0062207989394664764 -0.011269636452198029 0.08989999443292618
-0.005985830910503864 -0.011269636452198029 0.08989999443292618
-0.005750862881541252 -0.011269636452198029 0.08989999443292618
-0.00551589485257864 -0.011269636452198029 0.08989999443292618
-0.005280927289277315 -0.011269636452198029 0.08989999443292618
-0.005045959260314703 -0.011269636452198029 0.08989999443292618
-0.004816343076527119 -0.011282172985374928 0.08999999612569809
-0.00458111334592104 -0.011282172985374928 0.08999999612569809
-0.004345884080976248 -0.011282172985374928 0.08999999612569809
-0.004110655281692743 -0.011282172985374928 0.08999999612569809
-0.003875425783917308 -0.011282172985374928 0.08999999612569809
-0.0036401962861418724 -0.011282172985374928 0.08999999612569809
-0.0034049670211970806 -0.011282172985374928 0.08999999612569809
-0.0031697379890829325 -0.011282172985374928 0.08999999612569809
-0.002934508491307497 -0.011282172985374928 0.08999999612569809
-0.0026992792263627052 -0.011282172985374928 0.08999999612569809
-0.0024667878169566393 -0.011294708587229252 0.09009999781847
-0.002231297083199024 -0.011294708587229252 0.09009999781847
-0.0019958065822720528 -0.011294708587229252 0.09009999781847
-0.0017622695304453373 -0.011307244189083576 0.09019999951124191
-0.0015299022197723389 -0.011332315392792225 0.09039999544620514
-0.001295058405958116 -0.011344851925969124 0.09049999713897705
-0.0010608616285026073 -0.011369923129677773 0.09070000052452087
-0.00082561926683411 -0.011394994333386421 0.0908999964594841
-0.0005886845756322145 -0.011407529935240746 0.09099999815225601
-0.0003512271505314857 -0.011420066468417645 0.09109999984502792
-0.0001132469842559658 -0.011432601138949394 0.09119999408721924
0.0001251187059096992 -0.011432601138949394 0.09119999408721924
0.0003638829803094268 -0.011445137672126293 0.09129999577999115
0.0006025100592523813 -0.011445137672126293 0.09129999577999115
0.0008420583326369524 -0.011457673273980618 0.09139999747276306
0.0010809467639774084 -0.011457673273980618 0.09139999747276306
0.0013198351953178644 -0.011457673273980618 0.09139999747276306
0.0015570182586088777 -0.011445137672126293 0.09129999577999115
0.0017936785006895661 -0.011432601138949394 0.09119999408721924
0.002032044343650341 -0.011432601138949394 0.09119999408721924
0.0022679204121232033 -0.011420066468417645 0.09109999984502792
0.0025005231145769358 -0.011394994333386421 0.0908999964594841
0.0027320804074406624 -0.011369923129677773 0.09070000052452087
0.002965865656733513 -0.011357387527823448 0.09059999883174896
0.0031920585315674543 -0.011319780722260475 0.09030000120401382
0.0034204788971692324 -0.011294708587229252 0.09009999781847
0.003651911858469248 -0.011282172985374928 0.08999999612569809
0.0038871413562446833 -0.011282172985374928 0.08999999612569809
0.0041177901439368725 -0.011269636452198029 0.08989999443292618
0.004352757707238197 -0.011269636452198029 0.08989999443292618
0.0045877257362008095 -0.011269636452198029 0.08989999443292618
0.004822693765163422 -0.011269636452198029 0.08989999443292618
0.005063287913799286 -0.011282172985374928 0.08999999612569809
0.00529851671308279 -0.011282172985374928 0.08999999612569809
0.005539895035326481 -0.011294708587229252 0.09009999781847
0.005781795363873243 -0.011307244189083576 0.09019999951124191
0.006030890624970198 -0.011332315392792225 0.09039999544620514
0.007037723436951637 -0.011432601138949394 0.09119999408721924
0.007300024386495352 -0.011470208875834942 0.09149999916553497
0.007563892286270857 -0.01150781661272049 0.09179999679327011
0.007820827886462212 -0.011532887816429138 0.09200000017881393
0.00807004701346159 -0.011545423418283463 0.09209999442100525
0.008319788612425327 -0.011557959020137787 0.09219999611377716
0.008570053614675999 -0.011570494621992111 0.09229999780654907
0.008811294101178646 -0.011570494621992111 0.09229999780654907
0.009052534587681293 -0.011570494621992111 0.09229999780654907
0.009293775074183941 -0.011570494621992111 0.09229999780654907
0.009535015560686588 -0.011570494621992111 0.09229999780654907
-0.01217664871364832 -0.011329255066812038 0.09229999780654907
-0.011896615847945213 -0.011292432434856892 0.09200000017881393
-0.011605479754507542 -0.011243334971368313 0.09160000085830688
-0.011328843422234058 -0.011206511408090591 0.09129999577999115
-0.011078068055212498 -0.01119423657655716 0.09119999408721924
-0.010815932415425777 -0.011169688776135445 0.09099999815225601
-0.010566464625298977 -0.011157413944602013 0.0908999964594841
-0.010306158103048801 -0.011132865212857723 0.09070000052452087
-0.010057996958494186 -0.011120591312646866 0.09059999883174896
-0.009799518622457981 -0.011096041649580002 0.09039999544620514
-0.0095526659861207 -0.011083767749369144 0.09030000120401382
-0.009296017698943615 -0.011059219017624855 0.09009999781847
-0.009060526266694069 -0.011059219017624855 0.09009999781847
-0.008815241046249866 -0.011046944186091423 0.08999999612569809
-0.008580012246966362 -0.011046944186091423 0.08999999612569809
-0.008344782516360283 -0.011046944186091423 0.08999999612569809
-0.008100542239844799 -0.011034669354557991 0.08989999443292618
-0.007865574210882187 -0.011034669354557991 0.08989999443292618
-0.007630606647580862 -0.011034669354557991 0.08989999443292618
-0.007395639084279537 -0.011034669354557991 0.08989999443292618
-0.007160670589655638 -0.011034669354557991 0.08989999443292618
-0.006925703026354313 -0.011034669354557991 0.08989999443292618
-0.006690734997391701 -0.011034669354557991 0.08989999443292618
-0.006455766968429089 -0.011034669354557991 0.08989999443292618
-0.0062207989394664764 -0.011034669354557991 0.08989999443292618
-0.005985830910503864 -0.011034669354557991 0.08989999443292618
-0.005757260136306286 -0.011046944186091423 0.08999999612569809
-0.005522030871361494 -0.011046944186091423 0.08999999612569809
-0.005286801606416702 -0.011046944186091423 0.08999999612569809
-0.0050515723414719105 -0.011046944186091423 0.08999999612569809
-0.004816343076527119 -0.011046944186091423 0.08999999612569809
-0.00458111334592104 -0.011046944186091423 0.08999999612569809
-0.004350712988525629 -0.011059219017624855 0.09009999781847
-0.004115222487598658 -0.011059219017624855 0.09009999781847
-0.0038797317538410425 -0.011059219017624855 0.09009999781847
-0.0036442410200834274 -0.011059219017624855 0.09009999781847
-0.0034087502863258123 -0.011059219017624855 0.09009999781847
-0.0031732600182294846 -0.011059219017624855 0.09009999781847
-0.002937769051641226 -0.011059219017624855 0.09009999781847
-0.00270527764223516 -0.011071493849158287 0.09019999951124191
-0.002469525672495365 -0.011071493849158287 0.09019999951124191
-0.0022337734699249268 -0.011071493849158287 0.09019999951124191
-0.002000236650928855 -0.011083767749369144 0.09030000120401382
-0.0017661768943071365 -0.011096041649580002 0.09039999544620514
-0.001533286995254457 -0.011120591312646866 0.09059999883174896
-0.0012979204766452312 -0.011132865212857723 0.09070000052452087
-0.0010632008779793978 -0.011157413944602013 0.0908999964594841
-0.0008265275391750038 -0.011169688776135445 0.09099999815225601
-0.0005893314955756068 -0.011181962676346302 0.09109999984502792
-0.00035161265986971557 -0.01119423657655716 0.09119999408721924
-0.0001132469842559658 -0.01119423657655716 0.09119999408721924
0.00012525590136647224 -0.011206511408090591 0.09129999577999115
0.0003642815281637013 -0.011218785308301449 0.09139999747276306
0.0006038299179635942 -0.01123106013983488 0.09149999916553497
0.0008439009543508291 -0.011243334971368313 0.09160000085830688
0.001084494753740728 -0.01125560887157917 0.0916999951004982
0.0013227233430370688 -0.011243334971368313 0.09160000085830688
0.0015621345955878496 -0.011243334971368313 0.09160000085830688
0.0017976120579987764 -0.011218785308301449 0.09139999747276306
0.0020342725329101086 -0.011206511408090591 0.09129999577999115
0.0022704098373651505 -0.01119423657655716 0.09119999408721924
0.0025060249026864767 -0.011181962676346302 0.09109999984502792
0.0027381046675145626 -0.011157413944602013 0.0908999964594841
0.0029691392555832863 -0.011132865212857723 0.09070000052452087
0.0031955931335687637 -0.011096041649580002 0.09039999544620514
0.0034204788971692324 -0.011059219017624855 0.09009999781847
0.003651911858469248 -0.011046944186091423 0.08999999612569809
0.0038828221149742603 -0.011034669354557991 0.08989999443292618
0.0041177901439368725 -0.011034669354557991 0.08989999443292618
0.004352757707238197 -0.011034669354557991 0.08989999443292618
0.004582623019814491 -0.011022396385669708 0.08980000019073486
0.004817329812794924 -0.011022396385669708 0.08980000019073486
0.005057661794126034 -0.011034669354557991 0.08989999443292618
0.00529851671308279 -0.011046944186091423 0.08999999612569809
0.0055337464436888695 -0.011046944186091423 0.08999999612569809
0.006799357943236828 -0.01119423657655716 0.09119999408721924
0.007045440375804901 -0.011206511408090591 0.09129999577999115
0.0073159802705049515 -0.01125560887157917 0.0916999951004982
0.0075803715735673904 -0.011292432434856892 0.09200000017881393
0.007837829180061817 -0.011316980235278606 0.09219999611377716
0.00808757171034813 -0.011329255066812038 0.09229999780654907
0.008328812196850777 -0.011329255066812038 0.09229999780654907
0.008570053614675999 -0.011329255066812038 0.09229999780654907
0.008811294101178646 -0.011329255066812038 0.09229999780654907
0.009062342345714569 -0.01134152989834547 0.09239999949932098
-0.011857821606099606 -0.0110159358009696 0.0916999951004982
-0.01156746968626976 -0.01096788328140974 0.09129999577999115
-0.011316434480249882 -0.010955870151519775 0.09119999408721924
-0.011065921746194363 -0.010943857952952385 0.09109999984502792
-0.01080404594540596 -0.010919831693172455 0.0908999964594841
-0.010554840788245201 -0.01090781856328249 0.09079999476671219
-0.010306158103048801 -0.0108958063647151 0.09070000052452087
-0.01004689559340477 -0.01087178010493517 0.09049999713897705
-0.009799518622457981 -0.01085976604372263 0.09039999544620514
-0.009542087092995644 -0.010835740715265274 0.09019999951124191
-0.009296017698943615 -0.010823727585375309 0.09009999781847
-0.009060526266694069 -0.010823727585375309 0.09009999781847
-0.008815241046249866 -0.010811714455485344 0.08999999612569809
-0.008580012246966362 -0.010811714455485344 0.08999999612569809
-0.008344782516360283 -0.010811714455485344 0.08999999612569809
-0.008100542239844799 -0.010799701325595379 0.08989999443292618
-0.007865574210882187 -0.010799701325595379 0.08989999443292618
-0.007630606647580862 -0.010799701325595379 0.08989999443292618
-0.007395639084279537 -0.010799701325595379 0.08989999443292618
-0.007160670589655638 -0.010799701325595379 0.08989999443292618
-0.006925703026354313 -0.010799701325595379 0.08989999443292618
-0.006690734997391701 -0.010799701325595379 0.08989999443292618
-0.006455766968429089 -0.010799701325595379 0.08989999443292618
-0.006227719131857157 -0.010811714455485344 0.08999999612569809
-0.005992489401251078 -0.010811714455485344 0.08999999612569809
-0.005757260136306286 -0.010811714455485344 0.08999999612569809
-0.005522030871361494 -0.010811714455485344 0.08999999612569809
-0.005286801606416702 -0.010811714455485344 0.08999999612569809
-0.005057185422629118 -0.010823727585375309 0.09009999781847
-0.004821694456040859 -0.010823727585375309 0.09009999781847
-0.004586203955113888 -0.010823727585375309 0.09009999781847
-0.00435554189607501 -0.010835740715265274 0.09019999951124191
-0.004119790159165859 -0.010835740715265274 0.09019999951124191
-0.003888344159349799 -0.010847753845155239 0.09030000120401382
-0.0036482857540249825 -0.010835740715265274 0.09019999951124191
-0.0034163170494139194 -0.010847753845155239 0.09030000120401382
-0.003180303843691945 -0.010847753845155239 0.09030000120401382
-0.002944290405139327 -0.010847753845155239 0.09030000120401382
-0.002711275825276971 -0.01085976604372263 0.09039999544620514
-0.002475001150742173 -0.01085976604372263 0.09039999544620514
-0.0022387264762073755 -0.01085976604372263 0.09039999544620514
-0.0020046669524163008 -0.01087178010493517 0.09049999713897705
-0.001772038172930479 -0.0108958063647151 0.09070000052452087
-0.001534979441203177 -0.0108958063647151 0.09070000052452087
-0.0013007824309170246 -0.010919831693172455 0.0908999964594841
-0.001064370502717793 -0.01093184482306242 0.09099999815225601
-0.0008274358697235584 -0.010943857952952385 0.09109999984502792
-0.0005899783573113382 -0.010955870151519775 0.09119999408721924
-0.00035161265986971557 -0.010955870151519775 0.09119999408721924
-0.00011349533451721072 -0.01097989734262228 0.09139999747276306
0.00012553029228001833 -0.010991910472512245 0.09149999916553497
0.0003650786529760808 -0.01100392360240221 0.09160000085830688
0.000605809676926583 -0.011027948930859566 0.09179999679327011
0.0008466648287139833 -0.01103996206074953 0.09189999848604202
0.0010880427435040474 -0.011051975190639496 0.09200000017881393
0.001328499405644834 -0.011051975190639496 0.09200000017881393
0.0025087755639106035 -0.010955870151519775 0.09119999408721924
0.0027411170303821564 -0.01093184482306242 0.09099999815225601
0.0029691392555832863 -0.0108958063647151 0.09070000052452087
0.0031955931335687637 -0.01085976604372263 0.09039999544620514
0.003416682593524456 -0.010811714455485344 0.08999999612569809
0.003647854086011648 -0.010799701325595379 0.08989999443292618
0.0038828221149742603 -0.010799701325595379 0.08989999443292618
0.0041177901439368725 -0.010799701325595379 0.08989999443292618
0.004347916226834059 -0.010787689127027988 0.08980000019073486
0.004582623019814491 -0.010787689127027988 0.08980000019073486
0.004817329812794924 -0.010787689127027988 0.08980000019073486
0.005052036140114069 -0.010787689127027988 0.08980000019073486
0.005292629823088646 -0.010799701325595379 0.08989999443292618
0.0055337464436888695 -0.010811714455485344 0.08999999612569809
0.005781795363873243 -0.010835740715265274 0.09019999951124191
0.006799357943236828 -0.010955870151519775 0.09119999408721924
0.007060874253511429 -0.010991910472512245 0.09149999916553497
0.007323958911001682 -0.011027948930859566 0.09179999679327011
0.007588610984385014 -0.011063987389206886 0.09209999442100525
0.007846330292522907 -0.011088013648986816 0.09229999780654907
0.00808757171034813 -0.011088013648986816 0.09229999780654907
0.008328812196850777 -0.011088013648986816 0.09229999780654907
0.008579338900744915 -0.011100027710199356 0.09239999949932098
0.008830387145280838 -0.011112040840089321 0.0925000011920929
0.009072150103747845 -0.011112040840089321 0.0925000011920929
0.009786847978830338 -0.011100027710199356 0.09239999949932098
0.010017497465014458 -0.011088013648986816 0.09229999780654907
0.010247623547911644 -0.011076000519096851 0.09219999611377716
0.010488603264093399 -0.011076000519096851 0.09219999611377716
0.01072958204895258 -0.011076000519096851 0.09219999611377716
0.01097056083381176 -0.011076000519096851 0.09219999611377716
0.011718865483999252 -0.011100027710199356 0.09239999949932098
-0.012417889200150967 -0.010846774093806744 0.09229999780654907
-0.01213707122951746 -0.010811518877744675 0.09200000017881393
-0.011844891123473644 -0.010764512233436108 0.09160000085830688
-0.011554799973964691 -0.010717504657804966 0.09119999408721924
-0.01130402646958828 -0.010705754160881042 0.09109999984502792
-0.011053774505853653 -0.01069400180131197 0.09099999815225601
-0.01080404594540596 -0.010682250373065472 0.0908999964594841
-0.010543216951191425 -0.010658747516572475 0.09070000052452087
-0.010294794104993343 -0.010646996088325977 0.09059999883174896
-0.010035794228315353 -0.010623492300510406 0.09039999544620514
-0.009788678959012032 -0.010611740872263908 0.09030000120401382
-0.009542087092995644 -0.01059998944401741 0.09019999951124191
-0.009296017698943615 -0.010588237084448338 0.09009999781847
-0.009060526266694069 -0.010588237084448338 0.09009999781847
-0.008815241046249866 -0.01057648565620184 0.08999999612569809
-0.008580012246966362 -0.01057648565620184 0.08999999612569809
-0.008344782516360283 -0.01057648565620184 0.08999999612569809
-0.008109553717076778 -0.01057648565620184 0.08999999612569809
-0.0078743239864707 -0.01057648565620184 0.08999999612569809
-0.0076390947215259075 -0.01057648565620184 0.08999999612569809
-0.007403865456581116 -0.01057648565620184 0.08999999612569809
-0.007168635725975037 -0.01057648565620184 0.08999999612569809
-0.006933406926691532 -0.01057648565620184 0.08999999612569809
-0.00669817766174674 -0.01057648565620184 0.08999999612569809
-0.006462947931140661 -0.01057648565620184 0.08999999612569809
-0.006227719131857157 -0.01057648565620184 0.08999999612569809
-0.005992489401251078 -0.01057648565620184 0.08999999612569809
-0.00576365739107132 -0.010588237084448338 0.09009999781847
-0.005528166424483061 -0.010588237084448338 0.09009999781847
-0.005292675923556089 -0.010588237084448338 0.09009999781847
-0.005062798038125038 -0.01059998944401741 0.09019999951124191
-0.004832397680729628 -0.010611740872263908 0.09030000120401382
-0.00459638424217701 -0.010611740872263908 0.09030000120401382
-0.0043651992455124855 -0.010623492300510406 0.09039999544620514
-0.004128924570977688 -0.010623492300510406 0.09039999544620514
-0.00389264989644289 -0.010623492300510406 0.09039999544620514
-0.003656374989077449 -0.010623492300510406 0.09039999544620514
-0.0034201000817120075 -0.010623492300510406 0.09039999544620514
-0.0031838256400078535 -0.010623492300510406 0.09039999544620514
-0.002950811292976141 -0.010635243728756905 0.09049999713897705
-0.002717274473980069 -0.010646996088325977 0.09059999883174896
-0.0024804770946502686 -0.010646996088325977 0.09059999883174896
-0.002246155869215727 -0.010658747516572475 0.09070000052452087
-0.002009097021073103 -0.010658747516572475 0.09070000052452087
-0.0017739918548613787 -0.010670498944818974 0.09079999476671219
-0.0015383641002699733 -0.010682250373065472 0.0908999964594841
-0.0013022135244682431 -0.01069400180131197 0.09099999815225601
-0.0010655401274561882 -0.010705754160881042 0.09109999984502792
-0.0008283440838567913 -0.010717504657804966 0.09119999408721924
-0.0005906252772547305 -0.010729257017374039 0.09129999577999115
-0.0003527693042997271 -0.01075276080518961 0.09149999916553497
-0.0001138678562710993 -0.010776263661682606 0.0916999951004982
0.00012594186409842223 -0.010788015089929104 0.09179999679327011
0.00036667290260083973 -0.010811518877744675 0.09200000017881393
0.0006077894358895719 -0.010823270305991173 0.09209999442100525
0.002511526457965374 -0.010729257017374039 0.09129999577999115
0.0027441291604191065 -0.010705754160881042 0.09109999984502792
0.002975686453282833 -0.010682250373065472 0.0908999964594841
0.0031955931335687637 -0.010623492300510406 0.09039999544620514
0.0034204788971692324 -0.010588237084448338 0.09009999781847
0.003647854086011648 -0.010564733296632767 0.08989999443292618
0.0038785033393651247 -0.010552982799708843 0.08980000019073486
0.0041132098995149136 -0.010552982799708843 0.08980000019073486
0.004343074280768633 -0.01054123044013977 0.08969999849796295
0.004577519837766886 -0.01054123044013977 0.08969999849796295
0.004817329812794924 -0.010552982799708843 0.08980000019073486
0.005052036140114069 -0.010552982799708843 0.08980000019073486
0.005292629823088646 -0.010564733296632767 0.08989999443292618
0.0055337464436888695 -0.01057648565620184 0.08999999612569809
0.006799357943236828 -0.010717504657804966 0.09119999408721924
0.007060874253511429 -0.01075276080518961 0.09149999916553497
0.007331937085837126 -0.010799767449498177 0.09189999848604202
0.007588610984385014 -0.010823270305991173 0.09209999442100525
0.007846330292522907 -0.010846774093806744 0.09229999780654907
0.00808757171034813 -0.010846774093806744 0.09229999780654907
0.008337835781276226 -0.010858525522053242 0.09239999949932098
0.008588623255491257 -0.01087027695029974 0.0925000011920929
0.008830387145280838 -0.01087027695029974 0.0925000011920929
0.009072150103747845 -0.01087027695029974 0.0925000011920929
0.009313913993537426 -0.01087027695029974 0.0925000011920929
0.009555676952004433 -0.01087027695029974 0.0925000011920929
0.009797440841794014 -0.01087027695029974 0.0925000011920929
0.010028351098299026 -0.010858525522053242 0.09239999949932098
0.010258737951517105 -0.010846774093806744 0.09229999780654907
0.010499979369342327 -0.010846774093806744 0.09229999780654907
0.011718865483999252 -0.010858525522053242 0.09239999949932098
-0.012404435314238071 -0.010594042018055916 0.09219999611377716
-0.012123879045248032 -0.010559570975601673 0.09189999848604202
-0.011831959709525108 -0.0105136102065444 0.09149999916553497
-0.011554799973964691 -0.010479139164090157 0.09119999408721924
-0.01130402646958828 -0.010467649437487125 0.09109999984502792
-0.011053774505853653 -0.01045615877956152 0.09099999815225601
-0.010792160406708717 -0.010433177463710308 0.09079999476671219
-0.010543216951191425 -0.010421688668429852 0.09070000052452087
-0.010294794104993343 -0.010410198010504246 0.09059999883174896
-0.010035794228315353 -0.010387216694653034 0.09039999544620514
-0.009788678959012032 -0.010375726968050003 0.09030000120401382
-0.009542087092995644 -0.010364236310124397 0.09019999951124191
-0.009306334890425205 -0.010364236310124397 0.09019999951124191
-0.009060526266694069 -0.010352746583521366 0.09009999781847
-0.008825035765767097 -0.010352746583521366 0.09009999781847
-0.008580012246966362 -0.01034125592559576 0.08999999612569809
-0.008344782516360283 -0.01034125592559576 0.08999999612569809
-0.008109553717076778 -0.01034125592559576 0.08999999612569809
-0.0078743239864707 -0.01034125592559576 0.08999999612569809
-0.0076390947215259075 -0.01034125592559576 0.08999999612569809
-0.007403865456581116 -0.01034125592559576 0.08999999612569809
