ply
format ascii 1.0
element vertex 720
property float x
property float y
property float z
end_header
0.008230609819293022 -0.011613493785262108 -0.0012051761150360097
0.008230609819293022 -0.011061270721256733 -0.002506637480109929
0.008230609819293022 -0.010509047657251358 -0.002963144099339842
0.008230609819293022 -0.009956824593245983 -0.0029662738088518372
0.008230609819293022 -0.009404601529240608 -0.00303520681336522
0.008230609819293022 -0.008852378465235233 -0.0031379808206111184
0.008230609819293022 -0.008300156332552433 -0.0028998302295804015
0.008230609819293022 -0.007747933268547058 -0.002935752272605895
0.008230609819293022 -0.007195710204541683 -0.0035133669152855864
0.008230609819293022 -0.006643487140536308 -0.003616140689700841
0.008230609819293022 -0.006091264076530933 -0.0037189153954386702
0.008230609819293022 -0.0055390410125255585 -0.0037878493312746278
0.008230609819293022 -0.0049868179485201836 -0.0036878129467368117
0.008230609819293022 -0.004434594884514809 -0.003690942656248807
0.008230609819293022 -0.0038823720533400774 -0.0036608888767659655
0.008230609819293022 -0.0033301489893347025 -0.0036308346316218367
0.008230609819293022 -0.0027779259253293276 -0.0034432788379490367
0.008230609819293022 -0.0022257028613239527 -0.003009790088981389
0.008230609819293022 -0.0016734797973185778 -0.0024156090803444377
0.008230609819293022 -0.0011212568497285247 -0.0005822863313369443
0.008230609819293022 -0.0005690337857231498 0.00033905694726854666
0.007678386755287647 -0.012165716849267483 -0.0016816154820844522
0.007678386755287647 -0.011613493785262108 -0.0022162292152643195
0.007678386755287647 -0.011061270721256733 -0.003137572202831506
0.007678386755287647 -0.010509047657251358 -0.0030686396639794103
0.007678386755287647 -0.009956824593245983 -0.00330678978934884
0.007678386755287647 -0.009404601529240608 -0.0033368442673236123
0.007678386755287647 -0.008852378465235233 -0.0033337143249809733
0.007678386755287647 -0.008300156332552433 -0.0033305855467915526
0.007678386755287647 -0.007747933268547058 -0.0031020091846585265
0.007678386755287648 -0.007195710204541683 -0.0036931131035089484
0.007678386755287648 -0.006643487140536308 -0.0037573522422462693
0.007678386755287648 -0.006091264076530933 -0.004260788206011056
0.007678386755287648 -0.0055390410125255585 -0.003892639884725212
0.007678386755287648 -0.0049868179485201836 -0.003956879023462533
0.007678386755287647 -0.004434594884514809 -0.0033407981973141423
0.007678386755287648 -0.0038823720533400774 -0.00368073908612132
0.007678386755287648 -0.0033301489893347025 -0.003677609842270612
0.007678386755287648 -0.0027779259253293276 -0.003608676139265298
0.007678386755287647 -0.0022257028613239527 -0.002609028480947017
0.007678386755287647 -0.0016734797973185778 -0.0005886897561140349
0.007678386755287647 -0.0011212568497285247 -3.103414928773324e-05
0.00712616415694356 -0.012717939913272858 -0.0018553459085524074
0.00712616415694356 -0.012165716849267483 -0.0017553094075992695
0.00712616415694356 -0.011613493785262108 -0.002782615600153803
0.00712616415694356 -0.011061270721256733 -0.002392821479588746
0.00712616415694356 -0.010509047657251358 -0.0033068608026951543
0.00712616415694356 -0.009956824593245983 -0.0033427830785512916
0.0071261641569435605 -0.009404601529240608 -0.003617756534367799
0.00712616415694356 -0.008852378465235233 -0.00351772061549127
0.0071261641569435605 -0.008300156332552433 -0.0035536426585167638
0.00712616415694356 -0.007747933268547058 -0.003523588413372635
0.0071261641569435605 -0.007195710204541683 -0.00398009456694126
0.0071261641569435605 -0.006643487140536308 -0.003950040787458419
0.0071261641569435605 -0.006091264076530933 -0.0040189740248024455
0.0071261641569435605 -0.0055390410125255585 -0.003780822502449154
0.0071261641569435605 -0.0049868179485201836 -0.003883597906678914
0.0071261641569435605 -0.004434594884514809 -0.004066408146172761
0.0071261641569435605 -0.0038823720533400774 -0.0037264672573655835
0.00712616415694356 -0.0033301489893347025 -0.003292979206889867
0.0071261641569435605 -0.0027779259253293276 -0.0036611284594982854
0.00712616415694356 -0.0022257028613239527 -0.0031265132129192344
0.00712616415694356 -0.0016734797973185778 -0.0020491681061685077
0.00712616415694356 -0.0011212568497285247 0.00034727965248748747
0.006573941092938185 -0.012717939913272858 -0.0012882779119536272
0.006573941092938185 -0.012165716849267483 -0.0020070052705705157
0.006573941092938185 -0.011613493785262108 -0.0026733523700386277
0.006573941092938185 -0.011061270721256733 -0.0027034068480134
0.006573941092938185 -0.010509047657251358 -0.0033205130603164426
0.006573941092938185 -0.009956824593245983 -0.0035080688539892426
0.006573941092938185 -0.009404601529240608 -0.0035049384459853164
0.006573941092938186 -0.008852378465235233 -0.0036924947053194037
0.006573941092938186 -0.008300156332552433 -0.003930646460503339
0.006573941092938186 -0.007747933268547058 -0.003994884900748729
0.006573941092938186 -0.007195710204541683 -0.004024939611554145
0.006573941092938186 -0.006643487140536308 -0.004089178517460822
0.006573941092938186 -0.006091264076530933 -0.004020244348794221
0.006573941092938186 -0.0055390410125255585 -0.0040844837203621856
0.006573941092938186 -0.0049868179485201836 -0.0039016734808683387
0.006573941092938186 -0.004434594884514809 -0.0039317277260124675
0.006573941092938186 -0.0038823720533400774 -0.0037031513638794413
0.006573941092938185 -0.0033301489893347025 -0.0035203411243855945
0.006573941092938185 -0.0027779259253293276 -0.003417567117139696
0.006573941092938185 -0.0022257028613239527 -0.0028014862909913054
0.006573941092938185 -0.0016734797973185778 -0.001947385841049253
0.00602171802893281 -0.013270162977278233 -0.0019536691252142182
0.00602171802893281 -0.012717939913272858 -0.0016644996358081692
0.00602171802893281 -0.012165716849267483 -0.0024230401031672946
0.00602171802893281 -0.011613493785262108 -0.002791189355775713
0.00602171802893281 -0.011061270721256733 -0.0031128127593547097
0.00602171802893281 -0.010509047657251358 -0.003480962011963128
0.00602171802893281 -0.009956824593245983 -0.003484091255813836
0.006021718028932811 -0.009404601529240608 -0.0037590654101222745
0.006021718028932811 -0.008852378465235233 -0.003794986987486481
0.006021718028932811 -0.008300156332552433 -0.0038977614603936664
0.006021718028932811 -0.007747933268547058 -0.0039666956290602675
0.006021718028932811 -0.007195710204541683 -0.004334843717515468
0.006021718028932811 -0.006643487140536308 -0.003994903061538934
0.006021718028932811 -0.006091264076530933 -0.00453311251476407
0.006021718028932811 -0.0055390410125255585 -0.004099625628441571
0.006021718028932811 -0.0049868179485201836 -0.003912068437784909
0.006021718028932811 -0.004434594884514809 -0.003915198612958192
0.006021718028932811 -0.0038823720533400774 -0.003850959474220871
0.006021718028932811 -0.0033301489893347025 -0.0035617898683995
0.00602171802893281 -0.0027779259253293276 -0.003272620728239416
0.00602171802893281 -0.0022257028613239527 -0.002606273163110017
0.00602171802893281 -0.0016734797973185778 -0.0024956970009952775
0.00602171802893281 -0.0011212568497285247 -0.001748480950482189
0.005469494964927435 -0.013270162977278233 -0.002029982162639498
0.005469494964927435 -0.012717939913272858 -0.0017083572456613177
0.005469494964927435 -0.012165716849267483 -0.002350429305806755
0.005469494964927435 -0.011613493785262108 -0.003016777103766798
0.005469494964927435 -0.011061270721256733 -0.002947844099253415
0.005469494964927436 -0.010509047657251358 -0.0035899155773222438
0.005469494964927436 -0.009956824593245983 -0.0036541547160595647
0.005469494964927436 -0.009404601529240608 -0.0037183938547968856
0.005469494964927436 -0.008852378465235233 -0.0039059496484696856
0.005469494964927436 -0.008300156332552433 -0.004005986265838145
0.005469494964927436 -0.007747933268547058 -0.003970064222812652
0.005469494964927436 -0.007195710204541683 -0.004157620016485452
0.005469494964927436 -0.006643487140536308 -0.004154491238296031
0.005469494964927436 -0.006091264076530933 -0.004051715601235627
0.005469494964927436 -0.0055390410125255585 -0.0038689058274030677
0.005469494964927436 -0.0049868179485201836 -0.003766131354495882
0.005469494964927436 -0.004434594884514809 -0.003663357347249984
0.005469494964927436 -0.0038823720533400774 -0.0039015074726194135
0.005469494964927435 -0.0033301489893347025 -0.0028742016293108455
0.005469494964927435 -0.0027779259253293276 -0.0028710728511214248
0.005469494964927435 -0.0022257028613239527 -0.002254992024973034
0.005469494964927435 -0.0016734797973185778 -0.0001965937117347487
0.00491727190092206 -0.013822386041283607 -0.0018020719289779657
0.00491727190092206 -0.013270162977278233 -0.0019848817028105255
0.00491727190092206 -0.012717939913272858 -0.0024827294982969757
0.00491727190092206 -0.012165716849267483 -0.0025516625028103586
0.00491727190092206 -0.011613493785262108 -0.0032052914611995216
0.00491727190092206 -0.011061270721256733 -0.0033881017006933685
0.004917271900922061 -0.010509047657251358 -0.0035709117073565717
0.004917271900922061 -0.009956824593245983 -0.003606833983212709
0.004917271900922061 -0.009404601529240608 -0.0037896437570452686
0.004917271900922061 -0.008852378465235233 -0.003892418229952454
0.004917271900922061 -0.008300156332552433 -0.0043902662582695475
0.004917271900922061 -0.007747933268547058 -0.0038556512445211406
0.004917271900922061 -0.007195710204541683 -0.0039245840162038794
0.004917271900922061 -0.006643487140536308 -0.004199557937681674
0.004917271900922061 -0.006091264076530933 -0.004012002144008874
0.004917271900922061 -0.0055390410125255585 -0.004047924187034368
0.004917271900922061 -0.0049868179485201836 -0.004017869941890239
0.004917271900922061 -0.004434594884514809 -0.0040209987200796595
0.004917271900922061 -0.0038823720533400774 -0.0036312043666839595
0.00491727190092206 -0.0033301489893347025 -0.0028267202433198686
0.00491727190092206 -0.0027779259253293276 -0.0025375513359904285
0.00491727190092206 -0.0022257028613239527 -0.003191180061548948
0.00491727190092206 -0.0016734797973185778 -0.0027213373687118288
0.004365048836916685 -0.013270162977278233 -0.002153062261641025
0.004365048836916685 -0.012717939913272858 -0.0024930031504482027
0.004365048836916685 -0.012165716849267483 -0.0024240689817816015
0.004365048836916685 -0.011613493785262108 -0.003142796456813812
0.004365048836916685 -0.011061270721256733 -0.003330352250486612
0.004365048836916686 -0.010509047657251358 -0.0036702931392937894
0.004365048836916686 -0.009956824593245983 -0.003770329058170318
0.004365048836916686 -0.009404601529240608 -0.003957885317504405
0.004365048836916686 -0.008852378465235233 -0.003682911396026611
0.004365048836916686 -0.008300156332552433 -0.004022852052003144
0.004365048836916686 -0.007747933268547058 -0.004052906297147273
0.004365048836916686 -0.007195710204541683 -0.004240462090820073
0.004365048836916686 -0.006643487140536308 -0.004270516335964202
0.004365048836916686 -0.006091264076530933 -0.0038140104152262207
0.004365048836916686 -0.0055390410125255585 -0.00400156620889902
0.004365048836916686 -0.0049868179485201836 -0.0038987922016531225
0.004365048836916686 -0.004434594884514809 -0.0037159819621592756
0.004365048836916685 -0.0038823720533400774 -0.0032181350979954
0.004365048836916685 -0.0033301489893347025 -0.0028965102974325414
0.004365048836916685 -0.0027779259253293276 -0.001953428611159324
0.004365048836916685 -0.0022257028613239527 -0.0012997995363548394
0.0038128257729113106 -0.013822386041283607 -0.0022085665259510274
0.0038128257729113106 -0.013270162977278233 -0.0021785132121294733
0.0038128257729113106 -0.012717939913272858 -0.0024534862022846933
0.0038128257729113106 -0.012165716849267483 -0.002909992123022675
0.0038128257729113106 -0.011613493785262108 -0.0032316171564161773
0.0038128257729113106 -0.011061270721256733 -0.003506591077893972
0.0038128257729113106 -0.010509047657251358 -0.00360936508513987
0.0038128257729113106 -0.009956824593245983 -0.0037121404893696304
0.0038128257729113106 -0.009404601529240608 -0.0038149144966155286
0.0038128257729113106 -0.008852378465235233 -0.003883847733959555
0.0038128257729113106 -0.008300156332552433 -0.003952781669795512
0.0038128257729113106 -0.007747933268547058 -0.004055555909872054
0.0038128257729113106 -0.007195710204541683 -0.00399131653830409
0.0038128257729113106 -0.006643487140536308 -0.0034878805745393033
0.0038128257729113106 -0.006091264076530933 -0.004103961400687694
0.0038128257729113106 -0.0055390410125255585 -0.004073907155543565
0.0038128257729113106 -0.0049868179485201836 -0.004009668249636888
0.0038128257729113106 -0.004434594884514809 -0.00394542934373021
0.0038128257729113106 -0.0038823720533400774 -0.003915375098586082
0.0038128257729113106 -0.0033301489893347025 -0.0027728222776204343
0.00381282577291131 -0.0027779259253293276 -0.001630268525332212
0.00381282577291131 -0.0022257028613239527 -0.0016992016462609168
0.00381282577291131 -0.0016734797973185778 0.0005312648136168723
0.0032606029417365794 -0.013270162977278233 -0.002169003244489431
0.0032606029417365794 -0.012717939913272858 -0.0025587975978851314
0.0032606029417365794 -0.012165716849267483 -0.0028987380210310216
0.0032606029417365794 -0.011613493785262108 -0.002962976926937699
0.0032606029417365794 -0.011061270721256733 -0.0033527712803333993
0.0032606029417365794 -0.010509047657251358 -0.003692712169140577
0.0032606029417365794 -0.009956824593245983 -0.00350990192964673
0.0032606029417365794 -0.009404601529240608 -0.00369745772331953
0.0032606029417365794 -0.008852378465235233 -0.003885014215484261
0.0032606029417365794 -0.008300156332552433 -0.004072569776326418
0.0032606029417365794 -0.007747933268547058 -0.0041368091478943825
0.0032606029417365794 -0.007195710204541683 -0.003953998908400536
0.0032606029417365794 -0.006643487140536308 -0.004141554702073336
0.0032606029417365794 -0.006091264076530933 -0.004072621464729309
0.0032606029417365794 -0.0055390410125255585 -0.0042601777240633965
0.0032606029417365794 -0.0049868179485201836 -0.003644096432253718
0.0032606029417365794 -0.004434594884514809 -0.003369124140590429
0.0032606029417365794 -0.0038823720533400774 -0.0030941502191126342
0.0032606029417365794 -0.0033301489893347025 -0.0022710815537720914
0.0032606029417365794 -0.0027779259253293276 -0.0030182974878698583
0.0027083798777312045 -0.013270162977278233 -0.0021974511910229917
0.0027083798777312045 -0.012717939913272858 -0.0026952980551868673
0.0027083798777312045 -0.012165716849267483 -0.002970271976664662
0.0027083798777312045 -0.011613493785262108 -0.0032918953802436586
0.0027083798777312045 -0.011061270721256733 -0.0033946710173040624
0.0027083798777312045 -0.010509047657251358 -0.003463603556156158
0.0027083798777312045 -0.009956824593245983 -0.003692179918289184
0.0027083798777312045 -0.009404601529240608 -0.003761112922802567
0.0027083798777312045 -0.008852378465235233 -0.003989688586443663
0.0027083798777312045 -0.008300156332552433 -0.003959634806960821
0.0027083798777312045 -0.007747933268547058 -0.004028568509966135
0.0027083798777312045 -0.007195710204541683 -0.004031697753816843
0.0027083798777312045 -0.006643487140536308 -0.0041344729252159595
0.0027083798777312045 -0.006091264076530933 -0.003946916200220585
0.0027083798777312045 -0.0055390410125255585 -0.004049690905958414
0.0027083798777312045 -0.0049868179485201836 -0.003862134180963039
0.0027083798777312045 -0.004434594884514809 -0.003623983589932322
0.0027083798777312045 -0.0038823720533400774 -0.00319049647077918
0.0027083798777312045 -0.0033301489893347025 -0.0021770775783807035
0.002708379877731204 -0.0027779259253293276 -0.000968156615272164
0.002708379877731204 -0.0022257028613239527 0.00030890779453329774
0.002156156813725829 -0.013270162977278233 -0.0014101050328463314
0.0021561568137258296 -0.012717939913272858 -0.002552657853811979
0.0021561568137258296 -0.012165716849267483 -0.0029424522072076793
0.0021561568137258296 -0.011613493785262108 -0.0031806039623916145
0.0021561568137258296 -0.011061270721256733 -0.0033681597560644145
0.0021561568137258296 -0.010509047657251358 -0.0035557155497372146
0.0021561568137258296 -0.009956824593245983 -0.0037432713434100147
0.0021561568137258296 -0.009404601529240608 -0.0038433079607784744
0.0021561568137258296 -0.008852378465235233 -0.0039433445781469345
0.0021561568137258296 -0.008300156332552433 -0.003973398357629776
0.0021561568137258296 -0.007747933268547058 -0.004211548715829849
0.0021561568137258296 -0.007195710204541683 -0.004175626672804356
0.0021561568137258296 -0.006643487140536308 -0.004072852898389101
0.0021561568137258296 -0.006091264076530933 -0.00403693038970232
0.0021561568137258296 -0.0055390410125255585 -0.0037619576323777433
0.0021561568137258296 -0.0049868179485201836 -0.0034869837108999486
0.0021561568137258296 -0.004434594884514809 -0.002572944154962897
0.0021561568137258296 -0.0038823720533400774 -0.0022513198200613256
0.002156156813725829 -0.0033301489893347025 -0.001006941311061382
0.002156156813725829 -0.0027779259253293276 0.00020862196106463698
0.0016039338661357763 -0.013822386041283607 -0.001644756644964218
0.0016039338661357763 -0.013270162977278233 -0.0018275666516274212
0.0016039338661357763 -0.012717939913272858 -0.0025524767115712166
0.0016039338661357765 -0.012165716849267483 -0.003090686397626996
0.0016039338661357765 -0.011613493785262108 -0.003273496637120843
0.0016039338661357765 -0.011061270721256733 -0.003376271575689316
0.0016039338661357765 -0.010509047657251358 -0.0035590818151831627
0.0016039338661357765 -0.009956824593245983 -0.00392723036929965
0.0016039338661357765 -0.009404601529240608 -0.0038271937519311905
0.0016039338661357765 -0.008852378465235233 -0.003762955078855157
0.0016039338661357765 -0.008300156332552433 -0.003991530742496252
0.0016039338661357765 -0.007747933268547058 -0.004027451854199171
0.0016039338661357765 -0.007195710204541683 -0.004130227491259575
0.0016039338661357765 -0.006643487140536308 -0.0039426712319254875
0.0016039338661357765 -0.006091264076530933 -0.0039785923436284065
0.0016039338661357765 -0.0055390410125255585 -0.003914353437721729
0.0016039338661357765 -0.0049868179485201836 -0.0037267974112182856
0.0016039338661357765 -0.004434594884514809 -0.0033370032906532288
0.0016039338661357763 -0.0038823720533400774 -0.0024156603030860424
0.0016039338661357763 -0.0033301489893347025 -0.0012067388743162153
0.001603933866135776 -0.0027779259253293276 -0.00022476373123936336
0.0010517108021304014 -0.013270162977278233 -0.0017342764185741542
0.0010517108021304014 -0.012717939913272858 -0.0023513820488005877
0.0010517108021304016 -0.012165716849267483 -0.0028548187110573053
0.0010517108021304016 -0.011613493785262108 -0.003194759599864483
0.0010517108021304016 -0.011061270721256733 -0.003382315393537283
0.0010517108021304016 -0.010509047657251358 -0.0033133823890239
0.0010517108021304016 -0.009956824593245983 -0.0037468699738383293
0.0010517108021304016 -0.009404601529240608 -0.003934426698833704
0.0010517108021304016 -0.008852378465235233 -0.003705850802361965
0.0010517108021304016 -0.008300156332552433 -0.0042092869989573956
0.0010517108021304016 -0.007747933268547058 -0.004239341244101524
0.0010517108021304016 -0.007195710204541683 -0.003741493448615074
0.0010517108021304016 -0.006643487140536308 -0.003929050173610449
0.0010517108021304016 -0.006091264076530933 -0.003654076252132654
0.0010517108021304016 -0.0055390410125255585 -0.003650946542620659
0.0010517108021304016 -0.0049868179485201836 -0.0034223701804876328
0.0010517108021304014 -0.004434594884514809 -0.0025682703126221895
0.0010517108021304014 -0.0038823720533400774 -0.0015409642364829777
0.0010517108021304014 -0.0033301489893347025 -0.0008873353945091366
0.0004994877963326874 -0.013822386041283607 -0.001715806545689702
0.0004994877963326874 -0.013270162977278233 -0.001528250752016902
0.0004994877963326875 -0.012717939913272858 -0.0026368452236056328
0.0004994877963326876 -0.012165716849267483 -0.0031750549096614122
0.0004994877963326876 -0.011613493785262108 -0.003178185084834695
0.0004994877963326876 -0.011061270721256733 -0.0033609953243285418
0.0004994877963326876 -0.010509047657251358 -0.0035438050981611013
0.0004994877963326876 -0.009956824593245983 -0.0035469343420118093
0.0004994877963326877 -0.009404601529240608 -0.004271843936294317
0.0004994877963326876 -0.008852378465235233 -0.0037684075068682432
0.0004994877963326876 -0.008300156332552433 -0.003771537682041526
0.0004994877963326877 -0.007747933268547058 -0.004093162249773741
0.0004994877963326876 -0.007195710204541683 -0.003905606223270297
0.0004994877963326877 -0.006643487140536308 -0.004273754544556141
0.0004994877963326876 -0.006091264076530933 -0.003883960423991084
0.0004994877963326876 -0.0055390410125255585 -0.0038539059460163116
0.0004994877963326876 -0.0049868179485201836 -0.003319291165098548
0.0004994877963326875 -0.004434594884514809 -0.0024568745866417885
0.0004994877963326874 -0.0038823720533400774 -0.001565140439197421
0.0004994877963326874 -0.0033301489893347025 -0.0015009015332907438
-5.273522401694186e-05 -0.013270162977278233 -0.0018461423460394144
-5.27352240169418e-05 -0.012717939913272858 -0.002349579008296132
-5.27352240169417e-05 -0.012165716849267483 -0.0031540628988295794
-5.27352240169417e-05 -0.011613493785262108 -0.0031509341206401587
-5.27352240169417e-05 -0.011061270721256733 -0.003180987900123
-5.2735224016941684e-05 -0.010509047657251358 -0.00328102451749146
-5.273522401694163e-05 -0.009956824593245983 -0.003714511403813958
-5.2735224016941596e-05 -0.009404601529240608 -0.004003681242465973
-5.2735224016941596e-05 -0.008852378465235233 -0.003967758733779192
-5.27352240169416e-05 -0.008300156332552433 -0.003931836690753698
-5.273522401694162e-05 -0.007747933268547058 -0.0037490269169211388
-5.2735224016941596e-05 -0.007195710204541683 -0.003987178206443787
-5.273522401694163e-05 -0.006643487140536308 -0.003712204284965992
-5.2735224016941637e-05 -0.006091264076530933 -0.0036762827076017857
-5.273522401694169e-05 -0.0055390410125255585 -0.003219776088371873
-5.2735224016941786e-05 -0.0049868179485201836 -0.0024612362030893564
-5.27352240169419e-05 -0.004434594884514809 -0.0015181550988927484
-5.273522401694194e-05 -0.0038823720533400774 -0.001150005729869008
-0.0006049582734704015 -0.013822386041283607 -0.002011973178014159
-0.0006049582734704015 -0.013270162977278233 -0.0021147471852600574
-0.0006049582734704014 -0.012717939913272858 -0.0027308280114084482
-0.0006049582734704014 -0.012165716849267483 -0.003052452811971307
-0.0006049582734704013 -0.011613493785262108 -0.0031213853508234024
-0.0006049582734704013 -0.011061270721256733 -0.003224159823730588
-0.0006049582734704013 -0.010509047657251358 -0.003406970063224435
-0.0006049582734704013 -0.009956824593245983 -0.0036819439847022295
-0.0006049582734704013 -0.009404601529240608 -0.003910520114004612
-0.0006049582734704013 -0.008852378465235233 -0.0038804656360298395
-0.0006049582734704013 -0.008300156332552433 -0.0038504116237163544
-0.0006049582734704013 -0.007747933268547058 -0.0038863338995724916
-0.0006049582734704013 -0.007195710204541683 -0.003856279654428363
-0.0006049582734704013 -0.006643487140536308 -0.0038262251764535904
-0.0006049582734704012 -0.006091264076530933 -0.004649294074624777
-0.0006049582734704013 -0.0055390410125255585 -0.003506740089505911
-0.0006049582734704014 -0.0049868179485201836 -0.0025247649755328894
-0.0006049582734704015 -0.004434594884514809 -0.0016034216387197375
-0.0006049582734704015 -0.0038823720533400774 -0.0019250463228672743
-0.0011571812210604546 -0.013270162977278233 -0.002138641895726323
-0.0011571812210604546 -0.012717939913272858 -0.0024785827845335007
-0.0011571812210604544 -0.012165716849267483 -0.0032257987186312675
-0.0011571812210604544 -0.011613493785262108 -0.002687589032575488
-0.0011571812210604544 -0.011061270721256733 -0.00315743125975132
-0.0011571812210604544 -0.010509047657251358 -0.002928855363279581
-0.0011571812210604544 -0.009956824593245983 -0.003545961109921336
-0.0011571812210604544 -0.009404601529240608 -0.0037841119337826967
-0.0011571812210604544 -0.008852378465235233 -0.0037481908220797777
-0.0011571812210604544 -0.008300156332552433 -0.0036792566534131765
-0.0011571812210604544 -0.007747933268547058 -0.003610324114561081
-0.0011571812210604544 -0.007195710204541683 -0.003640376729890704
-0.0011571812210604544 -0.006643487140536308 -0.0032722284086048603
-0.0011571812210604544 -0.006091264076530933 -0.003169454401358962
-0.0011571812210604546 -0.0055390410125255585 -0.0025533735752105713
-0.0011571812210604546 -0.0049868179485201836 -0.001610291423276067
-0.0011571812210604546 -0.004434594884514809 -0.0011537851532921197
-0.0017094041686505077 -0.013822386041283607 -0.0020260512828826904
-0.0017094041686505077 -0.013270162977278233 -0.0023476756177842617
-0.0017094041686505075 -0.012717939913272858 -0.0027158239390701056
-0.0017094041686505075 -0.012165716849267483 -0.003037448739632964
-0.0017094041686505075 -0.011613493785262108 -0.0030733710154891014
-0.0017094041686505075 -0.011061270721256733 -0.003142303554341197
-0.0017094041686505075 -0.010509047657251358 -0.0034172774758189917
-0.0017094041686505075 -0.009956824593245983 -0.0035200531128793955
-0.0017094041686505075 -0.009404601529240608 -0.003332496155053377
-0.0017094041686505075 -0.008852378465235233 -0.0037006456404924393
-0.0017094041686505075 -0.008300156332552433 -0.003670591162517667
-0.0017094041686505075 -0.007747933268547058 -0.0033306502737104893
-0.0017094041686505075 -0.007195710204541683 -0.003698798594996333
-0.0017094041686505075 -0.006643487140536308 -0.003409629687666893
-0.0017094041686505075 -0.006091264076530933 -0.002818525303155184
-0.0017094041686505075 -0.0055390410125255585 -0.0037325648590922356
-0.0017094041686505073 -0.0049868179485201836 -0.005155764054507017
-0.0017094041686505077 -0.004434594884514809 -0.0011940244585275652
-0.001709404168650508 -0.0038823720533400774 0.0005046022706665096
-0.0022616272326558824 -0.013270162977278233 -0.0022164299152791504
-0.0022616272326558824 -0.012717939913272858 -0.002606224734336138
-0.0022616272326558824 -0.012165716849267483 -0.0029461651574820284
-0.0022616272326558824 -0.011613493785262108 -0.0031337223481386904
-0.0022616272326558824 -0.011061270721256733 -0.0029509121086448435
-0.0022616272326558824 -0.010509047657251358 -0.0034207543358206753
-0.0022616272326558824 -0.009956824593245983 -0.003520790953189135
-0.0022616272326558824 -0.009404601529240608 -0.003451856784522534
-0.0022616272326558824 -0.008852378465235233 -0.0034819110296666626
-0.0022616272326558824 -0.008300156332552433 -0.0035461501684039835
-0.0022616272326558824 -0.007747933268547058 -0.0031780018471181397
-0.0022616272326558824 -0.007195710204541683 -0.0032080546952784066
-0.0022616272326558824 -0.006643487140536308 -0.003139122156426311
-0.0022616272326558824 -0.006091264076530933 -0.002770973835140467
-0.0022616272326558824 -0.0055390410125255585 -0.003722256282344461
-0.002261627232655883 -0.0049868179485201836 -0.0011361371725797655
-0.0028138502966612573 -0.013822386041283607 -0.0020793483126908545
-0.0028138502966612573 -0.013270162977278233 -0.002262157620862127
-0.0028138502966612573 -0.012717939913272858 -0.002718664705753327
-0.0028138502966612573 -0.012165716849267483 -0.0029014737810939555
-0.0028138502966612573 -0.011613493785262108 -0.0033579808659851555
-0.0028138502966612573 -0.011061270721256733 -0.0031198295764625077
-0.0028138502966612573 -0.010509047657251358 -0.0033026393502950673
-0.0028138502966612573 -0.009956824593245983 -0.003405413823202253
-0.0028138502966612573 -0.009404601529240608 -0.0033753605093806986
-0.0028138502966612573 -0.008852378465235233 -0.003187803784385324
-0.0028138502966612573 -0.008300156332552433 -0.0035094281192868952
-0.0028138502966612573 -0.007747933268547058 -0.0034093922004103665
-0.0028138502966612573 -0.007195710204541683 -0.0031202225945889954
-0.0028138502966612573 -0.006643487140536308 -0.0030901697464287285
-0.0028138502966612573 -0.006091264076530933 -0.002656680997461081
-0.0028138502966612573 -0.0055390410125255585 -0.0018233346054330473
-0.0028138502966612577 -0.0049868179485201836 -0.0017590954666957264
-0.0028138502966612577 -0.004434594884514809 0.0004713717789854851
-0.0033660733606666322 -0.013270162977278233 -0.0021877831313759093
-0.0033660733606666322 -0.012717939913272858 -0.0025277235545217995
-0.0033660733606666322 -0.012165716849267483 -0.002867664443328977
-0.0033660733606666322 -0.011613493785262108 -0.0025926916860044007
-0.0033660733606666322 -0.011061270721256733 -0.002881861058995128
-0.0033660733606666322 -0.010509047657251358 -0.002946100197732449
-0.0033660733606666322 -0.009956824593245983 -0.0033358945511281495
-0.0033660733606666322 -0.009404601529240608 -0.003400133224204183
-0.0033660733606666322 -0.008852378465235233 -0.003331199521198869
-0.0033660733606666322 -0.008300156332552433 -0.003620368661358953
-0.0033660733606666322 -0.007747933268547058 -0.003163862740620971
-0.0033660733606666322 -0.007195710204541683 -0.0031939169857651
-0.0033660733606666322 -0.006643487140536308 -0.002737410366535187
-0.0033660733606666322 -0.006091264076530933 -0.0019788704812526707
-0.0033660733606666327 -0.0055390410125255585 -0.0007286187610588972
-0.003918296191841364 -0.013822386041283607 -0.001923351082950831
-0.003918296191841364 -0.013270162977278233 -0.002244975417852402
-0.003918296191841364 -0.012717939913272858 -0.002613123739138246
-0.003918296191841364 -0.012165716849267483 -0.002715899143368006
-0.003918296191841364 -0.011613493785262108 -0.002898709382861853
-0.003918296191841364 -0.011061270721256733 -0.0030815196223557
-0.003918296191841364 -0.010509047657251358 -0.0031842936296015982
-0.003918296191841364 -0.009956824593245983 -0.003367103869095445
-0.003918296191841363 -0.009404601529240608 -0.003549914108589292
-0.003918296191841363 -0.008852378465235233 -0.0038248880300670867
-0.003918296191841364 -0.008300156332552433 -0.0035357184242457156
-0.003918296191841364 -0.007747933268547058 -0.0034714792855083947
-0.003918296191841364 -0.007195710204541683 -0.0031823092140257363
-0.003918296191841364 -0.006643487140536308 -0.002792516024783254
-0.003918296191841364 -0.006091264076530933 -0.002257900778204203
-0.003918296191841364 -0.0055390410125255585 -0.0014534159563481812
-0.003918296191841364 -0.0049868179485201836 0.00021472520893439602
-0.004470519255846739 -0.012717939913272858 -0.002820312744006515
-0.004470519255846739 -0.012165716849267483 -0.0027175380382686858
-0.004470519255846739 -0.011613493785262108 -0.002905093831941486
-0.004470519255846739 -0.011061270721256733 -0.0029693329706788067
-0.004470519255846739 -0.010509047657251358 -0.0030693695880472664
-0.004470519255846739 -0.009956824593245983 -0.0033585384953767066
-0.004470519255846738 -0.009404601529240608 -0.003596689319238067
-0.004470519255846738 -0.008852378465235233 -0.003626743564382196
-0.004470519255846738 -0.008300156332552433 -0.0035908215213567023
-0.004470519255846739 -0.007747933268547058 -0.003013207577168942
-0.004470519255846739 -0.007195710204541683 -0.002830397337675095
-0.004470519255846739 -0.006643487140536308 -0.002462249016389251
-0.004470519255846739 -0.006091264076530933 -0.0017037085490301258
-0.004470519255846739 -0.0055390410125255585 -5.0581744289957536e-05
-0.005022742319852114 -0.013270162977278233 -0.0022447095252573494
-0.005022742319852114 -0.012717939913272858 -0.002566334325820208
-0.005022742319852114 -0.012165716849267483 -0.002749143866822124
-0.005022742319852114 -0.011613493785262108 -0.0027850652113556866
-0.005022742319852114 -0.011061270721256733 -0.0028209872543811802
-0.005022742319852114 -0.010509047657251358 -0.0031891367398202424
-0.005022742319852114 -0.009956824593245983 -0.003291911212727428
-0.005022742319852113 -0.009404601529240608 -0.003613535547628999
-0.005022742319852113 -0.008852378465235233 -0.0035834810696542267
-0.005022742319852114 -0.008300156332552433 -0.0033959252759814267
-0.005022742319852114 -0.007747933268547058 -0.00300613115541637
-0.005022742319852114 -0.007195710204541683 -0.0029760766774415974
-0.005022742319852114 -0.006643487140536308 -0.002412354573607445
-0.005022742319852114 -0.006091264076530933 -0.002123184967786074
-0.005022742319852114 -0.0055390410125255585 -0.0013473967555910355
-0.005574965383857489 -0.012717939913272858 -0.002205181401222945
-0.005574965383857489 -0.012165716849267483 -0.0027397950179874906
-0.005574965383857489 -0.011613493785262108 -0.0023716466967016467
-0.005574965383857489 -0.011061270721256733 -0.0024358858354389676
-0.005574965383857489 -0.010509047657251358 -0.002674036659300328
-0.005574965383857489 -0.009956824593245983 -0.003208651440218092
-0.005574965383857489 -0.009404601529240608 -0.0032387052197009334
-0.005574965383857489 -0.008852378465235233 -0.0029637312982231387
-0.005574965383857489 -0.008300156332552433 -0.0028947985265403995
-0.005574965383857489 -0.007747933268547058 -0.0027119885198771962
-0.005574965383857489 -0.007195710204541683 -0.0028120249044150123
-0.005574965383857489 -0.006643487140536308 -0.002195943612605334
-0.005574965383857489 -0.006091264076530933 -0.0024851129855960616
-0.005574965383857489 -0.0055390410125255585 -0.0010011828271672136
-0.0061271884478628635 -0.012717939913272858 -0.002042738487944008
-0.0061271884478628635 -0.012165716849267483 -0.0024992444086819896
-0.0061271884478628635 -0.011613493785262108 -0.0024691917933523664
-0.0061271884478628635 -0.011061270721256733 -0.002404951490461827
-0.0061271884478628635 -0.010509047657251358 -0.0024408737663179645
-0.0061271884478628635 -0.009956824593245983 -0.0026236833073198804
-0.0061271884478628635 -0.009404601529240608 -0.0026268137153238067
-0.0061271884478628635 -0.008852378465235233 -0.0026299424935132274
-0.0061271884478628635 -0.008300156332552433 -0.0026658647693693647
-0.0061271884478628635 -0.007747933268547058 -0.0027017868123948583
-0.0061271884478628635 -0.007195710204541683 -0.0026375476736575374
-0.0061271884478628635 -0.006643487140536308 -0.0026734699495136746
-0.0061271884478628635 -0.006091264076530933 -0.0019547424744814643
-0.0061271884478628635 -0.0055390410125255585 -0.00139102025423199
-0.0061271884478628635 -0.0049868179485201836 -0.000615232973359526
-0.0066794115118682384 -0.012165716849267483 -0.0018919105641543874
-0.0066794115118682384 -0.011613493785262108 -0.002395347226411105
-0.0066794115118682384 -0.011061270721256733 -0.0018177327001467356
-0.0066794115118682384 -0.010509047657251358 -0.0018146028742194184
-0.0066794115118682384 -0.009956824593245983 -0.0017118284013122329
-0.0066794115118682384 -0.009404601529240608 -0.002757041947916151
-0.0066794115118682384 -0.008852378465235233 -0.0019985006656497726
-0.0066794115118682384 -0.008300156332552433 -0.0022366524208337077
-0.0066794115118682384 -0.007747933268547058 -0.0023366888053715238
-0.0066794115118682384 -0.007195710204541683 -0.0024009279441088447
-0.0066794115118682384 -0.006643487140536308 -0.002298152307048441
-0.0066794115118682384 -0.006091264076530933 -0.0016820726450532683
-0.0066794115118682384 -0.0055390410125255585 -0.00157929735723883
-0.0066794115118682384 -0.0049868179485201836 -0.0012576737208291897
-0.0066794115118682384 -0.004434594884514809 -0.000982699799351395
-0.0066794115118682384 -0.0038823720533400774 -0.0006610752316191801
-0.0066794115118682384 -0.0033301489893347025 -0.0004324991023167976
-0.0066794115118682384 -0.0027779259253293276 0.0005105817690491668
-0.0066794115118682384 -0.0011212568497285247 0.0005446142167784265
-0.0066794115118682384 -0.0005690337857231498 0.00035705830669030466
-0.0066794115118682384 -1.6810792658361606e-05 0.0003270042361691586
-0.0066794115118682384 0.0010876352898776531 0.00026203729794360616
-0.0066794115118682384 0.0016398582374677062 0.0005370112485252312
-0.0066794115118682384 0.0032965270802378654 0.0001266445033252231
-0.0066794115118682384 0.006609864998608828 0.00012434598465915688
-0.007231634110212326 -0.011613493785262108 -0.0019755263347178706
-0.007231634110212326 -0.011061270721256733 -0.0017373757436871537
-0.007231634110212326 -0.010509047657251358 -0.001707321382127703
-0.007231634110212326 -0.009956824593245983 -0.0017104501603171238
-0.007231634110212326 -0.009404601529240608 -0.0014722996857017287
-0.007231634110212326 -0.008852378465235233 -0.001928805955685676
-0.007231634110212326 -0.008300156332552433 -0.0021116163115948447
-0.007231634110212326 -0.007747933268547058 -0.00234019197523594
-0.007231634110212326 -0.007195710204541683 -0.0023433207534253606
-0.007231634110212326 -0.006643487140536308 -0.002379243029281498
-0.007231634110212326 -0.006091264076530933 -0.0021410922054201373
-0.007231634110212326 -0.0055390410125255585 -0.002111038425937296
-0.007231634110212326 -0.0049868179485201836 -0.002146960701793433
-0.007231634110212326 -0.004434594884514809 -0.002150089479982854
-0.007231634110212326 -0.0038823720533400774 -0.002085850341245533
-0.007231634110212326 -0.0033301489893347025 -0.001494746422395111
-0.007231634110212326 -0.0027779259253293276 -0.0015975217102095493
-0.007231634110212326 -0.0022257028613239527 -0.0007351051317527899
-0.007231634110212326 -0.0016734797973185778 -0.0007050510612316438
-0.007231634110212326 -0.0011212568497285247 -0.000708180887158961
-0.007231634110212326 -0.0005690337857231498 -0.001361809903755785
-0.007231634110212326 -1.6810792658361606e-05 -0.0013649386819452056
-0.007231634110212326 0.0005354122258722782 -0.0014338725013658413
-0.007231634110212326 0.0010876352898776531 -0.0016166827408596882
-0.007231634110212326 0.0016398582374677062 -0.0013275134842842826
-0.007231634110212326 0.0021920811850577593 -0.0011399564100429424
-0.007231634110212326 0.002744304249063134 -0.0009524005581624815
-0.007231634110212326 0.0032965270802378654 -0.0011352105066180238
-0.007231634110212326 0.0038487501442432404 -0.0011051564943045386
-0.007231634110212326 0.004400973208248615 -0.000917600409593434
-0.007231634110212326 0.00495319627225399 -0.0008175641996786007
-0.007231634110212326 0.005505419336259365 -0.0017606463516131052
-0.007231634110212326 0.00605764240026474 -0.0020822708029299983
-0.007231634110212326 0.006609864998608828 -0.002185045275837184
-0.007231634110212326 0.0071620880626142025 -0.0017515575746074328
-0.007231634110212326 0.007714311126619577 -0.0006090038805268714
-0.007231634110212326 0.00826653465628624 -0.0018245668616145858
-0.007231634110212326 0.008818757720291615 -0.000374079361790792
-0.007783857174217701 -0.011061270721256733 -0.000985858612693847
-0.007783857174217701 -0.010509047657251358 -0.0011734144063666472
-0.007783857174217701 -0.009956824593245983 -0.001104481518268586
-0.007783857174217701 -0.009404601529240608 -0.001168720657005907
-0.007783857174217701 -0.008852378465235233 -0.001356276450678707
-0.007783857174217701 -0.008300156332552433 -0.001789764850400389
-0.007783857174217701 -0.007747933268547058 -0.0016869895625859508
-0.007783857174217701 -0.007195710204541683 -0.002156832022592426
-0.007783857174217701 -0.006643487140536308 -0.0027739377692341813
-0.007783857174217701 -0.006091264076530933 -0.00245231343433261
-0.007783857174217701 -0.0055390410125255585 -0.002552349353209139
-0.007783857174217701 -0.0049868179485201836 -0.002739905612543226
-0.007783857174217701 -0.004434594884514809 -0.002736776368692518
-0.007783857174217701 -0.0038823720533400774 -0.0026340014301240453
-0.007783857174217701 -0.0033301489893347025 -0.0025650681927800187
-0.007783857174217701 -0.0027779259253293276 -0.0029050090815871963
-0.007783857174217701 -0.0022257028613239527 -0.0019053620053455242
-0.007783857174217701 -0.0016734797973185778 -0.0023388501722365626
-0.007783857174217701 -0.0011212568497285247 -0.002063876250758768
-0.007783857174217701 -0.0005690337857231498 -0.002533718943595887
-0.007783857174217701 -1.6810792658361606e-05 -0.002530588535591961
-0.007783857174217701 0.0005354122258722782 -0.002630624920129777
-0.007783857174217701 0.0010876352898776531 -0.0026606793981045493
-0.007783857174217701 0.0016398582374677062 -0.002624757122248412
-0.007783857174217701 0.0021920811850577593 -0.0025219826493412265
-0.007783857174217701 0.002744304249063134 -0.0022934067528694877
-0.007783857174217701 0.0032965270802378654 -0.0025825758930295714
-0.007783857174217701 0.0038487501442432404 -0.002770133316516877
-0.007783857174217701 0.004400973208248615 -0.0021540517918765554
-0.007783857174217701 0.00495319627225399 -0.0027451561763882646
-0.007783857174217701 0.005505419336259365 -0.002845192328095437
-0.007783857174217701 0.00605764240026474 -0.0027762581594288358
-0.007783857174217701 0.006609864998608828 -0.0025012847036123284
-0.007783857174217701 0.0071620880626142025 -0.0022263117134571084
-0.007783857174217701 0.007714311126619577 -0.0019513377919793138
-0.007783857174217701 0.00826653465628624 -0.0019154156325384983
-0.007783857174217701 0.008818757720291615 -0.0016868395032361158
-0.007783857174217701 0.00937098078429699 -0.0013652159832417974
-0.008336080238223076 -0.011061270721256733 7.954095053719255e-05
-0.008336080238223076 -0.010509047657251358 -0.0006453689420595775
-0.008336080238223076 -0.009956824593245983 -0.0008281788905151198
-0.008336080238223076 -0.009404601529240608 -0.0012846852187067281
-0.008336080238223076 -0.008852378465235233 -0.0013206073781475436
-0.008336080238223076 -0.008300156332552433 -0.0016887556994333874
-0.008336080238223076 -0.007747933268547058 -0.0018715659389272343
-0.008336080238223076 -0.007195710204541683 -0.002100141718983651
-0.008336080238223076 -0.006643487140536308 -0.0023287171497941026
-0.008336080238223076 -0.006091264076530933 -0.002650341484695674
-0.008336080238223076 -0.0055390410125255585 -0.0030184898059815177
-0.008336080238223076 -0.0049868179485201836 -0.0032013000454753646
-0.008336080238223076 -0.004434594884514809 -0.0034298764076083907
-0.008336080238223076 -0.0038823720533400774 -0.0035326501820236453
-0.008336080238223076 -0.0033301489893347025 -0.003502597101032735
-0.008336080238223076 -0.0027779259253293276 -0.003438358427956701
-0.008336080238223076 -0.0022257028613239527 -0.003441487206146122
-0.008336080238223076 -0.0016734797973185778 -0.003510421374812723
-0.008336080238223076 -0.0011212568497285247 -0.0035793539136648187
-0.008336080238223076 -0.0005690337857231498 -0.003515115240588785
-0.008336080238223076 -1.6810792658361606e-05 -0.003225945634767414
-0.008336080238223076 0.0005354122258722782 -0.0032948788721114406
-0.008336080238223076 0.0010876352898776531 -0.003330800915136934
-0.008336080238223076 0.0016398582374677062 -0.0033007466699928054
-0.008336080238223076 0.0021920811850577593 -0.0032365075312554845
-0.008336080238223076 0.002744304249063134 -0.003272429574280978
-0.008336080238223076 0.0032965270802378654 -0.003208190435543657
-0.008336080238223076 0.0038487501442432404 -0.0031781361903995284
-0.008336080238223076 0.004400973208248615 -0.0034067125525325545
-0.008336080238223076 0.00495319627225399 -0.0031175429467111835
-0.008336080238223076 0.005505419336259365 -0.003087489167228342
-0.008336080238223076 0.00605764240026474 -0.0028999329078942546
-0.008336080238223076 0.006609864998608828 -0.002510138554498554
-0.008336080238223076 0.0071620880626142025 -0.002322582760825754
-0.008336080238223076 0.007714311126619577 -0.0019327884074300538
-0.008336080238223076 0.00826653465628624 -0.0017452326137572538
-0.008336080238223076 0.008818757720291615 -0.0015070808585733186
-0.008336080238223076 0.00937098078429699 -0.001319524832069875
-0.008336080238223076 0.009923203848302364 -0.0009297305368818352
-0.008336080238223076 0.011027649976313114 0.0003435199614614238
-0.008888304233551025 -0.010509047657251358 -0.00024894025409594287
-0.008888304233551025 -0.009956824593245983 -0.0004870906996075075
-0.008888304233551025 -0.009404601529240608 -0.0008768850238993775
-0.008888304233551025 -0.008852378465235233 -0.0011660546297207486
-0.008888304233551025 -0.008300156332552433 -0.0014552238862961542
-0.008888304233551025 -0.007747933268547058 -0.0016933743609115492
-0.008888304233551025 -0.007195710204541683 -0.0019315261160954844
-0.008888304233551025 -0.006643487140536308 -0.002119081793352963
-0.008888304233551025 -0.006091264076530933 -0.002785429591313006
-0.008888304233551025 -0.0055390410125255585 -0.0028496687300503267
-0.008888304233551025 -0.0049868179485201836 -0.003568395506590606
-0.008888304233551025 -0.004434594884514809 -0.0032002462539821876
-0.008888304233551025 -0.0038823720533400774 -0.004091981332749129
-0.008888304233551025 -0.0033301489893347025 -0.0043811509385705
-0.008888304233551025 -0.0027779259253293276 -0.0039246450178325185
-0.008888304233551025 -0.0022257028613239527 -0.00395469879731536
-0.008888304233551025 -0.0016734797973185778 -0.0038857650943100465
-0.008888304233551025 -0.0011212568497285247 -0.0038826358504593385
-0.008888304233551025 -0.0005690337857231498 -0.003912689164280892
-0.008888304233551025 -1.6810792658361606e-05 -0.003028287319466473
-0.008888304233551025 0.0005354122258722782 -0.0036703594960272325
-0.008888304233551025 0.0010876352898776531 -0.0036672302521765245
-0.008888304233551025 0.0016398582374677062 -0.0035982965491712106
-0.008888304233551025 0.0021920811850577593 -0.003495522076264025
-0.008888304233551025 0.002744304249063134 -0.0034923923667520298
-0.008888304233551025 0.0032965270802378654 -0.0035566315054893507
-0.008888304233551025 0.0038487501442432404 -0.003453857032582165
-0.008888304233551025 0.004400973208248615 -0.003417934756726028
-0.008888304233551025 0.00495319627225399 -0.003096311353147031
-0.008888304233551025 0.005505419336259365 -0.002993535948917271
-0.008888304233551025 0.00605764240026474 -0.0027649612165987505
-0.008888304233551025 0.006609864998608828 -0.0024433361832052482
-0.008888304233551025 0.0071620880626142025 -0.0021683622617274536
-0.008888304233551025 0.007714311126619577 -0.0019397864816710364
-0.008888304233551025 0.00826653465628624 -0.001571637811139227
-0.008888304233551025 0.008818757720291615 -0.0010334282414987694
-0.008888304233551025 0.00937098078429699 -0.0010634823702275764
-0.008888304233551025 0.009923203848302364 -0.00024041392316576202
-0.0094405272975564 -0.010509047657251358 0.0002826331765390921
-0.0094405272975564 -0.009956824593245983 -8.551646897103753e-05
-0.0094405272975564 -0.009404601529240608 -0.0009396166424267006
-0.0094405272975564 -0.008852378465235233 -0.0011224265908822428
-0.0094405272975564 -0.008300156332552433 -0.0013052368303760897
-0.0094405272975564 -0.007747933268547058 -0.0014080110704526316
-0.0094405272975564 -0.007195710204541683 -0.0018645173404365789
-0.0094405272975564 -0.006643487140536308 -0.0020473271142691387
-0.0094405272975564 -0.006091264076530933 -0.0029613666702061905
-0.0094405272975564 -0.0055390410125255585 -0.0035774479620158685
-0.0094405272975564 -0.0049868179485201836 -0.00389907229691744
-0.0094405272975564 -0.004434594884514809 -0.0041276486590504655
-0.0094405272975564 -0.0038823720533400774 -0.00435622362419963
-0.0094405272975564 -0.0033301489893347025 -0.004256187472492457
-0.0094405272975564 -0.0027779259253293276 -0.004259317182004453
-0.0094405272975564 -0.0022257028613239527 -0.00415928103029728
-0.0094405272975564 -0.0016734797973185778 -0.004129226785153151
-0.0094405272975564 -0.0011212568497285247 -0.0040991739369928845
-0.0094405272975564 -0.0005690337857231498 -0.00403493456542492
-0.0094405272975564 -1.6810792658361606e-05 -0.0036949925124645246
-0.0094405272975564 0.0005354122258722782 -0.0037977681495249284
-0.0094405272975564 0.0010876352898776531 -0.0036977317649871124
-0.0094405272975564 0.0016398582374677062 -0.003633493091911079
-0.0094405272975564 0.0021920811850577593 -0.0034459368325769914
-0.0094405272975564 0.002744304249063134 -0.004417531192302705
-0.0094405272975564 0.0032965270802378654 -0.0033401872497051967
