ply
format ascii 1.0
element vertex 666
property float x
property float y
property float z
property uchar red
property uchar green
property uchar blue
end_header
0.015442801123969197 -0.015245370716120374 0.08144768785646783 122 132 0
0.015739410109670213 -0.014744786046902726 0.08120535662786794 160 94 0
0.0160241984713423 -0.014240053627154473 0.08114487081106192 170 84 0
0.016306663325939986 -0.013734506023042362 0.08112012841406162 174 80 0
0.0165914517234079 -0.0132297736158528 0.08105964204659441 185 69 0
0.01686718832293368 -0.012721865455841749 0.08113840303387265 174 80 0
0.017151976720401592 -0.012217133048652183 0.08107791666640542 184 70 0
0.01741997315264647 -0.011706509311223445 0.08127574767999717 155 99 0
0.01770243800724416 -0.011200961707111332 0.08125100528299686 160 94 0
0.017967323710606293 -0.010689246594677381 0.08149668985794979 124 130 0
0.01823532014285117 -0.010178622857248644 0.08169452087154154 95 159 0
0.01850875664577285 -0.009669907726254935 0.08180866514618745 79 175 0
0.01874730363708186 -0.009148951881797159 0.08245952844963708 0 239 15
0.018969672485260568 -0.008622319917642233 0.08335926749845675 0 118 136
0.012576321344534066 -0.018973827373786015 0.0831731477545352 0 119 135
0.01283708852332446 -0.01846066730907709 0.08348218920684394 0 78 176
0.013169068634543493 -0.01797249174717441 0.08269573421438496 0 185 69
0.01347451383678636 -0.017475006619085243 0.08231747612457078 0 237 17
0.013776796656769369 -0.016976411993805722 0.08198786620025862 31 223 0
0.014082241859012235 -0.016478926865716552 0.08160960811044446 89 165 0
0.014362876616202967 -0.01597273718618021 0.0816130188189901 89 165 0
0.014661988677702801 -0.015473030124977624 0.08133218591490547 133 121 0
0.014944852333599459 -0.014967622437195781 0.08130130860125051 138 116 0
0.015232259715825973 -0.01446380945705215 0.0812005292446028 154 100 0
0.015517367233083874 -0.013959189010555912 0.08113513373235713 165 89 0
0.01582281236373509 -0.013461703857349369 0.0807568767438654 223 31 0
0.01608012861011115 -0.01294733305987535 0.08111900524177251 170 84 0
0.016397132821550264 -0.012453903320152476 0.08056293038402489 255 0 0
0.016648090726921694 -0.011937301748249494 0.08102287173316058 186 68 0
0.016915764495589795 -0.01142656480681743 0.08122566640699157 157 97 0
0.017196399324372183 -0.010920375152398461 0.08122907601421477 157 97 0
0.017472455043687954 -0.010412578953080738 0.08130292785671457 147 107 0
0.017733222222478348 -0.009899418888371815 0.08161196930902334 101 153 0
0.017993989437064567 -0.00938625883622158 0.08192101021067086 56 198 0
0.01822911978836068 -0.008864104290220715 0.08262443302626984 0 211 43
0.018502026042976006 -0.00835520298157841 0.0827467353484869 0 195 59
0.018731659766190026 -0.007831119986417282 0.08353471494775967 0 90 164
0.012076593143647178 -0.01869545480253778 0.08305414186857595 0 130 124
0.012335154333060375 -0.018181520783633946 0.08339711891990437 0 85 169
0.012659218089942269 -0.017690567830456867 0.08273244430828489 0 175 79
0.012984931855429836 -0.017200193769950446 0.08204238696771848 16 238 0
0.01326066852654727 -0.016692285635056765 0.08212114685367429 5 249 0
0.01358473224763334 -0.016201332669321 0.08145647279271603 106 148 0
0.01386952064510125 -0.01569660026213144 0.0813959864252488 116 138 0
0.014154309042569162 -0.015191867854941875 0.08133550005778156 126 128 0
0.014447479283297267 -0.014690076152190588 0.08114607251096687 156 98 0
0.014734700563023707 -0.014186197879433992 0.08104815604200317 171 83 0
0.015012680988114912 -0.013679076948149857 0.08109239938135197 166 88 0
0.015305851228843013 -0.013177285245398573 0.08090297183453725 195 59 0
0.01558606062423179 -0.012670946330986314 0.08091292605036299 195 59 0
0.015859497019765995 -0.012162231162316546 0.08102707197699258 179 75 0
0.016127493487806698 -0.011651607437446494 0.08122490243992309 150 104 0
0.01640092995493255 -0.011142892293894098 0.08133904726523024 134 120 0
0.01667436645785423 -0.01063417716290039 0.08145319153987615 117 137 0
0.016970975603599083 -0.010133591973195417 0.08121086196963308 155 99 0
0.01718157160305004 -0.009602829740899104 0.08229170633360018 0 249 5
0.017461780998438817 -0.009096490826486845 0.08230166054942592 0 248 6
0.017700327989747827 -0.008575534982029068 0.08295252385287553 0 162 92
0.011275764816872768 -0.0189160917955828 0.08324655206021218 0 98 156
0.011568612465615746 -0.018414186913945564 0.08306208707231426 0 124 130
0.011882873284939907 -0.017919794676462 0.08254821489048574 0 194 60
0.012167980730606154 -0.01741517420484839 0.08248282047956253 0 203 51
0.012492829991096747 -0.016924496839495696 0.08180606215812612 45 209 0
0.01278567767563555 -0.016422591970417143 0.08162159661956697 74 180 0
0.013078525360174356 -0.015920687101338593 0.08143713108100784 103 151 0
0.013361389051866837 -0.015415279426115437 0.08140625321669163 109 145 0
0.013654236700609817 -0.0149133745444782 0.08122178822879371 137 117 0
0.013941644350267648 -0.014409561081523307 0.08112100887851915 154 100 0
0.014255904902160492 -0.013915169326851006 0.0806071366903175 232 22 0
0.014499989149814258 -0.013396156185663075 0.08117281820960835 148 106 0
0.014785096559684678 -0.012891535701490776 0.08110742434934635 159 95 0
0.015084208621184512 -0.012391828640288191 0.08082659144526175 202 52 0
0.015351882497240094 -0.011881091736532188 0.08102938446710906 172 82 0
0.015634746188932572 -0.011375684061309031 0.08099850660279284 178 76 0
0.015913125451118566 -0.010868703058913855 0.08103661447482574 173 81 0
0.016193760172513477 -0.010362513366818826 0.0810400257340326 174 80 0
0.01644768787860016 -0.009846953726370901 0.08145428147503117 112 142 0
0.016673429092088656 -0.009321505074483611 0.08230214107671519 0 242 12
0.016934196306674875 -0.008808345022333377 0.08261118197836272 0 201 53
0.017259045567165468 -0.008317667656980679 0.0819344236569263 43 211 0
0.01750753244612918 -0.007800199000545111 0.08243237880367205 0 227 27
0.0110751285244356 -0.01813800509259128 0.0828470232924353 0 147 107
0.01137865639484322 -0.01763984728355801 0.0824982602695608 0 195 59
0.011654392994369003 -0.01713193912354696 0.08257702125683905 0 185 69
0.011983667012723916 -0.016642814150035296 0.08183219515130769 35 219 0
0.012276837253452019 -0.016141022447284006 0.08164276760449297 65 189 0
0.012580365123859641 -0.015642864638250736 0.08129400458161846 119 135 0
0.01286758663522157 -0.015138985870124189 0.08119608866968915 134 120 0
0.0131607569117455 -0.014637194179931591 0.08100666057221322 164 90 0
0.013422488967029349 -0.014124372634626889 0.08130085895133043 121 133 0
0.01372601653420983 -0.013626215295846195 0.08095209647274398 174 80 0
0.01400848138880752 -0.013120667691734082 0.08092735407574368 179 75 0
0.014301651629535624 -0.012618875988982797 0.08073792652892896 208 46 0
0.014584116484133314 -0.012113328384870685 0.08071318413192867 213 41 0
0.01483350978974023 -0.01159617788532389 0.0811971943323398 141 113 0
0.015126680030468333 -0.011094386182572602 0.08100776678552507 171 83 0
0.015400116533390011 -0.010585671051578895 0.08112191106017101 155 99 0
0.01566811296563489 -0.010075047314150157 0.08131974207376275 126 128 0
0.01591469633468607 -0.009556910970243804 0.0818469786293014 47 207 0
0.016173257524099264 -0.009042976951339972 0.08218995568062983 0 252 2
0.016389578242636448 -0.008514223192156573 0.08318273444762776 0 119 135
0.016625573081031627 -0.007992371944722637 0.08387285851942737 0 27 227
0.010293563900474638 -0.01836540060576161 0.08274309239509385 0 155 99
0.010571943234252285 -0.01785841962848381 0.0827811991658043 0 151 103
0.010871055224160465 -0.01735871254216385 0.08250036736304213 0 190 64
0.011182506035337235 -0.01686333443520336 0.0820297226376636 0 254 0
0.011484788962707722 -0.016364739847599903 0.08170011106136776 49 205 0
0.011783901024207556 -0.015865032786397316 0.08141927815728316 93 161 0
0.01207130863806956 -0.015361219310883734 0.08131849935766983 109 145 0
0.01235871635931904 -0.014857405873046216 0.08121771890607284 125 129 0
0.012646123973181045 -0.014353592397532635 0.08111694010645949 141 113 0
0.012931231418847293 -0.013848971925919024 0.08105154569553628 152 102 0
0.01321633866867388 -0.01334435196223405 0.08098615017691747 163 91 0
0.013503746282535884 -0.012840538486720468 0.08088537137730414 179 75 0
0.013779802001851655 -0.012332742287402745 0.08095922321980395 169 85 0
0.014026005469800068 -0.011814472658152783 0.08149230394287302 90 164 0
0.014348302595274743 -0.011322899896103272 0.08085480611445599 187 67 0
0.014626681857460735 -0.010815918893708096 0.08089291398648887 182 72 0
0.014902737612572336 -0.010308122706949058 0.08096676527832748 172 82 0
0.015178793331888108 -0.009800326507631334 0.0810406171208273 162 92 0
0.015457172594074102 -0.009293345505236156 0.08107872499286019 157 97 0
0.015659935249708726 -0.008759835005260268 0.08228007275429707 0 234 20
0.0158626978337517 -0.008226324480167007 0.08348142161705635 0 74 180
0.01614780527941795 -0.007721704008553396 0.08341602720613313 0 83 171
0.010066381638151028 -0.017578000455949365 0.08275193068427886 0 149 105
0.010373298048848026 -0.01708103148989 0.08235104041831286 0 204 50
0.010676825883459822 -0.016582873668298043 0.08200227794609959 0 252 2
0.010961614280927732 -0.01607814126110848 0.08194179157863235 7 247 0
0.011268530691624729 -0.015581172295049113 0.08154090131266635 69 185 0
0.01157205856203235 -0.015083014486015844 0.08119213828979185 122 132 0
0.01184005499427723 -0.014572390748587105 0.08138996930338359 93 161 0
0.012133225235005332 -0.01407059904583582 0.08120054175656886 123 131 0
0.012426395511529263 -0.013568807355643222 0.08101111365909294 152 102 0
0.012719565484826053 -0.0130670161357032 0.08082168610590507 182 72 0
0.013004353882293963 -0.012562283728513635 0.08076119973843783 192 62 0
0.013272350314538842 -0.012051659991084896 0.08095903075202956 163 91 0
0.013565520555266945 -0.011549868288333612 0.08076960320521485 193 61 0
0.013841257226384383 -0.011041960153439934 0.08084836309117066 182 72 0
0.01413442750290831 -0.010540168463247335 0.08065893499369473 211 43 0
0.014372974458421494 -0.01001921260623087 0.08130979884780558 114 140 0
0.014634706621092822 -0.00950639109860223 0.08160399557493912 71 183 0
0.014896438676376673 -0.008993569553297526 0.08189819395405633 28 226 0
0.015120916690956705 -0.008467677717909756 0.08276548583954135 0 164 90
0.015452127084526366 -0.007979232106563596 0.08199087171530116 16 238 0
0.009563400062014248 -0.017298486463328794 0.08268297274464347 0 153 101
0.009877660809746752 -0.016804094200727857 0.08216910166413739 0 224 30
0.010176772871246588 -0.016304387139525273 0.08188826876005278 8 246 0
0.010479055691229595 -0.015805792514245756 0.08155865883574062 59 195 0
0.010766463412479077 -0.015301979076408234 0.08145787838414363 75 179 0
0.0110515708223495 -0.014797358592235936 0.08139248452388163 86 168 0
0.01134752923577105 -0.014296545098162599 0.08116016542396129 122 132 0
0.011632636681437299 -0.013791924626548987 0.08109477101303807 133 121 0
0.011928595059063025 -0.013291111119916961 0.08086245246377895 169 85 0
0.01220697408961353 -0.012784130612891735 0.08090055977877747 164 90 0
0.012492081571075606 -0.01227951015383681 0.08083516481719302 175 79 0
0.012772716328266338 -0.011773320474300467 0.08083857552573866 175 79 0
0.013060124013719995 -0.011269507023904262 0.08073779562480289 192 62 0
0.013327797818183922 -0.010758770095030885 0.08094058974797264 162 92 0
0.013615205503637578 -0.010254956644634678 0.08083980984703686 178 76 0
0.013882879308101505 -0.009744219715761301 0.08104260397020661 149 105 0
0.014147114243344512 -0.009232276286400297 0.0812982995661435 111 143 0
0.014398072148715944 -0.008715674714497315 0.0817582409152792 43 211 0
0.014609612048306242 -0.008185243642214724 0.08282456489352982 0 151 103
0.00900496887191414 -0.016999518405436304 0.08346701794487225 0 43 211
0.009363050350961112 -0.016520500305184246 0.08227903538313737 0 203 51
0.00966996676165811 -0.016023531339124885 0.08187814511717138 4 250 0
0.009966576014790441 -0.015522946187095972 0.08163581389494465 41 213 0
0.010259746255518544 -0.015021154484344684 0.08144638634812994 71 183 0
0.010552916496246649 -0.014519362781593399 0.08125695880131523 100 154 0
0.010846086736974752 -0.014017571078842115 0.0810675312545005 130 124 0
0.011133308284132507 -0.013513692323274254 0.08096961479190998 146 108 0
0.011420529831290264 -0.013009813567706393 0.08087169832931945 162 92 0
0.011702994382660814 -0.012504266433846856 0.08084695647660722 166 88 0
0.011999603564201492 -0.01200368125670057 0.08060462635570292 204 50 0
0.012277583989292695 -0.011496560325416438 0.08064886969505171 198 56 0
0.012551020492214375 -0.010987845194422731 0.08076301396969765 182 72 0
0.012829000917305579 -0.010480724263138598 0.08080725730904643 176 78 0
0.01309073304418108 -0.009967902742951269 0.0811014545868412 133 121 0
0.013352465099464928 -0.009455081197646566 0.08139565296595842 90 164 0
0.013570759814630129 -0.00892701999980856 0.08235806496930506 0 206 48
0.013829321039839151 -0.008413085993463415 0.08270104146997224 0 161 93
0.008235580914129377 -0.01723118600711464 0.08317576862024212 0 76 178
0.00852842858077027 -0.01672928113175675 0.08299130335701359 0 101 153
0.008858122842124002 -0.016240303597228778 0.0822400124887566 0 203 51
0.009175127053563116 -0.015746873857505905 0.081683937631009 27 227 0
0.00946797473810192 -0.015244968988427357 0.08149947209244984 56 198 0
0.009755382423555576 -0.014741155538031146 0.08139869219151408 72 182 0
0.010048230108094382 -0.014239250668952597 0.08121422665295494 101 153 0
0.010353675238745596 -0.013741765515746053 0.0808359696644632 159 95 0
0.010627297808371523 -0.013233115664806627 0.08094725160208632 143 111 0
0.010903353563483122 -0.012725319478047588 0.08102110289392493 133 121 0
0.011199311673677534 -0.012224506454226826 0.08078878433829265 169 85 0
0.011482175293778363 -0.011719098753886296 0.08075790757529888 175 79 0
0.011769583015027844 -0.011215285316048776 0.08065712712370189 191 63 0
0.012037256855287599 -0.010704548399734087 0.08085992069621042 161 93 0
0.012320120475388429 -0.010199140699393558 0.08082904393321666 167 87 0
0.0125961761947042 -0.00969134450007583 0.08090289577571648 157 97 0
0.01286385007075978 -0.009180607596319829 0.0811056887975638 127 127 0
0.013117777776846466 -0.008665047955871905 0.08151994453856237 66 188 0
0.013335576075494831 -0.008136812594164572 0.08248999311171129 0 184 70
0.013533827651630411 -0.0076017194170742985 0.08376073657677573 0 14 240
0.008017172381273639 -0.016446864039680875 0.08304963626037415 0 88 166
0.008339539165425972 -0.015955315716835988 0.08241106684522254 0 175 79
0.008654179850057071 -0.015461056752137346 0.08189135104652485 0 246 8
0.008957707720464692 -0.014962898943104076 0.08154258802365033 44 210 0
0.009250877961192795 -0.014461107240352789 0.08135316047683562 73 181 0
0.009526614632310231 -0.013953199105459111 0.08143192036279144 62 192 0
0.009836500879518309 -0.013457272083413492 0.0809853439380271 131 123 0
0.010129671191838066 -0.01295548040577958 0.08079591528988994 160 94 0
0.010394556930996024 -0.012443765305904316 0.08104159931418167 124 130 0
0.010709197312399983 -0.011949506811458252 0.08052188405977205 203 51 0
0.010991662166997672 -0.011443959207346139 0.08049714166277173 208 46 0
0.011238245464457196 -0.010925822838322413 0.08102437931963284 130 124 0
0.011531415776776953 -0.010424031160688503 0.0808349506714957 159 95 0
0.011793147832060803 -0.0099112096153838 0.0811291490506129 116 138 0
0.012073357155857927 -0.009404870675854167 0.08113910436776108 115 139 0
0.012338242859220059 -0.008893155563420217 0.08138478894271402 79 175 0
0.012560611676336765 -0.008366523732526795 0.08228452743927916 0 206 48
0.01277120765788981 -0.007835761493951139 0.08336537207857686 0 61 193
0.007230579762485803 -0.01667249552616135 0.08302305344300957 0 86 168
0.007498253638541383 -0.016161758622405344 0.08322584646485688 0 59 195
0.007854026949025459 -0.015681930719186745 0.08207337136459483 0 215 39
0.008171031160464571 -0.015188500979463872 0.08151729650684722 41 213 0
0.008451665989246956 -0.014682311325044904 0.08152070611407042 41 213 0
0.008744513673785762 -0.014180406455966351 0.08133624057551127 70 184 0
0.00903736132252874 -0.013678501574329115 0.08115177558761336 99 155 0
0.009317996079719474 -0.013172311894792774 0.08115518629615899 99 155 0
0.00964769030527738 -0.012683334347706117 0.08040389597856323 213 41 0
0.009893893737429965 -0.012165064705897469 0.08093697725229353 134 120 0
0.010174528298781037 -0.011658875534289763 0.08094038685314356 134 120 0
0.010476811190355697 -0.01116028093412762 0.08061077582750896 185 69 0
0.010744485066411277 -0.010649544030371617 0.08081356884935625 156 98 0
0.01104993019706249 -0.010152058877165073 0.08043531186086454 214 40 0
0.011303857903149177 -0.009636499236717149 0.08084956760186311 152 102 0
0.011582237165335171 -0.009129518234321973 0.08088767547389601 147 107 0
0.011826321412988937 -0.008610505093134041 0.08145335699318688 63 191 0
0.012048124942419325 -0.00808367493545778 0.08236179153174204 0 190 64
0.01226793575400463 -0.007556145648242899 0.08330088082976668 0 64 190
0.012543991491218313 -0.007048349455204517 0.08337473239693591 0 55 199
0.00701494555207373 -0.015889146919669625 0.08285424346630237 0 104 150
0.007329586236704829 -0.015394887954970984 0.08233452766760467 0 175 79
0.007664689140000017 -0.014907808000350983 0.08150003354095327 37 217 0
0.007944898535388793 -0.014401469085938725 0.081509987756779 37 217 0
0.008227363354190656 -0.013895921469267923 0.08148524591043992 41 213 0
0.008514584901348413 -0.013392042713700062 0.08138732944784939 57 197 0
0.008824471112760664 -0.012896115679095755 0.08094075357374628 126 128 0
0.009124548050753956 -0.01239674713729739 0.08064507759647012 171 83 0
0.00940252847584516 -0.011889626206013255 0.08068932093581892 165 89 0
0.009680508633505048 -0.011382505757540387 0.08073356426879456 160 94 0
0.009948505101545753 -0.010871882032670335 0.08093139473172507 131 123 0
0.010245114318882257 -0.010371296868082736 0.08068906406015956 168 86 0
0.010506846374166106 -0.009858475322778034 0.08098326243927678 125 129 0
0.010784826835053135 -0.00935135440405259 0.08102750522796434 119 135 0
0.011034220104864224 -0.008834203891947105 0.08151151597903669 48 206 0
0.0112630841462247 -0.008309850859901186 0.08231133589586706 0 191 63
0.011479404900557709 -0.007781097113276474 0.08330411411220377 0 58 196
0.011734803815098525 -0.007266053634858355 0.08369573767705053 0 6 248
0.006240879805192149 -0.016119173350095058 0.08263495399722676 0 127 127
0.006528287419054152 -0.015615359874581477 0.08253417519761341 0 142 112
0.006850584544528827 -0.015123787112531966 0.08189667736919638 0 229 25
0.007152867471899314 -0.014625192524928513 0.08156706579290056 21 233 0
0.007437974881769736 -0.014120572040756214 0.08150167193263856 32 222 0
0.007725382531427565 -0.013616758577801319 0.081400892582364 48 206 0
0.008018230215966371 -0.013114853708722769 0.08121642704380487 77 177 0
0.008317342277466205 -0.012615146647520182 0.08093559413972025 120 134 0
0.008613300655091931 -0.012114333140888158 0.08070327559046113 156 98 0
0.008891679917277925 -0.01160735213849298 0.08074138346249403 152 102 0
0.00917005894782843 -0.011100371631467754 0.08077949077749254 147 107 0
0.009452922639520913 -0.010594963956244598 0.08074861291317634 153 101 0
0.009731301901706905 -0.010087982953849422 0.08078672078520922 148 106 0
0.0100096811638929 -0.009581001951454246 0.08082482865724212 143 111 0
0.010548809850139522 -0.008560854655241467 0.081172251109549 93 161 0
0.010762486975325015 -0.008031173411916335 0.08220569730898403 0 200 54
0.010980285256075467 -0.007502938043929659 0.08317574615746355 0 70 184
0.011282568165548042 -0.007004343450046861 0.08284613485649835 0 115 139
0.006024996412395193 -0.01533573733295588 0.08246997827956269 0 145 109
0.006328524282802814 -0.014837579523922612 0.08212121525668817 0 193 61
0.006659734676372476 -0.014349133912576452 0.08134660113244799 49 205 0
0.006903574581717047 -0.01383003504579204 0.0819160414652282 0 222 32
0.007215931850599021 -0.013334974962458813 0.08143145234576955 38 216 0
0.00748081758975698 -0.01282325986258355 0.08167713637006128 2 252 0
0.007803184373909311 -0.012331711539738662 0.08103856695490966 99 155 0
0.00809979355544999 -0.011831126362592377 0.08079623683400537 136 118 0
0.008377774052132846 -0.011324005456425618 0.08084047907203173 131 123 0
0.008653510384227315 -0.01081609777922583 0.08091924005293682 120 134 0
0.008929247091140577 -0.01030818965689084 0.0809979993882314 109 145 0
0.009211711838350787 -0.009802642015102666 0.08097325864321477 114 140 0
0.009467110824483257 -0.009287598561801922 0.0813648811067391 56 198 0
0.009740547327404937 -0.008778883430808215 0.08147902538138502 40 214 0
0.009979094318713943 -0.008257927586350435 0.08212988868483463 0 204 50
0.0101954150014553 -0.007729173814608351 0.08312266800249381 0 71 183
0.010444808289164303 -0.007212023308782211 0.08360667847823554 0 6 248
0.005232006369261122 -0.015559124326779264 0.08254180908248075 0 129 125
0.005534289260835782 -0.015060529726617124 0.08221219805684615 0 175 79
0.005839734391486997 -0.01456304457341058 0.08183394106835441 0 226 28
0.006142017318857484 -0.014064449985807125 0.0815043294920586 19 235 0
0.006424881010549965 -0.013559042310583969 0.0814734516277424 24 230 0
0.006709988420420387 -0.013054421826411668 0.08140805776748039 35 219 0
0.0070091004819202215 -0.012554714765209083 0.08112722486339578 79 175 0
0.007296508203169702 -0.012050901327371563 0.08102644441179879 95 159 0
0.00756418200763363 -0.011540164398498186 0.08122923853496854 65 189 0
0.007869627209876497 -0.011042679270409014 0.08085098044515437 123 131 0
0.008148006204631178 -0.010535698750825103 0.08088908831081411 119 135 0
0.00840532245100724 -0.010021327953351082 0.08125121680872122 65 189 0
0.008710767581658454 -0.009523842800144539 0.08087295982022948 123 131 0
0.008971534796244674 -0.009010682747994304 0.08118200072187702 77 177 0
0.00921177944040394 -0.008490322511819389 0.08180674836629559 0 241 13
0.009942628163676762 -0.0069327904988810175 0.08352539150920962 0 12 242
0.005020453280544388 -0.014777207550822341 0.08231021766968503 0 156 98
0.005327369727037212 -0.014280238597321665 0.08190932685305782 0 211 43
0.005630897561649008 -0.013782080775729708 0.08156056438084454 4 250 0
0.00592406790976459 -0.013280289110654485 0.08137113518204615 34 220 0
0.006192064342009467 -0.012769665373225743 0.08156896619563789 5 249 0
0.006504421610891443 -0.01227460528989252 0.08108437707617926 79 175 0
0.006791643158049198 -0.01177072653432466 0.08098646061358872 95 159 0
0.007067379757574981 -0.011262818374313609 0.08106522160086696 84 170 0
0.007349844612172671 -0.010757270770201496 0.08104047920386667 89 165 0
0.007634632742209268 -0.010252538845823196 0.08097999283002628 99 155 0
0.007890031728341736 -0.00973749539252245 0.08137161529355061 41 213 0
0.008172496475551946 -0.009231947750734278 0.08134687454853397 46 208 0
0.008448233182465209 -0.008724039628399287 0.08142563388382856 35 219 0
0.008703632168597679 -0.008208996175098543 0.08181725634735289 0 234 20
0.00915335630459494 -0.00715748198862557 0.08354002402985902 0 4 250
0.004225798588311755 -0.015000010515472147 0.08240765642198909 0 137 117
0.004518646201258908 -0.014498105621276224 0.08222319198475239 0 163 91
0.004830097084027329 -0.014002727539433105 0.0817525461580514 0 227 27
0.005122944696974482 -0.013500822645237182 0.08156808172081471 0 253 1
0.005434395579742903 -0.013005444563394064 0.08109743589411374 69 185 0
0.005698630479190082 -0.012493501121474371 0.08135313204071183 32 222 0
0.0059914781279330614 -0.011991596239837135 0.08116866705281392 61 193 0
0.006278885777590891 -0.011487782776882241 0.08106788770253937 77 177 0
0.006557265111368537 -0.01098080179960444 0.08110599447324982 72 182 0
0.006824938915832465 -0.010470064870731061 0.08130878859641957 43 211 0
0.007127221539975811 -0.009971470753380183 0.08097917756441181 93 161 0
0.007400844145397566 -0.009462820914999441 0.0810904589513737 77 177 0
0.0076616113241879565 -0.00894966085029052 0.08139950040368245 32 222 0
0.00793999069376143 -0.008442679885571404 0.08143760662373169 27 227 0
0.008190948491745382 -0.007926078275992364 0.08189754962485106 0 218 36
0.008414727914982573 -0.007399941345271898 0.08277558821471025 0 101 153
0.008690783634298345 -0.006892145145954174 0.08284944005721008 0 92 162
0.00400867577643596 -0.0142161396455164 0.08226174624307889 0 152 102
0.004312203611047755 -0.013717981823924443 0.08191298377086559 0 200 54
0.004615731481455377 -0.013219824014891173 0.08156422074799109 0 248 6
0.004877463608330878 -0.012707002494703846 0.08185841802578586 0 209 45
0.0051775405463241695 -0.012207633952905476 0.08156274204850969 0 250 4
0.005462328943792081 -0.011702901545715912 0.08150225568104248 4 250 0
0.005769245354489078 -0.011205932579656549 0.08110136541507648 66 188 0
0.006054033716161162 -0.010701200159908298 0.08104087959827047 76 178 0
0.006329770351482772 -0.010193292012455932 0.08111964003488752 65 189 0
0.006629846986248923 -0.009693923940910143 0.08082396460189942 111 143 0
0.006879240291855838 -0.009176773441363346 0.08130797480231054 39 215 0
0.007161705146453527 -0.008671225837251235 0.08128323240531024 43 211 0
0.007411098416264616 -0.00815407532514575 0.08176724315638259 0 230 24
0.0076399624576250925 -0.007629722293099833 0.08256706307321295 0 123 131
0.003205365044914943 -0.014435905706186605 0.08249234423967747 0 115 139
0.0035076479364896038 -0.013937311106024463 0.08216273321404285 0 160 94
0.003813093067140818 -0.013439825952817919 0.08178447622555113 0 212 42
0.004100500788390301 -0.012936012514980399 0.08168369577395415 0 226 28
0.004393348472929106 -0.01243410764590185 0.081499230235395 0 252 2
0.00468619615746791 -0.011932202776823296 0.08131476469683585 26 228 0
0.004973603771329915 -0.011428389301309717 0.08121398589722253 42 212 0
0.00526645145586872 -0.010926484432231168 0.08102952035866338 71 183 0
0.005559299140407525 -0.010424579563152618 0.08084505482010423 100 154 0
0.00585841120190736 -0.009924872501950031 0.08056422191601963 143 111 0
0.006119178113266437 -0.009411712920052372 0.08087326336195522 97 157 0
0.006395233832582211 -0.008903916720734647 0.08094711520445504 87 167 0
0.006656000975576776 -0.00839075664346704 0.081256157207425 42 212 0
0.006909928753255114 -0.007875197028136488 0.08167041184710115 0 237 17
0.007154012965113055 -0.007356183874389871 0.08223609391705324 0 162 92
0.00737975412490781 -0.006830735203664551 0.08308395434472907 0 49 205
0.0033222605228024585 -0.013164574353399102 0.08152862496908908 0 241 13
0.003595696989928313 -0.012655859209846708 0.08164276979439625 0 227 27
0.0038888672306564166 -0.012154067507095422 0.08145334224758152 0 253 1
0.004173655628124327 -0.011649335099905856 0.08139285588011429 8 246 0
0.004460877175282084 -0.011145456344337995 0.08129493941752376 24 230 0
0.004760954077479548 -0.010646087789980942 0.08099926399090883 69 185 0
0.0050575632590202264 -0.010145502612834657 0.08075693387000453 107 147 0
0.005340028113617917 -0.009639955008722544 0.08073219147300424 112 142 0
0.005618008271277805 -0.009132834560249676 0.08077643480597989 106 148 0
0.005859169861319336 -0.008612796027397276 0.08138707671258082 15 239 0
0.006127166293564213 -0.008102172289968538 0.08158490772617254 0 243 11
0.006382565279696682 -0.007587128836667794 0.08197653018969688 0 191 63
0.006611429285261333 -0.007062775792063188 0.08277635065718844 0 84 170
0.002497799469451568 -0.013376919988353221 0.08208458665427804 0 160 94
0.0028000823968220546 -0.012878325400749766 0.08175497507798221 0 205 49
0.003092930045565034 -0.01237642051911253 0.0815705100900843 0 231 23
0.0033757936656658625 -0.011871012818772002 0.08153963332709054 0 236 18
0.0036586573573583435 -0.011365605143548842 0.08150875546277433 0 241 13
0.0039641025596012115 -0.010868120015459672 0.08113049737296017 43 211 0
0.004251510209259039 -0.010364306552504778 0.08102971802268562 59 195 0
0.0045537931008337 -0.009865711952342638 0.080700106997051 110 144 0
0.004832172363019695 -0.00935873094994746 0.0807382148690839 105 149 0
0.00509984597164396 -0.00884799452900272 0.08094100788455806 75 179 0
0.005353773677730647 -0.008332434888554795 0.08135526362555665 14 240 0
0.005632152939916639 -0.00782545388615962 0.08139337149758953 9 245 0
0.005874258752259947 -0.007305746626349125 0.08198948806252301 0 184 70
0.006135025931050341 -0.006792586561640203 0.08229852951483176 0 143 111
0.0063627176054111695 -0.006267822213761699 0.08311638441261676 0 34 220
0.0022706196054483093 -0.012589520679972993 0.08209338804916129 0 155 99
0.0025873794029865754 -0.012096005189536262 0.08154107310622546 0 230 24
0.002842778389119044 -0.011580961736235518 0.08193269556974977 0 178 76
0.0031275667865869545 -0.011076229329045952 0.08187220920228255 0 187 67
0.0034241759681276334 -0.010575644151899667 0.08162987908137827 0 221 33
0.0037409358372575497 -0.01008212868658031 0.08107756303711999 46 208 0
0.004023400656059414 -0.009576581069909511 0.0810528211907809 51 203 0
0.004285132711343264 -0.009063759524604807 0.08134701956989812 7 247 0
0.004560869150825211 -0.008555851885081081 0.08142577889881956 0 252 2
0.00482886558307009 -0.008045228147652341 0.08162360991241129 0 226 28
0.005116087130227845 -0.0075413493920844805 0.08152569344982076 0 240 14
0.0053546340857410285 -0.007020393535068017 0.08217655730393161 0 153 101
0.00565471102373432 -0.006521024993269651 0.08188088132665546 0 194 60
0.0017546631520083547 -0.012305454552686201 0.08222402773136468 0 132 122
0.0020661139631851233 -0.011810076445725709 0.08175338300598615 0 196 58
0.0023444933327585954 -0.011303095481006595 0.08179148922603538 0 192 62
0.002620548980482716 -0.010795299256571493 0.08186534216985764 0 183 71
0.0029034126721751976 -0.010289891581348336 0.08183446430554145 0 188 66
0.003196260320918176 -0.0097879866997111 0.08164999931764352 0 213 41
0.0034768951497005617 -0.009281797045292133 0.08165340892486671 0 214 40
0.00375752987109547 -0.008775607353197103 0.08165682018407358 0 214 40
0.0040403932953566365 -0.00827020016078521 0.08162594231338423 0 219 35
0.004323256987049118 -0.007764792485562053 0.08159506444906801 0 224 30
0.00459931270636489 -0.0072569962862443285 0.08166891629156783 0 215 39
0.004882176398057371 -0.006751588611021173 0.08163803842725165 0 221 33
0.005113746496486143 -0.0062281849780255515 0.0823962300078156 0 119 135
0.005355852308829449 -0.005708477718215055 0.08299234657274907 0 40 214
0.0015199182339056417 -0.011515401103984389 0.08234920531787202 0 110 144
0.0018345589185367406 -0.011021142139285747 0.08182948951917432 0 181 73
0.002075720472782444 -0.010501103593874659 0.08244013197643647 0 100 154
0.0023559297965795685 -0.009994764654345028 0.08245008729358466 0 100 154
0.0026293662637054214 -0.009486049510792634 0.0825642321188918 0 85 169
0.002980831582310027 -0.009004710182169529 0.0814780285458243 0 232 22
0.0032096955162830253 -0.008480357112447547 0.08227785011463831 0 125 129
0.003506304501984042 -0.007979772443229899 0.08203551888603842 0 159 95
0.0037935260491417985 -0.0074758936876620375 0.0819376024234479 0 173 81
0.004078314446609708 -0.006971161280472473 0.08187711605598066 0 182 72
0.004351750842143911 -0.006462446111802705 0.08199126198261025 0 168 86
0.0045902979050445715 -0.0059414902924623016 0.08264212418473744 0 81 173
0.004863734318476686 -0.005432775130071876 0.08275626983603641 0 66 188
0.005122295597379449 -0.0049188411425647605 0.08309924551071178 0 21 233
0.0013011084721316025 -0.01073093838079315 0.08222924615028801 0 122 132
0.0015653434073746074 -0.010218994951432143 0.0824849417462249 0 89 165
0.0018437226695606013 -0.009712013949036969 0.0825230496182578 0 84 170
0.002124357390955508 -0.00920582425694194 0.08252646087746464 0 85 169
0.002388592344096427 -0.00869388083386028 0.08278215619807092 0 51 203
0.0027000431731711095 -0.00819850273317913 0.08231151119736178 0 116 138
0.0029928905902786 -0.007696598346911844 0.08212704565242948 0 141 113
0.0032888489679043266 -0.007195784840279818 0.08189472710317035 0 174 80
0.0035694836892992323 -0.006689595148184789 0.0818981383623772 0 174 80
0.0038523473809917138 -0.006184187472961633 0.081867260498061 0 179 75
0.0041165823162347195 -0.005672244043600631 0.08212295609399789 0 146 108
0.004394961614216539 -0.0051652630537641405 0.08216106341536955 0 141 113
0.00467782530590902 -0.004659855378540984 0.08213018555105336 0 146 108
0.004958460027303928 -0.004153665686445955 0.08213359681026021 0 147 107
0.005234515746619701 -0.00364586948712823 0.08220744865276003 0 138 116
0.005474760426574793 -0.003125509263512 0.0828321957465174 0 54 200
0.005762168129926363 -0.0026216958193951362 0.08273141557025102 0 69 185
0.006867835077673552 -0.0005910175188492172 0.08300460926821915 0 36 218
0.00714846978914425 -8.482784467101281e-05 0.08300802052718949 0 36 218
0.007433577281713989 0.00041979259584568876 0.08294262529011262 0 46 208
0.007726424982967252 0.0009216974950999432 0.08275815975195182 0 72 182
0.007987192179655558 0.0014348575535295211 0.08306720092892994 0 31 223
0.008254865966221572 0.0019455944886822428 0.0832699953274303 0 4 250
0.008815387442060217 0.0029582361470933253 0.0832883230844558 0 4 250
0.009093766722144122 0.0034652171432091577 0.08332643068115808 0 0 254
0.009979586601867957 0.004968378732669792 0.08266109179800193 0 92 162
0.01028186949344262 0.005466973332831934 0.08233148077236734 0 137 117
0.01056927714310045 0.005970786795786828 0.0822307014220928 0 152 102
0.010820235012676054 0.006487388380248496 0.08269064332188972 0 91 163
0.011386041576428424 0.007498175950879482 0.08262766953063813 0 101 153
0.0013025177733399307 -0.009419089602210627 0.08304209598951184 0 9 245
0.0015782544623552785 -0.008911181473596295 0.08312085560013703 0 0 255
0.0018630428598231897 -0.00840644906640673 0.08306036923266981 0 9 245
0.0021562131005512944 -0.007904657363655445 0.0828709416858551 0 35 219
0.0024660991340217974 -0.007408730843259118 0.08242436442872578 0 96 158
0.0027395355474539133 -0.006900015680868691 0.08253851008002475 0 82 172
0.0030518928342337997 -0.006404955603814812 0.08205392068523548 0 148 106
0.003374259618386133 -0.005913407280969924 0.08141535127008388 0 235 19
0.0036328208435951565 -0.005399473274624778 0.08175832777075107 0 189 65
0.003920042354957086 -0.004895594506498229 0.08166041185882175 0 203 51
0.004213212631481016 -0.004393802816305631 0.08147098376134583 0 230 24
0.004493421991073967 -0.003887463889334685 0.08148093852783278 0 229 25
0.004766858422403995 -0.003378748733223603 0.08159508390380114 0 215 39
0.005042595093521429 -0.0028708405983299255 0.08167384378975696 0 205 49
0.00534612296392905 -0.002372682789296655 0.08132508076688244 0 253 1
0.005558598924372772 -0.0018425801266753646 0.0823770049542238 0 112 142
0.0058684852742345054 -0.001346652996485614 0.08193042798039155 0 173 81
0.006130217329518354 -0.0008338314511809127 0.08222462635950875 0 135 119
0.006442574634196155 -0.0003387713804063751 0.0817400366893889 0 201 53
0.006722783912273244 0.0001675675537651201 0.08174999255696178 0 200 54
0.007010005452640752 0.0006714462970741015 0.08165207609420944 0 214 40
0.007292470323952898 0.001176993931361918 0.08162733369760747 0 219 35
0.007570450749044101 0.00168411486264605 0.08167157703695625 0 214 40
0.007843887216169956 0.002192830006198446 0.08178572186226339 0 199 55
0.008108772888470084 0.0027045449853708922 0.08203140588496183 0 167 87
0.008408849790667552 0.0032039135397279486 0.0817357304583469 0 208 46
0.008702020138783132 0.003705705204803173 0.08154630125954852 0 234 20
0.008940567094296314 0.004226661061819636 0.08219716511365936 0 147 107
0.00926116656692073 0.004718829432152008 0.08158578294427339 0 231 23
0.009548388078282663 0.005222708200278557 0.08148786703234408 0 245 9
0.009824124677808445 0.005730616360289607 0.08156662801962232 0 235 19
0.010085856768888122 0.006243437893035624 0.08186082584807831 0 196 58
0.010347588895763624 0.006756259413222953 0.08215502312587308 0 158 96
0.010609320951047472 0.007269080958527655 0.08244922150499029 0 119 135
0.010887301376138674 0.0077762018898117884 0.08249346484433907 0 114 140
0.01115218709739872 0.008287916995966396 0.08273914914396141 0 82 172
0.0114107486437328 0.008801851466284774 0.08308212482500993 0 36 218
0.0013660097803797136 -0.00812902205752996 0.08289990323744695 0 25 229
0.001648873472072195 -0.007623614382306802 0.08286902537313075 0 30 224
0.0019543183352920953 -0.007126129711911521 0.08249076837826587 0 82 172
0.002247166019830901 -0.00662422484283297 0.08230630283970672 0 108 146
0.0025431243974566257 -0.006123411336200944 0.08207398429044759 0 140 114
0.002839082739286526 -0.005622597817010234 0.08184166629184969 0 172 82
0.003141365630861187 -0.005124003216848092 0.08151205526621509 0 217 37
0.0034468107615124007 -0.0046265180636415465 0.08113379827772335 16 238 0
0.0037396584460512063 -0.004124613194562997 0.08094933273916421 45 209 0
0.004035616859472759 -0.003623799700489658 0.08071701363924387 81 173 0
0.004323024473334763 -0.003119986224976077 0.08061623483963053 97 157 0
0.004601403807112408 -0.0026130052476982745 0.08065434161034099 92 162 0
0.004877459562224008 -0.0021052090609392365 0.08072819290217959 82 172 0
0.005158094283618915 -0.001599019368844208 0.08073160416138644 82 172 0
0.0054432018677346445 -0.0010943988016451534 0.08066620865073408 93 161 0
0.005728309277605066 -0.0005897783174728566 0.08060081479047207 104 150 0
0.0060043650327166655 -8.198213071381778e-05 0.08067466608231068 94 160 0
0.006265132201582849 0.0004311779160782797 0.08098370753438293 49 205 0
0.006550239640458849 0.0009357983754330118 0.08091831312329789 59 195 0
0.006833103348865787 0.001441206080831872 0.08088743525938001 65 189 0
0.007111482611051782 0.0019481870832270477 0.0809255431314129 60 194 0
0.007387538330367554 0.0024559832825447733 0.08099939497391272 50 204 0
0.007670401955202206 0.0029613908370651125 0.08096851710800324 56 198 0
0.00794645767451798 0.0034691870363828398 0.08104236895050307 46 208 0
0.008224836936703974 0.003976168038778016 0.08108047682253595 41 213 0
0.008520795350125525 0.004476981532851353 0.0808481577226156 77 177 0
0.008781562528915918 0.004990141597560275 0.08115719917492435 31 223 0
0.00905994182689774 0.005497122587396765 0.08119530649629603 27 227 0
0.009327615667157493 0.006007859503711455 0.08139810006880455 0 252 2
0.00958154337324418 0.0065234191441593805 0.08181235580980314 0 197 57
0.009849217249299758 0.007034156047915383 0.08201514883165044 0 171 83
0.010103144955386442 0.007549715688363307 0.08242940457264902 0 116 138
0.010370818831442023 0.008060452592119311 0.08263219759449633 0 90 164
0.010635053695093375 0.008572396046597687 0.08288789429175566 0 56 198
0.01090272782068236 0.009083133439444299 0.08309068759530673 0 30 224
0.0011334528301747346 -0.007339736142054212 0.08299141501153674 0 8 246
0.0014335294828387987 -0.006840368076787765 0.08269573930321804 0 49 205
0.0017301386464815645 -0.006339782893362135 0.08245340945764436 0 82 172
0.0020267478996138944 -0.005839197741333223 0.08221107823541762 0 116 138
0.002319918140341999 -0.005337406038581939 0.08202165068860291 0 142 112
0.0026456319058295666 -0.004847031978075516 0.08133159334803651 0 236 18
0.002930420303297477 -0.0043422995708859505 0.08127110698056927 0 245 9
0.003259694285856563 -0.003853174584815598 0.08052628142569915 102 152 0
0.0035150932003973805 -0.0033381311063974796 0.08091790499054591 44 210 0
0.003856126577187414 -0.0028531318122224448 0.0799921800662314 185 69 0
0.004156203515180704 -0.002353763270424078 0.07969650408895526 231 23 0
0.00440559682078762 -0.0018366127708772818 0.08018051428936639 159 95 0
0.004688061639589483 -0.0013310651542064829 0.0801557724430273 163 91 0
0.0049637983417689215 -0.000823156886051302 0.08023453288123762 152 102 0
0.005244007701361871 -0.0003168179590803573 0.08024448764772457 152 102 0
0.005526472484367908 0.0001887296701491301 0.08021974635204672 157 97 0
0.0057467816713162746 0.0007160840848500815 0.08115116879366548 17 237 0
0.006070845421407921 0.00120703702576828 0.08048649418188417 119 135 0
0.006351054797715328 0.0017133759829149305 0.08049644894876945 118 136 0
0.006626791433036937 0.002221284130367294 0.08057520938538648 107 147 0
0.006900227900162792 0.00272999927391969 0.08068935421069362 91 163 0
0.007180437157102086 0.003236338092746506 0.08069930952624851 91 163 0
0.007465225554569999 0.0037410704999360726 0.08063882315878129 101 153 0
0.007738662021695852 0.004249785643488467 0.08075296798408843 84 170 0
0.008016642446787053 0.004756906574772599 0.08079721132343723 79 175 0
0.00827520374358773 0.005270840556000371 0.08114018672278199 28 226 0
0.008548640139121932 0.005779555724670141 0.08125433264941156 12 242 0
0.008813525949871542 0.00629127079942803 0.08150001557238085 0 233 21
0.00907208713928474 0.0068052048183318645 0.08184299262370927 0 188 66
0.00933381919456859 0.007318026363636567 0.08213719100282647 0 149 105
0.009598704933726545 0.007829741463511829 0.08238287502711818 0 117 137
0.009854103901961103 0.008344784923091918 0.0827744977659731 0 65 189
0.0006255722372731747 -0.007058503367550448 0.08299782056650326 0 2 252
0.0009184196543806662 -0.006556598981283162 0.08281335502157096 0 28 226
0.001205827286140583 -0.006052785512048924 0.08271257594662701 0 42 212
0.001517278115215264 -0.005557407411367775 0.08224193094591786 0 107 147
0.001810125763958244 -0.005055502529730539 0.08205746595801995 0 132 122
0.0021526751655767283 -0.004571035121061256 0.0811084194297059 7 247 0
0.0024749723268472287 -0.0040794623715704305 0.08047092105062763 104 150 0
0.0027772552184218893 -0.0035808677714082885 0.08014131002499304 155 99 0
0.003073213631843442 -0.0030800542773349497 0.07990899092507268 191 63 0
0.003369171937877516 -0.0025792407455855508 0.079676673477136 227 27 0
0.003642794543299269 -0.0020705909072048093 0.07978795486409791 211 43 0
0.003923429336285829 -0.0015644012402271533 0.07979136502198232 211 43 0
0.0041970519059117565 -0.0010557513892877268 0.07990264695960544 196 58 0
0.004475431270751406 -0.0005487702787484198 0.0799407542825704 191 63 0
0.004753810604529051 -4.1789301470618843e-05 0.07997886105328085 186 68 0
0.005029866323844824 0.00046600689784710627 0.08005271289578068 176 78 0
0.005287182488705026 0.0009803777025216738 0.08041484249477372 122 132 0
0.00557459020316426 0.0014841911281003144 0.0803140620430149 139 115 0
0.005848212789504644 0.0019928410092154465 0.08042534398103636 123 131 0
0.006124268544616244 0.002500637195974483 0.08049919527287495 113 141 0
0.006391942384875998 0.003011374112289175 0.08070198884538347 83 171 0
0.006945598632914032 0.004026424382414452 0.08082592709184677 67 187 0
0.007221654352229804 0.004534220581732177 0.08089977893434659 56 198 0
0.00748932815669373 0.005044957510605553 0.08110257305751634 27 227 0
0.00775700203274931 0.005555694414361556 0.08130536607936364 0 253 1
0.008021236967992316 0.00606763784372256 0.08156106167530053 0 219 35
0.008288910844047896 0.006578374747478563 0.08176385469714784 0 193 61
0.008824694804096332 0.007599695514832536 0.08216273038321262 0 141 113
0.009068779033852182 0.008118708662299811 0.0827284121778341 0 65 189
0.009322706739938869 0.008634268302747735 0.08314266791883267 0 10 244
0.000970567105018574 -0.0052625512873291525 0.08284568002606907 0 20 234
0.0012706440251139522 -0.0047631827392514425 0.08255000432412353 0 61 193
0.0016057470178987062 -0.004276102816028161 0.08171550882081906 0 174 80
0.0019447876052519995 -0.003790404367197132 0.08082043975729648 45 209 0
0.0022483154398637954 -0.003292246545605176 0.0804716772850832 99 155 0
0.002551843310271416 -0.002794088736571906 0.08012291426220869 152 102 0
0.0028553711806790383 -0.002295930927538635 0.07977415123933417 206 48 0
0.0031485414214071413 -0.0017941392247873503 0.07958472369251947 236 18 0
0.003407102646616164 -0.001280205218442203 0.07992770019318665 185 69 0
0.0036943241579780947 -0.0007763264503156562 0.07982978428125734 201 53 0
0.003967760727757603 -0.00026761119861913076 0.07994392855749656 184 70 0
0.0042357571600024815 0.00024301253880960622 0.08014175957108828 156 98 0
0.004515966483799606 0.0007493514783392403 0.08015171488823647 155 99 0
0.004774527663288593 0.001263285479326249 0.08049469193932837 104 150 0
0.0050547370518871215 0.0017696243814796292 0.0805046461549923 104 150 0
0.005316469123885429 0.0022824459569600357 0.08079884453450784 61 193 0
0.005592205723411212 0.0027903541169710866 0.08087760552178608 50 204 0
0.0058507670202118875 0.0033042880981988603 0.08122058092113082 0 254 0
0.006133231700564269 0.003809835619284216 0.0811958401745209 4 250 0
0.006379815105411276 0.004327971950631884 0.08172307617939836 0 188 66
0.006667036616773203 0.004831850718758431 0.08162516026746905 0 202 52
0.0069450170418644055 0.005338971650042563 0.08166940360681783 0 197 57
0.007200416027996875 0.005854015103343307 0.08206102607034216 0 145 109
0.007480625351794 0.006360354042872941 0.08207098138749033 0 145 109
0.007748621784038878 0.006870977780301679 0.08226881240108207 0 119 135
0.008016618216283758 0.007381601517730419 0.08246664341467382 0 94 160
0.008281504027033367 0.007893316592488308 0.08271232633764308 0 61 193
0.008536902941574182 0.008408360070906425 0.08310394990248984 0 9 245
0.0010622404142617576 -0.003982370933078254 0.0822699632591957 0 94 160
0.0013765011619942622 -0.003487978670477316 0.08175609217868962 0 164 90
0.0016819463642371302 -0.002990493542388146 0.08137783408887546 0 216 38
0.0019810584257369656 -0.00249078648118556 0.08109700118479084 0 254 0
0.0022801704156451465 -0.0019910793948656 0.08081616938202865 43 211 0
0.0025730181001839512 -0.0014891745257870495 0.08063170384346952 72 182 0
0.002858125581646026 -0.0009845540667321245 0.08056630888188508 83 171 0
0.0031365048796278463 -0.0004775730768956359 0.08060441620325674 78 176 0
0.0034613542069762675 1.3104409159877747e-05 0.07992765788341363 181 73 0
0.0036998315038117915 0.0005340847053809635 0.08057959332425906 84 170 0
0.003980466332594176 0.0010402743597999337 0.08058300293148227 84 170 0
0.004258845584855963 0.0015472553442782847 0.08062111080327865 80 174 0
0.0045196127568561065 0.0020604153967283276 0.08093015225542557 34 220 0
0.004795668528682162 0.00256821161366307 0.0810040035476625 24 230 0
0.005063342368941917 0.0030789485299777593 0.08120679712017102 0 250 4
0.005339398124053516 0.0035867447167367977 0.08128064841200962 0 241 13
0.00560707189745544 0.004097481512348671 0.08148344198292487 0 214 40
0.0058831276525670405 0.0046052776991077115 0.08155729327476348 0 205 49
0.006156750222192968 0.005113927550047139 0.0816685752123866 0 191 63
0.006430372791818894 0.005622577400986565 0.08177985715000971 0 177 77
0.006687689073990782 0.006136948185901897 0.08214198509725561 0 129 125
0.0069683237953856916 0.006643137877996927 0.08214539635646245 0 130 124
0.007246703129163338 0.007150118855274729 0.0821835031271729 0 125 129
0.007500630835250025 0.007665678495722654 0.0825977588681715 0 71 183
0.00803025889758853 0.00868915901185207 0.08309133314093381 0 6 248
0.008310893618983437 0.009195348703947101 0.08309474440014067 0 6 248
0.0007968953983920769 -0.003181581678358395 0.08286587414048548 0 9 245
0.0013686554881513248 -0.002172882855966711 0.082711314925745 0 32 222
0.0016626274837931911 -0.0016713724426836388 0.08250955366891936 0 60 194
0.0019565995510267085 -0.0011698620545179412 0.0823077913107713 0 88 166
0.002285873533585796 -0.0006807370684475877 0.08156296575590116 0 189 65
0.0025507592727437543 -0.00016902196857232488 0.08180864978019288 0 157 97
0.002820138922568301 0.00034111662189909193 0.08198520324582786 0 134 120
0.003107360469726055 0.0008449953774669512 0.08188728678323734 0 148 106
0.0033362244752907066 0.0013693484220715594 0.08268710725072892 0 42 212
