ply
format ascii 1.0
element vertex 735
property float x
property float y
property float z
end_header
-0.004209513756369718 0.007926459837298866 -0.003670137608423828
-0.004568318287297963 0.007498853248526049 -0.00348055176436901
-0.004927122818226208 0.007071246659753233 -0.0030423705466091624
-0.005285927349154453 0.006643640070980417 -0.002441757591441273
0.00195896487827306 0.014409360191659816 -0.001699818647466599
0.001600160048023509 0.013981753246169758 -0.0022402193862944833
0.0012413558164165697 0.013554147014114185 -0.003171535907313227
0.0008825509861670189 0.013126540068624126 -0.0031018571462482205
0.0005237467545600796 0.012698933836568551 -0.0033425851725041858
0.00016494192431052888 0.012271326891078495 -0.0033729649148881427
-0.00019386230729641032 0.01184372065902292 -0.003369801212102174
-0.0005526665389033495 0.011416114426967345 -0.0033666384406387797
-0.0009114713691529004 0.010988507481477287 -0.003135587787255644
-0.0012702756007598405 0.010560901249421713 -0.0037330903578549615
-0.0016290801316880853 0.010133294660648898 -0.003798024728894233
-0.0019878846626163304 0.009705688071876082 -0.004306910559535026
-0.0023466891935445752 0.009278081483103265 -0.0039347768761217585
-0.0027054937244728205 0.008850474894330449 -0.0039997114799916736
-0.0030642982554010645 0.008422868305557631 -0.003376961685717105
-0.0034231027863293106 0.007995261716784817 -0.003720582462847232
-0.0037819071675969027 0.007567655306370621 -0.0037174192257225505
-0.0041407116985251475 0.007140048717597805 -0.003647739300504326
-0.0044995162294533915 0.006712442128824988 -0.002637270838022231
0.002745375698652815 0.014478161892787146 -0.0018754296470433465
0.0023865714670458756 0.014050555660731571 -0.0017743102507665745
0.0020277666367963247 0.013622948715241513 -0.002812736900523304
0.0016689624051893855 0.01319534248318594 -0.002418723190203308
0.0013101575749398346 0.012767735537695881 -0.003342657117173075
0.0009513533433328954 0.012340129305640306 -0.0033789679873734704
0.0005925485130833437 0.01191252236015025 -0.003656917950138449
0.00023374428147640455 0.011484916128094675 -0.003555799135938286
-0.00012505995013053467 0.0110573098960391 -0.003592110238969325
-0.00048386478038008545 0.010629702950549042 -0.0035617304965853682
-0.0008426690119870246 0.010202096718493467 -0.00402317801490426
-0.0012014735429152696 0.009774490129720651 -0.0039927992038428775
-0.0015602780738435146 0.009346883540947835 -0.004062478896230458
-0.0019190826047717597 0.00891927695217502 -0.0038217492401599875
-0.0022778871357000048 0.008491670363402204 -0.0039256373420357695
-0.0026366916666282496 0.008064063774629386 -0.004110426176339387
-0.002995496197556495 0.007636457185856571 -0.0037668056320399037
-0.003354300578824086 0.007208850775442375 -0.003328625112771987
-0.0037131051097523318 0.00678124418666956 -0.003700759494677185
-0.004071909640680576 0.006353637597896743 -0.003160357242450117
-0.0044307141716088206 0.005926031009123927 -0.0020713501144200555
0.0031729822874256306 0.014119357361858901 -0.0013022233033552757
0.0028141780558186913 0.013691751129803326 -0.0020287306979298583
0.0024553732255691405 0.013264144184313268 -0.002702290890738367
0.002096568993962201 0.012836537952257695 -0.002732670633122324
0.0017377641637126504 0.012408931006767637 -0.0033564569894224397
0.001378959932105711 0.011981324774712062 -0.0035460430663079015
0.0010201551018561605 0.011553717829222005 -0.0035428786650300017
0.0006613508702492211 0.01112611159716643 -0.003732465207576751
0.00030254663864228196 0.010698505365110855 -0.003973194863647222
-5.625819160726885e-05 0.010270898419620797 -0.004038129001855849
-0.00041506242321420804 0.009843292187565222 -0.004068508744239806
-0.0007738669541424531 0.009415685598792406 -0.004133443348109721
-0.001132671485070698 0.00898807901001959 -0.004063762724399566
-0.001491476015998943 0.008560472421246775 -0.004128697328269481
-0.0018502805469271882 0.008132865832473959 -0.003943908028304576
-0.002209085077855433 0.0077052592437011425 -0.003974287770688533
-0.0025678896087836783 0.007277652654928326 -0.0037432373501360408
-0.0029266939900512703 0.0068500462445141306 -0.003558448050171136
-0.003285498520979515 0.006422439655741315 -0.0034545615781098596
-0.00364430305190776 0.005994833066968498 -0.002831811783835291
-0.004003107582836005 0.0055672264781956825 -0.001968465978279709
0.003959393107805386 0.01418815906298623 -0.001974817365407943
0.003600588876198447 0.013760552830930655 -0.0016825175844132894
0.003241784644591508 0.013332946598875082 -0.0024492689408361903
0.002882979814341957 0.012905339653385023 -0.002821403555572032
0.002524175582735018 0.012477733421329448 -0.0031465082429349414
0.002165370752485467 0.012050126475839392 -0.003518642857670783
0.0018065665208785277 0.011622520243783817 -0.0035218060947954646
0.0014477616906289762 0.01119491329829376 -0.0037997565232217303
0.001088957459022037 0.010767307066238185 -0.0038360669277608386
0.0007301532274150977 0.01033970083418261 -0.003939954098314046
0.0003713483971655469 0.009912093888692552 -0.004009634256362914
1.2544165558607673e-05 0.009484487656636977 -0.004381767939776181
-0.0003462603653696373 0.009056881067864161 -0.004038147162646054
-0.0007050648962978823 0.008629274479091346 -0.004582182969897985
-0.0010638694272261274 0.00820166789031853 -0.004144003149121999
-0.0014226739581543724 0.007774061301545713 -0.003954415675252675
-0.0017814784890826173 0.007346454712772898 -0.003957579843699931
-0.0021402830200108625 0.006918848124000081 -0.0038926452398300162
-0.0024990874012784546 0.006491241713585886 -0.0036003454588353625
-0.0028578919322066985 0.006063635124813069 -0.0033080463763326398
-0.0032166964631349434 0.0056360285360402525 -0.0026344854850322
-0.0035755009940631887 0.005208421947267437 -0.002522712340578436
-0.003934305524991434 0.00478081535849462 -0.0017674079863354557
0.004386999696578202 0.013829354532057985 -0.0020519562531262628
0.004028195464971263 0.01340174830000241 -0.001726849935948848
0.0036693912333643237 0.012974142067946837 -0.002375872340053319
0.003310586403114773 0.012546535122456778 -0.003049433231353759
0.0029517821715078336 0.012118928890401203 -0.0029797537717968217
0.0025929773412582827 0.011691321944911147 -0.0036287757102400056
0.0022341731096513434 0.011263715712855572 -0.0036937103141099206
0.0018753682794017928 0.010836108767365515 -0.0037586449179798356
0.0015165640477948536 0.01040850253530994 -0.003948230762034654
0.0011577598161879143 0.009980896303254366 -0.004049350041896104
0.0007989549859383634 0.009553289357764307 -0.004013039171695708
0.0004401507543314243 0.009125683125708732 -0.00420262524858117
8.134622340317927e-05 0.008698076536935917 -0.004199462477117776
-0.0002774583075250657 0.008270469948163101 -0.004095574375241994
-0.0006362628384533108 0.007842863359390285 -0.003910786006599664
-0.0009950673693815558 0.0074152567706174686 -0.0038068988360464564
-0.0013538719003098007 0.006987650181844653 -0.00370301236398518
-0.0017126764312380457 0.006560043593071836 -0.003943740390241145
-0.002071480812505638 0.00613243718265764 -0.0029053143225610248
-0.002430285343433883 0.005704830593884824 -0.0029021517839282742
-0.0027890898743621276 0.005277224005112008 -0.0022794019896537057
0.005173411115600569 0.013898156946619798 -0.001821579062379896
0.004814606285351019 0.01347055000112974 -0.002006367547437548
0.0044558020537440795 0.013042943769074165 -0.0025096046738326545
0.00409699782213714 0.012615337537018592 -0.002579283900558948
0.0037381929918875894 0.012187730591528534 -0.003239988116547465
0.00337938876028065 0.011760124359472959 -0.003424777183681726
0.0030205839300310984 0.011332517413982902 -0.003609566250815987
0.002661779698424159 0.010904911181927327 -0.0036458773538470264
0.0023029748681746083 0.010477304236437269 -0.00383066595532
0.0019441706365676693 0.010049698004381694 -0.0039345528930425635
0.00158536640496073 0.00962209177232612 -0.004437789786607026
0.0012265615747111792 0.009194484826836062 -0.003897388000041246
0.00086775734310424 0.008766878594780488 -0.003967066761106252
0.000508952812175995 0.008339272006007672 -0.0042450171895325175
0.00015014828124775 0.007911665417234856 -0.004055431112647056
-0.000208656249680495 0.0074840588284620395 -0.004091741982847451
-0.00056746078060874 0.007056452239689224 -0.004061362706124782
-0.000926265311536985 0.006628845650916407 -0.0040645250119268886
-0.00128506984246523 0.006201239062143591 -0.003670511301606893
-0.0016438742237328211 0.005773632651729395 -0.002857319079339504
-0.002002678754661066 0.0053460260629565794 -0.0025650197640061374
-0.002361483285589311 0.004918419474183763 -0.0032257239799946542
-0.0027202878165175563 0.004490812885410947 -0.00275079533457756
0.005242212517406593 0.0131117457695228 -0.002176368841901421
0.004883408285799654 0.012684139537467226 -0.002519989619031548
0.004524604054192714 0.012256533305411653 -0.0024503092281520362
0.004165799223943164 0.011828926359921594 -0.0031768167391419406
0.0038069949923362247 0.01140132012786602 -0.003366402583196759
0.003448190162086673 0.010973713182375963 -0.0037100233603268857
0.0030893859304797337 0.010546106950320388 -0.0038111421745270486
0.002730581100230183 0.01011850000483033 -0.004000728949904441
0.0023717768686232436 0.009690893772774755 -0.003722778288647532
0.0020129726370163043 0.009263287540719181 -0.004066398367285728
0.0016541678067667537 0.008835680595229123 -0.0040967781096696845
0.0012953635751598144 0.008408074363173548 -0.004286364186555146
0.0009365590442315695 0.007980467774400733 -0.004316743928939103
0.0005777545133033245 0.007552861185627917 -0.0038552961777895685
0.0002189499823750795 0.0071252545968551 -0.0040448824875056735
-0.0001398545485531655 0.0066976480080822845 -0.003940995782613753
-0.0004986590794814105 0.006270041419309468 -0.0037562067154794927
-0.0008574636104096546 0.005842434830536651 -0.0032529707532376047
-0.0012162679916772467 0.005414828420122456 -0.0029278644360601898
-0.0015750725226054917 0.00498722183134964 -0.001974574057385325
-0.0019338770535337368 0.004559615242576824 -0.0013138696085661645
0.00602862411478758 0.01318054803442396 -0.0022324738092720504
0.00566981928453803 0.012752941088933904 -0.002202095231041312
0.005311015052931091 0.012325334856878329 -0.002480044728145003
0.004952210821324151 0.011897728624822754 -0.0029414922464638944
0.0045934059910746 0.011470121679332696 -0.003266598796471953
0.004234601759467661 0.011042515447277123 -0.0035445492248982187
0.0038757969292181104 0.010614908501787064 -0.003648435696959495
0.003516992697611171 0.01018730226973149 -0.003752323798835277
0.0031581878673616203 0.009759695324241433 -0.0038562102708965536
0.002799383635754681 0.009332089092185858 -0.00392588973045349
0.0024405794041477418 0.008904482860130283 -0.0039955698885023585
0.0020817745738981913 0.008476875914640225 -0.004099456127732991
0.0017229703422912519 0.00804926968258465 -0.004034521989524364
0.001364165811363007 0.007621663093811834 -0.003525636158883571
0.001005361280434762 0.007194056505039018 -0.004148385953158139
0.0006465567495065169 0.006766449916266203 -0.004118006210774182
0.0002877522185782719 0.006338843327493386 -0.004053072538226842
-7.105231234997306e-05 0.00591123673872057 -0.003988137934356927
-0.0004298568432782181 0.005483630149947754 -0.00395775819197297
-0.0007886612245458102 0.005056023739533558 -0.002802837640047073
-0.0011474657554740547 0.004628417150760742 -0.001647915923967957
-0.0015062702864022998 0.004200810561987926 -0.0017175951506942506
0.006097425873310846 0.012394136558005659 -0.0021924823522567745
0.005738621641703906 0.011966530325950084 -0.0025864960625767703
0.005379817410096967 0.01153892409389451 -0.0029301161412149663
0.005021012579847417 0.011111317148404451 -0.0029950507450848813
0.004662208348240477 0.010683710916348878 -0.0033890644554048772
0.004303403517990927 0.01025610397085882 -0.003732685232535004
0.003944599286383988 0.009828497738803245 -0.003547896165400743
0.0035857944561344364 0.009400890793313188 -0.003737482009455561
0.003226990224527497 0.008973284561257613 -0.003927068784832954
0.002868185992920558 0.008545678329202038 -0.004116654861718416
0.0025093811626710075 0.00811807138371198 -0.004181588999927044
0.0021505769310640683 0.007690465151656406 -0.0039968001656234264
0.0017917724001358232 0.007262858562883589 -0.004186386242508888
0.0014329678692075781 0.0068352519741107735 -0.004116707015782595
0.001074163338279333 0.006407645385337958 -0.004306293558329344
0.0007153588073510881 0.005980038796565141 -0.003683543065562844
0.0003565542764228431 0.005552432207792325 -0.0034055942669510837
-2.2502545054018916e-06 0.005124825619019509 -0.0031276436056941743
-0.000361054635772994 0.0046972192086053135 -0.0022956654429435726
-0.000719859166701239 0.004269612619832498 -0.003050969913601875
0.006525032283725041 0.012035332176738066 -0.0022212383337318893
0.006166228052118102 0.011607725944682491 -0.0027244742959737773
0.005807423820511162 0.011180119712626916 -0.003002424724400043
0.005448618990261612 0.01075251276713686 -0.0033275294117629524
0.005089814758654673 0.010324906535081285 -0.0034314175136387344
0.004731009928405122 0.009897299589591227 -0.0035010962747037406
0.004372205696798183 0.009469693357535653 -0.0037321469280868764
0.004013400866548632 0.009042086412045595 -0.00380182615481317
0.0036545966349416925 0.00861448017999002 -0.004032876342535019
0.0032957924033347533 0.008186873947934445 -0.004002497065812349
0.002936987573085203 0.007759267002444388 -0.0040721772238612175
0.0025781833414782636 0.007331660770388814 -0.004075339995324612
0.0022193788105500183 0.006904054181615997 -0.004179227631539106
0.0018605742796217735 0.006476447592843181 -0.00398964062333107
0.0015017697486935284 0.006048841004070365 -0.004093528259545565
0.0011429652177652834 0.005621234415297549 -0.003903941018506884
0.0007841606868370384 0.0051936278265247325 -0.0036632125265896316
0.0004253561559087934 0.004766021237751917 -0.0032250329386442895
6.655177464120133e-05 0.004338414827337721 -0.002200644230470061
0.0069526388724978575 0.011676527645809821 -0.0014253690605983136
0.006593834640890918 0.011248921413754246 -0.0025802899617701765
0.006235030409283979 0.010821315181698671 -0.0029743036720901723
0.005876225579034428 0.010393708236208615 -0.003215033560991287
0.0055174213474274885 0.00996610200415304 -0.003404619405046105
0.005158616517177938 0.009538495058662982 -0.0035942054819315668
0.004799812285570999 0.009110888826607407 -0.0037837915588170286
0.004441007455321448 0.00868328188111735 -0.0038849108386784788
0.004082203223714509 0.008255675649061775 -0.003986030351370573
0.0037233989921075694 0.0078280694170062 -0.004016409628093243
0.003364594161858019 0.007400462471516143 -0.0042571378871798515
0.0030057899302510798 0.006972856239460568 -0.004220827016979456
0.0026469853993228345 0.006545249650687752 -0.004116940777748823
0.0022881808683945896 0.006117643061914937 -0.00408062944188714
0.0019293763374663446 0.00569003647314212 -0.0038026801776140924
0.0015705718065380995 0.005262429884369304 -0.003524729516357183
0.0012117672756098547 0.004834823295596488 -0.00260079582221806
0.0008529627446816096 0.004407216706823672 -0.0022756899707019325
0.0077390502915202245 0.011745330060371633 -0.0016625608550384639
0.007380245461270673 0.011317723114881576 -0.0018473496893420813
0.007021441229663734 0.010890116882826002 -0.002580106956884265
0.006662636998056795 0.010462510650770427 -0.0031241425313055515
0.006303832167807244 0.01003490370528037 -0.0033089315984398127
0.005945027936200305 0.009607297473224795 -0.0034128192346543074
0.005586223105950754 0.009179690527734737 -0.0035976083017885685
0.0052274188743438145 0.008752084295679162 -0.003969741519540548
0.004868614044094264 0.008324477350189105 -0.003868622239679098
0.004509809812487325 0.00789687111813353 -0.003803688334301114
0.004151005580880386 0.0074692648860779556 -0.004034738522022963
0.0037922007506308347 0.007041657940587898 -0.0040710484609007835
0.0034333965190238955 0.006614051708532323 -0.0041749365627765656
0.0030745919880956507 0.0061864451197595075 -0.0039853500202298164
0.0027157874571674054 0.005758838530986692 -0.004021659959107637
0.0023569829262391605 0.005331231942213875 -0.003956725355237722
0.0019981783953109157 0.004903625353441059 -0.0037671395111829042
0.0016393738643826707 0.004476018764668243 -0.0033731255680322647
0.0012805693334544258 0.004048412175895426 -0.002441809279844165
0.0009217649521868337 0.0036208057654812313 -0.001219801604747772
0.0078078521392228 0.010958918509123004 -0.0017530496697872875
0.007449047907615861 0.01053131227706743 -0.0023768353275954723
0.007090243676008921 0.010103706045011856 -0.0028857216238975525
0.006731438845759371 0.009676099099521798 -0.003229342168197036
0.0063726346141524315 0.009248492867466223 -0.0034189282450824976
0.006013829783902881 0.008820885921976166 -0.003349249018356204
0.005655025552295942 0.008393279689920591 -0.0037874290719628334
0.0052962207220463905 0.007965672744430533 -0.00397701608017087
0.004937416490439451 0.007538066512374959 -0.003745966125279665
0.004578612258832512 0.007110460280319384 -0.0042548514902591705
0.0042198074285829616 0.0066828533348293265 -0.0042852312326431274
0.0038610031969760223 0.006255247102773752 -0.0037819943390786648
0.003502198666047777 0.005827640514000936 -0.003971581347286701
0.003143394135119532 0.00540003392522812 -0.0036936309188604355
0.0027845896041912874 0.0049724273364553035 -0.0036904672160744667
0.002425785073263042 0.004544820747682488 -0.003459416562691331
0.0020669805423347972 0.004117214158909671 -0.002596071222797036
0.0017081760114065524 0.003689607570136855 -0.00155764480587095
0.008594263469065857 0.011027720998515143 -0.0017343799117952585
0.008235458638816306 0.010600114053025087 -0.0015447938349097967
0.007876654407209367 0.010172507820969512 -0.0026653886307030916
0.007517850175602427 0.009744901588913937 -0.003209424205124378
0.007159045345352877 0.009317294643423879 -0.0032125883735716343
0.006800241113745937 0.008889688411368305 -0.0033973774407058954
0.006441436283496386 0.008462081465878247 -0.0035821660421788692
0.006082632051889447 0.008034475233822672 -0.0035853292793035507
0.0057238272216398964 0.007606868288332615 -0.004318085964769125
0.005365022990032957 0.007179262056277041 -0.003809199668467045
0.005006218758426018 0.006751655824221466 -0.0038123640697449446
0.004647413928176467 0.0063240488787314085 -0.004137469921261072
0.004288609696569528 0.0058964426466758335 -0.00394788384437561
0.0039298051656412826 0.005468836057903018 -0.00432001706212759
0.0035710006347130377 0.005041229469130201 -0.003926003351807594
0.003212196103784793 0.0046136228803573855 -0.003895623842254281
0.002853391572856548 0.004186016291584569 -0.0033552218228578568
0.0024945870419283028 0.0037584097028117527 -0.0024834698997437954
0.002135782511000058 0.0033308031140389365 -0.0015820828266441822
0.001776978129732466 0.002903196703624741 -0.0015171485720202327
0.008663065199720587 0.010241309545481319 -0.0018661264330148697
0.008304260968113647 0.009813703313425744 -0.00237501272931695
0.007945456736506708 0.009386097081370169 -0.003188204951584339
0.007586651906257158 0.008958490135880112 -0.0031850424129515886
0.007227847674650218 0.008530883903824537 -0.0032154214568436146
0.006869042844400668 0.008103276958334479 -0.0033165409695357084
0.006510238612793729 0.007675670726278905 -0.003754720324650407
0.006151433782544178 0.007248063780788847 -0.004047020338475704
0.005792629550937239 0.006820457548733273 -0.004010709002614021
0.0054338253193303 0.006392851316677698 -0.003974398132413626
0.0050750204890807485 0.00596524437118764 -0.003789609530940652
0.004716216257473809 0.005537638139132065 -0.004030338488519192
0.004357411726545564 0.00511003155035925 -0.0037523882929235697
0.00399860719561732 0.004682424961586433 -0.0037160776555538177
0.0036398026646890748 0.004254818372813617 -0.003254629671573639
0.0032809981337608295 0.003827211784040801 -0.0024878785479813814
0.0029221936028325846 0.003399605195267985 -0.0015345888677984476
0.00256338907190434 0.0029719986064951688 -0.0011624543694779277
0.009449476602021833 0.010310111974073817 -0.002033752389252186
0.009090671771772283 0.00988250502858376 -0.0021376388613134623
0.008731867540165344 0.009454898796528185 -0.002760388655588031
0.008373063308558405 0.00902729256447261 -0.0030854949727654457
0.008014258478308854 0.008599685618982552 -0.003155173733830452
0.007655454246701914 0.008172079386926979 -0.0032590606715530157
0.007296649416452364 0.0077444724414369205 -0.0034438499715179205
0.006937845184845424 0.007316866209381346 -0.003721800399944186
0.006579040354595873 0.006889259263891288 -0.003952850587666035
0.006220236122988934 0.006461653031835713 -0.003922470845282078
0.005861431891381995 0.006034046799780139 -0.003892091801390052
0.005502627061132444 0.005606439854290082 -0.003928402904421091
0.005143822829525505 0.005178833622234507 -0.003898023162037134
0.00478501829859726 0.00475122703346169 -0.0038676434196531773
0.004426213767669015 0.0043236204446888745 -0.004699621349573135
0.00406740923674077 0.0038960138559160583 -0.003544699866324663
0.003708604705812525 0.003468407267143242 -0.002552095102146268
0.0033498001748842802 0.003040800678370426 -0.0016207784647122025
0.002990995643956035 0.00261319408959761 -0.0019458845490589738
0.009518278315955444 0.009523700535070678 -0.0021617922466248274
0.009159474084348505 0.009096094303015103 -0.0025054130237549543
0.008800669852741565 0.008668488070959528 -0.0032607174944132566
0.008441865022492015 0.00824088112546947 -0.0027166816871613264
0.008083060790885076 0.007813274893413897 -0.0031916098669171333
0.0077242559606355244 0.007385667947923839 -0.002960559679195285
0.007365451729028585 0.006958061715868264 -0.003584345569834113
0.007006646898779035 0.006530454770378206 -0.0038250740617513657
0.0066478426671720955 0.006102848538322631 -0.0037887641228735447
0.006289038435565156 0.005675242306267057 -0.0037190839648246765
0.005930233605315605 0.005247635360777 -0.0036494052037596703
0.005571429373708666 0.004820029128721425 -0.003679783083498478
0.005212624842780421 0.004392422539948608 -0.0033076496329158545
0.004853820311852176 0.003964815951175793 -0.003203763160854578
0.004495015780923931 0.0035372093624029765 -0.0025810133665800095
0.004136211249995686 0.0031096027736301603 -0.0016277225222438576
0.003777406719067441 0.002681996184857344 -0.0011662746546790006
0.0103046896457985 0.009592503024462816 -0.0020479829981923103
0.00994588481554895 0.00916489607897276 -0.002373088849708438
0.00958708058394201 0.008737289846917184 -0.0027452223002910614
0.009228276352335071 0.00830968361486161 -0.0030703286174684763
0.008869471522085521 0.007882076669371553 -0.0031066397204995155
0.008510667290478582 0.007454470437315978 -0.003176318481564522
0.00815186246022903 0.007026863491825921 -0.0034542689099907875
0.007793058228622091 0.006599257259770346 -0.0035581570118665695
0.00743425339837254 0.006171650314280288 -0.0033685697708278894
0.007075449166765601 0.005744044082224713 -0.003740704385563731
0.006716644935158661 0.0053164378501691385 -0.0037103246431797743
0.006357840104909111 0.004888830904679081 -0.003366704098880291
0.005999035873302172 0.004461224672623506 -0.0037388375494629145
0.005640231342373927 0.00403361808385069 -0.003446538234129548
0.005281426811445682 0.003606011495077874 -0.002849035197868943
0.004922622280517437 0.003178404906305058 -0.00377296912483871
0.0045638177495891915 0.002750798317532242 -0.005211574025452137
0.004205013218660947 0.0023231917287594257 -0.0012069495860487225
0.010373491404321766 0.008806091548044515 -0.002240422181785107
0.010014687172714826 0.00837848531598894 -0.002634436590597034
0.009655882941107887 0.007950879083933365 -0.00297805666923523
0.009297078110858337 0.007523272138443307 -0.0031676443759351973
0.008938273879251397 0.007095665906387733 -0.002982855308800936
0.008579469049001847 0.006668058960897675 -0.003457783488556743
0.008220664817394908 0.006240452728842101 -0.0035589027684181933
0.007861859987145356 0.005812845783352043 -0.0034892223775386815
0.007503055755538417 0.0053852395512964685 -0.0035196021199226384
0.007144251523931478 0.004957633319240894 -0.0035845367237925534
0.006785446693681927 0.004530026373750836 -0.0032124030403792862
0.006426642462074987 0.004102420141695261 -0.0032427811529487376
0.006067837931146743 0.003674813552922445 -0.0031731023918837313
0.005709033400218498 0.0032472069641496294 -0.002800968941301108
0.005350228869290253 0.002819600375376813 -0.003762549022212625
0.004991424338362008 0.0023919937866039966 -0.0011484356364235284
0.011159902823344132 0.008874893962606326 -0.0021018569823354487
0.010801097993094581 0.00844728701711627 -0.0022866448853164916
0.010442293761487642 0.008019680785060695 -0.0027480935677886014
0.010083489529880703 0.00759207455300512 -0.002932881703600288
0.009724684699631152 0.0071644676075150624 -0.0033943303860723977
0.009365880468024213 0.0067368613754594875 -0.003153601195663214
0.009007075637774663 0.00630925442996943 -0.003338389797136188
0.008648271406167723 0.005881648197913855 -0.0034422767348587517
0.008289466575918173 0.005454041252423798 -0.003411898156628013
0.007930662344311234 0.005026435020368223 -0.0032223111484199767
0.007571858112704294 0.004598828788312649 -0.0035474169999361043
0.007213053282454743 0.004171221842822591 -0.0034462981857359414
0.006854249050847804 0.0037436156107670164 -0.0031539984047412877
0.006495444519919559 0.0033160090219942003 -0.0031236202921718363
0.0061366399889913135 0.002888402433221384 -0.0026854390744119887
0.005777835458063069 0.002460795844448568 -0.0018430717755109076
0.005419030927134824 0.0020331892556757518 -0.0017781372880563144
0.011228704581867397 0.008088482486188025 -0.0022114655002951626
0.010869900350260458 0.00766087625413245 -0.0025550858117640023
0.010511096118653519 0.007233270022076875 -0.0028987063560634856
0.010152291288403968 0.006805663076586818 -0.002620757091790438
0.009793487056797029 0.006378056844531243 -0.002913056872785092
0.009434682226547478 0.005950449899041185 -0.002977991243824363
0.00907587799494054 0.00552284366698561 -0.003372004954144359
0.008717073164690989 0.005095236721495553 -0.0034369390923529868
0.00835826893308405 0.004667630489439978 -0.0033672591671347622
0.00799946470147711 0.004240024257384404 -0.0036595584824681286
0.007640659871227559 0.003812417311894346 -0.0031981107313185935
0.00728185563962062 0.0033848110798387716 -0.0032284904737025504
0.006923051108692375 0.0029572044910659554 -0.002767042256891728
0.00656424657776413 0.0025295979022931393 -0.002000291366130114
0.012015115822531144 0.00815728505041049 -0.0019441709155216817
0.011656310992281593 0.007729678104920432 -0.002269276883453131
0.011297506760674654 0.007302071872864857 -0.0026414103340357546
0.010938702529067715 0.006874465640809283 -0.0027452984359115367
0.010579897698818164 0.006446858695319225 -0.0029300875030457978
0.010221093467211225 0.006019252463263651 -0.003114876570180059
0.009862288636961675 0.005591645517773593 -0.0032187630422413353
0.009503484405354735 0.005164039285718018 -0.0034035521093755965
0.009144679575105183 0.004736432340227961 -0.0035883411765098576
0.008785875343498244 0.004308826108172386 -0.003866291837766767
0.008427071111891305 0.003881219876116812 -0.0035739920567721133
0.008068266281641754 0.0034536129306267536 -0.0035090574529021983
0.007709462050034816 0.003026006698571179 -0.0032167572062462573
0.007350657519106571 0.002598400109798363 -0.002822744427248836
0.006991852988178325 0.0021707935210255468 -0.002282342175021768
0.006633048457250081 0.0017431869322527306 -0.0014691489050164823
0.01172511334944747 0.006943267341936612 -0.0028508419636636977
0.01136630911784053 0.006515661109881037 -0.002746955025941134
0.01100750428759098 0.00608805416439098 -0.0029365411028265957
0.01064870005598404 0.005660447932335405 -0.003001475473865867
0.01028989522573449 0.0052328409868453475 -0.003102594986557961
0.009931090994127551 0.004805234754789773 -0.0033948940690606837
0.009572286163877999 0.004377627809299716 -0.00363562279380858
0.00921348193227106 0.003950021577244141 -0.003666002536192537
0.00885467770066412 0.003522415345188567 -0.0036296914331614975
0.008495872870414572 0.0030948083996985083 -0.0030458248220384125
0.008137068638807633 0.002667202167642934 -0.0028610357549041514
0.007778264107879387 0.0022395955788701177 -0.002488902304321528
0.007419459576951142 0.0018119889900973015 -0.001722150947898627
0.012511524169827226 0.007012069043063941 -0.002269007964059711
0.012152719938220287 0.006584462811008367 -0.002594114281237126
0.011793915706613348 0.0061568565789527924 -0.0027789028827100997
0.011435110876363796 0.005729249633462735 -0.0028152128215879206
0.011076306644756857 0.00530164340140716 -0.00285152392461896
0.010717501814507306 0.004874036455917103 -0.0032236585393548016
0.010358697582900367 0.004446430223861528 -0.0033275454770773654
0.009999892752650816 0.004018823278371471 -0.003652651328593493
0.009641088521043877 0.0035912170463158963 -0.003622271586209536
0.009282284289436938 0.0031636108142603214 -0.0034326855093240742
0.008923479459187388 0.0027360038687702635 -0.0030386717990040783
0.008564675227580448 0.002308397636714689 -0.003008292289450765
0.008205870696652203 0.0018807910479418728 -0.002438467694446445
0.007847066165723959 0.0014531844591690567 -0.0021461679134517912
0.007488261634795713 0.0010255778703962405 -0.0013619820820167667
0.012580326526993103 0.0062256582800801225 -0.002229051897302271
0.012221522295386164 0.005798052048024548 -0.002769452752545477
0.011862717465136613 0.00537044510253449 -0.0023973193019628533
0.011503913233529674 0.004942838870478915 -0.0024622539058327684
0.011145108403280124 0.004515231924988858 -0.002702982397750021
0.010786304171673184 0.004087625692933283 -0.003243384417146445
0.010427499341423632 0.0036600187474432255 -0.003273763461038471
0.010068695109816693 0.003232412515387651 -0.0029958130326122054
0.009709890878209754 0.0028048062833320765 -0.002926134271547199
0.009351086047960203 0.0023771993378420187 -0.002741345204412938
0.008992281816353264 0.0019495931057864442 -0.0028424644842743882
0.00863347728542502 0.001521986517013628 -0.0022197142243385324
0.008274672754496774 0.0010943799282408118 -0.002512014005333186
0.013007933115765919 0.005866853749151878 -0.0020648506470024594
0.01264912888415898 0.005439247517096303 -0.0025262983981519946
0.012290324053909429 0.005011640571606245 -0.0024959202855825433
0.01193151982230249 0.00458403433955067 -0.0024309847503900537
0.01157271499205294 0.004156427394060613 -0.0024672956205904492
0.011213910760446 0.0037288211620050385 -0.002652084222063423
0.010855105930196448 0.0033012142165149807 -0.002655248390510679
0.010496301698589509 0.002873607984459406 -0.0026584111619740733
0.01013749746698257 0.0024460017524038317 -0.0026947222650051126
0.009778692636733019 0.002018394806913774 -0.002731033135205508
0.00941988840512608 0.0015907885748581993 -0.002666098764166237
0.009061083874197835 0.0011631819860853832 -0.0027024096343666324
0.00870227934326959 0.000735575397312567 -0.001975902123376728
0.008343474812341345 0.0003079688085397509 -0.001406077877618373
0.013076735472931795 0.005080442986168057 -0.001912390114739538
0.012717930642682245 0.004652836040678 -0.0024212764110416183
0.012359126411075306 0.004225229808622425 -0.001837409334257246
0.012000321580825755 0.0037976228631323673 -0.0018342456314712772
0.011641517349218816 0.003370016631076793 -0.0017303585773333916
0.011282712518969265 0.002942409685586735 -0.0027868864126503476
0.010923908287362326 0.0025148034535311605 -0.002020133892074228
0.010565104055755387 0.002087197221475586 -0.0022608637809753427
0.010206299225505837 0.0016595902759855281 -0.002361983060836793
0.009847494993898897 0.0012319840439299536 -0.002426917664706708
0.009488690462970652 0.0008043774551571375 -0.002323029562830926
0.009129885932042406 0.0003767708663843213 -0.001700280699878932
0.008771081401114161 -5.0835722388494824e-05 -0.0015963929472491154
0.008412276870185916 -0.00047844231116131095 -0.0012712879106402406
0.01314553723145506 0.004294031509749755 -0.0019969111308455476
0.012786732999848121 0.0038664252776941803 -0.0017561824060976514
0.01242792816959857 0.0034388183322041225 -0.0017258027801290163
0.012069123937991632 0.003011212100148548 -0.0017289654351770887
0.011710319107742081 0.00258360515465849 -0.001488237059675158
0.011351514876135142 0.0021559989226029156 -0.001949684927240015
0.010992710644528203 0.001728392690547341 -0.002134473994374276
0.010633905814278652 0.0013007857450572833 -0.0023655241820961246
0.010275101582671713 0.0008731795130017087 -0.002368686720728875
0.009916297051743468 0.0004455729242288926 -0.0024049978237599143
0.009557492520815222 1.7966335456076468e-05 -0.002164269099012018
0.009198687989886977 -0.00040964025331673967 -0.002133890055119992
0.008839883458958732 -0.0008372468420895558 -0.0021702011581510314
0.008481078928030487 -0.0012648534308623719 -0.002173363696783782
0.008122274397102242 -0.001692460019635188 -0.0021084293257445106
0.00776347001583465 -0.0021200664300493836 -0.001510926755145193
0.007404665484906405 -0.0025476730188221997 -0.0016148146241903314
0.005969447398608588 -0.004258099329323809 -0.0013765512267127642
0.005610642886387925 -0.004685705895801797 -0.0013797138817608365
0.005251838374167261 -0.005113312462279786 -0.0014493939233943829
0.0048930338432390166 -0.005540919051052602 -0.0016341831069439658
0.0045342293871410986 -0.005968525550646107 -0.0013418835587799558
0.004175424856212853 -0.006396132139418924 -0.0011522962013259539
0.003457815944017016 -0.007251345138605935 -0.0011474989587441095
0.003099011413088771 -0.007678951727378752 -0.0011171195656061181
0.002022597969964689 -0.008961771315338578 -0.0017797050531953582
0.001663793439036444 -0.009389377904111396 -0.0021048109047114858
0.0013049889081081989 -0.009816984492884212 -0.0022086978424340495
0.0009461843771799539 -0.010244591081657027 -0.001770517905242742
0.00022857531532346394 -0.01109980425920266 -0.001844317535869778
0.012855534401654146 0.003080014100597183 -0.0011861163657158622
0.012496730170047207 0.0026524078685416087 -0.0011164373718202123
0.012137925339797656 0.002224800923051551 -0.0011813718592748055
0.011779121108190717 0.0017971946909959764 -0.0013709579361602673
0.011420316876583778 0.0013695884589404017 -0.0018091388046741494
0.011061512046334227 0.0009419815134503441 -0.001705250935629011
0.010702707814727288 0.0005143752813947694 -0.0021801793482154616
0.010343903283799043 8.676869262195334e-05 -0.0028039650060236463
0.009985098752870796 -0.0003408378961508628 -0.0024788591545075187
0.009626294221942552 -0.0007684444849236789 -0.0025799779687076816
0.009267489691014307 -0.0011960510736964951 -0.0027695645112544307
0.008908685160086062 -0.001623657662469311 -0.002766401506960393
0.008549880629157817 -0.0020512642512421275 -0.002662513870745898
0.008191076247890226 -0.002478870661656323 -0.0025928346440196046
0.00783227171696198 -0.002906477250429139 -0.0029364554211497315
0.007473467186033735 -0.0033340838392019547 -0.0019259871914982804
0.007114662655105491 -0.003761690427974771 -0.002364167710766197
0.006755858124177245 -0.0041892970167475875 -0.0020862172823399314
0.006397053630664163 -0.004616903560930748 -0.0025611459277570256
0.0060382491184435 -0.005044510127408737 -0.0025579817593097695
0.005679444606222836 -0.005472116693886725 -0.0026591010391712197
0.0053206400752945915 -0.0058997232826595416 -0.0026894807815551766
0.0049618356191966735 -0.006327329782253047 -0.0026531696785241374
0.004603031088268428 -0.006754936371025863 -0.0025492827408015737
0.004244226707000836 -0.007182542781440059 -0.002318232553079725
0.003885422176072591 -0.007610149370212874 -0.0026105318684130916
0.003526617645144346 -0.00803775595898569 -0.0028001193422824153
0.003167813263876754 -0.008465362369399886 -0.0021773690823465594
0.0028090087329485087 -0.008892968958172702 -0.0027748721186071643
0.002450204202020264 -0.009320575546945518 -0.002875990932807327
0.002091399671092019 -0.009748182135718335 -0.0028063105419278154
0.0017325951401637738 -0.010175788724491151 -0.002528360579162837
0.001373790609235529 -0.010603395313263967 -0.002250411082059146
0.0010149860783072839 -0.011031001902036782 -0.00197246065363288
0.0006561815473790388 -0.0114586084908096 -0.0019361496670171627
0.00029737731577209964 -0.011886214722865173 -0.0017050992464646706
-6.142751447745114e-05 -0.012313821668355231 -0.0013799942098557958
0.012565532285287713 0.0018659960928020004 -0.0012985916109755646
0.012206728053680773 0.001438389860746426 -0.0013349027140066038
0.011847923822073834 0.0010107836286908512 -0.0017070361645892273
0.011489118991824284 0.0005831766832007937 -0.0018918252317234885
0.011130314760217344 0.00015557045114521906 -0.002122875303030015
0.0107715102292891 -0.00027203613762759706 -0.002353925025090576
0.010412705698360855 -0.0006996427264004132 -0.0026790308766067037
0.01005390116743261 -0.0011272493151732294 -0.003051164327189327
0.009695096636504365 -0.0015548559039460456 -0.0032359533943235883
0.00933629210557612 -0.0019824624927188617 -0.003467004047706724
0.008977487574647875 -0.002410069081491678 -0.0035708905197680005
0.008618683193380283 -0.0028376754919058732 -0.003540511941537262
0.008259878662452038 -0.0032652820806786894 -0.003475578036159278
0.007901074131523793 -0.003692888669451505 -0.0034787405747920283
0.007542269600595548 -0.004120495258224321 -0.00354842096567154
0.007183465069667302 -0.004548101846997138 -0.0036180997267365464
0.0068246605761542204 -0.004975708391180299 -0.0035531658213585624
0.006465856063933557 -0.005403314957658287 -0.0032608660403639087
0.006107051551712894 -0.005830921524136275 -0.0033305452670902022
0.005748247020784649 -0.006258528112909092 -0.003366856137290598
0.005389442564686731 -0.006686134612502597 -0.0033364766277372846
0.005030638033758485 -0.007113741201275414 -0.0032715420238673696
0.004671833652490893 -0.007541347611689609 -0.003307853126898409
0.004313029121562648 -0.007968954200462425 -0.003242918523028494
0.0039542245906344035 -0.00839656078923524 -0.0032125390134751805
0.0035954202093668114 -0.008824167199649437 -0.0034435896668583163
0.003236615678438566 -0.009251773788422252 -0.0031512898858636626
0.0028778111475103213 -0.009679380377195068 -0.003120910609140993
0.0025190066165820765 -0.010106986965967886 -0.002931324066594244
0.002160202085653831 -0.010534593554740701 -0.002537310356274248
0.0018013975547255864 -0.010962200143513517 -0.0023477242793887862
0.0014425930237973413 -0.011389806732286333 -0.0019537105690687903
0.0010837884928690963 -0.01181741332105915 -0.0017641244921833288
0.0007249842612621571 -0.012245019553114724 -0.0015233947196975361
0.00036617943101260625 -0.012672626498604782 -0.0013338084099814307
0.012634334999170832 0.0010795850304968755 -0.0011786768445745121
0.012275530767563892 0.0006519787984413009 -0.0014709763927385222
0.011916725937314342 0.00022437185295124323 -0.001711704768240453
0.011557921705707403 -0.00020323437910433137 -0.0019524345407262455
0.011199117174779158 -0.0006308409678771475 -0.0021420205011963857
0.010840312643850911 -0.0010584475566499637 -0.0028155813924968256
0.010481508112922667 -0.0014860541454227798 -0.002880515763536097
0.010122703581994422 -0.001913660734195596 -0.003607022808864714
0.009763899051066177 -0.002341267322968412 -0.0032348881941288723
0.009405094520137932 -0.0027688739117412283 -0.004136276431381703
0.00904629013887034 -0.0031964803221554237 -0.004428576212376357
0.008687485607942094 -0.00362408691092824 -0.003967128228396178
0.00832868107701385 -0.004051693499701056 -0.003997507505118848
0.007969876546085605 -0.004479300088473872 -0.003927827812731267
0.00761107201515736 -0.004906906677246688 -0.003924664575606585
0.007252267521644278 -0.005334513221429849 -0.003955043386667968
0.0068934630094236145 -0.0057621197879078375 -0.0030610680114477886
0.006534658497202951 -0.006189726354385826 -0.00371009041555226
0.006175853966274706 -0.006617332943158642 -0.0037069271784275783
0.005817049510176788 -0.0070449394427521475 -0.0036372474860399974
0.005458244979248543 -0.007472546031524964 -0.0035333605483174337
0.005099440597980951 -0.00790015244193916 -0.003530196845531465
0.004740636067052706 -0.008327759030711975 -0.0035951312165707363
0.004381831536124461 -0.008755365619484791 -0.0034912442788481725
0.004023027154856869 -0.009182972029898987 -0.0034549331758171333
0.0036642226239286236 -0.009610578618671803 -0.003129828488454224
0.0033054180930003787 -0.010038185207444619 -0.003025940386578442
0.002946613562072134 -0.010465791796217436 -0.0027948913630098117
0.0025878090311438886 -0.010893398384990252 -0.002469784813001753
0.002229004500215644 -0.011321004973763068 -0.0021918343845754875
0.0018701999692873987 -0.011748611562535883 -0.001960784196853639
0.0015113954383591537 -0.0121762181513087 -0.0015886505134403716
0.013061941231226407 0.0007207807988899363 -0.0011345766251906763
0.012703136999619467 0.0002931745668343616 -0.0013193658087402593
0.012344332169369917 -0.00013443237865569602 -0.0014232525136321794
0.011985527937762978 -0.0005620386107112707 -0.0018847003811970364
0.011626723406834733 -0.0009896451994840867 -0.0020694888662546886
0.011267918875906486 -0.001417251788256903 -0.0029934227932244552
0.010909114344978241 -0.001844858377029719 -0.003616173053160311
0.010550309814049997 -0.0022724649658025352 -0.003941278904676438
0.010191505283121752 -0.0027000715545753514 -0.004172329790890218
0.009832700752193507 -0.0031276781433481676 -0.004403378814458848
0.009473896370925916 -0.003555284553762363 -0.004302260000258685
0.00911509183999767 -0.003982891142535179 -0.004305423703044654
0.008756287309069424 -0.004410497731307995 -0.004204304423183204
0.00839748277814118 -0.004838104320080811 -0.004173925146460534
0.008038678247212935 -0.005265710908853628 -0.004143546335399152
0.007679873753699853 -0.0056933174530367885 -0.004078612197190524
0.0073210692414791894 -0.006120924019514777 -0.0037349902559071792
0.006962264729258526 -0.006548530585992765 -0.0038388783577829612
0.006603460198330281 -0.006976137174765582 -0.0037377588450908674
0.006244655742232363 -0.007403743674359087 -0.0036728249397128833
0.0058858512113041175 -0.007831350263131902 -0.0034832383971661342
0.0055270468300365255 -0.008258956673546099 -0.004465350415557624
0.005168242299108281 -0.008686563262318914 -0.003376344218850137
0.004809437768180036 -0.00911416985109173 -0.003311409614980222
0.004450633386912444 -0.009541776261505926 -0.0031218226067721857
0.004091828855984199 -0.009969382850278742 -0.002932236529886724
0.0037330243250559537 -0.010396989439051558 -0.0026915078051388277
0.003374219794127709 -0.010824596027824375 -0.002501921728253366
0.0030154152631994635 -0.011252202616597191 -0.003455211175605656
0.0026566107322712187 -0.011679809205370007 -0.00212923693470657
0.0022978062013429734 -0.012107415794142823 -0.0015888346824795019
0.0019390016704147286 -0.01253502238291564 -0.001194820972159506
0.012413134883253034 -0.000920843440960822 -0.001263129175640644
0.01205433035232479 -0.001348450029733638 -0.001555428723804654
0.011695525821396545 -0.0017760566185064542 -0.002368622459471227
0.0113367212904683 -0.0022036632072792704 -0.003240374615415932
0.010977916759540055 -0.0026312697960520865 -0.003583994694054128
0.01061911222861181 -0.0030588763848249027 -0.0039276154711842546
0.010260307697683565 -0.003486482973597719 -0.0042712362483143815
0.009901503316415972 -0.003914089384011914 -0.004460822325199843
0.009542698785487727 -0.00434169597278473 -0.004135716240853072
0.009183894254559483 -0.0047693025615575466 -0.004236835055053235
0.008825089723631238 -0.005196909150330362 -0.004132948815822602
0.008466285192702993 -0.005624515739103179 -0.003948159515857697
0.008107480699189911 -0.00605212228328634 -0.003944995813071729
0.007748676186969247 -0.006479728849764328 -0.003619889495894314
0.0073898716747485835 -0.006907335416242316 -0.00361672672443092
0.007031067143820339 -0.007334942005015133 -0.0033387762960046543
0.006672262687722421 -0.007762548504608638 -0.0032690959051251424
0.006313458156794175 -0.008190155093381455 -0.002943991217762233
0.005954653775526583 -0.008617761503795649 -0.0029743693303316845
0.005595849244598338 -0.009045368092568467 -0.0024711338337510837
0.005237044713670093 -0.009472974681341282 -0.0025722526479512466
0.004878240332402501 -0.009900581091755477 -0.002535941777750851
0.004519435801474256 -0.010328187680528294 -0.002163808094337584
0.004160631270546011 -0.01075579426930111 -0.002160644391551615
0.0038018267396177662 -0.011183400858073926 -0.001975855324417354
0.003443022208689521 -0.011611007446846741 -0.0017910662572830928
0.003084217677761276 -0.012038614035619559 -0.0015600172337144626
0.002725413146833031 -0.012466220624392375 -0.0011878827353939427
0.012123132053452118 -0.0021348608501133935 -0.0017947058659046901
0.011764327522523873 -0.0025624674388862096 -0.002297941828146578
0.011405522991595628 -0.002990074027659026 -0.00267007644288242
0.011046718460667383 -0.003417680616431842 -0.0029480268713086857
0.010687913929739138 -0.003845287205204658 -0.0032259763684123768
0.010329109548471547 -0.0042728936156188535 -0.003410765435546638
0.0099703050175433 -0.004700500204391669 -0.0034804451279342188
0.009611500486615056 -0.005128106793164486 -0.003450066084042193
0.009252695955686811 -0.0055557133819373015 -0.00411077030003071
0.008893891424758566 -0.005983319970710118 -0.003486983943730594
0.008535086931245484 -0.006410926514893279 -0.00349014811217785
0.008176282419024822 -0.006838533081371267 -0.003459768602624537
0.007817477906804158 -0.007266139647849256 -0.003167468821629883
0.007458673375875913 -0.007693746236622072 -0.0031025346834212555
0.007099868919777995 -0.008121352736215578 -0.0029129481408745063
0.006741064388849749 -0.008548959324988394 -0.0028480142354965223
0.006382260007582157 -0.008976565735402588 -0.002658427692949773
0.006023455476653912 -0.009404172324175406 -0.0025934935547411455
0.005664650945725667 -0.009831778912948222 -0.0024923742748796953
0.005305846564458075 -0.010259385323362416 -0.002391254995018245
0.00494704203352983 -0.010686991912135234 -0.0020476346835494054
0.004588237502601585 -0.01111459850090805 -0.0020507974550127996
0.00422943297167334 -0.011542205089680865 -0.002020418876782061
0.003870628440745095 -0.01196981167845368 -0.0016264050500467433
0.003153019378888605 -0.012825024855999314 -0.0011621719459071768
0.00279421484796036 -0.01325263144477213 -0.0011653346009552492
0.012191934468013931 -0.00292127226913576 -0.0011871724855154766
0.011474325406157442 -0.0037764854466813924 -0.0013495106250047697
0.011115520875229197 -0.0042040920354542086 -0.001551020075567068
0.010756716493961605 -0.004631698445868404 -0.0017525305738672627
0.010397911963033359 -0.00505930503464122 -0.002479037502780558
0.010039107432105114 -0.005486911623414036 -0.0022479873150587095
0.00968030290117687 -0.005914518212186852 -0.002083767903968693
0.009321498370248624 -0.006342124800959669 -0.002184887416660787
0.008962693876735543 -0.006769731345142829 -0.001418135943822564
0.00860388936451488 -0.007197337911620818 -0.0019585378468036665
0.008245084852294216 -0.007624944478098806 -0.0018546502105891718
0.007886280321365971 -0.008052551066871623 -0.0019557690247893346
0.007527475865268053 -0.008480157566465129 -0.0016306629404425634
0.007168671334339807 -0.008907764155237944 -0.0018713929457589997
0.006809866953072215 -0.009335370565652139 -0.0019017721060663475
0.00645106242214397 -0.009762977154424956 -0.0018986084032803787
0.006092257891215726 -0.010190583743197772 -0.0015735022025182856
0.0057334535099481335 -0.010618190153611966 -0.0015038232086226357
0.005374648979019889 -0.011045796742384784 -0.0013999351067468537
0.005015844448091643 -0.0114734033311576 -0.0012960484018549336
0.011901931638213016 -0.004135289678288331 -0.0013219946995377556
