ply
format ascii 1.0
element vertex 723
property float x
property float y
property float z
end_header
0.0062004574574530125 -0.00530612887814641 -0.0030053355731070033
0.0062004574574530125 -0.004825208336114883 -0.0028419962618499986
0.0062004574574530125 -0.004344287794083357 -0.0026786564849317065
0.0062004574574530125 -0.0038633670192211866 -0.0025915380101650945
0.0062004574574530125 -0.0033824462443590164 -0.0023397046606987706
0.0062004574574530125 -0.00290152570232749 -0.0022525857202708712
0.0062004574574530125 -0.0024206049274653196 -0.002196641406044363
0.0062004574574530125 -0.0019396842690184712 -0.0022861454635858527
0.0062004574574530125 -0.001458763494156301 -0.0017713641282171002
0.0062004574574530125 -0.0009778428357094526 -0.0013621869729831806
0.0062004574574530125 -0.0004969221190549433 -0.0016016557347029439
0.0062004574574530125 -1.6001462427084334e-05 -0.0016043818322941652
0.0062004574574530125 0.0004649192269425839 -0.0015782081754878155
0.0062004574574530125 0.0009458399144932628 -0.0015520344022661439
0.0062004574574530125 0.0014267605729401112 -0.00202075159177184
0.0062004574574530125 0.0019076813478022814 -0.0015059697907418004
0.0062004574574530125 0.002388601889833808 -0.0014797974145039907
0.0062004574574530125 0.002869522664695978 -0.001392677426338195
0.0062004574574530125 0.0033504432067275047 -0.0013665036531165234
0.0062004574574530125 0.003831363981589675 -0.00139778759330511
0.0062004574574530125 0.004312284756451845 -0.0014005128759890786
0.0062004574574530125 0.004793205298483372 -0.0014605459291487924
0.0062004574574530125 0.005274125840514898 -0.0014918289380148044
0.0062004574574530125 0.005755046848207712 -0.0014358842745423308
0.0062004574574530125 0.006235967390239239 -0.0012725454289466134
0.0062004574574530125 0.006716887932270765 -0.0008341124048456542
0.0062004574574530125 0.007197808939963579 -0.0002966861356981091
0.005719536915421487 -0.010115335695445538 -0.0038289839867502442
0.005719536915421487 -0.00915349368005991 -0.0038993873167783013
0.005719536915421487 -0.00867257360368967 -0.0038966620340943328
0.005719536915421487 -0.008191652595996857 -0.0038939365185797206
0.005719536915421487 -0.00771073205396533 -0.003833903931081294
0.005719536915421487 -0.007229811977595091 -0.0037738708779215804
0.005719536915421487 -0.006748890969902277 -0.003713838290423154
0.005719536915421486 -0.00626797042787075 -0.0035147755406796924
0.005719536915421486 -0.005787049885839224 -0.003117213025689124
0.005719536915421486 -0.00530612887814641 -0.0030571804381906978
0.005719536915421486 -0.004825208336114883 -0.002736566821113228
0.005719536915421486 -0.004344287794083357 -0.0025773614179342976
0.005719536915421486 -0.0038633670192211866 -0.002256746869534253
0.005719536915421486 -0.0033824462443590164 -0.0022540218196809283
0.005719536915421486 -0.00290152570232749 -0.001933407271280884
0.005719536915421486 -0.0024206049274653196 -0.0018439034465700381
0.005719536915421486 -0.0019396842690184712 -0.001754399039782583
0.005719536915421486 -0.001458763494156301 -0.001841518911533057
0.005719536915421486 -0.0009778428357094526 -0.0018387931631878012
0.005719536915421486 -0.0004969221190549433 -0.0020021321251988402
0.005719536915421486 -1.6001462427084334e-05 -0.001942099537700414
0.005719536915421486 0.0004649192269425839 -0.0017828935524448746
0.005719536915421486 0.0009458399144932628 -0.001543424325063824
0.005719536915421486 0.0014267605729401112 -0.0017067630542442196
0.005719536915421486 0.0019076813478022814 -0.0017329363618046039
0.005719536915421486 0.002388601889833808 -0.0018200563499703997
0.005719536915421486 0.002869522664695978 -0.0016608503647148603
0.005719536915421486 0.0033504432067275047 -0.0016295663081109517
0.005719536915421486 0.003831363981589675 -0.0015982828335836523
0.005719536915421486 0.004312284756451845 -0.0016244561411440366
0.005719536915421486 0.004793205298483372 -0.0015349522000178688
0.005719536915421486 0.005274125840514898 -0.0018744168337434524
0.005719536915421486 0.005755046848207712 -0.0016349471407011145
0.005719536915421486 0.006235967390239239 -0.0016036632005125278
0.005719536915421486 0.006716887932270765 -0.0014444572152569884
0.005719536915421486 0.007197808939963579 -0.00043244456173852016
0.005719536915421486 0.007678729481995106 -0.00042971930815838207
0.005719536915421486 0.00815965048968792 -0.00034021446481347014
0.005719536915421486 0.008640571497380733 -1.9600980522226772e-05
0.005238615907728673 -0.010115335695445538 -0.0036495660897344346
0.005238615907728673 -0.00915349368005991 -0.004052903968840837
0.005238615907728673 -0.00867257360368967 -0.0038455028552561994
0.005238615907728673 -0.008191652595996857 -0.003876786911860108
0.005238615907728673 -0.00771073205396533 -0.003789667040109634
0.005238615907728673 -0.007229811977595091 -0.003626327263191342
0.005238615907728673 -0.006748890969902277 -0.003657611086964607
0.005238615907728672 -0.00626797042787075 -0.003450210206210613
0.005238615907728672 -0.005787049885839224 -0.003452935023233294
0.005238615907728673 -0.00530612887814641 -0.0036121408920735116
0.005238615907728672 -0.004825208336114883 -0.003121206304058432
0.005238615907728672 -0.004344287794083357 -0.002445587189868092
0.005238615907728672 -0.0038633670192211866 -0.0021061226725578304
0.005238615907728672 -0.0033824462443590164 -0.0021088484209030862
0.005238615907728672 -0.00290152570232749 -0.0019455085275694721
0.005238615907728672 -0.0024206049274653196 -0.0018583895871415728
0.005238615907728672 -0.0019396842690184712 -0.0018896725960075849
0.005238615907728672 -0.001458763494156301 -0.0018337279325351113
0.005238615907728672 -0.0009778428357094526 -0.002032790798693895
0.005238615907728672 -0.0004969221190549433 -0.0021222948562353845
0.005238615907728672 -1.6001462427084334e-05 -0.0021250203717499967
0.005238615907728672 0.0004649192269425839 -0.001686587464064359
0.005238615907728672 0.0009458399144932628 -0.0020841499790549274
0.005238615907728672 0.0014267605729401112 -0.0019970305729657407
0.005238615907728672 0.0019076813478022814 -0.0019997563213109966
0.005238615907728672 0.002388601889833808 -0.0019126363331452006
0.005238615907728672 0.002869522664695978 -0.0018255169270560139
0.005238615907728672 0.0033504432067275047 -0.0019150208681821817
0.005238615907728672 0.003831363981589675 -0.0017076198710128658
0.005238615907728672 0.004312284756451845 -0.0018668258562684053
0.005238615907728672 0.004793205298483372 -0.0018406520830467337
0.005238615907728672 0.005274125840514898 -0.0017847078852355474
0.005238615907728672 0.005755046848207712 -0.0017287632217630737
0.005238615907728672 0.006235967390239239 -0.0017025894485414022
0.005238615907728672 0.006716887932270765 -0.001450757612474262
0.005238615907728672 0.007197808939963579 -0.0014820410870015615
0.005238615907728672 0.007678729481995106 -0.000599474064074456
0.005238615907728672 0.00815965048968792 -1.9164124751113646e-05
0.005238615907728672 0.008640571497380733 -0.0004167268925812089
0.005238615907728672 0.009121491573750973 -7.549941074102476e-06
0.0047576953656971455 -0.010596255771815777 -0.0017010272713378065
0.0047576953656971455 -0.009634414687752724 -0.003344324883073568
0.004757695365697146 -0.00915349368005991 -0.003753501689061522
0.004757695365697146 -0.00867257360368967 -0.003840621560811996
0.004757695365697146 -0.008191652595996857 -0.0038965663406997915
0.004757695365697146 -0.00771073205396533 -0.0039227395318448535
0.004757695365697146 -0.007229811977595091 -0.003862707410007715
0.004757695365697146 -0.006748890969902277 -0.003918651491403579
0.0047576953656971455 -0.00626797042787075 -0.003485086606815457
0.004757695365697146 -0.005787049885839224 -0.0038245504256337877
0.0047576953656971455 -0.00530612887814641 -0.0033909848425537343
0.0047576953656971455 -0.004825208336114883 -0.003301480552181601
0.0047576953656971455 -0.004344287794083357 -0.002903918037191033
0.0047576953656971455 -0.0038633670192211866 -0.0021600979380309577
0.0047576953656971455 -0.0033824462443590164 -0.0017625353066250675
0.0047576953656971455 -0.00290152570232749 -0.0014824386453256005
0.0047576953656971455 -0.0024206049274653196 -0.001283375779166817
0.0047576953656971455 -0.0019396842690184712 -0.0012520918389782303
0.0047576953656971455 -0.001458763494156301 -9.127338125836046e-05
0.0047576953656971455 -0.0009778428357094526 -0.001384289353154599
0.0047576953656971455 -0.0004969221190549433 -0.0017237539868801826
0.0047576953656971455 -1.6001462427084334e-05 -0.002132930792868137
0.0047576953656971455 0.0004649192269425839 -0.002220050664618611
0.0047576953656971455 0.0009458399144932628 -0.0022173258475959297
0.0047576953656971455 0.0014267605729401112 -0.0021572923287749286
0.0047576953656971455 0.0019076813478022814 -0.002097259741276502
0.0047576953656971455 0.002388601889833808 -0.0019380542216822498
0.0047576953656971455 0.002869522664695978 -0.0019067702814936631
0.0047576953656971455 0.0033504432067275047 -0.0019040441839024418
0.0047576953656971455 0.003831363981589675 -0.0018440120620653027
0.0047576953656971455 0.004312284756451845 -0.001870185369625687
0.0047576953656971455 0.004793205298483372 -0.0018389018950983875
0.0047576953656971455 0.005274125840514898 -0.001778869424015283
0.0047576953656971455 0.005755046848207712 -0.0017475853674113744
0.0047576953656971455 0.006235967390239239 -0.001803530030883848
0.0047576953656971455 0.006716887932270765 -0.0017722460906952613
0.0047576953656971455 0.007197808939963579 -0.0016130401054397219
0.0047576953656971455 0.007678729481995106 -0.0016689847689121955
0.0047576953656971455 0.00815965048968792 -0.0014295150758698576
0.0047576953656971455 0.008640571497380733 -0.0006856955005787308
0.004276774823665619 -0.010596255771815777 -0.00218048901297152
0.004276774823665619 -0.010115335695445538 -0.0015545642236247654
0.004276774823665619 -0.009634414687752724 -0.0033108142670243974
0.00427677482366562 -0.00915349368005991 -0.0035502831451594825
0.00427677482366562 -0.00867257360368967 -0.0037897527217864986
0.00427677482366562 -0.008191652595996857 -0.0038497862406074996
0.00427677482366562 -0.00771073205396533 -0.003909818362444638
0.00427677482366562 -0.007229811977595091 -0.003941102419048547
0.00427677482366562 -0.006748890969902277 -0.003972386009991168
0.00427677482366562 -0.00626797042787075 -0.003916441462934016
0.00427677482366562 -0.005787049885839224 -0.00400594575330615
0.00427677482366562 -0.00530612887814641 -0.003842606674879789
0.00427677482366562 -0.004825208336114883 -0.0036352046299725767
0.004276774823665619 -0.004344287794083357 -0.003009279957041144
0.004276774823665619 -0.0038633670192211866 -0.0019069088157266374
0.004276774823665619 -0.0033824462443590164 -0.0014977316604927178
0.004276774823665619 -0.00290152570232749 -0.0014106121379882093
0.004276774823665619 -0.0024206049274653196 -0.0011587798362597819
0.004276774823665619 -0.0019396842690184712 -0.0008627316565252835
0.004276774823665619 -0.001458763494156301 -0.0013657661620527502
0.004276774823665619 -0.0009778428357094526 -0.0011583643499761816
0.004276774823665619 -0.0004969221190549433 -0.001102419686503708
0.004276774823665619 -1.6001462427084334e-05 -0.0015359859680756922
0.004276774823665619 0.0004649192269425839 -0.0018565994687378402
0.004276774823665619 0.0009458399144932628 -0.0020158055704087015
0.004276774823665619 0.0014267605729401112 -0.0022552751470357175
0.004276774823665619 0.0019076813478022814 -0.00195922702550888
0.004276774823665619 0.002388601889833808 -0.00223932322114706
0.004276774823665619 0.002869522664695978 -0.0022993562743067737
0.004276774823665619 0.0033504432067275047 -0.0020919556263834234
0.004276774823665619 0.003831363981589675 -0.002036010148003697
0.004276774823665619 0.004312284756451845 -0.002433572662994265
0.004276774823665619 0.004793205298483372 -0.001896147732622921
0.004276774823665619 0.005274125840514898 -0.0019274316728115077
0.004276774823665619 0.005755046848207712 -0.0018403118010610338
0.004276774823665619 0.006235967390239239 -0.001753191812895238
0.004276774823665619 0.006716887932270765 -0.0014137272955849762
0.004276774823665619 0.007197808939963579 -0.0018112902762368317
0.004276774823665619 0.007678729481995106 -0.0018425742164254184
0.004276774823665619 0.00815965048968792 -0.0013051480054855342
0.004276774823665619 0.008640571497380733 -0.0010977470083162184
0.004276774823665619 0.009121491573750973 -0.00029536662623286193
0.003795853815972805 -0.010115335695445538 -0.0016679354012012477
0.0037958538159728055 -0.009634414687752724 -0.0023936813231557603
0.0037958538159728055 -0.00915349368005991 -0.003170276759192347
0.0037958538159728055 -0.00867257360368967 -0.004165304359048604
0.0037958538159728055 -0.008191652595996857 -0.003885207464918494
0.0037958538159728055 -0.00771073205396533 -0.003972327336668967
0.0037958538159728055 -0.007229811977595091 -0.004135666880756616
0.0037958538159728055 -0.006748890969902277 -0.0041329413652420035
0.0037958538159728055 -0.00626797042787075 -0.004159115254878997
0.0037958538159728055 -0.005787049885839224 -0.004127831198275088
0.0037958538159728055 -0.00530612887814641 -0.00409654714167118
0.0037958538159728055 -0.004825208336114883 -0.003775933757424354
0.0037958538159728055 -0.004344287794083357 -0.003239400684833526
0.003795853815972805 -0.0038633670192211866 -0.0013635912910103794
0.003795853815972805 -0.0033824462443590164 -0.0011810418218374248
0.003795853815972805 -0.00290152570232749 -0.0008604274480603631
0.003795853815972805 -0.0019396842690184712 -0.00042535486863926004
0.003795853815972805 -0.001458763494156301 -0.00042262961505912196
0.003795853815972805 -0.0009778428357094526 -0.0002235669817309822
0.003795853815972805 -0.0004969221190549433 -0.00047539910883642684
0.003795853815972805 -1.6001462427084334e-05 -0.000501572852954268
0.003795853815972805 0.0004649192269425839 -0.0008790891151875253
0.003795853815972805 0.0009458399144932628 -0.0011751367710530754
0.003795853815972805 0.0014267605729401112 -0.0017343054059892889
0.003795853815972805 0.0019076813478022814 -0.0017030214658007021
0.0037958538159728055 0.002388601889833808 -0.0021121981553733345
0.0037958538159728055 0.002869522664695978 -0.002109473338350653
0.0037958538159728055 0.0033504432067275047 -0.001829376793466508
0.0037958538159728055 0.003831363981589675 -0.0018853209912776943
0.003795853815972805 0.004312284756451845 -0.0017261150060221549
0.003795853815972805 0.004793205298483372 -0.0015669094864279027
0.003795853815972805 0.005274125840514898 -0.001535625546239316
0.003795853815972805 0.005755046848207712 -0.0014755929587408896
0.003795853815972805 0.006235967390239239 -0.0014155609533190723
0.003795853815972805 0.006716887932270765 -0.0013555274344980712
0.003795853815972805 0.007197808939963579 -0.0015188662800937887
0.003795853815972805 0.007678729481995106 -0.001429362338967621
0.003795853815972805 0.00815965048968792 -0.0015164818614721294
0.003795853815972805 0.008640571497380733 -0.0005980164860375221
0.0033149330411106352 -0.010596255771815777 -0.0021958490833640094
0.003314933041110635 -0.010115335695445538 -0.0016810672823339696
0.0033149330411106352 -0.009634414687752724 -0.003272483823820948
0.0033149330411106352 -0.00915349368005991 -0.004042693413794041
0.0033149330411106352 -0.00867257360368967 -0.003577107563614845
0.0033149330411106352 -0.008191652595996857 -0.0038572046905755992
0.0033149330411106352 -0.00771073205396533 -0.003888487815856933
0.0033149330411106352 -0.007229811977595091 -0.004087550099939108
0.0033149330411106352 -0.006748890969902277 -0.0041188341565430164
0.0033149330411106352 -0.00626797042787075 -0.00420833844691515
0.0033149330411106352 -0.005787049885839224 -0.004182164557278156
0.0033149330411106352 -0.00530612887814641 -0.004213448613882065
0.0033149330411106352 -0.004825208336114883 -0.004187274724245071
0.0033149330411106352 -0.004344287794083357 -0.004100155085325241
0.0033149330411106352 -0.0038633670192211866 -0.0036909782793372865
0.003314933041110635 -0.0033824462443590164 -0.0013122078962624069
0.003314933041110635 -0.00290152570232749 -0.0005356123438104983
0.003314933041110635 -0.0024206049274653196 -2.0831057554459724e-05
0.003314933041110635 0.0019076813478022814 -0.0009696460911072786
0.003314933041110635 0.002388601889833808 -0.0007178141968324776
0.003314933041110635 0.002869522664695978 -0.0014616338303312655
0.003314933041110635 0.0033504432067275047 -0.00152166630141437
0.003314933041110635 0.003831363981589675 -0.0014954925281926985
0.003314933041110635 0.004312284756451845 -0.0015267764683812852
0.003314933041110635 0.004793205298483372 -0.0014396565966308113
0.003314933041110635 0.005274125840514898 -0.001470940536819398
0.003314933041110635 0.005755046848207712 -0.0013838211307302113
0.003314933041110635 0.006235967390239239 -0.0010877728927880521
0.003314933041110635 0.006716887932270765 -0.0011478064116090532
0.003314933041110635 0.007197808939963579 -0.0008959739934653039
0.003314933041110635 0.007678729481995106 -0.0008400283986702557
0.003314933041110635 0.00815965048968792 -0.0008427546126767989
0.003314933041110635 0.008640571497380733 -0.00040432109381072185
0.0028340124990791082 -0.010115335695445538 -0.0017186717595905061
0.0028340124990791087 -0.009634414687752724 -0.0024192817509174343
0.0028340124990791087 -0.00915349368005991 -0.0033857829403132196
0.0028340124990791087 -0.00867257360368967 -0.0035931840538978572
0.0028340124990791087 -0.008191652595996857 -0.003845016239210963
0.0028340124990791087 -0.00771073205396533 -0.004141063895076513
0.0028340124990791087 -0.007229811977595091 -0.004304402973502874
0.0028340124990791087 -0.006748890969902277 -0.004273118916898966
0.0028340124990791087 -0.00626797042787075 -0.004299292806535959
0.0028340124990791087 -0.005787049885839224 -0.0043864124454557896
0.0028340124990791087 -0.00530612887814641 -0.0041469428688287735
0.0028340124990791087 -0.004825208336114883 -0.004144218750298023
0.0028340124990791087 -0.004344287794083357 -0.004307557363063097
0.0028340124990791087 -0.0038633670192211866 -0.004148351028561592
0.0028340124990791087 -0.0033824462443590164 -0.003431556280702352
0.0028340124990791082 0.004312284756451845 -0.000336246739607304
0.0028340124990791082 0.004793205298483372 -0.00030496370163746146
0.0028340124990791082 0.005274125840514898 -0.00039208363159559635
0.0028340124990791082 0.005755046848207712 -7.146923599066178e-05
0.0028340124990791082 0.006235967390239239 -1.1436700333433344e-05
0.002353091724216938 -0.010596255771815777 -0.001449067494831979
0.0023530917242169385 -0.010115335695445538 -0.0019521020585671065
0.0023530917242169385 -0.009634414687752724 -0.002894144738093018
0.0023530917242169385 -0.00915349368005991 -0.0032917072530835863
0.0023530917242169385 -0.00867257360368967 -0.0036892697680741544
0.0023530917242169385 -0.008191652595996857 -0.0038484758697450157
0.0023530917242169385 -0.00771073205396533 -0.004007681738585234
0.0023530917242169385 -0.007229811977595091 -0.004166887607425451
0.0023530917242169385 -0.006748890969902277 -0.00422691972926259
0.0023530917242169385 -0.00626797042787075 -0.004258203785866499
0.0023530917242169385 -0.005787049885839224 -0.004260929301381111
0.0023530917242169385 -0.00530612887814641 -0.004009096883237362
0.0023530917242169385 -0.004825208336114883 -0.004289193544536829
0.0023530917242169385 -0.004344287794083357 -0.004609806928783655
0.0023530917242169385 -0.0038633670192211866 -0.004095025360584259
0.0023530917242169385 -0.0033824462443590164 -0.004126309417188168
0.0023530917242169385 -0.00290152570232749 -0.004070364870131016
0.0023530917242169385 -0.0024206049274653196 -0.0034444390330463644
0.0018721711821854117 -0.010115335695445538 -0.0013794116675853727
0.0018721711821854117 -0.009634414687752724 -0.002374440431594848
0.0018721711821854119 -0.00915349368005991 -0.0036376432981342073
0.0018721711821854119 -0.00867257360368967 -0.003478437196463346
0.0018721711821854119 -0.008191652595996857 -0.003855952993035316
0.0018721711821854119 -0.00771073205396533 -0.004019292537122965
0.0018721711821854119 -0.007229811977595091 -0.0042266943491995335
0.0018721711821854119 -0.006748890969902277 -0.004282638430595398
0.0018721711821854119 -0.00626797042787075 -0.004308811388909817
0.0018721711821854119 -0.005787049885839224 -0.0043060858733952045
0.0018721711821854119 -0.00530612887814641 -0.004216581117361784
0.0018721711821854119 -0.004825208336114883 -0.004127077292650938
0.0018721711821854119 -0.004344287794083357 -0.0040957932360470295
0.0018721711821854119 -0.0038633670192211866 -0.004064510110765696
0.0018721711821854119 -0.0033824462443590164 -0.0043163420632481575
0.0018721711821854119 -0.00290152570232749 -0.0042563085444271564
0.0018721711821854119 -0.0024206049274653196 -0.0035957104992121454
0.0013912505237385633 -0.010596255771815777 -0.0010826962534338234
0.0013912505237385633 -0.010115335695445538 -0.0013221650151535866
0.0013912505237385633 -0.009634414687752724 -0.0022168264258652925
0.0013912505237385635 -0.00915349368005991 -0.0031114881858229637
0.0013912505237385635 -0.00867257360368967 -0.0032009920105338097
0.0013912505237385635 -0.008191652595996857 -0.0039177872240543365
0.0013912505237385635 -0.00771073205396533 -0.00400729151442647
0.0013912505237385635 -0.007229811977595091 -0.004166497383266687
0.0013912505237385635 -0.006748890969902277 -0.004197781439870596
0.0013912505237385637 -0.00626797042787075 -0.00485837971791625
0.0013912505237385635 -0.005787049885839224 -0.004232454113662243
0.0013912505237385635 -0.00530612887814641 -0.004263737704604864
0.0013912505237385637 -0.004825208336114883 -0.0045032077468931675
0.0013912505237385635 -0.004344287794083357 -0.004207158926874399
0.0013912505237385635 -0.0038633670192211866 -0.004267191514372826
0.0013912505237385635 -0.0033824462443590164 -0.004241017624735832
0.0013912505237385635 -0.00290152570232749 -0.0040336172096431255
0.0013912505237385635 -0.0024206049274653196 -0.0042326794937253
0.0013912505237385635 -0.0019396842690184712 -0.0041455598548054695
0.0013912505237385635 -0.001458763494156301 -0.003893727669492364
0.0009103298070840539 -0.010596255771815777 -0.0006922059110365807
0.000910329807084054 -0.009634414687752724 -0.0019452975830063222
0.0009103298070840541 -0.00915349368005991 -0.002671043621376157
0.0009103298070840542 -0.00867257360368967 -0.0034221059177070856
0.0009103298070840542 -0.008191652595996857 -0.003585444763302803
0.0009103298070840542 -0.00771073205396533 -0.003962961956858635
0.0009103298070840542 -0.007229811977595091 -0.0037638992071151733
0.0009103298070840543 -0.006748890969902277 -0.004278680309653282
0.0009103298070840543 -0.00626797042787075 -0.0043658004142344
0.0009103298070840543 -0.005787049885839224 -0.004363073967397213
0.0009103298070840543 -0.00530612887814641 -0.004303042311221361
0.0009103298070840543 -0.004825208336114883 -0.004300316330045462
0.0009103298070840544 -0.004344287794083357 -0.005000927485525608
0.0009103298070840543 -0.0038633670192211866 -0.004431694280356169
0.0009103298070840543 -0.0033824462443590164 -0.004371660761535168
0.0009103298070840543 -0.00290152570232749 -0.004212455358356237
0.0009103298070840543 -0.0024206049274653196 -0.004299574997276068
0.0009103298070840543 -0.0019396842690184712 -0.0043257479555904865
0.0009103298070840542 -0.001458763494156301 -0.003928185440599918
0.0009103298070840542 -0.0009778428357094526 -0.0032391122076660395
0.0004294091195333751 -0.010115335695445538 -0.0015809250762686133
0.0004294091195333751 -0.009634414687752724 -0.0016122082015499473
0.0004294091195333752 -0.00915349368005991 -0.002408229047432542
0.0004294091195333753 -0.00867257360368967 -0.003039539558812976
0.00042940911953337534 -0.008191652595996857 -0.003508256282657385
0.0004294091195333754 -0.00771073205396533 -0.003905818797647953
0.0004294091195333754 -0.007229811977595091 -0.004104882013052702
0.0004294091195333754 -0.006748890969902277 -0.004194385837763548
0.00042940911953337545 -0.00626797042787075 -0.004283889662474394
0.00042940911953337545 -0.005787049885839224 -0.004315173719078302
0.00042940911953337545 -0.00530612887814641 -0.004375206306576729
0.0004294091195333755 -0.004825208336114883 -0.004655303433537483
0.00042940911953337545 -0.004344287794083357 -0.004315838683396578
0.00042940911953337534 -0.0038633670192211866 -0.0037566700484603643
0.00042940911953337545 -0.0033824462443590164 -0.004526878707110882
0.00042940911953337545 -0.00290152570232749 -0.004363540094345808
0.00042940911953337545 -0.0024206049274653196 -0.004562602378427982
0.0004294091195333754 -0.0019396842690184712 -0.004153426270931959
0.0004294091195333754 -0.001458763494156301 -0.004156150389462709
0.0004294091195333754 -0.0009778428357094526 -0.004100206308066845
0.0004294091195333754 -0.0004969221190549433 -0.0038483741227537394
-5.1511557103367346e-05 -0.009634414687752724 -0.0014323669020086527
-5.151155710336726e-05 -0.00915349368005991 -0.0021329778246581554
-5.1511557103367184e-05 -0.00867257360368967 -0.002758903196081519
-5.1511557103367116e-05 -0.008191652595996857 -0.003296328941360116
-5.1511557103367055e-05 -0.00771073205396533 -0.0038337549194693565
-5.1511557103367034e-05 -0.007229811977595091 -0.003997093997895718
-5.151155710336699e-05 -0.006748890969902277 -0.004374609794467688
-5.1511557103367e-05 -0.00626797042787075 -0.004285105969756842
-5.151155710336699e-05 -0.005787049885839224 -0.004372226074337959
-5.151155710336699e-05 -0.00530612887814641 -0.004398398566991091
-5.1511557103366973e-05 -0.004825208336114883 -0.004454344045370817
-5.1511557103366973e-05 -0.004344287794083357 -0.004480517469346523
-5.1511557103366973e-05 -0.0038633670192211866 -0.004477791488170624
-5.1511557103366973e-05 -0.0033824462443590164 -0.004475065041333437
-5.151155710336698e-05 -0.00290152570232749 -0.0044150338508188725
-5.151155710336699e-05 -0.0024206049274653196 -0.004355001263320446
-5.1511557103366994e-05 -0.0019396842690184712 -0.0043237172067165375
-5.1511557103367014e-05 -0.001458763494156301 -0.004164510872215033
-5.1511557103366973e-05 -0.0009778428357094526 -0.004460559226572514
-5.151155710336708e-05 -0.0004969221190549433 -0.0035899849608540535
-5.151155710336712e-05 -1.6001462427084334e-05 -0.0032693713437765837
-0.0005324322264641521 -0.009634414687752724 -0.0018993738340213895
-0.0005324322264641521 -0.00915349368005991 -0.001959405839443207
-0.000532432226464152 -0.00867257360368967 -0.0028055503498762846
-0.0005324322264641519 -0.008191652595996857 -0.003274267539381981
-0.0005324322264641519 -0.00771073205396533 -0.003963340073823929
-0.0005324322264641519 -0.007229811977595091 -0.003937167581170797
-0.0005324322264641518 -0.006748890969902277 -0.004370732698589563
-0.0005324322264641518 -0.00626797042787075 -0.004373458679765463
-0.0005324322264641518 -0.005787049885839224 -0.0043761832639575005
-0.0005324322264641518 -0.00530612887814641 -0.004350010305643082
-0.0005324322264641518 -0.004825208336114883 -0.004439515061676502
-0.0005324322264641518 -0.004344287794083357 -0.004499547649174929
-0.0005324322264641518 -0.0038633670192211866 -0.004412427544593811
-0.0005324322264641518 -0.0033824462443590164 -0.004571633413434029
-0.0005324322264641518 -0.00290152570232749 -0.004661138169467449
-0.0005324322264641518 -0.0024206049274653196 -0.004321674350649118
-0.0005324322264641518 -0.0019396842690184712 -0.004411178175359964
-0.0005324322264641518 -0.001458763494156301 -0.004324058536440134
-0.0005324322264641518 -0.0009778428357094526 -0.004160719458013773
-0.0005324322264641519 -0.0004969221190549433 -0.0035099827218800783
-0.0005324322264641518 -1.6001462427084334e-05 -0.004046516492962837
-0.0005324322264641519 0.0004649192269425839 -0.0036689992994070053
-0.000532432226464152 0.0009458399144932628 -0.003018263727426529
-0.0010133528849110005 -0.00915349368005991 -0.0018109930679202082
-0.0010133528849110005 -0.00867257360368967 -0.0023257744032889605
-0.0010133528849110003 -0.008191652595996857 -0.0029765109065920115
-0.0010133528849110003 -0.00771073205396533 -0.0034912920091301203
-0.0010133528849110003 -0.007229811977595091 -0.003982227761298418
-0.0010133528849110003 -0.006748890969902277 -0.004145566839724779
-0.0010133528849110003 -0.00626797042787075 -0.00430890591815114
-0.0010133528849110003 -0.005787049885839224 -0.004364849999547005
-0.001013352884911 -0.00530612887814641 -0.004451970104128122
-0.001013352884911 -0.004825208336114883 -0.004539089743047953
-0.001013352884911 -0.004344287794083357 -0.004479056224226952
-0.001013352884911 -0.0038633670192211866 -0.004818520974367857
-0.001013352884911 -0.0033824462443590164 -0.004497907590121031
-0.001013352884911 -0.00290152570232749 -0.004524081014096737
-0.001013352884911 -0.0024206049274653196 -0.004580025561153889
-0.0010133528849110003 -0.0019396842690184712 -0.004380962811410427
-0.0010133528849110003 -0.001458763494156301 -0.004349679220467806
-0.0010133528849110003 -0.0009778428357094526 -0.004110210109502077
-0.0010133528849110003 -0.0004969221190549433 -0.004107484593987465
-0.0010133528849110003 -1.6001462427084334e-05 -0.004017980303615332
-0.0010133528849110003 0.0004649192269425839 -0.003957946784794331
-0.0010133528849110003 0.0009458399144932628 -0.0034892300609499216
-0.0014942735433578491 -0.009634414687752724 -0.0005394750041887166
-0.0014942735433578491 -0.00915349368005991 -0.0008600894361734392
-0.001494273543357849 -0.00867257360368967 -0.002152416156604886
-0.0014942735433578487 -0.008191652595996857 -0.0030708808917552233
-0.0014942735433578487 -0.00771073205396533 -0.0036401140969246626
-0.0014942735433578487 -0.007229811977595091 -0.004037676844745874
-0.0014942735433578487 -0.006748890969902277 -0.003981732297688723
-0.0014942735433578487 -0.00626797042787075 -0.0043023452162742615
-0.0014942735433578485 -0.005787049885839224 -0.004622959066182375
-0.0014942735433578487 -0.00530612887814641 -0.004415558185428381
-0.0014942735433578485 -0.004825208336114883 -0.004505062475800514
-0.0014942735433578485 -0.004344287794083357 -0.004449117928743362
-0.0014942735433578485 -0.0038633670192211866 -0.004688587971031666
-0.0014942735433578485 -0.0033824462443590164 -0.004601467866450548
-0.0014942735433578485 -0.00290152570232749 -0.004604193847626448
-0.0014942735433578485 -0.0024206049274653196 -0.004606918431818485
-0.0014942735433578485 -0.0019396842690184712 -0.004443579353392124
-0.0014942735433578487 -0.001458763494156301 -0.00428024074062705
-0.0014942735433578487 -0.0009778428357094526 -0.004311524797230959
-0.0014942735433578487 -0.0004969221190549433 -0.004224404692649841
-0.0014942735433578487 -1.6001462427084334e-05 -0.0040610660798847675
-0.0014942735433578487 0.0004649192269425839 -0.004092348739504814
-0.0014942735433578487 0.0009458399144932628 -0.003752884455025196
-0.0014942735433578487 0.0014267605729401112 -0.003665765281766653
-0.0014942735433578487 0.0019076813478022814 -0.003227331442758441
-0.0019751943182200193 -0.00867257360368967 -0.0016996413469314577
-0.001975194318220019 -0.008191652595996857 -0.0028723331633955245
-0.001975194318220019 -0.00771073205396533 -0.003598079085350037
-0.001975194318220019 -0.007229811977595091 -0.0038054795004427437
-0.001975194318220019 -0.006748890969902277 -0.004431405104696751
-0.001975194318220019 -0.00626797042787075 -0.004110791254788637
-0.001975194318220019 -0.005787049885839224 -0.004450255539268255
-0.001975194318220019 -0.00530612887814641 -0.004506201483309269
-0.001975194318220019 -0.004825208336114883 -0.004593320656567812
-0.001975194318220019 -0.004344287794083357 -0.004562037531286478
-0.001975194318220019 -0.0038633670192211866 -0.004649156704545021
-0.001975194318220019 -0.0033824462443590164 -0.0046753291971981525
-0.001975194318220019 -0.00290152570232749 -0.004615296609699726
-0.001975194318220019 -0.0024206049274653196 -0.004375827964395285
-0.001975194318220019 -0.0019396842690184712 -0.004539167042821646
-0.001975194318220019 -0.001458763494156301 -0.004299697931855917
-0.001975194318220019 -0.0009778428357094526 -0.004386816173791885
-0.001975194318220019 -0.0004969221190549433 -0.004227610770612955
-0.001975194318220019 -1.6001462427084334e-05 -0.004253784194588661
-0.001975194318220019 0.0004649192269425839 -0.003973687533289194
-0.001975194318220019 0.0009458399144932628 -0.003884183475747705
-0.001975194318220019 0.0014267605729401112 -0.0038241508882492785
-0.001975194318220019 0.0019076813478022814 -0.0034265883732587103
-0.001975194318220019 0.002388601889833808 -0.0026827673427760605
-0.002456115093082189 -0.00867257360368967 -0.002485559089109302
-0.002456115093082189 -0.008191652595996857 -0.002545592607930303
-0.002456115093082189 -0.00771073205396533 -0.0034640566445887093
-0.002456115093082189 -0.007229811977595091 -0.0037441537715494637
-0.002456115093082189 -0.006748890969902277 -0.004212870728224516
-0.002456115093082189 -0.00626797042787075 -0.0043023754842579365
-0.002456115093082189 -0.005787049885839224 -0.004305100999772549
-0.002456115093082189 -0.00530612887814641 -0.004394604824483395
-0.002456115093082189 -0.004825208336114883 -0.004484109580516815
-0.002456115093082189 -0.004344287794083357 -0.004764205776154995
-0.002456115093082189 -0.0038633670192211866 -0.004766931291669607
-0.002456115093082189 -0.0033824462443590164 -0.0043894159607589245
-0.002456115093082189 -0.00290152570232749 -0.004710029345005751
-0.002456115093082189 -0.0024206049274653196 -0.004622909240424633
-0.002456115093082189 -0.0019396842690184712 -0.004682942759245634
-0.002456115093082189 -0.001458763494156301 -0.004305425565689802
-0.002456115093082189 -0.0009778428357094526 -0.0044646309688687325
-0.002456115093082189 -0.0004969221190549433 -0.004257230553776026
-0.002456115093082189 -1.6001462427084334e-05 -0.00488854106515646
-0.002456115093082189 0.0004649192269425839 -0.004162795376032591
-0.002456115093082189 0.0009458399144932628 -0.003671859856694937
-0.002456115093082189 0.0014267605729401112 -0.003992473240941763
-0.002456115093082189 0.0019076813478022814 -0.003740640822798014
-0.002456115093082189 0.002388601889833808 -0.0035773022100329403
-0.002456115093082189 0.002869522664695978 -0.003199785947799683
-0.0029370358679443593 -0.008191652595996857 -0.002351842122152448
-0.0029370358679443593 -0.00771073205396533 -0.0030274617020040755
-0.0029370358679443593 -0.007229811977595091 -0.0034930477850139145
-0.0029370358679443593 -0.006748890969902277 -0.004143783822655678
-0.0029370358679443593 -0.00626797042787075 -0.004169956780970097
-0.0029370358679443593 -0.005787049885839224 -0.004377358127385378
-0.0029370358679443593 -0.00530612887814641 -0.004218151792883873
-0.0029370358679443593 -0.004825208336114883 -0.004514200147241354
-0.0029370358679443593 -0.004344287794083357 -0.004766032099723816
-0.0029370358679443593 -0.0038633670192211866 -0.0047059995122253895
-0.0029370358679443593 -0.0033824462443590164 -0.0046164956875145435
-0.0029370358679443593 -0.00290152570232749 -0.004672439768910408
-0.0029370358679443593 -0.0024206049274653196 -0.004473377484828234
-0.0029370358679443593 -0.0019396842690184712 -0.004560497589409351
-0.0029370358679443593 -0.001458763494156301 -0.004401291720569134
-0.0029370358679443593 -0.0009778428357094526 -0.0044274646788835526
-0.0029370358679443593 -0.0004969221190549433 -0.004147368483245373
-0.0029370358679443593 -1.6001462427084334e-05 -0.0041735414415597916
-0.0029370358679443593 0.0004649192269425839 -0.004142258316278458
-0.0029370358679443593 0.0009458399144932628 -0.004082225263118744
-0.0029370358679443593 0.0014267605729401112 -0.003992720507085323
-0.0029370358679443593 0.0019076813478022814 -0.0038335144054144625
-0.0029370358679443593 0.002388601889833808 -0.0037440105807036166
-0.0029370358679443593 0.002869522664695978 -0.0035045410040766005
-0.0029370358679443593 0.0033504432067275047 -0.0034150364808738236
-0.0029370358679443593 0.003831363981589675 -0.0026712168473750357
-0.003417956409975886 -0.008191652595996857 -0.0022569908760488038
-0.003417956409975886 -0.00771073205396533 -0.00291759055107832
-0.003417956409975886 -0.007229811977595091 -0.003315153066068888
-0.003417956409975886 -0.006748890969902277 -0.003946463577449322
-0.003417956409975886 -0.00626797042787075 -0.004226560238748789
-0.003417956409975886 -0.005787049885839224 -0.004385765176266432
-0.003417956409975886 -0.00530612887814641 -0.004417048767209053
-0.003417956409975886 -0.004825208336114883 -0.0045065549202263355
-0.003417956409975886 -0.004344287794083357 -0.0045665861107409
-0.003417956409975886 -0.0038633670192211866 -0.004597870167344809
-0.003417956409975886 -0.0033824462443590164 -0.004657902754843235
-0.003417956409975886 -0.00290152570232749 -0.004747406579554081
-0.003417956409975886 -0.0024206049274653196 -0.0046914624981582165
-0.003417956409975886 -0.0019396842690184712 -0.004694188479334116
-0.003417956409975886 -0.001458763494156301 -0.004486787132918835
-0.003417956409975886 -0.0009778428357094526 -0.004460613243281841
-0.003417956409975886 -0.0004969221190549433 -0.004373494535684586
-0.003417956409975886 -1.6001462427084334e-05 -0.0044629983603954315
-0.003417956409975886 0.0004649192269425839 -0.004166950471699238
-0.003417956409975886 0.0009458399144932628 -0.004003611393272877
-0.003417956409975886 0.0014267605729401112 -0.004093115217983723
-0.003417956409975886 0.0019076813478022814 -0.00400599604472518
-0.003417956409975886 0.002388601889833808 -0.003918876871466637
-0.003417956409975886 0.002869522664695978 -0.003667044918984175
-0.003417956409975886 0.0033504432067275047 -0.0036408712621778254
-0.003417956409975886 0.003831363981589675 -0.003081702627241612
-0.003417956409975886 0.004312284756451845 -0.003112986451014877
-0.0038988769520074125 -0.00771073205396533 -0.0025063985958695416
-0.0038988769520074125 -0.007229811977595091 -0.003065566765144468
-0.0038988769520074125 -0.006748890969902277 -0.0035311516840010886
-0.0038988769520074125 -0.00626797042787075 -0.003969585057348014
-0.0038988769520074125 -0.005787049885839224 -0.004309049807488919
-0.0038988769520074125 -0.00530612887814641 -0.004364993888884784
-0.0038988769520074125 -0.004825208336114883 -0.004452113993465901
-0.0038988769520074125 -0.004344287794083357 -0.004420830868184567
-0.0038988769520074125 -0.0038633670192211866 -0.0044767758809030065
-0.0038988769520074125 -0.0033824462443590164 -0.0046401149593293676
-0.0038988769520074125 -0.00290152570232749 -0.004480908159166575
-0.0038988769520074125 -0.0024206049274653196 -0.004568028263747693
-0.0038988769520074125 -0.0019396842690184712 -0.004408822860568763
-0.0038988769520074125 -0.001458763494156301 -0.004377538803964854
-0.0038988769520074125 -0.0009778428357094526 -0.00417847651988268
-0.0038988769520074125 -0.0004969221190549433 -0.0039794142358005056
-0.0038988769520074125 -1.6001462427084334e-05 -0.004231246653944255
-0.0038988769520074125 0.0004649192269425839 -0.004228520672768355
-0.0038988769520074125 0.0009458399144932628 -0.004168488085269929
-0.0038988769520074125 0.0014267605729401112 -0.004078983329236508
-0.0038988769520074125 0.0019076813478022814 -0.003989479038864375
-0.0038988769520074125 0.002388601889833808 -0.003929446917027236
-0.0038988769520074125 0.002869522664695978 -0.0037702408153563742
-0.0038988769520074125 0.0033504432067275047 -0.003710207296535373
-0.0038988769520074125 0.003831363981589675 -0.0036207034718245272
-0.0038988769520074125 0.004312284756451845 -0.003461497370153666
-0.0038988769520074125 0.004793205298483372 -0.003063934855163098
-0.004379797726869583 -0.00771073205396533 -0.002845980459824205
-0.004379797726869583 -0.007229811977595091 -0.0028772645164281134
-0.004379797726869582 -0.006748890969902277 -0.0036474734079092745
-0.004379797726869582 -0.00626797042787075 -0.003927569836378098
-0.004379797726869582 -0.005787049885839224 -0.0043251323513686666
-0.004379797726869582 -0.00530612887814641 -0.004385165870189668
-0.004379797726869582 -0.004825208336114883 -0.004445198457688094
-0.004379797726869582 -0.004344287794083357 -0.00453470228239894
-0.004379797726869582 -0.0038633670192211866 -0.0045659863390028485
-0.004379797726869582 -0.0033824462443590164 -0.004626018926501275
-0.004379797726869582 -0.00290152570232749 -0.004599845968186856
-0.004379797726869582 -0.0024206049274653196 -0.00457367254421115
-0.004379797726869582 -0.0019396842690184712 -0.004732878878712655
-0.004379797726869582 -0.001458763494156301 -0.0044810459949076184
-0.004379797726869582 -0.0009778428357094526 -0.004393926821649075
-0.004379797726869582 -0.0004969221190549433 -0.004337981808930636
-0.004379797726869582 -1.6001462427084334e-05 -0.004398014396429063
-0.004379797726869582 0.0004649192269425839 -0.004310894291847945
-0.004379797726869582 0.0009458399144932628 -0.004313620738685132
-0.004379797726869582 0.0014267605729401112 -0.004226500634104014
-0.004379797726869582 0.0019076813478022814 -0.00417055655270815
-0.004379797726869582 0.002388601889833808 -0.003963155671954156
-0.004379797726869583 0.002869522664695978 -0.0026999525725841527
-0.004379797726869582 0.0033504432067275047 -0.0038127943407744174
-0.004379797726869582 0.003831363981589675 -0.0037866206839680676
-0.004379797726869582 0.004312284756451845 -0.003699501277878881
-0.004379797726869583 0.004793205298483372 -0.003360036760568619
-0.004379797726869583 0.005274125840514898 -0.0026594265364110474
-0.00486071826890111 -0.007229811977595091 -0.00257778842933476
-0.00486071826890111 -0.006748890969902277 -0.0032285246998071675
-0.004860718268901109 -0.00626797042787075 -0.0037659511435776953
-0.004860718268901109 -0.005787049885839224 -0.004256885964423419
-0.004860718268901109 -0.00530612887814641 -0.004344004672020675
-0.004860718268901109 -0.004825208336114883 -0.004254500847309829
-0.004860718268901109 -0.004344287794083357 -0.004593965597450734
-0.004860718268901109 -0.0038633670192211866 -0.0045626815408468255
-0.004860718268901109 -0.0033824462443590164 -0.0045026480220258245
-0.004860718268901109 -0.00290152570232749 -0.004499923437833787
-0.004860718268901109 -0.0024206049274653196 -0.0045870435424149045
-0.004860718268901109 -0.0019396842690184712 -0.004050510004162789
-0.004860718268901109 -0.001458763494156301 -0.0044280262663960466
-0.004860718268901109 -0.0009778428357094526 -0.004396743141114713
-0.004860718268901109 -0.0004969221190549433 -0.004394016694277526
-0.004860718268901109 -1.6001462427084334e-05 -0.004333984106779099
-0.004860718268901109 0.0004649192269425839 -0.004174778703600169
-0.004860718268901109 0.0009458399144932628 -0.004230722784996034
-0.00486071826890111 0.0014267605729401112 -0.003460514592006803
-0.004860718268901109 0.0019076813478022814 -0.00408643949776888
-0.004860718268901109 0.002388601889833808 -0.0039969352073967465
-0.004860718268901109 0.002869522664695978 -0.003994209226220847
-0.004860718268901109 0.0033504432067275047 -0.0035966467112302784
-0.004860718268901109 0.003831363981589675 -0.0038484786637127404
-0.004860718268901109 0.004312284756451845 -0.003609009319916368
-0.00486071826890111 0.004793205298483372 -0.003105975687503815
-0.00486071826890111 0.005274125840514898 -0.002007720991969109
-0.005341638810932636 -0.007229811977595091 -0.0023240274749696263
-0.005341638810932636 -0.006748890969902277 -0.0033127861097455033
-0.005341638810932635 -0.00626797042787075 -0.003815819742158056
-0.005341638810932635 -0.005787049885839224 -0.004249385092407466
-0.005341638810932635 -0.00530612887814641 -0.004338888917118312
-0.005341638810932635 -0.004825208336114883 -0.004428393673151732
-0.005341638810932635 -0.004344287794083357 -0.004488426260650159
-0.005341638810932635 -0.0038633670192211866 -0.0044013066217303285
-0.005341638810932635 -0.0033824462443590164 -0.004375132732093335
-0.005341638810932635 -0.00290152570232749 -0.00453433906659484
-0.005341638810932635 -0.0024206049274653196 -0.0045081665739417085
-0.005341638810932635 -0.0019396842690184712 -0.004510891623795033
-0.005341638810932635 -0.001458763494156301 -0.004513616673648358
-0.005341638810932635 -0.0009778428357094526 -0.0045163421891629705
-0.005341638810932635 -0.0004969221190549433 -0.004429222084581853
-0.005341638810932635 -1.6001462427084334e-05 -0.004403049126267434
-0.005341638810932636 0.0004649192269425839 -0.003139846958220006
-0.005341638810932635 0.0009458399144932628 -0.004273264668881894
-0.005341638810932635 0.0014267605729401112 -0.0043045487254858026
-0.005341638810932635 0.0019076813478022814 -0.004217428620904685
-0.005341638810932635 0.002388601889833808 -0.004054089542478324
-0.005341638810932635 0.002869522664695978 -0.0039669699035584935
-0.005341638810932635 0.0033504432067275047 -0.003940796479582787
-0.005341638810932635 0.003831363981589675 -0.003914622589945794
-0.005341638810932636 0.004312284756451845 -0.003423688234761358
-0.005341638810932636 0.004793205298483372 -0.003127640113234521
-0.005341638810932636 0.005274125840514898 -0.00250171427614987
-0.005341638810932636 0.005755046848207712 -0.0025329983327537784
-0.005341638810932636 0.006235967390239239 -0.0008327974937856204
-0.00582255981862545 -0.006748890969902277 -0.002231853315606714
-0.00582255981862545 -0.00626797042787075 -0.003344023600220681
-0.005822559818625449 -0.005787049885839224 -0.003858805401250721
-0.005822559818625449 -0.00530612887814641 -0.00426798313856125
-0.005822559818625449 -0.004825208336114883 -0.0042941560968756684
-0.005822559818625449 -0.004344287794083357 -0.0042628729715943345
-0.005822559818625449 -0.0038633670192211866 -0.004602337256073953
-0.005822559818625449 -0.0033824462443590164 -0.0038321276661008605
-0.005822559818625449 -0.00290152570232749 -0.0039954674430191526
-0.005822559818625449 -0.0024206049274653196 -0.00437298370525241
-0.005822559818625449 -0.0019396842690184712 -0.00446010334417224
-0.005822559818625449 -0.001458763494156301 -0.004457377362996341
-0.005822559818625449 -0.0009778428357094526 -0.004483551252633334
-0.005822559818625449 -0.0004969221190549433 -0.004324344452470542
-0.005822559818625449 -1.6001462427084334e-05 -0.00426431279629469
-0.005822559818625449 0.0004649192269425839 -0.004471713677048684
-0.005822559818625449 0.0009458399144932628 -0.004411681089550258
-0.005822559818625449 0.0014267605729401112 -0.00425247522071004
-0.005822559818625449 0.0019076813478022814 -0.0038189089391380557
-0.00582255981862545 0.002388601889833808 -0.003538812045007945
-0.005822559818625449 0.002869522664695978 -0.003790645161643625
-0.005822559818625449 0.0033504432067275047 -0.0036314392928034076
-0.00582255981862545 0.003831363981589675 -0.0034722331911325463
-0.00582255981862545 0.004312284756451845 -0.003074670676141978
-0.00582255981862545 0.004793205298483372 -0.0023855967447161683
-0.00582255981862545 0.005274125840514898 -0.0011461593676358468
-0.00582255981862545 0.005755046848207712 -0.00012058471475029436
-0.006303480360656977 -0.00626797042787075 -0.003095376072451473
-0.006303480360656977 -0.005787049885839224 -0.0034929390531033286
-0.006303480360656976 -0.00530612887814641 -0.00420973263680935
-0.006303480360656976 -0.004825208336114883 -0.004368939436972142
-0.006303480360656976 -0.004344287794083357 -0.004281820263713599
-0.006303480360656976 -0.0038633670192211866 -0.0041947001591324815
-0.006303480360656976 -0.0033824462443590164 -0.004107580520212651
-0.006303480360656976 -0.00290152570232749 -0.004167613107711078
-0.006303480360656976 -0.0024206049274653196 -0.004198896698653699
-0.006303480360656976 -0.0019396842690184712 -0.004172723274677993
-0.006303480360656976 -0.001458763494156301 -0.004175449255853892
-0.006303480360656976 -0.0009778428357094526 -0.004235481843352319
-0.006303480360656976 -0.0004969221190549433 -0.004238206893205644
-0.006303480360656976 -1.6001462427084334e-05 -0.004327711183577777
-0.006303480360656976 0.0004649192269425839 -0.004120310302823783
-0.006303480360656976 0.0009458399144932628 -0.003956971690058709
