ply
format ascii 1.0
element vertex 721
property float x
property float y
property float z
end_header
0.0019793272696596153 -0.011846769682365723 -0.003957691136747598
0.0023193544200763635 -0.010912552764594206 -0.004030460957437753
0.0024893681545502776 -0.010445443868129973 -0.004027644172310828
0.0026593815704931117 -0.009978335846822691 -0.0040248269215226165
0.0028293949864359453 -0.009511227825515408 -0.003962776623666286
0.0029994085616443194 -0.00904411936662965 -0.0039007256273180238
0.003169421977587153 -0.008577011345322369 -0.0038386750966310492
0.003339435552795527 -0.00810990288643661 -0.003632921027019619
0.0035094491280039004 -0.007642794427550851 -0.0032219947315752498
0.0036794627032122745 -0.007175685968665094 -0.0031599442008882752
0.003849476119155108 -0.006708577947357811 -0.0028285537846386424
0.004019489694363483 -0.006241469488472053 -0.002663996769115328
0.004189503269571857 -0.005774361029586296 -0.002332605188712477
0.00435951676514746 -0.005307252789489775 -0.0023297881707549086
0.004529530340355834 -0.0048401443306040175 -0.001998396823182701
0.004699543835931438 -0.004373036090507497 -0.0019058842444792383
0.004869557411139812 -0.003905927631621739 -0.0018133713165298098
0.005039570946531801 -0.0034388192821305998 -0.0019034196157008403
0.0052095844819237905 -0.002971710932639461 -0.0019006022484973067
0.0053795980372239715 -0.0025046025284510124 -0.0020694315899163476
0.00554961156017334 -0.0020374942131456916 -0.002007381059229373
0.005719625098053854 -0.001570385856817389 -0.0018428235780447715
0.005889638623491746 -0.0011032775346749046 -0.0015953048132359975
0.00605965219870012 -0.0006361690757891467 -0.0017641341546550387
0.006229665694275724 -0.00016906083569262652 -0.001791187212802469
0.006399679189851328 0.0002980474044038937 -0.0018812356283888214
0.0065696927650597025 0.0007651558632896516 -0.0017166780307888978
0.0067397062606353066 0.0012322641033861719 -0.0016843425109982484
0.006909719835843681 0.0016993725622719297 -0.0016520074568688863
0.007079733411052055 0.0021664810211576876 -0.0016790605150163167
0.007249746826994888 0.0026335890424649703 -0.0015865480527281755
0.007419760402203262 0.003100697501350728 -0.0019374233670532697
0.007589773977411636 0.003567805960236486 -0.0016899041365832084
0.00775978755262001 0.0040349144191222435 -0.001657568616792559
0.007929800968562844 0.004502022440429527 -0.0014930111356079572
0.008099814543771218 0.004969130899315284 -0.00044698070269077946
0.008269828118979592 0.0054362393582010424 -0.00044416385935619403
0.008439841853453506 0.005903348254665276 -0.00035165040753781725
0.00860985526939634 0.006370456275972558 -2.0259847588021514e-05
0.001512218810773857 -0.011676756107157349 -0.0037722424603998652
0.0018522459611906052 -0.010742539189385832 -0.004189137835055589
0.0020222596956645193 -0.010275430292921599 -0.003974765539169311
0.0021922731116073534 -0.009808322271614316 -0.00400710105895996
0.002362286527550187 -0.009341214250307034 -0.003917052410542964
0.002532300102758561 -0.008874105791421276 -0.0037482224870473138
0.002702313518701395 -0.008406997770113993 -0.003780558006837963
0.002872327093909769 -0.007939889311228236 -0.0035661854781210414
0.003042340669118143 -0.007472780852342478 -0.0035690017975866786
0.003212354244326517 -0.00700567239345672 -0.0037335592787712804
0.0033823676602693508 -0.006538564372149437 -0.0032261223532259456
0.003552381235477725 -0.006071455913263679 -0.002527792938053607
0.003722394810686099 -0.0056043474543779215 -0.002176917623728513
0.003892408306261703 -0.005137239214281401 -0.0021797351073473683
0.004062421881470077 -0.004670130755395643 -0.0020109047181904307
0.004232435377045681 -0.004203022515299123 -0.001920857350341975
0.004402448952254055 -0.0037359140564133648 -0.0019531920552253714
0.0045724624876460436 -0.0032688057069222257 -0.0018953668186441057
0.004742476023038033 -0.002801697357431087 -0.0021011210046708575
0.004912489578338214 -0.0023345889532426383 -0.0021936334669589988
0.005082503101287583 -0.0018674806379373177 -0.0021964507177472106
0.0052525166391680965 -0.001400372281609015 -0.0017432803288102143
0.005422530164605989 -0.0009332639594665306 -0.0021542066242545834
0.005592543739814363 -0.00046615550058077263 -0.0020641586743295184
0.005762557235389967 9.527395157475722e-07 -0.0020669759251177302
0.005932570730965571 0.0004680609796122678 -0.001976927509531378
0.006102584306173945 0.0009351694384980257 -0.0018868796760216349
0.006272597801749549 0.001402277678594546 -0.0019793922547250977
0.006442611376957923 0.0018693861374803038 -0.0017650197260081762
0.006612624952166297 0.0023364945963660617 -0.001929577207192778
0.0067826383681091305 0.0028036026176733444 -0.0019025236833840602
0.006952651943317505 0.0032707110765591023 -0.0018446989124640816
0.007122665518525879 0.00373781953544486 -0.0017868737922981375
0.007292679093734253 0.004204927994330618 -0.001759820152074098
0.007462692509677087 0.004672036015637901 -0.001499523292295634
0.007632706084885461 0.005139144474523658 -0.0015318583464249962
0.007802719660093835 0.0056062529334094165 -0.0006196247413754457
0.00797273339456775 0.00607336182987365 -1.9808307115453563e-05
0.008142746810510583 0.006540469851180932 -0.00043073474080301756
0.008312760544984497 0.007007578747645166 -7.803724656695769e-06
0.0008750969359452649 -0.011973850553256256 -0.0017582055879756802
0.001215124086362013 -0.01103963363548474 -0.00345674087293446
0.0013851375023048477 -0.010572525614177458 -0.0038796716835349794
0.0015551512367787618 -0.010105416717713225 -0.003969720099121331
0.0017251646527215957 -0.009638308696405943 -0.004027545452117919
0.0018951780686644296 -0.00917120067509866 -0.0040545985102653495
0.0020651916438728037 -0.008704092216212902 -0.003992548212409019
0.0022352050598156373 -0.00823698419490562 -0.004050373099744319
0.0024052186350240114 -0.007769875736019862 -0.003602234181016683
0.0025752322102323855 -0.007302767277134104 -0.003953108564019202
0.0027452457854407588 -0.0068356588182483455 -0.003504969179630279
0.0029152592013835924 -0.006368550796941063 -0.0034124562516808505
0.0030852727765919665 -0.005901442338055305 -0.0030015299562364812
0.0032552863518003406 -0.0054343338791695475 -0.0022327073384076353
0.0034252998473759447 -0.004967225639073027 -0.0018217810429632657
0.003595313422584319 -0.004500117180187269 -0.0015322692925110453
0.0037653269181599225 -0.0040330089400907486 -0.0013265151064842933
0.003935340493368297 -0.0035659004812049907 -0.0012941795866936439
0.004105354028760285 -0.0030987921317138516 -9.434144158149078e-05
0.004275367564152275 -0.002631683782222713 -0.0014308207901194685
0.004445381119452456 -0.0021645753780342642 -0.0017816961044445627
0.0046153946424018245 -0.0016974670627289436 -0.0022046267986297603
0.004785408180282338 -0.0012303587064006409 -0.0022946752142161127
0.00495542170572023 -0.0007632503842581565 -0.0022918588947504754
0.005125435280928604 -0.00029614192537239854 -0.0022298074327409263
0.0052954487765042085 0.00017096631472412167 -0.002167756902053952
0.005465462272079813 0.0006380745548206419 -0.0020031998865306373
0.005635475847288187 0.0011051830137063998 -0.001970864366739988
0.005805489342863791 0.00157229125380292 -0.0019680466502904888
0.005975502918072165 0.002039399712688678 -0.0019059965852648013
0.006145516493280539 0.002506508171574436 -0.0019330497598275536
0.006315529909223372 0.0029736161928817185 -0.0019007147056981915
0.006485543484431746 0.0034407246517674764 -0.001838664175011217
0.00665555705964012 0.003907833110653234 -0.0018063286552205675
0.0068255706348484945 0.004374941569538992 -0.0018641538918018335
0.006995584050791329 0.004842049590846275 -0.0018318182555958622
0.007165597625999703 0.005309158049732032 -0.0016672607744112604
0.007335611201208077 0.005776266508617791 -0.0017250858945772045
0.007505624935681991 0.006243375405082024 -0.001477566780522465
0.007675638351624825 0.006710483426389306 -0.0007087443955242627
0.0004079884770595065 -0.011803836978047882 -0.0022537838667631145
0.0005780018930023403 -0.0113367289567406 -0.0016068192198872562
0.0007480156274762546 -0.010869620060276367 -0.0034221038222312923
0.0009180290434190893 -0.010402512038969084 -0.003669622121378779
0.0010880427778930035 -0.00993540314250485 -0.00391714135184884
0.0012580561938358374 -0.00946829512119757 -0.003979192581027745
0.0014280696097786713 -0.009001187099890286 -0.004041242878884076
0.0015980831849870454 -0.008534078641004528 -0.004073578398674726
0.001768096600929879 -0.008066970619697246 -0.004105913918465375
0.0019381101761382531 -0.007599862160811488 -0.004048088565468787
0.0021081237513466272 -0.00713275370192573 -0.004140601493418216
0.0022781373265550013 -0.006665645243039971 -0.003971771802753209
0.002448150742497835 -0.006198537221732689 -0.003757398342713713
0.002618164317706208 -0.005731428762846931 -0.003110433695837855
0.0027881778929145823 -0.005264320303961173 -0.001971007557585835
0.0029581913884901864 -0.004797212063864653 -0.0015480762813240285
0.0031282049636985605 -0.004330103604978895 -0.0014580284478142853
0.003298218459274164 -0.003862995364882375 -0.0011977310059592123
0.0034682320344825383 -0.003395886905996617 -0.0008917314698919648
0.0036382455698745274 -0.002928778556505478 -0.0014116750098764892
0.0038082591052665165 -0.002461670207014339 -0.001197301433421671
0.003978272660566697 -0.00199456180282589 -0.0011394763132557269
0.004148286183516066 -0.0015274534875205697 -0.0015876166289672251
0.00431829972139658 -0.001060345131192267 -0.0019190071616321798
0.004488313246834472 -0.0005932368090497826 -0.0020835646428167816
0.004658326822042846 -0.00012612835016402466 -0.002331083873286843
0.00482834031761845 0.0003409798899324955 -0.0020250843372195955
0.004998353813194054 0.0008080881300290158 -0.0023145957384258504
0.005168367388402428 0.0012751965889147736 -0.0023766465019434686
0.0053383808839780325 0.001742304829011294 -0.002162274438887834
0.005508394459186407 0.0022094132878970516 -0.0021044483873993154
0.005678408034394781 0.00267652174678281 -0.0025153746828436847
0.005848421450337614 0.003143629768090092 -0.0019598847720772024
0.006018435025545988 0.00361073822697585 -0.0019922202918678518
0.006188448600754362 0.004077846685861608 -0.0019021718762814994
0.006358462175962736 0.004544955144747366 -0.001812123577110469
0.00652847559190557 0.005012063166054648 -0.0014612482627853747
0.006698489167113944 0.005479171624940406 -0.0018721749074757095
0.0068685027423223185 0.005946280083826165 -0.001904510427266359
0.007038516476796233 0.006413388980290397 -0.0013490191195160146
0.007208529892739067 0.0068804970015976805 -0.0011346465907990928
0.007378543627212981 0.007347605898061914 -0.0003052950778510416
0.00011089343411658289 -0.011166715381532227 -0.0017240012530237432
0.00028090716859049714 -0.010699606485067993 -0.0024741424713283773
0.00045092058453333097 -0.01023249846376071 -0.0032768424134701486
0.0006209343190072461 -0.009765389567296476 -0.004305316600948571
0.0007909477349500799 -0.009298281545989195 -0.004015804734081029
0.0009609611508929138 -0.008831173524681912 -0.004105852916836738
0.001130974726101288 -0.008364065065796154 -0.004274682607501744
0.0013009881420441216 -0.007896957044488872 -0.00427186582237482
0.0014710017172524957 -0.007429848585603114 -0.004298919346183538
0.0016410152924608698 -0.006962740126717356 -0.004266583826392888
0.0018110288676692439 -0.006495631667831597 -0.004234248306602239
0.0019810422836120775 -0.006028523646524315 -0.0039028578903526063
0.0021510558588204508 -0.005561415187638557 -0.003348289523273706
0.002321069434028825 -0.005094306728752799 -0.001409427030012011
0.002491082929604429 -0.0046271984886562785 -0.0012207413092255588
0.002661096504812803 -0.004160090029770521 -0.0008893497870303686
0.003001123575596781 -0.003225873330788243 -0.0004396527074277396
0.00317113711098877 -0.002758764981297104 -0.0004368358640931542
0.003341150646380759 -0.0022916566318059647 -0.0002310819400008763
0.0035111642016809404 -0.0018245482276175163 -0.0004913791199214752
0.003681177724630309 -0.0013574399123121956 -0.0005184327019378539
0.003851191262510822 -0.0008903315559838929 -0.0009086387581191953
0.0040212047879487145 -0.0004232232338414085 -0.0012146377703174944
0.004191218363157089 4.3885225044349445e-05 -0.0017926022410392757
0.004361231858732693 0.0005109934651408697 -0.0017602667212486263
0.004531245354308297 0.0009781017052373899 -0.0021831975318491455
0.004701258929516671 0.0014452101641231477 -0.0021803812123835082
0.004871272425092275 0.001912318404219668 -0.001890869345515966
0.005041286000300649 0.0023794268631054257 -0.0019486941164359446
0.005211299575509023 0.002846535321991184 -0.001784136518836021
0.0053813129914518565 0.0033136433432984663 -0.0016195795033127065
0.0055513265666602305 0.003780751802184224 -0.001587243983522057
0.005721340141868605 0.0042478602610699825 -0.0015251934528350826
0.005891353717076979 0.00471496871995574 -0.0014631435042247172
0.006061367133019813 0.005182076741263022 -0.0014010921586304899
0.006231380708228187 0.0056491852001487805 -0.0015699213836342092
0.006401394283436561 0.006116293659034539 -0.001477408921346068
0.006571408017910475 0.0065834025554987715 -0.0015674567548558112
0.006741421433853309 0.007050510576806055 -0.0006181182106956835
-0.0005262282219227707 -0.011463809907263905 -0.0022696601226925846
-0.0003562148059799374 -0.010996701885956622 -0.0017375745810568328
-0.0001862010715060227 -0.010529592989492388 -0.0033824848942458625
-1.618765556318887e-05 -0.010062484968185107 -0.004178584553301334
0.0001538260789107254 -0.009595376071720873 -0.0036973482929170127
0.00032383949485355925 -0.00912826805041359 -0.003986860625445843
0.0004938529107963931 -0.008661160029106307 -0.0040191952139139175
0.0006638664860047671 -0.00819405157022055 -0.004224949050694704
0.000833879901947601 -0.007726943548913267 -0.0042572845704853535
0.001003893477155975 -0.00725983509002751 -0.004349797498434782
0.001173907052364349 -0.0067927266311417515 -0.004322743974626064
0.0013439206275727231 -0.006325618172255993 -0.004355079494416714
0.0015139340435155568 -0.005858510150948711 -0.004328025970607996
0.001683947618723931 -0.0053914016920629535 -0.004237977322191
0.001853961193932305 -0.004924293233177195 -0.0038150465115904804
0.0020239746895079087 -0.0044571849930806744 -0.0013563163811340924
0.0021939882647162828 -0.003990076534194917 -0.0005536163807846601
0.0023640017602918864 -0.0035229682940983967 -2.1531272068386477e-05
0.0038941236186361724 0.0006810069607164738 -0.0010022397618740793
0.004064137114211776 0.001148115200812994 -0.0007419427274726327
0.00423415068942015 0.0016152236596987518 -0.001510765054263174
0.004404164184995754 0.002082331899795272 -0.0015728154685348268
0.004574177760204128 0.00254944035868103 -0.001545761944726109
0.0047441913354125025 0.003016548817566788 -0.0015780974645167585
0.004914204751355337 0.0034836568388740704 -0.001488049165345728
0.005084218326563711 0.003950765297759828 -0.0015203846851363774
0.005254231901772085 0.004417873756645587 -0.0014303367352113123
0.005424245476980459 0.004884982215531344 -0.001124337199144065
0.005594258892923292 0.005352090236838626 -0.001186388661153614
0.005764272468131666 0.005819198695724385 -0.0009260912192985411
0.00593428604334004 0.006286307154610143 -0.0008682651096023615
0.006104299777813954 0.0067534160510743756 -0.0008710828842595215
0.0062743131937567885 0.007220524072381659 -0.00041791191324591593
-0.0008233232648656949 -0.010826688310748248 -0.0017764430958777662
-0.0006533095303917805 -0.010359579414284014 -0.002500603441148996
-0.00048329611444894677 -0.009892471392976733 -0.0034995924215763803
-0.00031328237997503246 -0.0094253624965125 -0.003713964950293302
-0.00014326896403219866 -0.008958254475205216 -0.003974262624979019
2.674445191063517e-05 -0.008491146453897933 -0.004280261695384979
0.00019675802711900922 -0.008024037995012176 -0.004449090920388699
0.000366771443061843 -0.007556929973704893 -0.004416755400598049
0.0005367850182702171 -0.007089821514819136 -0.004443808924406767
0.0007067985934785912 -0.006622713055933377 -0.004533857107162476
0.0008768121686869651 -0.006155604597047619 -0.004286338109523058
0.001046825584629799 -0.005688496575740337 -0.004283522255718708
0.001216839159838173 -0.005221388116854579 -0.004452351480722427
0.0013868527350465471 -0.004754279657968821 -0.004287793301045895
0.001556866230622151 -0.004287171417872301 -0.0035469045396894212
0.004277082876526745 0.0031865623927751618 -0.0003475493285804983
0.004447096292469578 0.0036536704140824445 -0.0003152147401124235
0.004617109867677952 0.004120778872968202 -0.00040526309749111495
0.0047871234428863265 0.00458788733185396 -7.387159712379763e-05
0.0049571370180947006 0.005054995790739718 -1.1821132829936328e-05
-0.0014604449209050495 -0.011123782836479926 -0.0014977763639762995
-0.0012904315049622151 -0.010656674815172644 -0.0020177199039608236
-0.0011204177704883008 -0.01018956591870841 -0.0029914283659309144
-0.0009504043545454671 -0.009722457897401128 -0.0034023546613752838
-0.0007803906200715528 -0.009255349000936894 -0.0038132807239890094
-0.000610377204128719 -0.008788240979629613 -0.003977838438004255
-0.00044036378818588514 -0.00832113295832233 -0.004142395686358213
-0.00027035021297751105 -0.007854024499436571 -0.0043069529347121716
-0.00010033679703467724 -0.007386916478129289 -0.004369003232568502
6.96767781736968e-05 -0.006919808019243532 -0.004401338752359152
0.00023969035338207087 -0.006452699560357773 -0.004404155537486076
0.0004097039285904449 -0.005985591101472016 -0.004143858328461647
0.0005797173445332787 -0.005518483080164733 -0.004433370195329189
0.0007497309197416527 -0.005051374621278975 -0.004764760844409466
0.0009197444949500268 -0.004584266162393217 -0.004232675768435001
0.0010897579905256307 -0.004117157922296697 -0.004265011288225651
0.0012597715657340048 -0.0036500494634109392 -0.004207185935229063
0.0014297850613096087 -0.003182941223314419 -0.0035602203570306297
-0.0017575397450587354 -0.01048666131959704 -0.0014257791917771099
-0.0015875260105848211 -0.010019552423132806 -0.0024542547762393947
-0.0014175125946419872 -0.009552444401825524 -0.0037599187344312664
-0.0012474988601680732 -0.009085335505361291 -0.0035953612532466646
-0.0010774854442252393 -0.008618227484054008 -0.003985567018389702
-0.0009074720282824054 -0.008151119462746726 -0.0041543967090547085
-0.0007374584530740314 -0.007684011003860968 -0.004368769936263561
-0.0005674450371311973 -0.007216902982553686 -0.004426594823598862
-0.00039743146192282324 -0.0067497945236679275 -0.004453647416085005
-0.0002274178867144492 -0.006282686064782169 -0.00445083063095808
-5.740431150607538e-05 -0.005815577605896412 -0.004358317237347364
0.00011260910443675844 -0.0053484695845891295 -0.004265804775059223
0.0002826226796451325 -0.004881361125703371 -0.004233469255268574
0.00045263625485350654 -0.004414252666817614 -0.004201134666800499
0.0006226497504291107 -0.003947144426721093 -0.004461431410163641
0.0007926633256374845 -0.003480035967835335 -0.0043993801809847355
0.0009626768212130885 -0.0030129277277388153 -0.0037165766116231676
-0.002394661510492708 -0.010783755805512333 -0.001119089894928038
-0.0022246480945498745 -0.010316647784205052 -0.0013666081940755246
-0.0020546343600759604 -0.009849538887740818 -0.0022913427092134953
-0.0018846209441331261 -0.009382430866433535 -0.003216077573597431
-0.001714607209659212 -0.008915321969969301 -0.0033085900358855724
-0.0015445937937163781 -0.00844821394866202 -0.004049479495733976
-0.0013745803777735442 -0.007981105927354737 -0.004141992423683405
-0.0012045668025651702 -0.007513997468468979 -0.00430655013769865
-0.0010345533866223365 -0.007046889447161696 -0.0043388856574893
-0.0008645398114139622 -0.006579780988275939 -0.005021688994020224
-0.0006945262362055883 -0.0061126725293901805 -0.004374723415821791
-0.0005245126609972143 -0.005645564070504423 -0.00440705893561244
-0.0003544992450543802 -0.00517845604919714 -0.004654577933251858
-0.00018448566984600637 -0.0047113475903113825 -0.004348577931523323
-1.4472094637632325e-05 -0.004244239131425624 -0.004410628695040941
0.0001555414009379716 -0.0037771308913291043 -0.0043835751712322235
0.00032555497614634565 -0.0033100224324433465 -0.004169202875345945
0.0004955684717219496 -0.002842914192346826 -0.004374956712126732
0.0006655820469303236 -0.0023758057334610683 -0.004284908063709736
0.0008355955823223126 -0.001908697383969929 -0.004024611320346594
-0.0028617698599838477 -0.010613742270120345 -0.0007154736667871474
-0.0025217427095670995 -0.009679525352348829 -0.0020106867887079716
-0.0023517292936242654 -0.009212417331041545 -0.002760827774181962
-0.0021817155591503513 -0.008745308434577314 -0.003537136595696211
-0.0020117021432075172 -0.00827820041327003 -0.00370596582069993
-0.0018416887272646833 -0.007811092391962748 -0.004096172749996185
-0.0016716751520563095 -0.00734398393307699 -0.003890418680384755
-0.0015016617361134756 -0.006876875911769708 -0.004422503523528576
-0.0013316481609051015 -0.006409767452883949 -0.004512552171945572
-0.0011616345856967274 -0.005942658993998192 -0.004509734455496073
-0.0009916210104883533 -0.0054755505351124336 -0.004447684623301029
-0.0008216075945455195 -0.005008442513805151 -0.00444486690685153
-0.0006515940193371454 -0.004541334054919393 -0.005169028416275978
-0.0004815804441287714 -0.0040742255960336355 -0.004580661188811064
-0.0003115669485531675 -0.0036071173559371152 -0.004518609493970871
-0.0001415533733447934 -0.0031400088970513574 -0.0043540527112782
2.8460122230810514e-05 -0.002672900656954837 -0.004444100894033909
0.00019847369743918457 -0.002205792198069079 -0.004471153486520052
0.0003684872328311736 -0.00173868384857794 -0.004060227423906326
0.0005385007682231624 -0.001271575499086801 -0.0033479915000498295
-0.0031588648482294623 -0.009976620693512881 -0.0016340662259608507
-0.002988851113755548 -0.009509511797048648 -0.0016664008144289255
-0.002818837697812714 -0.009042403775741364 -0.002489179139956832
-0.0026488239633387996 -0.008575294879277131 -0.0031417105346918106
-0.002478810547395966 -0.00810818685796985 -0.0036261826753616333
-0.002308797131453132 -0.007641078836662566 -0.004037108737975359
-0.0021387835562447577 -0.007173970377776808 -0.004242863040417433
-0.001968770140301924 -0.006706862356469526 -0.004335375502705574
-0.00179875656509355 -0.006239753897583768 -0.004427887964993715
-0.0016287429898851759 -0.00577264543869801 -0.004460223484784365
-0.0014587294146768018 -0.005305536979812253 -0.004522274248301983
-0.0012887159987339679 -0.0048384289585049695 -0.004811786115169525
-0.001118702423525594 -0.004371320499619212 -0.004460910800844431
-0.0009486888483172199 -0.0039042120407334537 -0.0038829464465379715
-0.0007786753527416159 -0.003437103800636934 -0.004679045174270868
-0.0006086617775332419 -0.0029699953417511755 -0.004510215949267149
-0.00043864828195763793 -0.0025028871016546557 -0.0047159697860479355
-0.00026863470674926395 -0.002035778642768898 -0.004293039441108704
-9.862117135727493e-05 -0.0015686702932777585 -0.0042958552949130535
7.139236403471406e-05 -0.0011015619437866194 -0.004238030407577753
0.00024140591933489552 -0.0006344535395981709 -0.003977733198553324
-0.0034559594564095232 -0.009339498264145181 -0.0014805144164711237
-0.0032859460404666896 -0.0088723902428379 -0.002204675693064928
-0.003115932305992775 -0.008405281346373666 -0.0028516408056020737
-0.0029459188900499414 -0.007938173325066383 -0.0034071316476911306
-0.0027759054741071073 -0.007471065303759101 -0.003962622489780188
-0.002605891898898733 -0.007003956844873344 -0.004131452180445194
-0.0024358784829558995 -0.006536848823566061 -0.004521657712757587
-0.0022658649077475254 -0.006069740364680303 -0.004429145250469446
-0.0020958513325391513 -0.0056026319057945455 -0.004519193433225155
-0.0019258377573307772 -0.005135523446908787 -0.004546246025711298
-0.0017558243413879433 -0.004668415425601505 -0.004604071844369173
-0.0015858107661795692 -0.004201306966715747 -0.004631125368177891
-0.0014157971909711953 -0.0037341985078299888 -0.004628307651728392
-0.0012457836953955912 -0.003267090267733469 -0.0046254899352788925
-0.0010757701201872174 -0.002799981808847711 -0.004563440568745136
-0.0009057566246116134 -0.0023328735687511907 -0.004501389805227518
-0.0007357430494032393 -0.0018657651098654326 -0.004469054285436869
-0.0005657295140112503 -0.0013986567603742936 -0.004304496571421623
-0.0003957159786192613 -0.0009315484108831546 -0.004610496573150158
-0.00022570242331907986 -0.00046444000669470603 -0.003710658522322774
-5.5688900369711235e-05 2.668308610614646e-06 -0.0033792678732424974
-0.003923067812737826 -0.009169484726264669 -0.0019632193725556135
-0.0037530543967949923 -0.008702376704957387 -0.002025269204750657
-0.0035830406623210778 -0.008235267808493154 -0.0028998558409512043
-0.0034130272463782437 -0.0077681597871858705 -0.0033843284472823143
-0.00324301383043541 -0.007301051765878588 -0.0040965634398162365
-0.003073000255227036 -0.006833943306992831 -0.004069511312991381
-0.0029029868392842022 -0.006366835285685548 -0.004517650231719017
-0.002732973264075828 -0.00589972682679979 -0.004520467948168516
-0.002562959688867454 -0.005432618367914032 -0.004523283801972866
-0.00239294611365908 -0.004965509909028274 -0.004496231209486723
-0.0022229326977162463 -0.004498401887720992 -0.004588744603097439
-0.002052919122507872 -0.004031293428835234 -0.00465079490095377
-0.0018829055472994979 -0.003564184969949476 -0.004560746718198061
-0.001712892051723894 -0.0030970767298529557 -0.004725303966552019
-0.0015428784765155199 -0.002629968270967198 -0.004817817360162735
-0.001372864980939916 -0.0021628600308706775 -0.004466942977160215
-0.001202851405731542 -0.0016957515719849196 -0.004559455439448357
-0.001032837870339553 -0.0012286432224937805 -0.004469407256692648
-0.000862824334947564 -0.0007615348730026415 -0.004300577566027641
-0.0006928107796473825 -0.00029442646881419295 -0.0036279670894145966
-0.0005227972566980138 0.00017268184649112768 -0.0041825356893241405
-0.00035278371881750087 0.0006397902028194304 -0.0037923287600278854
-0.00018277019337960813 0.0011068985249619147 -0.003119719447568059
-0.004220162691588822 -0.00853236318947359 -0.0018718676874414089
-0.004050148957114907 -0.008065254293009357 -0.002403952879831195
-0.0038801355411720736 -0.007598146271702074 -0.003076563123613596
-0.00371012212522924 -0.007131038250394792 -0.0036086481995880604
-0.003540108550020866 -0.006663929791509034 -0.0041160862892866135
-0.0033700951340780317 -0.006196821770201751 -0.00428491597995162
-0.0032000815588696576 -0.005729713311315994 -0.004453745204955339
-0.0030300679836612835 -0.0052626048524302355 -0.004511569626629353
-0.0028600544084529094 -0.004795496393544478 -0.004601618275046349
-0.0026900409925100757 -0.004328388372237195 -0.004691666457802057
-0.0025200274173017016 -0.0038612799133514375 -0.004629615228623152
-0.0023500138420933275 -0.0033941714544656796 -0.004980490542948246
-0.0021800003465177234 -0.0029270632143691593 -0.0046490998938679695
-0.0020099867713093494 -0.0024599547554834014 -0.004676153417676687
-0.0018399732757337457 -0.001992846515386881 -0.004733978305011988
-0.0016699597005253716 -0.0015257380565011232 -0.004528224468231201
-0.0014999461651333825 -0.0010586297070099841 -0.004495888948440552
-0.0013299326297413938 -0.0005915213575188451 -0.004248370882123709
-0.0011599190744412122 -0.00012441295333039652 -0.00424555316567421
-0.0009899055514918436 0.00034269536197492417 -0.004153040237724781
-0.0008198920136113305 0.0008098037183032269 -0.0040909890085458755
-0.0006498784881734379 0.0012769120404457113 -0.003606516867876053
-0.004857284457022795 -0.008829457675388884 -0.0005576089024543764
-0.004687271041079961 -0.008362349654081601 -0.0008890004246495666
-0.004517257306606046 -0.007895240757617368 -0.0022247673477977514
-0.004347243890663212 -0.0074281327363100854 -0.0031741054262965918
-0.004177230474720379 -0.006961024715002803 -0.003762472653761506
-0.004007216899512005 -0.006493916256117045 -0.004173399414867163
-0.003837203483569171 -0.006026808234809763 -0.004115574061870575
-0.0036671899083607967 -0.005559699775924004 -0.004446964245289564
-0.0034971763331524226 -0.005092591317038247 -0.004778354894369841
-0.0033271627579440485 -0.0046254828581524885 -0.0045639825984835625
-0.003157149342001215 -0.004158374836845206 -0.004656495060771704
-0.0029871357667928407 -0.0036912663779594484 -0.004598670639097691
-0.0028171221915844666 -0.0032241579190736905 -0.004846189636737108
-0.0026471086960088625 -0.00275704967897717 -0.0047561414539813995
-0.0024770951208004884 -0.0022899412200914123 -0.004758959170430899
-0.0023070816252248848 -0.0018228329799948922 -0.0047617750242352486
-0.0021370680500165107 -0.0013557245211091341 -0.004592945799231529
-0.001967054514624522 -0.000888616171617995 -0.00442411657422781
-0.0017970409792325327 -0.00042150782212685607 -0.004456452094018459
-0.0016270274239323513 4.560058206159253e-05 -0.004366403445601463
-0.0014570139009829827 0.0005127088973669132 -0.004197574220597744
-0.0012870003631024697 0.0009798172536952159 -0.004229908809065819
-0.001116986837664577 0.0014469255758377004 -0.0038790337275713682
-0.0009469732624562029 0.0019140340347234583 -0.0037889862433075905
-0.0007769597668805989 0.0023811422748199786 -0.0033358146902173758
-0.004984365874886424 -0.007725227142592608 -0.0017567729810252788
-0.004814352458943589 -0.007258119121285326 -0.0029688836075365548
-0.004644339043000756 -0.006791011099978044 -0.003719024593010545
-0.004474325467792382 -0.006323902641092286 -0.003933396656066179
-0.0043043120518495475 -0.005856794619785003 -0.004580362234264612
-0.004134298476641173 -0.005389686160899246 -0.004248971119523048
-0.003964284901432799 -0.004922577702013487 -0.004599845968186855
-0.0037942713262244256 -0.00445546924312773 -0.004657672718167305
-0.0036242579102815915 -0.003988361221820447 -0.004747719969600439
-0.0034542443350732174 -0.0035212527629346893 -0.004715385381132364
-0.0032842307598648433 -0.0030541443040489314 -0.004805433098226786
-0.0031142172642892397 -0.002587036063952411 -0.004832485690712929
-0.0029442036890808656 -0.002119927605066653 -0.004770434927195311
-0.0027741901935052615 -0.001652819364970133 -0.0045229168608784676
-0.0026041766182968874 -0.001185710906084375 -0.004691746085882187
-0.0024341630829048987 -0.000718602556593236 -0.004444228019565344
-0.0022641495475129096 -0.00025149420710209687 -0.004534274339675903
-0.0020941359922127282 0.00021561419708635162 -0.004369717091321945
-0.0019241224692633594 0.0006827225123916723 -0.00439677108079195
-0.0017541089313828464 0.001149830868719975 -0.004107258748263121
-0.0015840954059449536 0.0016169391908624595 -0.004014746285974979
-0.0014140818307365795 0.0020840476497482174 -0.003952695522457361
-0.0012440683351609757 0.0025511558898447377 -0.003541769459843636
-0.0010740548395853716 0.0030182641299412575 -0.0027729456778615717
-0.005451474114982943 -0.007555213647017005 -0.0025691087357699875
-0.00528146069904011 -0.007088105625709723 -0.002631159964948893
-0.0051114472830972755 -0.0066209976044024395 -0.0035804971121251587
-0.004941433707888901 -0.006153889145516682 -0.0038700094446539883
-0.004771420291946067 -0.0056867811242094 -0.004354482050985098
-0.004601406716737693 -0.0052196726653236415 -0.004446995444595814
-0.00443139314152932 -0.004752564206437883 -0.004449812229722738
-0.004261379566320946 -0.004285455747552126 -0.0045423246920108795
-0.004091366150378112 -0.003818347726244843 -0.004634838085621595
-0.003921352575169738 -0.003351239267359085 -0.00492434948682785
-0.0037513389999613636 -0.0028841308084733273 -0.004927166271954775
-0.0035813255043857595 -0.002417022568376807 -0.004536961205303669
-0.0034113119291773854 -0.0019499141094910493 -0.0048683518543839455
-0.0032412984336017817 -0.001482805869394529 -0.004778303671628237
-0.0030712848583934076 -0.0010156974105087712 -0.004840354900807142
-0.0029012713230014186 -0.0005485890610176321 -0.004450147971510887
-0.0027312577876094295 -8.148071152649298e-05 -0.004614705219864845
-0.002561244232309248 0.0003856276926619555 -0.004400332923978567
-0.0023912307093598793 0.0008527360079672761 -0.005052864085882902
-0.0022212171714793665 0.0013198443642955789 -0.004302723333239555
-0.0020512036460414735 0.0017869526864380634 -0.0037952854763716464
-0.0018811900708330996 0.002254061145323821 -0.004126675892621279
-0.0017111765752574957 0.0027211693854203413 -0.00386637868359685
-0.0015411630796818916 0.0031882776255168616 -0.003697549225762487
-0.0013711495044735178 0.0036553860844026195 -0.0033073432277888064
-0.005748569157925868 -0.006918092050501349 -0.0024308969732373957
-0.005578555741983034 -0.0064509840291940655 -0.003129226621240378
-0.00540854216677466 -0.005983875570308308 -0.003610462881624699
-0.005238528750831826 -0.005516767549001026 -0.004283072892576456
-0.0050685151756234515 -0.005049659090115267 -0.004310125485062599
-0.004898501600415078 -0.004582550631229509 -0.004524498246610165
-0.004728488025206704 -0.004115442172343752 -0.004359940532594919
-0.00455847460926387 -0.003648334151036469 -0.004665940534323454
-0.004388461034055496 -0.003181225692150711 -0.004926237277686596
-0.004218447458847122 -0.002714117233264953 -0.004864186979830265
-0.004048433963271518 -0.002247008993168433 -0.004771674517542124
-0.0038784203880631437 -0.0017799005342826752 -0.004829498939216137
-0.00370840689248754 -0.001312792294186155 -0.00462374510243535
-0.003538393317279166 -0.0008456838353003971 -0.004713793750852346
-0.003368379781887177 -0.000378575485809258 -0.004549236502498388
-0.0031983662464951878 8.853286368188111e-05 -0.004576289094984531
-0.0030283526911950064 0.0005556412678703296 -0.004286778159439564
-0.0028583391682456376 0.0010227495831756502 -0.004313830751925707
-0.0026883256303651248 0.001489857939503953 -0.004281496163457632
-0.002518312104927232 0.0019569662616464372 -0.004219444934278727
-0.0023482985297188577 0.002424074720532195 -0.004126931540668011
-0.002178285034143254 0.0028911829606287154 -0.003962373826652765
-0.00200827153856765 0.0033582912007252357 -0.003869861597195268
-0.001838257963359276 0.0038253996596109936 -0.003622342366725207
-0.001668244467783672 0.0042925078997075134 -0.0035298294387757783
-0.001498230892575298 0.004759616358593272 -0.002761007053777576
-0.006215677398022388 -0.0067480785549257445 -0.0023328573442995553
-0.006045663982079554 -0.006280970533618462 -0.0030156623106449847
-0.00587565040687118 -0.005813862074732704 -0.0034265883732587103
-0.0057056369909283455 -0.005346754053425422 -0.004079119767993689
-0.005535623415719971 -0.004879645594539663 -0.004368631634861231
-0.005365609840511598 -0.004412537135653906 -0.004533187951892614
-0.005195596265303224 -0.0039454286767681476 -0.004565523471683264
-0.00502558284936039 -0.0034783206554608653 -0.004658037796616554
-0.004855569274152016 -0.0030112121965751074 -0.0047200871631503105
-0.004685555698943642 -0.0025441037376893495 -0.00475242268294096
-0.004515542203368038 -0.0020769954975928292 -0.004814473446458578
-0.004345528628159664 -0.0016098870387070714 -0.004906985908746719
-0.0041755151325840595 -0.001142778798610551 -0.004849161021411419
-0.004005501557375685 -0.0006756703397247932 -0.004851978737860918
-0.0038354880219836967 -0.00020856199023365406 -0.004637605976313353
-0.0036654744865917076 0.000258546359257485 -0.004610552452504635
-0.0034954609312915262 0.0007256547634459335 -0.0045205047354102135
-0.0033254474083421574 0.0011927630787512541 -0.004613017197698355
-0.0031554338704616446 0.0016598714350795568 -0.004307018127292395
-0.0029854203450237517 0.0021269797572220413 -0.004138188436627388
-0.0028154067698153776 0.0025940882161077992 -0.004230700898915529
-0.002645393274239774 0.0030611964562043195 -0.004140653181821108
-0.00247537977866417 0.0035283046963008394 -0.004050605930387974
-0.0023053662034557957 0.003995413155186598 -0.003790308721363545
-0.002135352707880192 0.0044625213952831175 -0.003763255197554827
-0.001965339132671818 0.004929629854168876 -0.0031852908432483677
-0.0017953255574634439 0.005396738313054633 -0.003217626363039017
-0.006512772003386837 -0.006110957117675628 -0.0025906483642756943
-0.006342758428178463 -0.00564384865878987 -0.00316861248575151
-0.006172745012235628 -0.0051767406374825875 -0.003649847581982613
-0.006002731437027254 -0.00470963217859683 -0.004103018436580897
-0.00583271786181888 -0.004242523719711072 -0.0044538937509059915
-0.005662704286610506 -0.003775415260825314 -0.004511718638241292
-0.005492690870667672 -0.0033083072395180316 -0.004601766820997001
-0.005322677295459298 -0.0028411987806322737 -0.004569432232528926
-0.005152663720250924 -0.002374090321746516 -0.004627258051186801
-0.00498265022467532 -0.0019069820816499956 -0.00479608727619052
-0.004812636649466946 -0.0014398736227642377 -0.004631529562175275
-0.004642623153891342 -0.0009727653826677174 -0.0047215777449309835
-0.004472609578682968 -0.0005056569237819595 -0.004557020496577025
-0.004302596043290979 -3.85485742908204e-05 -0.004524684976786376
-0.00413258250789899 0.00042855977520031866 -0.004318931605666877
-0.0039625689525988085 0.0008956681793887672 -0.0041131782345473775
-0.0037925554296494397 0.0013627764946940878 -0.004373475443571807
-0.003622541891768927 0.0018298848510223905 -0.004370657727122308
-0.003452528366331034 0.002296993173164875 -0.004308607429265977
-0.00328251479112266 0.002764101632050633 -0.004216094035655261
-0.003112501295547056 0.003231209872147153 -0.004123581107705832
-0.002942487799971452 0.003698318112243673 -0.0040615308098495015
-0.002772474224763078 0.004165426571129431 -0.0038969733286648993
-0.0026024607291874743 0.004632534811225952 -0.003834922099485994
-0.0024324471539791 0.005099643270111709 -0.003742409404367209
-0.002262433578770726 0.005566751728997467 -0.003577851923182607
-0.0020924201628278933 0.0060338597503047505 -0.0031669258605688815
-0.006979880462272595 -0.005940943542467254 -0.002941645216196776
-0.006809866887064221 -0.005473835083581496 -0.0029739807359874253
-0.006639853471121386 -0.0050067270622742134 -0.0037700792308896784
-0.006469839895913012 -0.004539618603388456 -0.004059591330587865
-0.006299826320704638 -0.004072510144502698 -0.0044705173932015905
-0.006129812745496264 -0.00360540168561694 -0.004532568622380496
-0.00595979932955343 -0.0031382936643096575 -0.004594619385898114
-0.005789785754345056 -0.0026711852054238996 -0.004687131848186255
-0.0056197721791366815 -0.0022040767465381418 -0.004719467367976905
-0.005449758683561078 -0.0017369685064416215 -0.004781517665833236
-0.005279745108352704 -0.0012698600475558636 -0.0047544650733470925
-0.0051097316127771 -0.0008027518074593433 -0.004727411549538375
-0.004939718037568726 -0.00033564334857358536 -0.0048919697292149076
-0.004769704502176737 0.0001314650009175537 -0.004631671588867904
-0.004599690966784748 0.0005985733504086928 -0.0045416243374347695
-0.004429677411484567 0.0010656817545971412 -0.0044837985187768945
-0.004259663888535198 0.0015327900699024619 -0.004545848816633225
-0.004089650350654684 0.0019998984262307646 -0.004455800633877517
-0.003919636825216792 0.002467006748373249 -0.004458618350327016
-0.0037496232500084177 0.002934115207259007 -0.004368570167571307
-0.003579609754432814 0.0034012234473555273 -0.004310745280236007
-0.00340959625885721 0.003868331687452047 -0.0040963729843497285
-0.0032395826836488367 0.004335440146337806 -0.0027907087933272128
-0.003069569188073232 0.004802548386434326 -0.003940957598388196
-0.002899555612864858 0.005269656845320083 -0.003913904074579478
-0.002729542037656484 0.0057367653042058415 -0.0038238561246544127
-0.002559528621713651 0.006203873325513124 -0.0034729808103293185
-0.002389515046505277 0.006670981784398882 -0.0027488204650580887
-0.0072769753459499785 -0.005303821508373122 -0.0026644379831850533
-0.007106961930007144 -0.004836713487065839 -0.0033370482269674544
-0.00693694835479877 -0.004369605028180082 -0.0038925395347177987
-0.006766934779590396 -0.0039024965692943236 -0.00439997622743249
-0.006596921204382022 -0.0034353881104085657 -0.004490023944526912
-0.006426907788439188 -0.0029682800891012834 -0.00439751148223877
-0.006256894213230814 -0.0025011716302155255 -0.004748386796563865
-0.00608688063802244 -0.0020340631713297677 -0.004716051276773215
-0.005916867142446837 -0.0015669549312332474 -0.004653999581933022
-0.0057468535672384625 -0.0010998464723474895 -0.0046511837281286725
-0.005576840071662858 -0.0006327382322509692 -0.0047412323765456685
-0.005406826496454484 -0.0001656297733652113 -0.004186663310974837
-0.005236812961062496 0.00030147857612592777 -0.004576869308948518
-0.005066799425670506 0.0007685869256170669 -0.004544534720480443
-0.004896785870370325 0.0012356953298055153 -0.004541717004030944
-0.004726772347420956 0.001702803645110836 -0.004479666706174613
-0.004556758809540443 0.0021699120014391387 -0.004315109457820655
-0.004386745284102551 0.002637020323581623 -0.004372934345155955
-0.0042167317088941765 0.003104128782467381 -0.0035768360830843453
-0.004046718213318572 0.0035712370225639014 -0.004223800729960204
-0.0038767047177429683 0.004038345262660422 -0.004131288267672063
-0.003706691142534594 0.004505453721546179 -0.004128470551222564
-0.0035366776469589905 0.0049725619616427 -0.003717544255778194
-0.0033666640717506164 0.005439670420528457 -0.00397784123197198
-0.0031966504965422423 0.005906778879414216 -0.0037303224671632056
-0.0030266370805994086 0.006373886900721498 -0.003210379742085934
-0.0028566235053910346 0.006840995359607256 -0.002075208351016045
-0.007744083804835737 -0.0051338079331647475 -0.0024021470453590163
-0.007574070388892903 -0.004666699911857465 -0.003424141788855196
-0.007404056813684528 -0.004199591452971708 -0.003944084513932467
-0.007234043238476154 -0.0037324829940859495 -0.004392223898321391
-0.0070640296632677796 -0.0032653745352001916 -0.004484736360609532
-0.0068940162473249455 -0.0027982665138929093 -0.004577249754220248
-0.006724002672116571 -0.0023311580550071515 -0.004639300052076579
-0.006553989096908197 -0.0018640495961213934 -0.00454925186932087
-0.006383975601332594 -0.0013969413560248733 -0.004522198345512153
-0.00621396202612422 -0.0009298328971391153 -0.004686756059527398
-0.006043948530548616 -0.0004627246570425951 -0.004659703467041255
-0.005873934955340242 4.3838018431628195e-06 -0.004662520252168179
-0.005703921419948253 0.00047149215133430187 -0.004665337502956391
-0.0055339078845562635 0.000938600500825441 -0.004668154288083316
-0.005363894329256083 0.0014057089050138894 -0.00457810563966632
-0.005193880806306714 0.00187281722031921 -0.004551053047180177
-0.005023867268426201 0.0023399255766475132 -0.0032453895546495923
-0.004853853742988308 0.0028070338987899973 -0.00441690580919385
-0.004683840167779934 0.003274142357675755 -0.004449241794645787
-0.00451382667220433 0.0037412505977722755 -0.004359193146228791
-0.004343813176628726 0.004208358837868796 -0.0041903634555637845
-0.004173799601420352 0.004675467296754553 -0.004100315738469363
-0.0040037861058447475 0.005142575536851074 -0.004073262214660645
-0.003833772530636374 0.005609683995736831 -0.00404620822519064
-0.0036637589554280006 0.00607679245462259 -0.0035387719981372365
-0.003493745539485167 0.006543900475929872 -0.003232772462069989
-0.003323731964276793 0.00701100893481563 -0.002585806883871556
-0.0031537183890684188 0.007478117393701388 -0.0026181424036622056
-0.0029837048138600447 0.007945225852587145 -0.0008607910713180906
-0.008041178410200184 -0.004496686495914632 -0.002306874608621002
-0.00787116483499181 -0.004029578037028874 -0.0034564293455332526
-0.007701151259783436 -0.003562469578143116 -0.003988515119999648
-0.007531137684575062 -0.003095361119257358 -0.004411446861922742
-0.007361124268632228 -0.0026282530979500752 -0.004438499454408885
-0.007191110693423854 -0.0021611446390643173 -0.00440616486594081
-0.0070210971182154795 -0.0016940361801785595 -0.004757040180265904
-0.006851083622639876 -0.0012269279400820394 -0.003960940521210433
-0.006681070047431502 -0.0007598194811962814 -0.004129770677536727
-0.006511056551855898 -0.0002927112410997612 -0.004519976675510407
-0.006341042976647524 0.0001743972177859967 -0.004610025323927403
-0.006171029441255535 0.0006415055672771358 -0.004607207141816617
-0.006001015905863546 0.0011086139167682748 -0.004634260665625335
-0.005831002350563365 0.0015757223209567233 -0.004469702951610089
-0.005660988827613996 0.002042830636262044 -0.004407653585076333
-0.005490975289733482 0.002509938992590347 -0.004622025415301324
-0.00532096176429559 0.002977047314732831 -0.004559975117444993
-0.005150948189087216 0.003444155773618589 -0.004395417869091035
-0.004980934693511612 0.003911264013715109 -0.0039472775533795365
-0.004810921197936008 0.004378372253811629 -0.0036577654536813506
-0.004640907622727634 0.004845480712697387 -0.003918063826858998
-0.00447089412715203 0.005312588952793907 -0.0037535063456743964
-0.004300880551943656 0.0057796974116796655 -0.003588948631659151
-0.0041308669767352825 0.006246805870565424 -0.0031780225690454253
-0.003960853560792449 0.006713913891872706 -0.002465786179527641
-0.003790839985584075 0.0071810223507584635 -0.00118468631990254
-0.003620826410375701 0.007648130809644222 -0.00012463804159779175
-0.008338273293877568 -0.0038595644618204996 -0.0031994238961488017
-0.008168259718669194 -0.0033924560029347417 -0.0036103506572544583
-0.00799824614346082 -0.002925347544048984 -0.004351238720119
-0.007828232727517986 -0.002458239522741701 -0.004515796434134246
-0.007658219152309612 -0.0019911310638559433 -0.004425749182701112
-0.007488205577101238 -0.0015240226049701854 -0.004335700999945403
-0.007318192081525635 -0.0010569143648736653 -0.004245652351528407
-0.0071481785063172605 -0.0005898059059879073 -0.004307702649384738
-0.006978165010741656 -0.00012269766589138712 -0.004340038634836675
-0.006808151435533282 0.0003444107929943708 -0.00431298464536667
-0.006638137900141294 0.0008115191424855098 -0.004315802827477456
-0.006468124364749304 0.001278627491976649 -0.004377853125333787
-0.006298110809449123 0.0017457358961650974 -0.004380669910460711
-0.006128097286499754 0.0022128442114704183 -0.004473182372748853
-0.005958083748619241 0.002679952567798721 -0.004258810542523862
-0.005788070223181349 0.003147060889941205 -0.0040899813175201425
-0.0056180566479729745 0.003614169348826963 -0.0037839815486222514
-0.00544804315239737 0.004081277588923483 -0.003569608088582755
-0.005278029656821766 0.004548385829020003 -0.003572425805032254
-0.005108016081613392 0.005015494287905761 -0.003664938500151039
-0.004938002586037789 0.005482602528002281 -0.0030179726891219625
-0.004767989010829415 0.00594971098688804 -0.0027576752472668895
-0.004597975435621041 0.006416819445773798 -0.0023674697149544963
-0.0044279620196782075 0.00688392746708108 -0.003437547245994211
-0.0042579484444698334 0.007351035925966838 -0.0008022363181225963
-0.008635368177554953 -0.0032224424277263676 -0.003239686135202647
-0.008465354602346578 -0.0027553339688406097 -0.0034085153602063665
-0.008295341186403744 -0.0022882259475333275 -0.003861686447635294
-0.00812532761119537 -0.0018211174886475698 -0.004284617956727744
-0.007955314035986996 -0.0013540090297618117 -0.0038364778738468894
-0.007785300540411392 -0.0008869007896652916 -0.00380414235405624
-0.007615286965203018 -0.00041979233077953364 -0.0042853783816099176
-0.007445273469627414 4.731590931698653e-05 -0.003765436355024577
-0.00727525989441904 0.0005144243682027444 -0.0036008788738399753
-0.007105246359027051 0.0009815327176938835 -0.0036587039940059194
-0.0069352328236350624 0.001448641067185023 -0.003411184763535858
-0.0067652192683348815 0.0019157494713734715 -0.00320543209090829
-0.006595205745385512 0.002382857786678792 -0.003628362901508809
-0.006425192207504999 0.002849966143007095 -0.003361423499882222
-0.006255178682067106 0.0033170744651495787 -0.003842658596113325
-0.006085165106858733 0.003784182924035337 -0.0033161190804094085
