ply
format ascii 1.0
element vertex 752
property float x
property float y
property float z
end_header
-0.004664594582768409 -0.031635900796588456 0.04296951752199364
-0.001927958887542826 -0.03218350917791026 0.041107547982147365
-8.231158876638184e-05 -0.03213302704516857 0.041241880297630186
0.0019321897443709698 -0.03196782948085 0.041753065722230566
0.003397473810928058 -0.03217575711903957 0.0410384928445482
0.0053608538465332815 -0.0320452901534382 0.041435584341869766
0.00665427638745398 -0.0323699764415437 0.0403374461527698
0.008196754228331294 -0.03252546045782213 0.03979515647795671
0.01144324886348981 -0.032726682922393974 0.03907110367149377
0.013229203031509712 -0.03271675480341025 0.039072211487837835
0.01481167753118769 -0.03284506591690574 0.03861918786134569
0.01635415500109753 -0.03300055013448961 0.03807689752654954
-0.008073922849025066 -0.03117305625236303 0.03889002774192325
-0.0032975825651409703 -0.030334937647279615 0.04158032737839029
-0.0017482391793515993 -0.03048575737495767 0.04105336041680514
-0.0006969917167455838 -0.030974971675267225 0.03941472918257835
0.0008139838535316894 -0.03115185758804883 0.03880213186800516
0.0029037872681026014 -0.03093550157316091 0.039481378562913144
0.004072767513402176 -0.03134473100945133 0.0381055066128874
0.006010821246339152 -0.031231470134020268 0.03844607416667925
0.007598789198683884 -0.031356049246017224 0.03800531058216945
0.009226350290026228 -0.03145372971715679 0.037652912061529445
0.01100110259296966 -0.03145141213626079 0.037629018396636876
0.012512076955494104 -0.03162829878413608 0.03701641866943471
0.013902346087138895 -0.031887189672220755 0.036134425780783436
0.01578596651732278 -0.0318109094426869 0.03635350775029395
0.017335309918380677 -0.03196172924541686 0.035826540539918295
0.018062985021185758 -0.03267077094304863 0.03346575155401555
0.020418455913476824 -0.03227392673622643 0.034737922281501105
0.02219320716937177 -0.0322716090124206 0.03471402910844906
0.02370418161596191 -0.03244849568860863 0.03410142928599981
0.02542538655032006 -0.03248255675079102 0.03395802768701342
0.026654059716182336 -0.03285123223069922 0.032715380049877216
-0.015448021931230925 -0.029793561888992647 0.03791635091988872
-0.012524272667654391 -0.03021404837702868 0.036471991148564725
-0.009046548522941464 -0.030258178818712556 0.03626400332954296
-0.005371090300383828 -0.03016797341131077 0.03649732390031661
-0.003274747485357571 -0.029947174682641516 0.03719116541022377
-0.0016503892233924013 -0.030047031080199786 0.03683161872629984
7.636803253976542e-05 -0.030077320026613504 0.03670060895233503
0.001503029458862287 -0.03031148697178745 0.03589983699679341
0.0035175307919996387 -0.03014628940746888 0.03641102242139378
0.005363177999046521 -0.030095807337046084 0.03654535453215203
0.007268228719888862 -0.030004967926344023 0.0368122650497636
0.008892586248017538 -0.030104824822453427 0.036452716728043066
0.010396239444837637 -0.030286685553178764 0.03582377657191179
0.012122996685501278 -0.030316974424540583 0.035692767046737496
0.013362872448811791 -0.030678039004951085 0.03447512207454585
0.015148827864250161 -0.030668110073204698 0.03447623255999818
0.016614112129534904 -0.03087603766180838 0.033761659842974454
0.018196586123239267 -0.031004349239179236 0.033308634689454344
0.01966187092363285 -0.03121227637881767 0.03259406344956858
0.02150751672431766 -0.031161794580444137 0.03272839468450688
0.022894583085321774 -0.03142286147517219 0.03183925336587938
0.024398234233554462 -0.031604723426809346 0.031210309203388464
0.026124992131593562 -0.03163501193699082 0.031079300862495683
0.0277493497514518 -0.031734868770781334 0.03071975274549972
0.029253003590260424 -0.031916729577904736 0.030090812324972814
-0.019111925050150465 -0.02830026075314554 0.03725352784608047
-0.015408160919435863 -0.028190824982177426 0.037550022326412885
-0.013017299501050069 -0.028973342850597716 0.03491634870759234
-0.010975865451294768 -0.02878984783651989 0.035487643314853774
-0.009426522340694084 -0.028940667751154624 0.0349606757390949
-0.007597484055011298 -0.028901469388518376 0.0350579395992849
-0.005659430322074323 -0.028788208513087315 0.035398507153076755
-0.004031867212681619 -0.02888588761321127 0.03504611313637741
-0.0024043063047983976 -0.028983568208988623 0.03469371420628826
-0.0006295539406624569 -0.028981250415669922 0.03466982124370129
0.0009980069672207645 -0.02907893101144728 0.034317422313612136
0.003135035512054334 -0.028830491361602928 0.03510206736180985
0.004762597337233172 -0.028928171334191368 0.034749670478966446
0.006899625882066742 -0.028679731684347017 0.03553431552716415
0.00841060218618051 -0.02885661709857749 0.034921719850387556
0.01003816349151903 -0.02895429759518308 0.03456932124161568
0.011867201486744604 -0.028915099344451606 0.03466658473642247
0.013095874410411257 -0.029283774868772906 0.03342393695652941
0.014683841106741572 -0.029408354783355226 0.03298317073676429
0.016155990779344025 -0.02961161817683687 0.03228392042588164
0.017743958639959197 -0.029736197351152717 0.031843156636647274
0.01937151973130154 -0.029833877822292285 0.03149075811600727
0.02095948554344771 -0.02995845770488964 0.03104999201788092
0.022470461297184108 -0.030135343493033463 0.030437395112756872
0.023860731129672328 -0.03039423402511058 0.029555403390485326
0.02548829222101467 -0.03049191449625015 0.029203004869845322
0.02687856205350289 -0.030750805028327263 0.028321013147573775
0.02838953866322399 -0.030927690918335166 0.02770841588992222
0.03113079710070504 -0.030268751790826248 0.0298415979424492
0.031763855797816126 -0.031042073633463257 0.027269641442579352
0.03411932689649871 -0.03064522928642355 0.028541812630695197
0.03594836333118448 -0.030606030814511215 0.028639076885654532
-0.022039878226171344 -0.026306972657329508 0.038233218231817113
-0.019097709055385863 -0.02671494646348946 0.03682996399353677
-0.017671049463654574 -0.02694911465504124 0.03602918794350363
-0.01608857363535898 -0.027077424986034264 0.03557616688447503
-0.014506098907818121 -0.027205736064853984 0.035123143368751525
-0.012881744375872705 -0.027305593629699705 0.03476359288594195
-0.011154985285349306 -0.027335881329735592 0.034632587206468654
-0.00930933844522067 -0.027285399508588364 0.03476691849832859
-0.007582581189288503 -0.027315688455002082 0.03463590872436378
-0.005796626811074759 -0.027305760278642614 0.03463701672695705
-0.004069869188224343 -0.027336048975780767 0.034506007771890536
-0.002343110464619189 -0.027366336925092223 0.03437500127351893
-0.0007187542207043774 -0.027466194693666107 0.03401545008565434
0.0011268944540154925 -0.027415711626141044 0.03414978547200579
0.0027512512483076753 -0.027515569020801576 0.03379023551248866
0.004333725425471162 -0.027643880473534648 0.0333372107684177
0.005720791786475275 -0.027904947368262704 0.03244806944979019
0.007919707514717557 -0.027614463031830447 0.03337083602745194
0.009976745710754875 -0.027420367101208334 0.03397695583469875
0.011162336054634325 -0.02781831194451471 0.03263815504545124
0.012665987052400955 -0.02800017387824607 0.03200921094492805
0.014208464875612933 -0.028155657855804834 0.0314669213986414
0.01575094286935312 -0.02831114185365683 0.030924631782124658
0.016628541043029514 -0.028918329367919934 0.02889844525686284
0.01882745750510829 -0.02862784453293655 0.02982121347232119
0.020369932517815326 -0.028783329787207067 0.02927891974845723
0.021994290779780497 -0.028883186184765337 0.0289193730645333
0.02353676866652259 -0.029038670169884324 0.028377083492082497
0.025002052824809242 -0.029246597745755 0.027662510819124707
0.026505705257255794 -0.029428458824927665 0.027033569522777853
0.02793236625534915 -0.029662626744430175 0.026232794348564663
0.029397651514390544 -0.029870553572474152 0.025518224132301783
0.0309801262419314 -0.029998864651293873 0.025065200616578277
0.03270688349786357 -0.030029153597707595 0.024934190842613464
0.034803224692649994 -0.029808354602991284 0.02562803326230022
0.037032563630792964 -0.029497201458337056 0.02661869920217624
-0.021984756717569536 -0.024693868130434088 0.03790094843764725
-0.01906471528549975 -0.025116874998174117 0.03644830889942833
-0.017553740082140723 -0.025293761160231288 0.035835710765956826
-0.01604276451186345 -0.025470647073012893 0.03522311345138363
-0.014454797752003017 -0.02559522699515544 0.03478234720545435
-0.012866832337193736 -0.025719806464294257 0.03434158248347839
-0.011278865577333309 -0.0258443863864368 0.03390081623754911
-0.009504113580115613 -0.025842068842393668 0.033876922456063836
-0.007462679530360313 -0.025658573828315843 0.03444821706332527
-0.005874713137418129 -0.02578315399973396 0.03400744999849769
-0.003936659037562906 -0.025669892875027328 0.03434801837118784
-0.0022154547223792974 -0.02570395435786224 0.03420461539031056
-0.0002773998886875812 -0.025590692734604476 0.034545185400797325
0.001233575131212322 -0.025767579021299433 0.033932586857876666
0.0031716301483631615 -0.025654317273403886 0.03427315727781258
0.004799191239705507 -0.02575199774454346 0.03392075875717258
0.006426753064884345 -0.025849677717131897 0.03356836187432917
0.007817022255265633 -0.02610856868544125 0.032686368718985594
0.009327998222998204 -0.026285454499051095 0.03207377172572967
0.010615868128955284 -0.02661391303040977 0.03096324129504377
0.012203834738349656 -0.026738492934646522 0.03052247511108221
0.013925039540380518 -0.02677255403600786 0.030379073384716536
0.015754077199224902 -0.026733356184655756 0.03047633556304399
0.017041947395639193 -0.027061814604109658 0.029365805497741298
0.018514097511620926 -0.027265077610944946 0.028666556459272047
0.019904366029476636 -0.027523968352752434 0.02778456406590513
0.021625570895037617 -0.027558029461674 0.027641162313375302
0.023174914189097423 -0.02770884925167095 0.027114195147065586
0.02472425693277986 -0.027859669415581247 0.026587226752408415
0.026196407048761597 -0.028062932422416538 0.025887977713939164
0.02782396899608864 -0.028160612995420185 0.025535578840771653
0.028875216550424215 -0.028649827233410845 0.023896947811269442
0.03070425465264788 -0.028610628995412384 0.02399421126201029
0.032253597946707686 -0.028761448785409333 0.02346724409570057
0.0339748012837584 -0.028795509565964952 0.023323843457674912
0.03684174084752405 -0.028051185658060494 0.025737524127703176
0.03835271591328873 -0.028228071913596005 0.025124925687144813
0.03998027995494956 -0.0283257517471587 0.024772529225231564
0.04191833374521751 -0.028212490832778332 0.025113096906976273
-0.021752144377722642 -0.022960180536724287 0.037964807595016685
-0.01927939610220717 -0.023687067780729654 0.03551388680534593
-0.017493441723993426 -0.02367713960437019 0.035514994807939196
-0.01602815738224765 -0.02388506705560308 0.03480042254443056
-0.014403799303741605 -0.02398492357779913 0.03444087545105748
-0.012677042659024095 -0.02401521157265799 0.03430986883884259
-0.01121175831727832 -0.02422313902389088 0.03359529657533396
-0.009425803939064576 -0.024213210847531415 0.03359640457792722
-0.007922150956240652 -0.02439507155279073 0.032967464509927824
-0.006628728552914295 -0.02471975793437458 0.03186932601374099
-0.004461850291399933 -0.024451039094018467 0.032720590486105906
-0.0020468512707038063 -0.024013752886702783 0.03412561773878083
-8.34711892338017e-05 -0.02388328588994196 0.03452270933846469
0.0014201806928353829 -0.024065147343027983 0.033893766813770376
0.0031469392329814133 -0.02409543541697722 0.03376275990594963
0.004771296210732719 -0.02419529268699997 0.03340321035588164
0.00623658146977411 -0.02440321951504395 0.03268864013961875
0.007819056197314966 -0.02453153059386367 0.03223561662389525
0.009058931682980782 -0.02489259565387823 0.031017970068531985
0.010445997936986808 -0.02515366253587327 0.03012882879397042
0.011949649668589933 -0.025335523971053493 0.029499886331243834
0.014045992420086074 -0.025114725234824015 0.030193727867315154
0.015019186113134443 -0.02565696750286469 0.028380893786169425
0.01664354364126312 -0.02575682439897409 0.028021345464448892
0.01814719533987318 -0.025938685976697892 0.02739240253030543
0.01977155274585365 -0.02603854227239208 0.02703285619890901
0.021395910273982327 -0.02613839916850148 0.026673307877188475
0.02278297663498644 -0.026399466063229536 0.025784166558560973
0.024568931013200183 -0.026389537886870068 0.02578527456115424
0.02586235341652654 -0.026714224268453914 0.02468713606496741
0.027404832159253333 -0.026869708355436978 0.024144846139989098
0.028987306152957696 -0.026998019932807836 0.023691820986468985
0.030569780880498554 -0.027126331011627557 0.023238797470745476
0.03211225876724065 -0.027281814996746544 0.022696507898294672
0.03395790371194077 -0.027231333096508936 0.02283083948576048
0.03542318842060479 -0.02743926029846626 0.022116268041150147
0.038116219467699386 -0.026813085717702988 0.02414181486849255
0.0404031737957992 -0.026462791408552726 0.025261063905053567
0.04137636706939565 -0.027005033876134118 0.023448229170630695
0.043433404753315724 -0.02681093812258238 0.024054348400654513
-0.02065005448271977 -0.019432383558693308 0.04395402526229275
-0.019843176140010518 -0.02129102337832477 0.03778516983197462
-0.018885585935868712 -0.021843866201729394 0.035937511735125036
-0.017495316928946545 -0.022102757294676534 0.035055518170332305
-0.0160631638372227 -0.022333193332448868 0.03426700266568661
-0.014591013721240963 -0.022536456339284156 0.03356775362721736
-0.013003049407186423 -0.02266103655624967 0.03312698644854649
-0.011570895948544328 -0.02289147234474644 0.032338471762799095
-0.00948109326780991 -0.022675116828409652 0.03301771681991048
-0.008429844612719593 -0.023164330318573612 0.03137908824710318
-0.006340041198148682 -0.02294797430368569 0.03205833494201118
-0.004712479556428965 -0.02304565440091191 0.03170593764971862
-0.0026710458735919097 -0.022862159636109654 0.032277231438081755
-0.00016441929444385587 -0.022362623835813073 0.033886755612693734
0.0018770145718523218 -0.022179128946373035 0.034458049810506014
0.003760634515188952 -0.022102849098312758 0.034677130525504925
0.005535386695865769 -0.022100531429631844 0.03465323715346881
0.007084729989925577 -0.022251351219628797 0.03412626998715909
0.010151588285710361 -0.021371207260336887 0.03698613481865795
0.009921751979611846 -0.02273075970102909 0.03248834479305167
0.010972999243490213 -0.02321997405092452 0.03084971339816624
0.01193058929716596 -0.02377281685642335 0.02900205536328437
0.013320858424017134 -0.024031707817172482 0.028120062234104945
0.014831833000537756 -0.024208594490513796 0.0275074624187709
0.01641980086115293 -0.024333173664829642 0.027066698629536527
0.018007767437554233 -0.02445775371160997 0.026625931974158096
0.019728970896753142 -0.024491815092580797 0.026482529345808324
0.02127831419081295 -0.02464263488257775 0.025955562179498605
0.022789290494926718 -0.02481952029680822 0.02534296650272201
0.024377256520950654 -0.0249441007175019 0.024902198618996126
0.02584940682039151 -0.025147363599699407 0.024202949989976026
0.027398750420058647 -0.025298183865473785 0.023675981242791348
0.028986716996459955 -0.025422763912254114 0.023235214587412917
0.03053606029051976 -0.02557358370225106 0.022708247421103202
0.031968213198784484 -0.02580401986466118 0.02191973150700835
0.033517554780874904 -0.025954839450929967 0.02139276504575365
0.03523875964643588 -0.02598890055985153 0.021249363293223827
0.036670912554700605 -0.02621933672226165 0.02046084737912898
0.038499952368893656 -0.026180138687991347 0.02055811012481481
0.041006578122475656 -0.025680603448564793 0.02216763245690561
-0.021302638284206886 -0.018300077257220073 0.0420422791621202
-0.01895440260696163 -0.01790814848413135 0.04329830213633787
-0.019806588038977786 -0.019690510009561426 0.03741153666563905
-0.018620997404641126 -0.020088454740963033 0.03607273624177476
-0.017435408237977457 -0.0204864004694669 0.03473393254231725
-0.016008748646246167 -0.02072056866101868 0.033933156492284115
-0.014582087219923646 -0.020954735606192626 0.0331323845367425
-0.013116804957065516 -0.02116266310297292 0.032417812159390574
-0.011651520615319742 -0.02137059055420581 0.03170323989588194
-0.010069045887778886 -0.021498901633025536 0.03125021638015842
-0.00868198044407039 -0.021759969150942502 0.030361073014285166
-0.0069552224543017295 -0.021790257598805093 0.030230064878116962
-0.005169266975333243 -0.021780328674618925 0.030231175337405134
-0.002821031298087984 -0.021388399901530204 0.031487198311622805
0.00016730371804133098 -0.02056160279858438 0.03417181271343385
0.002224341700082475 -0.02036750684249625 0.03477793260881253
0.0038486994116702744 -0.02046736361396787 0.034418384696541154
0.005694346618717157 -0.02041688154354507 0.0345527168072994
0.007599397247829935 -0.020326042195161903 0.03481962712018639
0.008430890584381014 -0.020964552243758466 0.032690542542877454
0.010216846277345674 -0.02095462334503832 0.03269165291403376
0.011799320806158881 -0.021082934473443924 0.03223862923765162
0.012724143500984065 -0.021658038646439264 0.03031784010402435
0.013800717156863433 -0.022130046880177726 0.02873573273712915
0.015094139667187879 -0.022454733274494584 0.027637594196876378
0.016279729017310673 -0.02285267887836067 0.02629879090686802
0.018184779738153016 -0.022761839467658612 0.02656570142447959
0.019315786941555516 -0.02319686620580908 0.025105082451088136
0.020742447267123296 -0.023431033898809725 0.024304308038851606
0.022528400728041423 -0.023421106345639174 0.024305413994199117
0.024110876739796144 -0.023549416551994412 0.023852393344619673
0.0250840701423873 -0.02409165893193986 0.02203955889809073
0.027313408285382864 -0.02378050701088976 0.023030220800396874
0.028778692443669512 -0.023988434586760435 0.022315648127439087
0.03040305052217556 -0.024088291108956487 0.021956101034066006
0.03202740878414073 -0.024188147506514754 0.021596554350142072
0.03399078697018222 -0.02405768043066356 0.0219936462454318
0.03496398000585513 -0.024599923059884572 0.020180810980004557
0.03642926416414178 -0.024807850635755243 0.01946623830704677
0.03865860481425415 -0.024496697694829178 0.020456903541867764
0.040444559100738325 -0.024486769580788603 0.020458011339736463
0.04302986047384543 -0.023933783988916747 0.022243124097854113
-0.019115148464214436 -0.016441698237906553 0.04248425331956318
-0.018582864941436305 -0.017283484347089494 0.03968738399535379
-0.018118897193211667 -0.018171682575420633 0.03673804563396859
-0.017948389925019768 -0.01925925090317006 0.0331337540479119
-0.016064769981683137 -0.019182971055109792 0.033352834762910816
-0.014674500607842726 -0.01944186189878136 0.03247084201701639
-0.013386632857234324 -0.019770320613058237 0.031360311018972103
-0.011875658020793545 -0.019947207024390973 0.0307477120666023
-0.010403508271730057 -0.020150470280501827 0.030048462209234746
-0.008854164794211127 -0.020301289945860994 0.02952149545237418
-0.007304821683610442 -0.020452109860495726 0.028994527876615314
-0.005366767950673466 -0.02033884898506466 0.02933509543040716
-0.003138628651738724 -0.02002851084687463 0.030323083982282627
0.0008888105839459147 -0.018495770948716312 0.03532679995201721
0.002641377236283152 -0.01850852560251717 0.03525339230355985
0.004579432253433991 -0.018395263854621625 0.03559396272349576
0.008178574140794079 -0.018356905957773485 0.035656958384328655
0.009689549206558762 -0.018533792213308996 0.035044359943770295
0.011464301211381117 -0.018531474834949387 0.03502046561352286
0.01263328164780368 -0.0189407040559704 0.03364459437291792
0.014105431108806766 -0.019143967387653796 0.03294534427043122
0.015105556522378823 -0.019667912746512008 0.031192617599655463
0.016215134094717525 -0.020117499037263568 0.02968416883650705
0.016971212063826315 -0.020807244500260592 0.027386770154039553
0.01852055535788612 -0.020958064290257546 0.026859802987729834
0.019478144522584107 -0.021510907136435872 0.025012144833958604
0.02098911899210664 -0.021687793797044178 0.024399545062690493
0.022872738935443268 -0.021611513948983897 0.024618625777689404
0.02430489221062624 -0.021841949862118452 0.023830110682492862
0.026026097259646344 -0.02187601084640223 0.023686709339412186
0.027747302430814653 -0.021910072431101223 0.023543306006007396
0.02929664572487446 -0.022060892221098173 0.02301633883969768
0.030884612301275767 -0.022185472267878502 0.02257557218431925
0.0324725783272997 -0.02231005268857218 0.02213480430059336
0.034060544659404605 -0.022434631534522083 0.021694041625863157
0.035348414672359774 -0.022763090078613768 0.02058351115111131
0.03697597576370212 -0.02286077054975334 0.02023111263047131
0.03836624739988929 -0.02311966122323972 0.01934912040786932
0.04110750746557006 -0.02246072098957048 0.021482306094257518
-0.021340140402890558 -0.01517424274935491 0.04104799788873956
-0.01914122394081178 -0.014883757914371522 0.0419707661041979
-0.01977195769950373 -0.016515670418106854 0.036578242609578496
-0.019299411035748365 -0.017398040334421085 0.03364805090940781
-0.017166588658238113 -0.01715245825503163 0.034423308516912964
-0.016035581516146532 -0.017587485718235093 0.03296268714374824
-0.014570296440564264 -0.017795412670916853 0.03224811651803621
-0.013330421963568402 -0.018156476878548315 0.031030472803105592
-0.011865137988740875 -0.018364404579056772 0.030315899720698654
-0.010478072178114133 -0.018625471847698177 0.029426757173723693
-0.008935594474831162 -0.018780955957454944 0.02888446719182374
-0.007470310133085388 -0.018988883408687835 0.028169894928315103
-0.005927832429802416 -0.019144367518444606 0.027627604946415144
-0.0043034743512963694 -0.019244224040640658 0.027268057853042066
-0.002246436736173473 -0.019050128333828093 0.027874176929522456
0.002456724279854462 -0.01705831906281548 0.034385987478013365
0.0050073840757058445 -0.016528868138033077 0.036093786204855635
0.007206299778149188 -0.016238383819128007 0.037016552724938596
0.019497402567706146 -0.01871876204815144 0.02858466639283644
0.02134304836839096 -0.018668280249777913 0.028718997627774738
0.021851050067155417 -0.019526562855072094 0.025867935456416434
0.02327771094310057 -0.019760730174159385 0.02506716227252736
0.02482018864638354 -0.019916214283916156 0.024524872290627407
0.026285472804670192 -0.02012414185978683 0.023810299617669617
0.02790983192262006 -0.020223998359209183 0.023450752581218176
0.02937511608090671 -0.020431925935079857 0.02273617990826039
0.030999473609035388 -0.020531782831189258 0.022376631586539852
0.032904524238148165 -0.02044094348280609 0.02264354189942685
0.0343311820261805 -0.020675111532948598 0.021842766349724155
0.036176829324956944 -0.020624629400206908 0.021977098665206977
0.037759305244982104 -0.020752939668881042 0.021524077810902955
0.03926295810518418 -0.020934801824246355 0.02089513294335702
0.041359301562317374 -0.02071400265934486 0.02158897588633622
-0.01920017823246626 -0.013348153784244279 0.04138389878048503
-0.018634125021916602 -0.01416699756740232 0.038662397580459335
-0.018425293142836176 -0.01522852906224614 0.03514363992211557
-0.017196620068703462 -0.015597204604473232 0.03390099208025479
-0.01602763982340389 -0.016006434040763656 0.03252512013022904
-0.014918062541522403 -0.016456020443419987 0.031016671001697416
-0.013630194057077506 -0.01678447865914573 0.029906141641449738
-0.012080850579558575 -0.016935298324504897 0.029379174884589174
-0.010608701197413334 -0.017138561829891315 0.028679924208323312
-0.009218431823572924 -0.017397452673562887 0.027797931462428892
-0.007389393537890138 -0.017358254310926642 0.027895195322618895
-0.005878419802204098 -0.01753514147008608 0.027282593913554178
-0.004590549605789806 -0.017863599889539984 0.026172063848251485
-0.002869344189851457 -0.017897660624548194 0.026028663324069112
-0.00039902600582522076 -0.017422791887920112 0.027557153417141288
0.027876501069190363 -0.017467578661418813 0.02690590904754805
0.029425843980885786 -0.017618399394584882 0.026378938764929055
0.030816113217131853 -0.01787729033173479 0.025496945711947768
0.03275416825148199 -0.017764028572154457 0.025837516170269532
0.03434213491244648 -0.017888608561484554 0.025396749703621567
-0.02035371532492448 -0.011352776356166107 0.04233894568334034
-0.019522221896643842 -0.011991286342443779 0.040209861310755976
-0.019280530653962444 -0.013030493963942825 0.036764440089906994
-0.018307336884453042 -0.013572736094612707 0.03495160646227635
-0.017334143481861887 -0.014114978474558153 0.033138772015747414
-0.01604072071161728 -0.014439664606866432 0.032040634338458884
-0.014747298308290926 -0.014764350988450275 0.03094249584227205
-0.013453876883097474 -0.015089036667754826 0.029844359688936842
-0.012027216190611445 -0.015323204111479905 0.02904358609559862
-0.010561931848865672 -0.015531131562712797 0.028329013832089973
-0.00905827959987824 -0.01571299276652325 0.027700072126293974
-0.007212632392831359 -0.015662510696100453 0.027834404237052218
-0.006081624883821529 -0.01609753791002835 0.026373783682785798
-0.005005051164412047 -0.016569546151327035 0.02479167628972644
-0.002806135436169764 -0.01627906181489478 0.02571444286738819
-0.00134085109442399 -0.016486989266127672 0.024999870603879544
0.0002416232661986194 -0.01661530059422296 0.02454684626925774
0.0025898604111168656 -0.016223370824031972 0.025802872519068622
-0.0187612531519554 -0.009898645921594187 0.041452920921584105
-0.018590747718354738 -0.01098621549572145 0.0378486252410359
-0.018780530685849128 -0.012318556475993643 0.03344022793125769
-0.017059325636829027 -0.012352617460277424 0.03329682658817701
-0.016059199701079045 -0.0128765625151014 0.031544100914859985
-0.014771329871583 -0.01320502118383087 0.030433570030658986
-0.013542659610174423 -0.013573697270156499 0.02919092043715832
-0.012110506518450574 -0.013804133307928835 0.028402404932512622
-0.010638355668632348 -0.014007395816212988 0.027703157531839974
-0.00912738046527332 -0.01418428197827016 0.027090559398368477
-0.007499818089717112 -0.014281961576945248 0.026738163743872535
-0.005872257181833889 -0.014379642172722602 0.026385764813783373
-0.004322913704314958 -0.014530461838081769 0.02585879805692281
-0.0027735716944690143 -0.014681282500543198 0.025331828024469035
-0.0016045907153329451 -0.015090511438282488 0.023955957712239885
-1.6622854717774846e-05 -0.015215090612598334 0.023515193923005516
0.0023781960293171936 -0.014791514312156518 0.024875182587932396
-0.019878366545232718 -0.007878523095000792 0.04248925924477081
-0.01869277600262562 -0.008276467888721288 0.04115045861618193
-0.018387428296748966 -0.009272428816851471 0.03784710765241242
-0.018082081141249685 -0.010268390118895004 0.03454375546029545
-0.016695014596786448 -0.010529456888985274 0.033654614551117096
-0.01615070606230272 -0.011363073490032113 0.030884582980980808
-0.014763640251675977 -0.011624140758673516 0.029995440434005854
-0.013470219560319015 -0.011948826936529199 0.02889730264287404
-0.012004935218573244 -0.012156754387762092 0.028182730379365403
-0.011385126650261753 -0.012939078054071528 0.02558120187517101
-0.009036889872261755 -0.012547148533156107 0.026837227306083594
-0.0075716055305159805 -0.012755075984388999 0.026122655042574956
-0.006386016363852306 -0.013153021712892867 0.024783851343117443
-0.004480965092632596 -0.013062181928277461 0.025050763089076472
-0.0030543044001465677 -0.013296349372002539 0.02424998949573825
-0.0015118263299453497 -0.013451833232483744 0.02370770033273659
0.00027412731443190053 -0.013441905554675407 0.023708806697533256
0.0015140031364789122 -0.0138029702153106 0.022491161458649322
0.0031383615819032054 -0.013902826488231084 0.022131615184174537
0.004984008055113593 -0.01385234491635942 0.022265945657136178
-0.019362180978425427 -0.005952182791125831 0.04318600504628521
-0.0180310659889508 -0.0074546686496765185 0.0381871554792835
-0.017498782649631794 -0.008296454883497239 0.03539028574562496
-0.017000511714504635 -0.009161348339130002 0.032517506186555516
-0.015712641518090344 -0.009489806758583906 0.031406976121252816
-0.014712517050013349 -0.01001375281051015 0.02965424717234258
-0.012937766764765053 -0.010011435062738853 0.029630354095912324
-0.012122055040660877 -0.010660666765038733 0.02746604767898308
-0.010731785666820466 -0.010919557608710304 0.026584054933088644
-0.009220809362706698 -0.011096443022940779 0.025971459256312054
-0.007632844070519256 -0.011221023942185588 0.025530689734789565
-0.006121867766405487 -0.011397909356416061 0.024918094058012968
-0.005555815656610568 -0.012216753887400799 0.022196590401292356
-0.003283744869056451 -0.011876569736375707 0.023282626465843705
-0.0016957770084412805 -0.012001148910691553 0.02284186267660933
2.542730674232746e-05 -0.012035210393526466 0.02269845969573205
0.0014156966805827396 -0.012294101237198037 0.021816466949837625
0.002887847530400967 -0.012497363745482194 0.021117219549164977
0.004929281213238022 -0.012313868980679937 0.02168851333752811
0.007362356675363765 -0.011864302238053874 0.02313388352695174
-0.01905728318417045 -0.00537279298718211 0.039426358421710134
-0.01759199774166994 -0.005580719690588301 0.03871178861489641
-0.017154127787592434 -0.006486648142127457 0.03570420447393786
-0.01649497164032007 -0.007242239995252293 0.033190492985924205
-0.015617372916266303 -0.00784942713560205 0.03116430768900984
-0.0146441791467569 -0.008391669266271929 0.029351474061379203
-0.013404305770515778 -0.00875273422173009 0.02813382788975368
-0.012017239226052544 -0.00901380099182036 0.02724468698057533
-0.010630173048507552 -0.0092748680111862 0.026355545252498672
-0.00916488870676178 -0.009482795462419091 0.025640972988990034
-0.007738228014275751 -0.00971696290614417 0.02484019939565181
-0.006607220872184169 -0.010151990369347634 0.023379578022487087
-0.004643840974173289 -0.010021523497224596 0.023776669212721795
-0.002385291490935619 -0.009690525400095193 0.02483252805592179
-0.0019127437264255124 -0.010572894568582725 0.021902338812446007
-0.00018598610357509898 -0.010603183265720878 0.0217713298573795
0.0010538897184719119 -0.010964247926356068 0.020553684618495563
0.003110926599758315 -0.010770152718094636 0.021159802057179343
0.004614579949500487 -0.010952013174078389 0.020530862808078247
0.006197054157201024 -0.011080324776915264 0.02007783756642626
0.008042701624168067 -0.011029842444483889 0.020212170540148747
-0.017358816494781912 -0.0038466456508342447 0.0387769174909118
-0.016792764568446118 -0.004665490306456766 0.036055413424742035
-0.016126373527181413 -0.005416166943964246 0.03355784897346025
-0.01534108446260056 -0.006086067080572749 0.03132564442266418
-0.014555795398019707 -0.006755967217181252 0.029093439871868118
-0.013267927647411304 -0.007084425931458126 0.027982908873823834
-0.012267801344743076 -0.007608370737006537 0.026230184019405103
-0.010640240069941607 -0.007706051083508324 0.025877785908214247
-0.009249971063019443 -0.007964942176455462 0.02499579234342152
-0.007777820213201215 -0.008168204684739618 0.024296544942748875
-0.006345667855313859 -0.008398641221063085 0.023508027800306572
-0.004873518473168619 -0.008601904726449505 0.022808777124040717
-0.0033625421690548513 -0.008778790140679978 0.022196181447264124
-0.0018515658649410844 -0.00895567555491045 0.02158358577048753
-0.00026360020583539485 -0.009080256224879695 0.02114281706786334
0.001324366187106788 -0.009204836396297806 0.02070205000303576
0.0028737096646257185 -0.009355656061656973 0.020175083246175188
0.004594915080564068 -0.009389716796665186 0.020031682721992822
0.00570449147568699 -0.009839303972614238 0.01852323104863441
0.00838141057691439 -0.009224075380830988 0.020512819071950045
0.010319464526303553 -0.009110814238218563 0.020853387506607916
-0.017994667356238163 -0.0027029714421544044 0.036902516445761466
-0.01656800592991564 -0.00293713838732835 0.03610174449021985
-0.01619747629823225 -0.0038888162589225555 0.032943868353223105
-0.015319877941096734 -0.004496003648547878 0.030917682237410444
-0.014738324269206857 -0.005304316785405319 0.028230775396180643
-0.013195850112484517 -0.005459801937811759 0.027688482024844197
-0.012271025340872477 -0.006034904820016173 0.0257676971284653
-0.010767374192639786 -0.006216766771653324 0.025138752965974384
-0.009263720475979368 -0.006398626978361511 0.02450981453577159
-0.007721243873451138 -0.00655411183594498 0.02396752209717673
-0.006334178796660887 -0.006815179603137517 0.023078377912405162
-0.004907518104174859 -0.007049347046862596 0.02227760431906694
-0.003283159658750566 -0.007149203319783081 0.02191805804459216
-0.0019897365215877164 -0.007473889202815793 0.02081992118620193
-0.0006026718117157145 -0.0077349572192838955 0.01993077618253207
0.0013607073524586726 -0.007604490845711991 0.020327865734970172
0.0027477735300036627 -0.00786555786507783 0.019438724006893515
0.004372131975427956 -0.007965414137998315 0.01907917773241874
0.006098889445356297 -0.007995703109878054 0.018948167870322052
0.008480459538334175 -0.007581127638853117 0.020278587799402396
0.009266947174361585 -0.008250213374280547 0.018049058651328838
0.011281450095100932 -0.008085014680661706 0.01856024778713573
0.013663018567483755 -0.007670440481480619 0.01989066353359268
-0.016377048534425245 -0.0012317501762021646 0.03607263698943227
-0.01556133681032107 -0.001880981878502044 0.03390833057250302
-0.01492827919103233 -0.002654304453386029 0.03133637166711941
-0.014112567466928155 -0.0033035361556859083 0.029172065250190157
-0.013264820721901948 -0.003931002656732614 0.027079260005816144
-0.01197695125932415 -0.0042594615747376515 0.025968728302716848
-0.010689081429828107 -0.004587920243467122 0.024858197418515846
-0.009256927971186012 -0.004818356031963891 0.024069682732768452
-0.007866658597345599 -0.005077246875635462 0.023187689986874028
-0.0064763892235051865 -0.005336137719307035 0.022305697240979597
-0.004888421362890016 -0.005460716893622881 0.021864933451745228
-0.0038371741754726855 -0.00594993138088911 0.020226301603344713
-0.0018991200756174635 -0.00583667025618248 0.02056686997603486
-0.0004269706934722237 -0.006039933761568901 0.019867619299769004
0.0010051827651698713 -0.006270369550065668 0.019079104614021614
0.0027799343954693183 -0.0062680522552981035 0.019055210013638038
0.004329277506070002 -0.006418872169932836 0.01852824243787917
0.006158314904994223 -0.0063796745805893085 0.018625503753242394
0.007669290368273408 -0.006556560480637904 0.018012906482735132
0.009296851859527062 -0.0066542405599583285 0.017660509252410306
0.01088481965661212 -0.0067788197267139505 0.017219745489340084
0.013021848491902903 -0.006530379964964828 0.018004390902921004
-0.016184527186514988 0.001678107250690064 0.04003185445380965
-0.01510795479718415 0.0012060981057674504 0.03844974409224394
-0.01533686528442084 -0.00015282518466842518 0.03395402090054201
-0.01506349725564822 -0.0011705123479730508 0.03057929680795834
-0.014320940590855879 -0.0018694438648657668 0.028251720904139493
-0.013347749634070614 -0.0024116865396341843 0.026438885524868963
-0.011765274906529757 -0.002539997618453907 0.025985862009145457
-0.010688700453283781 -0.00301200536120146 0.024403756253882698
-0.009612126733874297 -0.0034840136025001463 0.022821648860823347
-0.007826173089497047 -0.003474085924691812 0.022822755225620012
-0.0064391069119520555 -0.003735152944057649 0.02193361349754335
-0.004856632918247693 -0.003863464521428504 0.021480588344023242
-0.0036710437515840204 -0.0042614102499323745 0.020141784644565737
-0.0020466853061597273 -0.00436126652285286 0.01978223837009095
-0.0005430341579270364 -0.004543128474490011 0.019153294207600043
0.0009606191918151352 -0.004724988930473764 0.018524354958498947
0.0026873768146655486 -0.004755277627611919 0.018393346003432433
0.004414134070597715 -0.004785566574025638 0.018262336229467623
0.005879418259421417 -0.004993494300000116 0.017547763058928807
0.007503776597847622 -0.005093350560187592 0.017188216828519967
0.00923053370331373 -0.005123639488695516 0.01705720711652288
0.01069581908228413 -0.005331566184541484 0.0163426373358733
0.0126591990872931 -0.005201099325151457 0.01673972848204207
0.014283556065044407 -0.0053009565951742076 0.016380178931974083
0.016379900164284526 -0.0050801569940404695 0.017074023308025307
-0.014737001354842913 0.0018303648880177775 0.034837522195058826
-0.014805183762673629 0.0005806364478285388 0.03070051638121458
-0.014272900239895497 -0.00026114966135439965 0.02790364705700519
-0.013044228510813933 -0.0006298247505777625 0.02666100073909773
-0.012377837836467474 -0.0013805016373608092 0.02416343546891765
-0.010439783369694006 -0.0012672402633786143 0.0245040046605061
-0.00938853544844018 -0.001756454252093709 0.022865374449902193
-0.007956384191307567 -0.001986891536243876 0.022076854850764983
-0.006566113716712414 -0.002245781632088749 0.02119486456156546
-0.0050167717068664705 -0.0023966022945501805 0.020667894529111684
-0.0036265012322713184 -0.0026554923903950537 0.01978590423991217
-0.0021543507493713377 -0.0028587551479547745 0.01908665602034122
-0.0005663839895109083 -0.0029833350700973196 0.01864588977441194
0.0012626531954171372 -0.002944137455287773 0.018743151177907036
0.0025505233918314283 -0.003272595874741678 0.017632621112604337
0.004379560209841226 -0.003233398509207697 0.017729881697201126
0.005769831999187294 -0.003492287882691891 0.01684789377656464
0.007491036207372815 -0.0035263493527937927 0.016704490839753304
0.008963185805970242 -0.0037296125909988503 0.016005241044353472
0.010846806052695005 -0.003653332486102785 0.016224322604414837
0.012474367434494562 -0.003751012845337582 0.015871924449158047
0.014062334194354993 -0.003875592767480127 0.015431158203228768
0.016103767877192046 -0.0036920980026778705 0.0160024519915919
0.01861039470111014 -0.0031925613526905096 0.017611978975426292
-0.015801305038470187 0.0026829584532969825 0.03200688826222486
-0.014374645446738901 0.0024487902617452047 0.031206112212191724
-0.014101276317211541 0.0014311038462672772 0.02783139057630296
-0.012970270887089356 0.0009960765867919742 0.026370769908193255
-0.012092672529953838 0.00038888919716665183 0.024344583792380588
-0.010705607453163589 0.0001278214299741164 0.023455439607609024
-0.009201955204176158 -5.4039773836335805e-05 0.02282649790181302
-0.007814888659712922 -0.0003151065439266068 0.02193735699263467
-0.006427823582922671 -0.0005761743111191431 0.021048212807863103
-0.005296815340076349 -0.0010112010264959085 0.019587593891393296
-0.0037931634580071647 -0.001193062479581927 0.01895865136669899
-0.0017786623083289373 -0.0010278650399011408 0.01946983638185021
-0.000702088588919454 -0.001499873281199827 0.017887728988790853
0.0009222691226683458 -0.0015997300526714442 0.01752818107651947
0.00234892908131788 -0.0018338979949476565 0.016727405845384635
0.0043634320655873415 -0.0016686993088890385 0.017238594955027373
0.005656855416746366 -0.0019933852173877713 0.016140458008505273
0.00744280895412553 -0.001983457526846426 0.016141564417367877
0.00810196568476833 -0.002739048863514334 0.013627854629118558
0.010584308816970048 -0.0022560106111899287 0.015183182502427988
0.012751188286237239 -0.0019872910357401283 0.016034449387421875
0.013827762005646721 -0.0024592992770388154 0.014452341994362522
0.015673409212693605 -0.0024088172066160166 0.014586674105120764
0.017400165612641072 -0.002439106051165655 0.01445566468368346
0.019414667496155794 -0.002273908112933736 0.014966851336631289
-0.014122777237294788 0.00419555983717723 0.0313129471524848
-0.013523149906399195 0.003399525516167224 0.028666377603847472
-0.012641346543532385 0.0027951962746383062 0.026649580862129825
-0.012008288190407152 0.0020218741983054535 0.024077623594542824
-0.010536137340588924 0.0018186116900212991 0.023378376193870176
-0.009307465000292704 0.0014499356492430754 0.022135726714212798
-0.00758625921743611 0.0014158751635104288 0.021992327008928732
-0.006476683036309361 0.000966288013027396 0.020483875423702193
-0.005307702424091538 0.0005570588260125414 0.01910800429257475
-0.0037197356642311077 0.00043247890386999624 0.01866723804664547
-0.0020921747563478867 0.0003347983080926433 0.01831483911655631
-0.0006600212977057917 0.00010436251959587434 0.01752632443080892
0.0011147303325936544 0.00010667981436343968 0.01750242983042535
0.0025049997064340657 -0.00015221102930813336 0.01662043708453092
0.0042262040216176746 -0.00018627251214304447 0.01647703410365364
0.005698355085432077 -0.0003895350458932188 0.01577778661484912
0.007581974187934126 -0.0003132556836510673 0.015996865736117367
0.009054124887286293 -0.000516518174029426 0.015297618397412444
0.010603466833602122 -0.0006673388289306333 0.01477064839112282
0.012191434434297137 -0.0007919182652550557 0.014329883738924205
0.013818996809853346 -0.0008895978639301434 0.013977488084428263
0.0155402014919552 -0.000923659097489489 0.013834085922449283
0.01716776191077197 -0.0010213393421271942 0.01348168816378594
0.018996799829536507 -0.0009821412287665142 0.013578951205077638
0.020624361838174468 -0.0010798210767171681 0.013226554731683389
0.02313098731656778 -0.0005802860242472875 0.01483607644960046
-0.014003779114549583 0.005852060622781324 0.031123238954376
-0.013383972197370204 0.005069735834731838 0.028521706765139255
-0.012410780506748445 0.004527493658514554 0.02670887302366533
-0.01175162435947608 0.003771901805389717 0.024195161535651682
-0.010620616850466252 0.003336874591461818 0.02273454098138526
-0.009327192612548661 0.003012189456255805 0.021636406579689942
-0.007861908270802888 0.0028042620050229136 0.020921834316181307
-0.006474844661685624 0.002543193240728112 0.02003268685581653
-0.0050481825015266085 0.0023090267941052985 0.019231916538071516
-0.003582898526699081 0.0021010990935968416 0.018517343455664578
-0.002156237834213053 0.0018669316498717628 0.017716569862326347
-0.0007691712897498169 0.0016058648797814918 0.016827428953148
0.0008133027039545458 0.0014775533024106368 0.016374403799627887
0.0023169538521872366 0.0012956913507734848 0.015745459637136968
0.004102908964237474 0.0013056200256840846 0.015746569277526844
0.00564538688151662 0.0011501358904612942 0.015204279207495015
0.007269743752269838 0.0010502786331715534 0.014844729701492965
0.008656810146267015 0.0007892118809870782 0.013955588854282337
0.010561859886283623 0.0008800506760604449 0.014222497350812303
0.012288617983050375 0.0008497622154648478 0.014091489170578158
0.01367568452751361 0.0005886954453745777 0.013202348261399807
0.015300041872183163 0.0004888384246273924 0.012842799530230119
0.01692439799394977 0.00038898125646872304 0.012483250332689641
0.018770044834078403 0.00043946307761595464 0.012617581624549581
0.020312522537361377 0.0002839789678591841 0.012075291642649623
0.022571072020599044 0.0006149770649885884 0.013131150485849619
0.02403635636234482 0.0004070496137556969 0.01241657822234098
-0.012839974315585782 0.007014970495560992 0.029280525055202834
-0.012083897324609896 0.006325225734843261 0.026983128715586956
-0.011202091149018949 0.005720897037412878 0.024966333725509205
-0.010283807428994365 0.005141350319687083 0.023030950329088768
-0.009232559874658788 0.0046521360816964225 0.021392319299586557
-0.007800406416016693 0.0044217002931996536 0.020603804613839163
-0.00641013704217628 0.0041628094495280805 0.019721811867944736
-0.0048607950323303365 0.00401198878706665 0.019194841835490962
-0.003428643041361229 0.0037815520014676156 0.01840632387415036
-0.002140772844946937 0.0034530935820137115 0.01729579380884766
-0.0004195670620903416 0.003419033096281064 0.01715239410356359
0.000970701944831823 0.0031601420033339255 0.016270400538770866
0.002691906260015431 0.0031260805204990135 0.01612699755789358
0.0042412497375343625 0.0029752608551398482 0.015600030801033015
0.006016001581829984 0.0029775781244413928 0.015576136112517572
0.00779075237129485 0.002979894933390838 0.015552239918403335
0.008959732099210117 0.0025706652657306456 0.014176367211447004
0.010470708339793772 0.002393779859060397 0.013563771560834562
0.01205867520665229 0.002269199924184841 0.013123005270839344
0.0136862375822085 0.0021715203255097543 0.012770609616343399
0.015313799223928216 0.002073840228283533 0.01241821232405085
0.016901764393967452 0.0019492599094539358 0.011977444792852471
0.018622969442987553 0.0019151989251701574 0.011834043449771795
0.020210937303602725 0.0017906197508543113 0.011393279660537423
0.02183849857840419 0.0016929394043525246 0.01104088154934657
0.02355970326050605 0.001658878170793179 0.010897479387367591
0.025601138166246047 0.0018423730830069204 0.011468773642101516
-0.013304631397049533 0.008274949759506833 0.027788199012093878
-0.011839349134191404 0.008067022262726537 0.027073626634741953
-0.01136680100276305 0.007184653343514571 0.02414343821016448
-0.010235793493753222 0.006749626129586674 0.022682817655898056
-0.00926259972424382 0.0062073839989167925 0.02086998402826742
-0.007835940499430778 0.0059732155580894475 0.020069207159335987
-0.006409279440026502 0.005739048363639937 0.019268434384896057
-0.005022213262481512 0.0054779813442740995 0.018379292656819406
-0.0035569289207357385 0.005270053893041206 0.01766472039331077
-0.0021302685951679586 0.005035886200040561 0.016863945981074234
-0.0005877916257214814 0.004880401591732658 0.016321654361377676
0.00095468607756149 0.004724917481975889 0.015779364379477728
0.0022481084808878447 0.004400231100392041 0.014681225883290887
0.004093756054852975 0.004450713420090407 0.014815558812947438
0.005718113246600456 0.0043508561246016365 0.014456009174747573
0.007300588234061472 0.004222545307790491 0.014002986521988309
0.008727249142999688 0.003988378131246773 0.013202213809516108
0.010351607157975617 0.003888521616610946 0.01284266674230718
0.0118552584132064 0.003706659652240785 0.012213722535750326
0.013479616491712445 0.003606803130044734 0.011854175442377247
0.015062090485416808 0.0034784915526738774 0.011401150288857135
0.016848044007645852 0.003488419830897427 0.011402258643977911
0.020052454427486703 0.004462013445301996 0.014569116114488617
0.020064679768495138 0.003266912125187916 0.01061156654083351
0.021607157471778108 0.0031114280154311454 0.010069276558933554
0.023231515183365907 0.0030115712439595273 0.009709728646662169
0.02519489593736149 0.003142038014218482 0.01010681948436937
0.027643470179158285 0.003602134431508898 0.01158678084512757
-0.011445439895137209 0.009910290254587714 0.027497472936305535
-0.01081238227584847 0.00913696767970373 0.02492551403092193
-0.010027093578185865 0.008467067293819658 0.022693308661227554
-0.009179344387353766 0.007839601087595922 0.02060050434959513
-0.007789073912758615 0.007580710991751048 0.019718514060395615
-0.006161512637957145 0.007483030645249261 0.019366115949204756
-0.005110265450539816 0.006993816157983034 0.01772748410080424
-0.0035609219730208834 0.006842996492623868 0.017200517343943678
-0.001972954112405713 0.0067184173183080205 0.0167597535547093
-0.00046198037671967354 0.006541530159148584 0.01614715214564459
0.0009282886302024902 0.006282639066201444 0.015265158580851864
0.003156429029891973 0.006592977952218183 0.016253149589422235
0.004156554231805462 0.00606903239884307 0.014500422278308597
0.005705896822565827 0.005918211960191185 0.01397345297662125
0.007216873019681507 0.005741326558693722 0.013360857343910598
0.00880483926215763 0.005616746405181406 0.012920090341050735
0.010526043513811124 0.005582684929906719 0.01277668738633761
0.011958197079451309 0.005352249128676939 0.011988172656524274
0.014500276033451167 0.005875870432745718 0.013676820422935942
0.015166667808552366 0.005125194293789371 0.011179257609450762
0.016794228227369135 0.005027514049151666 0.010826859850787417
0.0183052045314829 0.004850628634921193 0.010214264174010824
0.020346638214319958 0.0050341233997234485 0.010785557962373953
0.021515619193456025 0.00462489446198416 0.00940968765014481
0.023344656745302318 0.004664092326069274 0.009506949872538206
0.02552779034113897 0.004943853972150757 0.01039449118718349
0.028510595165451035 0.005766893993760496 0.013066763153776827
-0.011112948372383892 0.011711833399490132 0.027784245219540572
-0.010934019229670936 0.010629986693815211 0.024198749806224856
