ply
format ascii 1.0
element vertex 764
property float x
property float y
property float z
end_header
-0.004194196313619614 0.0054188501089811325 0.0714000016450882
-0.004007581155747175 0.0054188501089811325 0.0714000016450882
-0.003815614152699709 0.005411260761320591 0.07129999995231628
-0.00362926023080945 0.005411260761320591 0.07129999995231628
-0.0034429060760885477 0.005411260761320591 0.07129999995231628
-0.0032519849482923746 0.005403670947998762 0.07119999825954437
-0.003065892495214939 0.005403670947998762 0.07119999825954437
-0.002875755075365305 0.005396081600338221 0.07109999656677246
-0.002689923858270049 0.005396081600338221 0.07109999656677246
-0.002504092874005437 0.005396081600338221 0.07109999656677246
-0.0023150010965764523 0.005388491787016392 0.07099999487400055
-0.002126432256773114 0.0053809029050171375 0.07090000063180923
-0.0019438616000115871 0.005388491787016392 0.07099999487400055
-0.0017558153485879302 0.0053809029050171375 0.07090000063180923
-0.001570507069118321 0.0053809029050171375 0.07090000063180923
-0.001385198556818068 0.0053809029050171375 0.07090000063180923
-0.0010160126257687807 0.005388491787016392 0.07099999487400055
-0.00027411908376961946 0.005396081600338221 0.07109999656677246
-8.841212547849864e-05 0.005403670947998762 0.07119999825954437
0.0006559579051099718 0.005403670947998762 0.07119999825954437
0.001552998786792159 0.005289829336106777 0.06969999521970749
0.0017252127872779965 0.005259471945464611 0.06929999589920044
0.0019035886507481337 0.005251883063465357 0.06920000165700912
0.002084453823044896 0.005251883063465357 0.06920000165700912
0.002262045396491885 0.005244293250143528 0.06909999996423721
0.002442649332806468 0.005244293250143528 0.06909999996423721
0.002623253036290407 0.005244293250143528 0.06909999996423721
0.00280385697260499 0.005244293250143528 0.06909999996423721
0.002984460908919573 0.005244293250143528 0.06909999996423721
0.0031650648452341557 0.005244293250143528 0.06909999996423721
0.0037122408393770456 0.005251883063465357 0.06920000165700912
0.003893106011673808 0.005251883063465357 0.06920000165700912
0.004079857841134071 0.005259471945464611 0.06929999589920044
0.004260984715074301 0.005259471945464611 0.06929999589920044
0.004448520950973034 0.005267061293125153 0.06939999759197235
0.004636580590158701 0.005274651106446981 0.06949999928474426
0.004825162701308727 0.005282240454107523 0.06960000097751617
0.0050214617513120174 0.005297419149428606 0.0697999969124794
0.006151110865175724 0.005327776540070772 0.07019999623298645
0.006343613378703594 0.005335366353392601 0.07029999792575836
0.006545924115926027 0.005350545514374971 0.07050000131130219
0.006739732809364796 0.005358134396374226 0.0705999955534935
0.006943872664123774 0.005373313557356596 0.07079999893903732
0.007159126922488213 0.005396081600338221 0.07109999656677246
0.007365619298070669 0.005411260761320591 0.07129999995231628
-0.010166274383664131 0.005134417209774256 0.06539999693632126
-0.00998005736619234 0.005126566626131535 0.06529999524354935
-0.009809385053813457 0.005126566626131535 0.06529999524354935
-0.009638713672757149 0.005126566626131535 0.06529999524354935
-0.009468041360378265 0.005126566626131535 0.06529999524354935
-0.009297369047999382 0.005126566626131535 0.06529999524354935
-0.009112721309065819 0.005118716042488813 0.06520000100135803
-0.008942311629652977 0.005118716042488813 0.06520000100135803
-0.00877190101891756 0.005118716042488813 0.06520000100135803
-0.00860148947685957 0.005118716042488813 0.06520000100135803
-0.008431079797446728 0.005118716042488813 0.06520000100135803
-0.008260669186711311 0.005118716042488813 0.06520000100135803
-0.008090258575975895 0.005118716042488813 0.06520000100135803
-0.007919847965240479 0.005118716042488813 0.06520000100135803
-0.007749437354505062 0.005118716042488813 0.06520000100135803
-0.007579027209430933 0.005118716042488813 0.06520000100135803
-0.007397253066301346 0.005110864993184805 0.06509999930858612
-0.007227104157209396 0.005110864993184805 0.06509999930858612
-0.007056954316794872 0.005110864993184805 0.06509999930858612
-0.00689738430082798 0.005118716042488813 0.06520000100135803
-0.006726974155753851 0.005118716042488813 0.06520000100135803
-0.006556563079357147 0.005118716042488813 0.06520000100135803
-0.006386152934283018 0.005118716042488813 0.06520000100135803
-0.006215742323547602 0.005118716042488813 0.06520000100135803
-0.0051344530656933784 0.005613315384835005 0.07149999588727951
-0.00494757667183876 0.005613315384835005 0.07149999588727951
-0.004754041787236929 0.005605465266853571 0.0714000016450882
-0.0045674266293644905 0.005605465266853571 0.0714000016450882
-0.004380811471492052 0.005605465266853571 0.0714000016450882
-0.004194196313619614 0.005605465266853571 0.0714000016450882
-0.004007581155747175 0.005605465266853571 0.0714000016450882
-0.003820965765044093 0.005605465266853571 0.0714000016450882
-0.00362926023080945 0.0055976142175495625 0.07129999995231628
-0.0034429060760885477 0.0055976142175495625 0.07129999995231628
-0.0032565523870289326 0.0055976142175495625 0.07129999995231628
-0.0030701984651386738 0.0055976142175495625 0.07129999995231628
-0.002883844543248415 0.0055976142175495625 0.07129999995231628
-0.002697490621358156 0.0055976142175495625 0.07129999995231628
-0.002507614903151989 0.005589763633906841 0.07119999825954437
-0.0023215224500745535 0.005589763633906841 0.07119999825954437
-0.002132430439814925 0.005581912584602833 0.07109999656677246
-0.0019493373110890388 0.005589763633906841 0.07119999825954437
-0.0017607682384550571 0.005581912584602833 0.07109999656677246
-0.0015749371377751231 0.005581912584602833 0.07109999656677246
-0.0013891059206798673 0.005581912584602833 0.07109999656677246
-0.001018874696455896 0.005589763633906841 0.07119999825954437
-0.0006475980044342577 0.0055976142175495625 0.07129999995231628
-0.0004612440534401685 0.0055976142175495625 0.07129999995231628
-0.0002748901897575706 0.0055976142175495625 0.07129999995231628
9.795479127205908e-05 0.005605465266853571 0.0714000016450882
0.00028457006555981934 0.005605465266853571 0.0714000016450882
0.00047118531074374914 0.005605465266853571 0.0714000016450882
0.0006578005268238485 0.005605465266853571 0.0714000016450882
0.0008420504746027291 0.005589763633906841 0.07119999825954437
0.0015552268596366048 0.005479852203279734 0.0697999969124794
0.0017277023289352655 0.005448448937386274 0.06939999759197235
0.0019035886507481337 0.005432747770100832 0.06920000165700912
0.002084453823044896 0.005432747770100832 0.06920000165700912
0.0022653192281723022 0.005432747770100832 0.06920000165700912
0.0024461844004690647 0.005432747770100832 0.06920000165700912
0.0026270493399351835 0.005432747770100832 0.06920000165700912
0.0028079147450625896 0.005432747770100832 0.06920000165700912
0.002988779917359352 0.005432747770100832 0.06920000165700912
0.0031696453224867582 0.005432747770100832 0.06920000165700912
0.003350510261952877 0.005432747770100832 0.06920000165700912
0.0035313754342496395 0.005432747770100832 0.06920000165700912
0.0037122408393770456 0.005432747770100832 0.06920000165700912
0.003893106011673808 0.005432747770100832 0.06920000165700912
0.004079857841134071 0.005440598353743553 0.06929999589920044
0.004267133306711912 0.005448448937386274 0.06939999759197235
0.004454931244254112 0.005456299986690283 0.06949999928474426
0.004636580590158701 0.005456299986690283 0.06949999928474426
0.004825162701308727 0.005464151035994291 0.06960000097751617
0.005014267284423113 0.005472001153975725 0.06969999521970749
0.005203894805163145 0.005479852203279734 0.0697999969124794
0.005386327859014273 0.005479852203279734 0.0697999969124794
0.00594212906435132 0.005487703252583742 0.06989999860525131
0.006142348516732454 0.0055034044198691845 0.07009999454021454
0.006343613378703594 0.005519106052815914 0.07029999792575836
0.006536638829857111 0.005526957102119923 0.07039999961853027
0.006739732809364796 0.005542658269405365 0.0705999955534935
0.006943872664123774 0.005558360368013382 0.07079999893903732
0.007159126922488213 0.005581912584602833 0.07109999656677246
0.007365619298070669 0.0055976142175495625 0.07129999995231628
-0.010166274383664131 0.005305351223796606 0.06539999693632126
-0.009995341300964355 0.005305351223796606 0.06539999693632126
-0.009809385053813457 0.005297238938510418 0.06529999524354935
-0.009638713672757149 0.005297238938510418 0.06529999524354935
-0.009126697666943073 0.005297238938510418 0.06529999524354935
-0.008956026285886765 0.005297238938510418 0.06529999524354935
-0.00877190101891756 0.005289127118885517 0.06520000100135803
-0.00860148947685957 0.005289127118885517 0.06520000100135803
-0.008431079797446728 0.005289127118885517 0.06520000100135803
-0.008260669186711311 0.005289127118885517 0.06520000100135803
-0.008090258575975895 0.005289127118885517 0.06520000100135803
-0.007919847965240479 0.005289127118885517 0.06520000100135803
-0.007749437354505062 0.005289127118885517 0.06520000100135803
-0.007579027209430933 0.005289127118885517 0.06520000100135803
-0.007408616133034229 0.005289127118885517 0.06520000100135803
-0.0072382059879601 0.005289127118885517 0.06520000100135803
-0.0070677949115633965 0.005289127118885517 0.06520000100135803
-0.00689738430082798 0.005289127118885517 0.06520000100135803
-0.006726974155753851 0.005289127118885517 0.06520000100135803
-0.006556563079357147 0.005289127118885517 0.06520000100135803
-0.006386152934283018 0.005289127118885517 0.06520000100135803
-0.006215742323547602 0.005289127118885517 0.06520000100135803
-0.005313888192176819 0.005792080890387297 0.0714000016450882
-0.005127272568643093 0.005792080890387297 0.0714000016450882
-0.004940657410770655 0.005792080890387297 0.0714000016450882
-0.004754041787236929 0.005792080890387297 0.0714000016450882
-0.004380811471492052 0.005792080890387297 0.0714000016450882
-0.004194196313619614 0.005792080890387297 0.0714000016450882
-0.004007581155747175 0.005792080890387297 0.0714000016450882
-0.003815614152699709 0.0057839686051011086 0.07129999995231628
-0.003634350374341011 0.005792080890387297 0.0714000016450882
-0.0034429060760885477 0.0057839686051011086 0.07129999995231628
-0.0032565523870289326 0.0057839686051011086 0.07129999995231628
-0.0030701984651386738 0.0057839686051011086 0.07129999995231628
-0.002883844543248415 0.0057839686051011086 0.07129999995231628
-0.002697490621358156 0.0057839686051011086 0.07129999995231628
-0.002511136932298541 0.0057839686051011086 0.07129999995231628
-0.0023247830104082823 0.0057839686051011086 0.07129999995231628
-0.0021354297641664743 0.00577585631981492 0.07119999825954437
-0.0019520751666277647 0.0057839686051011086 0.07129999995231628
-0.0017632447415962815 0.00577585631981492 0.07119999825954437
-0.001577152288518846 0.00577585631981492 0.07119999825954437
-0.0013910597190260887 0.00577585631981492 0.07119999825954437
-0.0012049672659486532 0.00577585631981492 0.07119999825954437
-0.0008339518681168556 0.0057839686051011086 0.07129999995231628
-0.0006485062767751515 0.005792080890387297 0.0714000016450882
-0.0004618909733835608 0.005792080890387297 0.0714000016450882
-0.000275275728199631 0.005792080890387297 0.0714000016450882
9.80919721769169e-05 0.0058001927100121975 0.07149999588727951
0.00028536716126836836 0.005808304995298386 0.07159999758005142
0.0004718452109955251 0.0058001927100121975 0.07149999588727951
0.0006587217794731259 0.0058001927100121975 0.07149999588727951
0.0008432331378571689 0.0057839686051011086 0.07129999995231628
0.0015552268596366048 0.005662285722792149 0.0697999969124794
0.0017301918705925345 0.005637949798256159 0.06949999928474426
0.0019063394283875823 0.005621725227683783 0.06929999589920044
0.002084453823044896 0.005613613408058882 0.06920000165700912
0.0022653192281723022 0.005613613408058882 0.06920000165700912
0.0024461844004690647 0.005613613408058882 0.06920000165700912
0.0026270493399351835 0.005613613408058882 0.06920000165700912
0.0028079147450625896 0.005613613408058882 0.06920000165700912
0.002988779917359352 0.005613613408058882 0.06920000165700912
0.0031696453224867582 0.005613613408058882 0.06920000165700912
0.003350510261952877 0.005613613408058882 0.06920000165700912
0.0035313754342496395 0.005613613408058882 0.06920000165700912
0.003717605024576187 0.005621725227683783 0.06929999589920044
0.003898731665685773 0.005621725227683783 0.06929999589920044
0.004085745196789503 0.005629837512969971 0.06939999759197235
0.0042732818983495235 0.005637949798256159 0.06949999928474426
0.004454931244254112 0.005637949798256159 0.06949999928474426
0.004636580590158701 0.005637949798256159 0.06949999928474426
0.004832095000892878 0.0056541734375059605 0.06969999521970749
0.005014267284423113 0.0056541734375059605 0.06969999521970749
0.005203894805163145 0.005662285722792149 0.0697999969124794
0.005386327859014273 0.005662285722792149 0.0697999969124794
0.005568761844187975 0.005662285722792149 0.0697999969124794
0.005759434308856726 0.005670398473739624 0.06989999860525131
0.006133586633950472 0.005678510759025812 0.07000000029802322
0.0063345893286168575 0.005694734398275614 0.07019999623298645
0.006536638829857111 0.00571095896884799 0.07039999961853027
0.006739732809364796 0.005727183073759079 0.0705999955534935
0.006934064440429211 0.005735295359045267 0.07069999724626541
0.007159126922488213 0.005767744034528732 0.07109999656677246
0.007365619298070669 0.0057839686051011086 0.07129999995231628
-0.009995341300964355 0.005476284306496382 0.06539999693632126
-0.009824407286942005 0.005476284306496382 0.06539999693632126
-0.009653475135564804 0.005476284306496382 0.06539999693632126
-0.009468041360378265 0.005467910319566727 0.06529999524354935
-0.009297369047999382 0.005467910319566727 0.06529999524354935
-0.009126697666943073 0.005467910319566727 0.06529999524354935
-0.008956026285886765 0.005467910319566727 0.06529999524354935
-0.008785353973507881 0.005467910319566727 0.06529999524354935
-0.008614681661128998 0.005467910319566727 0.06529999524354935
-0.008431079797446728 0.005459537263959646 0.06520000100135803
-0.008260669186711311 0.005459537263959646 0.06520000100135803
-0.008090258575975895 0.005459537263959646 0.06520000100135803
-0.007919847965240479 0.005459537263959646 0.06520000100135803
-0.007749437354505062 0.005459537263959646 0.06520000100135803
-0.007579027209430933 0.005459537263959646 0.06520000100135803
-0.007408616133034229 0.005459537263959646 0.06520000100135803
-0.0072382059879601 0.005459537263959646 0.06520000100135803
-0.0070677949115633965 0.005459537263959646 0.06520000100135803
-0.00689738430082798 0.005459537263959646 0.06520000100135803
-0.006726974155753851 0.005459537263959646 0.06520000100135803
-0.006556563079357147 0.005459537263959646 0.06520000100135803
-0.006386152934283018 0.005459537263959646 0.06520000100135803
-0.006225275341421366 0.005467910319566727 0.06529999524354935
-0.005306445527821779 0.00597032206133008 0.07129999995231628
-0.005120091140270233 0.00597032206133008 0.07129999995231628
-0.004933737684041262 0.00597032206133008 0.07129999995231628
-0.004747383296489716 0.00597032206133008 0.07129999995231628
-0.004561029840260744 0.00597032206133008 0.07129999995231628
-0.004374675452709198 0.00597032206133008 0.07129999995231628
-0.0041883219964802265 0.00597032206133008 0.07129999995231628
-0.004001968074589968 0.00597032206133008 0.07129999995231628
-0.003815614152699709 0.00597032206133008 0.07129999995231628
-0.00362926023080945 0.00597032206133008 0.07129999995231628
-0.0034429060760885477 0.00597032206133008 0.07129999995231628
-0.003261120058596134 0.005978696048259735 0.0714000016450882
-0.003074504667893052 0.005978696048259735 0.0714000016450882
-0.00288788927718997 0.005978696048259735 0.0714000016450882
-0.002701273886486888 0.005978696048259735 0.0714000016450882
-0.002511136932298541 0.00597032206133008 0.07129999995231628
-0.0023247830104082823 0.00597032206133008 0.07129999995231628
-0.0021384290885180235 0.00597032206133008 0.07129999995231628
-0.0019520751666277647 0.00597032206133008 0.07129999995231628
-0.001765721244737506 0.00597032206133008 0.07129999995231628
-0.001579367439262569 0.00597032206133008 0.07129999995231628
-0.0013930135173723102 0.00597032206133008 0.07129999995231628
-0.0012066595954820514 0.00597032206133008 0.07129999995231628
-0.0010203057900071144 0.00597032206133008 0.07129999995231628
-0.0008351215510629117 0.005978696048259735 0.0714000016450882
-0.0006485062767751515 0.005978696048259735 0.0714000016450882
-0.00046253783511929214 0.005987069103866816 0.07149999588727951
9.822916763368994e-05 0.005995442625135183 0.07159999758005142
0.0002857657091226429 0.006003816146403551 0.07169999927282333
0.000473165069706738 0.006003816146403551 0.07169999927282333
0.0006605644011870027 0.006003816146403551 0.07169999927282333
0.0008444158011116087 0.005978696048259735 0.0714000016450882
0.0010266989702358842 0.0059535750187933445 0.07109999656677246
0.0017326812958344817 0.005827972665429115 0.06960000097751617
0.0019063394283875823 0.005802851635962725 0.06929999589920044
0.0020874659530818462 0.005802851635962725 0.06929999589920044
0.002268592594191432 0.005802851635962725 0.06929999589920044
0.0024497192353010178 0.005802851635962725 0.06929999589920044
0.002630845410749316 0.005802851635962725 0.06929999589920044
0.002811972051858902 0.005802851635962725 0.06929999589920044
0.0029930986929684877 0.005802851635962725 0.06929999589920044
0.0031742253340780735 0.005802851635962725 0.06929999589920044
0.0033553517423570156 0.005802851635962725 0.06929999589920044
0.0035364783834666014 0.005802851635962725 0.06929999589920044
0.003722969675436616 0.0058112251572310925 0.06939999759197235
0.0039043575525283813 0.0058112251572310925 0.06939999759197235
0.004091632552444935 0.00581959867849946 0.06949999928474426
0.0042732818983495235 0.00581959867849946 0.06949999928474426
0.004461341071873903 0.005827972665429115 0.06960000097751617
0.004643252119421959 0.005827972665429115 0.06960000097751617
0.004832095000892878 0.0058363452553749084 0.06969999521970749
0.005014267284423113 0.0058363452553749084 0.06969999521970749
0.005203894805163145 0.0058447192423045635 0.0697999969124794
0.005386327859014273 0.0058447192423045635 0.0697999969124794
0.005568761844187975 0.0058447192423045635 0.0697999969124794
0.0057511948980391026 0.0058447192423045635 0.0697999969124794
0.00594212906435132 0.005853092763572931 0.06989999860525131
0.006124824285507202 0.005853092763572931 0.06989999860525131
0.006325565744191408 0.0058698393404483795 0.07009999454021454
0.006527353543788195 0.005886586848646402 0.07029999792575836
0.006730186752974987 0.005903334356844425 0.07050000131130219
0.006934064440429211 0.005920080933719873 0.07069999724626541
0.007149057928472757 0.005945201031863689 0.07099999487400055
0.007365619298070669 0.00597032206133008 0.07129999995231628
-0.009839429520070553 0.005655852612107992 0.06549999862909317
-0.009653475135564804 0.005647217854857445 0.06539999693632126
-0.009482541121542454 0.005647217854857445 0.06539999693632126
-0.009297369047999382 0.00563858263194561 0.06529999524354935
-0.009140674024820328 0.005647217854857445 0.06539999693632126
-0.008956026285886765 0.00563858263194561 0.06529999524354935
-0.008785353973507881 0.00563858263194561 0.06529999524354935
-0.008614681661128998 0.00563858263194561 0.06529999524354935
-0.008444010280072689 0.00563858263194561 0.06529999524354935
-0.008260669186711311 0.00562994834035635 0.06520000100135803
-0.008090258575975895 0.00562994834035635 0.06520000100135803
-0.007919847965240479 0.00562994834035635 0.06520000100135803
-0.007749437354505062 0.00562994834035635 0.06520000100135803
-0.007579027209430933 0.00562994834035635 0.06520000100135803
-0.007408616133034229 0.00562994834035635 0.06520000100135803
-0.0072382059879601 0.00562994834035635 0.06520000100135803
-0.0070677949115633965 0.00562994834035635 0.06520000100135803
-0.00689738430082798 0.00562994834035635 0.06520000100135803
-0.006726974155753851 0.00562994834035635 0.06520000100135803
-0.0065666185691952705 0.00563858263194561 0.06529999524354935
-0.006395947188138962 0.00563858263194561 0.06529999524354935
-0.006225275341421366 0.00563858263194561 0.06529999524354935
-0.005306445527821779 0.006156676448881626 0.07129999995231628
-0.005120091140270233 0.006156676448881626 0.07129999995231628
-0.004933737684041262 0.006156676448881626 0.07129999995231628
-0.004747383296489716 0.006156676448881626 0.07129999995231628
-0.004561029840260744 0.006156676448881626 0.07129999995231628
-0.004374675452709198 0.006156676448881626 0.07129999995231628
-0.0041883219964802265 0.006156676448881626 0.07129999995231628
-0.004001968074589968 0.006156676448881626 0.07129999995231628
-0.003815614152699709 0.006156676448881626 0.07129999995231628
-0.00362926023080945 0.006156676448881626 0.07129999995231628
-0.0034429060760885477 0.006156676448881626 0.07129999995231628
-0.0032565523870289326 0.006156676448881626 0.07129999995231628
-0.0030701984651386738 0.006156676448881626 0.07129999995231628
-0.002883844543248415 0.006156676448881626 0.07129999995231628
-0.002697490621358156 0.006156676448881626 0.07129999995231628
-0.002511136932298541 0.006156676448881626 0.07129999995231628
-0.0023247830104082823 0.006156676448881626 0.07129999995231628
-0.0021384290885180235 0.006156676448881626 0.07129999995231628
-0.0019520751666277647 0.006156676448881626 0.07129999995231628
-0.001765721244737506 0.006156676448881626 0.07129999995231628
-0.001579367439262569 0.006156676448881626 0.07129999995231628
-0.0013930135173723102 0.006156676448881626 0.07129999995231628
-0.0012083520414307714 0.006165311671793461 0.0714000016450882
-0.001021736767143011 0.006165311671793461 0.0714000016450882
-0.0008351215510629117 0.006165311671793461 0.0714000016450882
-0.0006485062767751515 0.006165311671793461 0.0714000016450882
-0.00046253783511929214 0.006173945963382721 0.07149999588727951
-8.890881872503087e-05 0.006182580720633268 0.07159999758005142
9.822916763368994e-05 0.006182580720633268 0.07159999758005142
0.0002857657091226429 0.006191215943545103 0.07169999927282333
0.000473165069706738 0.006191215943545103 0.07169999927282333
0.000661485712043941 0.006199851166456938 0.07180000096559525
0.0008455984061583877 0.006173945963382721 0.07149999588727951
0.0010281429858878255 0.006148041225969791 0.07119999825954437
0.0017351707210764289 0.006018518004566431 0.06969999521970749
0.0019063394283875823 0.005983978509902954 0.06929999589920044
0.0020874659530818462 0.005983978509902954 0.06929999589920044
0.002268592594191432 0.005983978509902954 0.06929999589920044
0.0024497192353010178 0.005983978509902954 0.06929999589920044
0.002630845410749316 0.005983978509902954 0.06929999589920044
0.002811972051858902 0.005983978509902954 0.06929999589920044
0.0029930986929684877 0.005983978509902954 0.06929999589920044
0.0031742253340780735 0.005983978509902954 0.06929999589920044
0.0033601936884224415 0.0059926132671535015 0.06939999759197235
0.003541581565514207 0.0059926132671535015 0.06939999759197235
0.003722969675436616 0.0059926132671535015 0.06939999759197235
0.0039099836722016335 0.006001248490065336 0.06949999928474426
0.004091632552444935 0.006001248490065336 0.06949999928474426
0.0042732818983495235 0.006001248490065336 0.06949999928474426
0.004461341071873903 0.006009883247315884 0.06960000097751617
0.004636580590158701 0.006001248490065336 0.06949999928474426
0.004825162701308727 0.006009883247315884 0.06960000097751617
0.005014267284423113 0.006018518004566431 0.06969999521970749
0.005196439102292061 0.006018518004566431 0.06969999521970749
0.005378610920161009 0.006018518004566431 0.06969999521970749
0.005560783203691244 0.006018518004566431 0.06969999521970749
0.0057511948980391026 0.0060271527618169785 0.0697999969124794
0.00593362795189023 0.0060271527618169785 0.0697999969124794
0.006124824285507202 0.006035787984728813 0.06989999860525131
0.006307518575340509 0.006035787984728813 0.06989999860525131
0.006518068723380566 0.006061692256480455 0.07019999623298645
0.006730186752974987 0.006087597459554672 0.07050000131130219
0.006924256682395935 0.006096231751143932 0.0705999955534935
0.007149057928472757 0.006130771245807409 0.07099999487400055
0.007355288602411747 0.006148041225969791 0.07119999825954437
0.0075625646859407425 0.006165311671793461 0.0714000016450882
-0.009668235667049885 0.005827047396451235 0.06549999862909317
-0.009482541121542454 0.0058181509375572205 0.06539999693632126
-0.009311608038842678 0.0058181509375572205 0.06539999693632126
-0.009140674024820328 0.0058181509375572205 0.06539999693632126
-0.008969741873443127 0.0058181509375572205 0.06539999693632126
-0.008785353973507881 0.005809254478663206 0.06529999524354935
-0.008614681661128998 0.005809254478663206 0.06529999524354935
-0.008444010280072689 0.005809254478663206 0.06529999524354935
-0.008273337967693806 0.005809254478663206 0.06529999524354935
-0.008090258575975895 0.005800358485430479 0.06520000100135803
-0.007919847965240479 0.005800358485430479 0.06520000100135803
-0.007749437354505062 0.005800358485430479 0.06520000100135803
-0.0075906505808234215 0.005809254478663206 0.06529999524354935
-0.007408616133034229 0.005800358485430479 0.06520000100135803
-0.0072382059879601 0.005800358485430479 0.06520000100135803
-0.007078634575009346 0.005809254478663206 0.06529999524354935
-0.00690796272829175 0.005809254478663206 0.06529999524354935
-0.006737290881574154 0.005809254478663206 0.06529999524354935
-0.0065666185691952705 0.005809254478663206 0.06529999524354935
-0.006395947188138962 0.005809254478663206 0.06529999524354935
-0.006225275341421366 0.005809254478663206 0.06529999524354935
-0.006054603029042482 0.005809254478663206 0.06529999524354935
-0.0051129101775586605 0.0063341339118778706 0.07119999825954437
-0.004926817957311869 0.0063341339118778706 0.07119999825954437
-0.004740724805742502 0.0063341339118778706 0.07119999825954437
-0.00455463258549571 0.0063341339118778706 0.07119999825954437
-0.004374675452709198 0.006343030370771885 0.07129999995231628
-0.0041883219964802265 0.006343030370771885 0.07129999995231628
-0.004001968074589968 0.006343030370771885 0.07129999995231628
-0.003815614152699709 0.006343030370771885 0.07129999995231628
-0.00362926023080945 0.006343030370771885 0.07129999995231628
-0.0034429060760885477 0.006343030370771885 0.07129999995231628
-0.0032565523870289326 0.006343030370771885 0.07129999995231628
-0.0030701984651386738 0.006343030370771885 0.07129999995231628
-0.002883844543248415 0.006343030370771885 0.07129999995231628
-0.002697490621358156 0.006343030370771885 0.07129999995231628
-0.002511136932298541 0.006343030370771885 0.07129999995231628
-0.0023247830104082823 0.006343030370771885 0.07129999995231628
-0.0021384290885180235 0.006343030370771885 0.07129999995231628
-0.0019520751666277647 0.006343030370771885 0.07129999995231628
-0.001765721244737506 0.006343030370771885 0.07129999995231628
-0.001579367439262569 0.006343030370771885 0.07129999995231628
-0.0013930135173723102 0.006343030370771885 0.07129999995231628
-0.0012083520414307714 0.006351926364004612 0.0714000016450882
-0.001021736767143011 0.006351926364004612 0.0714000016450882
-0.0008351215510629117 0.006351926364004612 0.0714000016450882
-0.00027566123753786087 0.006360822357237339 0.07149999588727951
9.822916763368994e-05 0.006369718816131353 0.07159999758005142
0.00028536716126836836 0.006369718816131353 0.07159999758005142
0.000473165069706738 0.006378615275025368 0.07169999927282333
0.0008455984061583877 0.006360822357237339 0.07149999588727951
0.0010281429858878255 0.0063341339118778706 0.07119999825954437
0.0017351707210764289 0.006200689822435379 0.06969999521970749
0.0019090903224423528 0.006174000911414623 0.06939999759197235
0.0020904780831187963 0.006174000911414623 0.06939999759197235
0.002268592594191432 0.006165104918181896 0.06929999589920044
0.002453254070132971 0.006174000911414623 0.06939999759197235
0.002634641947224736 0.006174000911414623 0.06939999759197235
0.0028160298243165016 0.006174000911414623 0.06939999759197235
0.0029974179342389107 0.006174000911414623 0.06939999759197235
0.003178805811330676 0.006174000911414623 0.06939999759197235
0.0033601936884224415 0.006174000911414623 0.06939999759197235
0.0035466847475618124 0.006182897370308638 0.06949999928474426
0.003728334093466401 0.006182897370308638 0.06949999928474426
0.0039099836722016335 0.006182897370308638 0.06949999928474426
0.004091632552444935 0.006182897370308638 0.06949999928474426
0.004279430955648422 0.006191793829202652 0.06960000097751617
0.004461341071873903 0.006191793829202652 0.06960000097751617
0.004643252119421959 0.006191793829202652 0.06960000097751617
0.004832095000892878 0.006200689822435379 0.06969999521970749
0.005014267284423113 0.006200689822435379 0.06969999521970749
0.005196439102292061 0.006200689822435379 0.06969999521970749
0.005378610920161009 0.006200689822435379 0.06969999521970749
0.005560783203691244 0.006200689822435379 0.06969999521970749
0.0057511948980391026 0.006209586281329393 0.0697999969124794
0.00593362795189023 0.006209586281329393 0.0697999969124794
0.006116061937063932 0.006209586281329393 0.0697999969124794
0.006307518575340509 0.0062184822745621204 0.06989999860525131
0.006508783437311649 0.006236274726688862 0.07009999454021454
0.006730186752974987 0.006271860096603632 0.07050000131130219
0.006924256682395935 0.006280756089836359 0.0705999955534935
0.007149057928472757 0.006316340994089842 0.07099999487400055
0.007365619298070669 0.006343030370771885 0.07129999995231628
0.007573156151920557 0.006360822357237339 0.07149999588727951
-0.0098544517531991 0.006007399410009384 0.06560000032186508
-0.00968299712985754 0.006007399410009384 0.06560000032186508
-0.009497040882706642 0.00599824171513319 0.06549999862909317
-0.0093258460983634 0.00599824171513319 0.06549999862909317
-0.009154651314020157 0.00599824171513319 0.06549999862909317
-0.008969741873443127 0.005989084020256996 0.06539999693632126
-0.008785353973507881 0.005979926325380802 0.06529999524354935
-0.008614681661128998 0.005979926325380802 0.06529999524354935
-0.008444010280072689 0.005979926325380802 0.06529999524354935
-0.008273337967693806 0.005979926325380802 0.06529999524354935
-0.008102666586637497 0.005979926325380802 0.06529999524354935
-0.007931994274258614 0.005979926325380802 0.06529999524354935
-0.0077613224275410175 0.005979926325380802 0.06529999524354935
-0.0075906505808234215 0.005979926325380802 0.06529999524354935
-0.007419978268444538 0.005979926325380802 0.06529999524354935
-0.007249306887388229 0.005979926325380802 0.06529999524354935
-0.007078634575009346 0.005979926325380802 0.06529999524354935
-0.00690796272829175 0.005979926325380802 0.06529999524354935
-0.006737290881574154 0.005979926325380802 0.06529999524354935
-0.0065666185691952705 0.005979926325380802 0.06529999524354935
-0.0051057287491858006 0.006511068437248468 0.07109999656677246
-0.004919897764921188 0.006511068437248468 0.07109999656677246
-0.004740724805742502 0.006520226132124662 0.07119999825954437
-0.00455463258549571 0.006520226132124662 0.07119999825954437
-0.004368539899587631 0.006520226132124662 0.07119999825954437
-0.004182447679340839 0.006520226132124662 0.07119999825954437
-0.004001968074589968 0.006529383827000856 0.07129999995231628
-0.003815614152699709 0.006529383827000856 0.07129999995231628
-0.00362926023080945 0.006529383827000856 0.07129999995231628
-0.0034429060760885477 0.006529383827000856 0.07129999995231628
-0.0032565523870289326 0.006529383827000856 0.07129999995231628
-0.0030701984651386738 0.006529383827000856 0.07129999995231628
-0.002883844543248415 0.006529383827000856 0.07129999995231628
-0.002697490621358156 0.006529383827000856 0.07129999995231628
-0.0021384290885180235 0.006529383827000856 0.07129999995231628
-0.0019520751666277647 0.006529383827000856 0.07129999995231628
-0.001765721244737506 0.006529383827000856 0.07129999995231628
-0.0012083520414307714 0.00653854152187705 0.0714000016450882
-0.001021736767143011 0.00653854152187705 0.0714000016450882
-0.0008351215510629117 0.00653854152187705 0.0714000016450882
9.822916763368994e-05 0.006556856445968151 0.07159999758005142
0.0002857657091226429 0.006566014140844345 0.07169999927282333
0.00047250514035113156 0.006556856445968151 0.07159999758005142
0.0010295870015397668 0.006529383827000856 0.07129999995231628
0.0017376602627336979 0.006392019335180521 0.0697999969124794
0.0019063394283875823 0.006346230860799551 0.06929999589920044
0.0020904780831187963 0.006355389021337032 0.06939999759197235
0.0022718661930412054 0.006355389021337032 0.06939999759197235
0.002453254070132971 0.006355389021337032 0.06939999759197235
0.002634641947224736 0.006355389021337032 0.06939999759197235
0.0028160298243165016 0.006355389021337032 0.06939999759197235
0.00300173694267869 0.006364546716213226 0.06949999928474426
0.0031833862885832787 0.006364546716213226 0.06949999928474426
0.0033650354016572237 0.006364546716213226 0.06949999928474426
0.0035466847475618124 0.006364546716213226 0.06949999928474426
0.00373369874432683 0.00637370441108942 0.06960000097751617
0.003915609326213598 0.00637370441108942 0.06960000097751617
0.004097519908100367 0.00637370441108942 0.06960000097751617
0.004279430955648422 0.00637370441108942 0.06960000097751617
0.004461341071873903 0.00637370441108942 0.06960000097751617
0.00464992318302393 0.006382861640304327 0.06969999521970749
0.004832095000892878 0.006382861640304327 0.06969999521970749
0.005014267284423113 0.006382861640304327 0.06969999521970749
0.005196439102292061 0.006382861640304327 0.06969999521970749
0.005378610920161009 0.006382861640304327 0.06969999521970749
0.005560783203691244 0.006382861640304327 0.06969999521970749
0.005742955021560192 0.006382861640304327 0.06969999521970749
0.00593362795189023 0.006392019335180521 0.0697999969124794
0.006116061937063932 0.006392019335180521 0.0697999969124794
0.006307518575340509 0.006401177030056715 0.06989999860525131
0.006499499082565308 0.006410334724932909 0.07000000029802322
0.006720640230923891 0.006446965038776398 0.07039999961853027
0.006924256682395935 0.006465279962867498 0.0705999955534935
0.007138989400118589 0.006492753513157368 0.07090000063180923
0.007365619298070669 0.006529383827000856 0.07129999995231628
0.0075625646859407425 0.00653854152187705 0.0714000016450882
-0.009869473986327648 0.006188274826854467 0.065700002014637
-0.00951154064387083 0.006178855895996094 0.06560000032186508
-0.009340084157884121 0.006178855895996094 0.06560000032186508
-0.009154651314020157 0.006169436499476433 0.06549999862909317
-0.008969741873443127 0.006160017568618059 0.06539999693632126
-0.008798807859420776 0.006160017568618059 0.06539999693632126
-0.008614681661128998 0.006150598172098398 0.06529999524354935
-0.008444010280072689 0.006150598172098398 0.06529999524354935
-0.008273337967693806 0.006150598172098398 0.06529999524354935
-0.008102666586637497 0.006150598172098398 0.06529999524354935
-0.007931994274258614 0.006150598172098398 0.06529999524354935
-0.0077613224275410175 0.006150598172098398 0.06529999524354935
-0.0075906505808234215 0.006150598172098398 0.06529999524354935
-0.007419978268444538 0.006150598172098398 0.06529999524354935
-0.007249306887388229 0.006150598172098398 0.06529999524354935
-0.007078634575009346 0.006150598172098398 0.06529999524354935
-0.00690796272829175 0.006150598172098398 0.06529999524354935
-0.006737290881574154 0.006150598172098398 0.06529999524354935
-0.0065766749903559685 0.006160017568618059 0.06539999693632126
-0.004734066314995289 0.006696899887174368 0.07109999656677246
-0.004548235330730677 0.006696899887174368 0.07109999656677246
-0.004368539899587631 0.0067063188180327415 0.07119999825954437
-0.004182447679340839 0.0067063188180327415 0.07119999825954437
-0.00399635499343276 0.0067063188180327415 0.07119999825954437
-0.003815614152699709 0.0067157382145524025 0.07129999995231628
-0.00362926023080945 0.0067157382145524025 0.07129999995231628
-0.0034429060760885477 0.0067157382145524025 0.07129999995231628
-0.0032565523870289326 0.0067157382145524025 0.07129999995231628
-0.0030701984651386738 0.0067157382145524025 0.07129999995231628
-0.002883844543248415 0.0067157382145524025 0.07129999995231628
-0.002697490621358156 0.0067157382145524025 0.07129999995231628
-0.002511136932298541 0.0067157382145524025 0.07129999995231628
-0.0023247830104082823 0.0067157382145524025 0.07129999995231628
-0.0021384290885180235 0.0067157382145524025 0.07129999995231628
-0.0019520751666277647 0.0067157382145524025 0.07129999995231628
-0.0012083520414307714 0.006725157145410776 0.0714000016450882
-0.001021736767143011 0.006725157145410776 0.0714000016450882
9.822916763368994e-05 0.006743995007127523 0.07159999758005142
0.00028536716126836836 0.006743995007127523 0.07159999758005142
0.00047250514035113156 0.006743995007127523 0.07159999758005142
0.0010295870015397668 0.0067157382145524025 0.07129999995231628
0.0017376602627336979 0.006574452854692936 0.0697999969124794
0.0019090903224423528 0.006536777131259441 0.06939999759197235
0.0020904780831187963 0.006536777131259441 0.06939999759197235
0.0022718661930412054 0.006536777131259441 0.06939999759197235
0.0024567891377955675 0.006546196062117815 0.06949999928474426
0.0026384382508695126 0.006546196062117815 0.06949999928474426
0.0028200875967741013 0.006546196062117815 0.06949999928474426
0.00300173694267869 0.006546196062117815 0.06949999928474426
0.0031833862885832787 0.006546196062117815 0.06949999928474426
0.0033698773477226496 0.006555615458637476 0.06960000097751617
0.0035517881624400616 0.006555615458637476 0.06960000097751617
0.00373369874432683 0.006555615458637476 0.06960000097751617
0.003921234980225563 0.006565033923834562 0.06969999521970749
0.004103406798094511 0.006565033923834562 0.06969999521970749
0.004285579081624746 0.006565033923834562 0.06969999521970749
0.004467750899493694 0.006565033923834562 0.06969999521970749
0.00464992318302393 0.006565033923834562 0.06969999521970749
0.004832095000892878 0.006565033923834562 0.06969999521970749
0.005014267284423113 0.006565033923834562 0.06969999521970749
0.005196439102292061 0.006565033923834562 0.06969999521970749
0.005378610920161009 0.006565033923834562 0.06969999521970749
0.005560783203691244 0.006565033923834562 0.06969999521970749
0.005742955021560192 0.006565033923834562 0.06969999521970749
0.00592512683942914 0.006565033923834562 0.06969999521970749
0.006116061937063932 0.006574452854692936 0.0697999969124794
0.006307518575340509 0.006583872251212597 0.06989999860525131
0.006499499082565308 0.0065932911820709705 0.07000000029802322
0.006720640230923891 0.006630967371165752 0.07039999961853027
0.006924256682395935 0.006649804767221212 0.0705999955534935
0.007138989400118589 0.006678062025457621 0.07090000063180923
0.007365619298070669 0.0067157382145524025 0.07129999995231628
0.007573156151920557 0.0067345756106078625 0.07149999588727951
-0.009340084157884121 0.006350311450660229 0.06560000032186508
-0.009154651314020157 0.0063406312838196754 0.06549999862909317
-0.008969741873443127 0.006330950651317835 0.06539999693632126
-0.008798807859420776 0.006330950651317835 0.06539999693632126
-0.008614681661128998 0.006321270018815994 0.06529999524354935
-0.008444010280072689 0.006321270018815994 0.06529999524354935
-0.008273337967693806 0.006321270018815994 0.06529999524354935
-0.008102666586637497 0.006321270018815994 0.06529999524354935
-0.007931994274258614 0.006321270018815994 0.06529999524354935
-0.0077613224275410175 0.006321270018815994 0.06529999524354935
-0.0075906505808234215 0.006321270018815994 0.06529999524354935
-0.007419978268444538 0.006321270018815994 0.06529999524354935
-0.007249306887388229 0.006321270018815994 0.06529999524354935
-0.007078634575009346 0.006321270018815994 0.06529999524354935
-0.00690796272829175 0.006321270018815994 0.06529999524354935
-0.006737290881574154 0.006321270018815994 0.06529999524354935
-0.004734066314995289 0.00688273087143898 0.07109999656677246
-0.004548235330730677 0.00688273087143898 0.07109999656677246
-0.0043624043464660645 0.00688273087143898 0.07109999656677246
-0.004182447679340839 0.006892411038279533 0.07119999825954437
-0.00399635499343276 0.006892411038279533 0.07119999825954437
-0.003815614152699709 0.006902091670781374 0.07129999995231628
-0.00362926023080945 0.006902091670781374 0.07129999995231628
-0.0034429060760885477 0.006902091670781374 0.07129999995231628
-0.0032565523870289326 0.006902091670781374 0.07129999995231628
-0.0030701984651386738 0.006902091670781374 0.07129999995231628
-0.002883844543248415 0.006902091670781374 0.07129999995231628
-0.002697490621358156 0.006902091670781374 0.07129999995231628
-0.002511136932298541 0.006902091670781374 0.07129999995231628
-0.0023247830104082823 0.006902091670781374 0.07129999995231628
-0.0021384290885180235 0.006902091670781374 0.07129999995231628
-0.0019520751666277647 0.006902091670781374 0.07129999995231628
-0.0013949671993032098 0.006911772303283215 0.0714000016450882
-0.0012083520414307714 0.006911772303283215 0.0714000016450882
-0.001021736767143011 0.006911772303283215 0.0714000016450882
9.822916763368994e-05 0.006931132636964321 0.07159999758005142
0.001740149687975645 0.006766566541045904 0.06989999860525131
0.0019118412164971232 0.006727845408022404 0.06949999928474426
0.00209349044598639 0.006727845408022404 0.06949999928474426
0.002275139791890979 0.006727845408022404 0.06949999928474426
0.002453254070132971 0.006718164775520563 0.06939999759197235
0.0026384382508695126 0.006727845408022404 0.06949999928474426
0.0028200875967741013 0.006727845408022404 0.06949999928474426
0.00300173694267869 0.006727845408022404 0.06949999928474426
0.0031879667658358812 0.006737526040524244 0.06960000097751617
0.0033698773477226496 0.006737526040524244 0.06960000097751617
0.0035568908788263798 0.00674720574170351 0.06969999521970749
0.0037390629295259714 0.00674720574170351 0.06969999521970749
0.003921234980225563 0.00674720574170351 0.06969999521970749
0.004103406798094511 0.00674720574170351 0.06969999521970749
0.004285579081624746 0.00674720574170351 0.06969999521970749
0.004467750899493694 0.00674720574170351 0.06969999521970749
0.004656594712287188 0.006756886374205351 0.0697999969124794
0.004832095000892878 0.00674720574170351 0.06969999521970749
0.0050214617513120174 0.006756886374205351 0.0697999969124794
0.005203894805163145 0.006756886374205351 0.0697999969124794
0.005378610920161009 0.00674720574170351 0.06969999521970749
0.005560783203691244 0.00674720574170351 0.06969999521970749
0.005742955021560192 0.00674720574170351 0.06969999521970749
0.00592512683942914 0.00674720574170351 0.06969999521970749
0.006116061937063932 0.006756886374205351 0.0697999969124794
0.006307518575340509 0.006766566541045904 0.06989999860525131
0.006508783437311649 0.006785926874727011 0.07009999454021454
0.006720640230923891 0.0068149687722325325 0.07039999961853027
0.006924256682395935 0.006834328640252352 0.0705999955534935
0.007149057928472757 0.0068730502389371395 0.07099999487400055
-0.009526039473712444 0.0065317098051309586 0.065700002014637
-0.009154651314020157 0.006511826068162918 0.06549999862909317
-0.008969741873443127 0.006501884199678898 0.06539999693632126
-0.008798807859420776 0.006501884199678898 0.06539999693632126
-0.008614681661128998 0.006491942331194878 0.06529999524354935
-0.008102666586637497 0.006491942331194878 0.06529999524354935
-0.007931994274258614 0.006491942331194878 0.06529999524354935
-0.007419978268444538 0.006491942331194878 0.06529999524354935
-0.007249306887388229 0.006491942331194878 0.06529999524354935
-0.007078634575009346 0.006491942331194878 0.06529999524354935
-0.00690796272829175 0.006491942331194878 0.06529999524354935
-0.006737290881574154 0.006491942331194878 0.06529999524354935
-0.0065666185691952705 0.006491942331194878 0.06529999524354935
-0.0047274078242480755 0.007058620452880859 0.07099999487400055
-0.004548235330730677 0.00706856232136488 0.07109999656677246
-0.0043624043464660645 0.00706856232136488 0.07109999656677246
-0.004182447679340839 0.0070785041898489 0.07119999825954437
-0.00399635499343276 0.0070785041898489 0.07119999825954437
-0.0038102625403553247 0.0070785041898489 0.07119999825954437
-0.00362926023080945 0.00708844605833292 0.07129999995231628
-0.0034429060760885477 0.00708844605833292 0.07129999995231628
-0.0032565523870289326 0.00708844605833292 0.07129999995231628
-0.0030701984651386738 0.00708844605833292 0.07129999995231628
-0.002883844543248415 0.00708844605833292 0.07129999995231628
-0.002697490621358156 0.00708844605833292 0.07129999995231628
-0.002511136932298541 0.00708844605833292 0.07129999995231628
-0.0023247830104082823 0.00708844605833292 0.07129999995231628
-0.0021384290885180235 0.00708844605833292 0.07129999995231628
-0.0019520751666277647 0.00708844605833292 0.07129999995231628
-0.0013949671993032098 0.00709838792681694 0.0714000016450882
-0.0012083520414307714 0.00709838792681694 0.0714000016450882
9.80919721769169e-05 0.007108328863978386 0.07149999588727951
0.001740149687975645 0.006949261762201786 0.06989999860525131
0.0019173427717760205 0.006929378025233746 0.06969999521970749
0.00209349044598639 0.006909494753926992 0.06949999928474426
0.0022718661930412054 0.006899552885442972 0.06939999759197235
0.0024567891377955675 0.006909494753926992 0.06949999928474426
0.0026384382508695126 0.006909494753926992 0.06949999928474426
0.0028200875967741013 0.006909494753926992 0.06949999928474426
0.003006056183949113 0.006919436622411013 0.06960000097751617
0.0031879667658358812 0.006919436622411013 0.06960000097751617
0.0033698773477226496 0.006919436622411013 0.06960000097751617
0.0035568908788263798 0.006929378025233746 0.06969999521970749
0.0037390629295259714 0.006929378025233746 0.06969999521970749
0.003921234980225563 0.006929378025233746 0.06969999521970749
0.004109294153749943 0.006939319893717766 0.0697999969124794
0.004291727673262358 0.006939319893717766 0.0697999969124794
0.004474160727113485 0.006939319893717766 0.0697999969124794
0.004656594712287188 0.006939319893717766 0.0697999969124794
0.004839027766138315 0.006939319893717766 0.0697999969124794
0.0050214617513120174 0.006939319893717766 0.0697999969124794
0.005203894805163145 0.006939319893717766 0.0697999969124794
0.005386327859014273 0.006939319893717766 0.0697999969124794
0.005568761844187975 0.006939319893717766 0.0697999969124794
0.005742955021560192 0.006929378025233746 0.06969999521970749
0.00592512683942914 0.006929378025233746 0.06969999521970749
0.006116061937063932 0.006939319893717766 0.0697999969124794
0.006307518575340509 0.006949261762201786 0.06989999860525131
0.006508783437311649 0.006969145033508539 0.07009999454021454
0.006730186752974987 0.00700891250744462 0.07050000131130219
0.007159126922488213 0.00706856232136488 0.07109999656677246
0.007365619298070669 0.00708844605833292 0.07129999995231628
0.007573156151920557 0.007108328863978386 0.07149999588727951
-0.009168627671897411 0.006693223956972361 0.06560000032186508
-0.008983456529676914 0.006683020386844873 0.06549999862909317
-0.008798807859420776 0.0066728172823786736 0.06539999693632126
-0.008614681661128998 0.006662614177912474 0.06529999524354935
-0.008444010280072689 0.006662614177912474 0.06529999524354935
-0.008273337967693806 0.006662614177912474 0.06529999524354935
-0.007419978268444538 0.006662614177912474 0.06529999524354935
-0.0072382059879601 0.006652411539107561 0.06520000100135803
-0.007078634575009346 0.006662614177912474 0.06529999524354935
-0.00690796272829175 0.006662614177912474 0.06529999524354935
-0.006737290881574154 0.006662614177912474 0.06529999524354935
-0.0065666185691952705 0.006662614177912474 0.06529999524354935
-0.006395947188138962 0.006662614177912474 0.06529999524354935
-0.006225275341421366 0.006662614177912474 0.06529999524354935
