ply
format ascii 1.0
element vertex 756
property float x
property float y
property float z
end_header
0.0022465196173356815 -0.010950918063198605 0.060664402035632635
0.002519684180346848 -0.011494982626114467 0.06037985431601491
0.0027732961552114806 -0.01207460456058354 0.060618522154310836
0.003038389898281894 -0.012633346371253868 0.06054994510448123
0.003299287642889342 -0.0131997189046881 0.060593651050409016
0.003564381339562609 -0.013758460702161912 0.06052507458356694
0.0038158560306285443 -0.014341969316924542 0.060820934327374974
0.004083750373248322 -0.014895618004927091 0.060677414298165186
0.0043474702506088505 -0.015456857768666205 0.06064559775657209
0.004603201997056692 -0.016032625503866343 0.06082754658618302
0.004862600030352351 -0.016601725139370263 0.060911382566939655
0.00512631993932295 -0.017162965235912788 0.060879567813766945
-0.0017897465520793146 -0.00031592985128560923 0.057289319157929286
-0.001287243698987776 -0.0014837591153657255 0.057892987487927434
-0.0007377322836582502 -0.0025660994849658453 0.057238725078375574
-0.0004932678400150579 -0.003162356572126117 0.057722174730002414
-0.00023118388127826503 -0.0037265717229202156 0.05773413699853085
2.0885685533994156e-05 -0.004308999308077717 0.05801408350195088
0.0002690516947838487 -0.004898524919996256 0.058398481535415644
0.0005283349620311848 -0.005467833263083656 0.05848538858501295
0.0007876182900024477 -0.006037141495741675 0.05857229400967538
0.0010416313885788508 -0.00661603389425262 0.058800227530316065
0.001300914716550112 -0.00718534212691064 0.0588871329549785
0.0015419563607736676 -0.007787823739582285 0.05946217461311983
0.0018012397702353664 -0.008357132214333873 0.05954908049143474
0.0020422814101214992 -0.008959613834893332 0.06012412226564284
0.0023057391539319464 -0.009521330886543628 0.06009932420799591
0.0025650225356606974 -0.010090639216584993 0.06018622951128426
0.002817091900455272 -0.010673066388545675 0.06046617615200034
0.003090657579686195 -0.011216401502306971 0.06017089480913778
0.003351358621627383 -0.011783131627043721 0.06021986357417441
0.003616206549914581 -0.012342320463730364 0.06015786437670055
0.0038769075793690776 -0.012909050733139714 0.06020683429908785
0.004136190911677762 -0.013478358957909919 0.06029373960768353
0.004396891939423849 -0.01404508903528217 0.06034270825864362
0.004660349655501346 -0.014606805942222245 0.06031790962597013
0.0049281291982940225 -0.015160663008948767 0.060177458935214014
0.005187412723945544 -0.015729971662691418 0.06026436433864718
0.005455192365578351 -0.016283828939960256 0.06012391363727643
0.005718650081655851 -0.01684554584690033 0.06009911500460294
0.005938057028881314 -0.017487371197514347 0.061253087843175055
0.006232948921397092 -0.017991923541422598 0.06038712998960341
0.006466169336419011 -0.018608629216471554 0.061171468197564666
0.006718238699925915 -0.019191056390773932 0.06145141487273807
-0.001758614188347502 0.0010625792543107236 0.05747583811201824
-0.001228842111944177 -5.565961449066495e-05 0.05734979880420122
-0.0009623654365685484 -0.0006118863986203848 0.05724421467819297
-0.0007014677977676669 -0.0011782589293250247 0.05728792213829616
-0.0004405701416170934 -0.0017446314284784137 0.05733162913413224
-0.00018117244946416668 -0.002313730123215408 0.05741546370651274
7.455905809789463e-05 -0.0028894975122651387 0.057597413659987315
0.0003260337491638281 -0.0034730061270277675 0.05789327340379534
0.0005817655064552273 -0.004048773842508376 0.05807522194323933
0.0008353775061615666 -0.004628395658622635 0.05831388862285775
0.0010911090570978584 -0.0052041629687942376 0.058495837415664574
0.0013468405820096134 -0.005779930326292718 0.058677786904872034
0.0016062386608482158 -0.006349029878974599 0.05876162166692754
0.0018577132825153778 -0.006932538619942234 0.05905748326780397
0.002117111335329441 -0.007501638219950993 0.05914131872626012
0.00237800912501953 -0.008068010866544194 0.05918502478294736
0.002645903469808022 -0.008621659550602838 0.05904150469570418
0.002884729269378273 -0.0092281709785868 0.05967584231056243
0.0031286350546258007 -0.00982544420807622 0.060174242634273234
0.003403743319216746 -0.010365974031710327 0.059837682491644166
0.003667463299426201 -0.010927214023094557 0.05980586599680641
0.003929793087141312 -0.011490982195236839 0.05981125052705563
0.004192122889708777 -0.01205475036476239 0.05981663482450789
0.004478258985014733 -0.012575225742527313 0.05918497803421141
0.004717084713477803 -0.013181737104679181 0.05981931623471085
0.00497941455205916 -0.013745505111139773 0.059824698909881915
0.00523881256149899 -0.01431460479002666 0.05990853552900581
0.00550114223617887 -0.014878372704262129 0.05991391995579314
0.005766236152219513 -0.01543711488338151 0.059845342887387916
0.006029956087214652 -0.015998354932597162 0.05981352743781455
0.0062964327539154355 -0.01655458173250251 0.059707943543939844
0.00656152643323901 -0.017113323561527574 0.059639367541364875
0.006822424102401853 -0.017679696037017526 0.05968307418900063
0.007078155868368099 -0.018255463736722505 0.05986502249631107
0.0073206542795369554 -0.018855296148578254 0.06040108196730506
0.007558390712967323 -0.019463788446183596 0.06106456903266619
-0.001199174409267833 0.0013201859344704266 0.05757551118696854
-0.000668610041798896 0.0002033878851111716 0.05742827065771079
-0.00040515229969685825 -0.00035832897450202485 0.05740347132863666
-0.00014169459229420537 -0.0009200458972177259 0.05737867292809672
0.00011900643978930356 -0.0014867759667021641 0.05742764146299004
0.00037970704181290553 -0.0020535052571198417 0.057476610968876116
0.0006404080738964145 -0.00262023532660428 0.05752557950376945
0.0008944211637979711 -0.0031991277408908504 0.05775351325654367
0.0011388858224711165 -0.0037953852175845026 0.05823696242267413
0.0013995868372049334 -0.004362115318620191 0.05828593142183455
0.0016477528551296335 -0.004951640914763105 0.05867032922316577
0.0019036832508936546 -0.005527046616043491 0.0588469570507264
0.0021518492254441243 -0.0061165722910645325 0.05923135601272537
0.0024153069588713147 -0.006678289166453357 0.05920655691578477
0.0026634729334217844 -0.007267814841474398 0.059590955877783736
0.002922756360233176 -0.007837123284674735 0.05967786129183154
0.0031820396708547452 -0.008406431548884005 0.05976476718076109
0.0034498193835947313 -0.008960288891984936 0.059624315893749134
0.0037132771490922967 -0.00952200590419617 0.05959951725576833
0.003984723253566063 -0.01006919554229248 0.059360954264647874
0.0042454242831522345 -0.010635925640711438 0.059409923031011336
0.004501354680099087 -0.01121133141301976 0.05958655132084883
0.004753424091290809 -0.011793758598176957 0.059866497378577375
0.005024870236509797 -0.012340948357320051 0.05962793461428315
0.00528971812273727 -0.012900137172922366 0.059565935883730055
0.005557497777382346 -0.013453994426527765 0.05942548483415897
0.005813428155796672 -0.014029400159359403 0.059602113125986705
0.006075512007018489 -0.014593615115386812 0.059614075637263335
0.006337596180785234 -0.015157830655714289 0.0596260374202954
0.006602444058337863 -0.015717019487092233 0.059564038921875846
0.006861727386309125 -0.016286327719750252 0.059650944346538295
0.007141645857531124 -0.016818109951071997 0.059185666034050996
0.007393715226663123 -0.017400537115144867 0.059465612558700295
0.007655799374405329 -0.01796475270279922 0.05947757503813301
0.007911729748482234 -0.01854015844351867 0.05965420344602752
0.008126636631098515 -0.01919016737824866 0.06092859524477457
0.008390094371031841 -0.019751884241805764 0.06090379597373382
0.00864937765779758 -0.020321192549398005 0.06099070250103063
0.008897543672469217 -0.02091071815145678 0.06137510038941192
-0.0006460893493029449 0.0015662356822279894 0.05784524393734848
-9.950946317773251e-05 0.00047856262450042845 0.057269437982759956
0.00015410253652860598 -0.0001010591916138304 0.05750810466237838
0.00041919625055156576 -0.0006598009575363934 0.05743952773126921
0.0006785942686662431 -0.0012289006206476559 0.05752336411825955
0.0009343253982174752 -0.0018046671359768724 0.05770531364992558
0.001199419112240435 -0.0023634089018994353 0.05763673671881641
0.0014530311119467744 -0.0029430307180136946 0.05787540339843482
0.0017167512229350566 -0.0035042712277530415 0.057843588507966046
0.001987998525955329 -0.00405182239586244 0.057610345321424034
0.0022279713944108326 -0.00465624762871703 0.058213986761529876
0.002459060179236126 -0.005276828995315301 0.0590553608134462
0.0027063193720990334 -0.005868003696485843 0.059464024695486326
0.002970039328781286 -0.006429243706262431 0.05943220866557908
0.003225770853693041 -0.007005011063760909 0.05961415815478655
0.0034851690140220793 -0.00757411085853636 0.05969799337049451
0.003750262693345655 -0.008132852687561424 0.05962941736791954
0.004011160407591139 -0.008699225276210344 0.05967312412631476
0.004284325031194555 -0.009243289899687219 0.05938857593778603
0.004552219375983046 -0.009796938583745862 0.05924505585054285
0.004815939338842808 -0.010358178606681343 0.05921323981997219
0.00505843776854419 -0.010958011058013778 0.05974929928897593
0.005341151013695936 -0.01148471095598137 0.059209235204248256
0.005600549098580372 -0.012053810692812542 0.059293071121664175
0.005864269055262624 -0.012615050702589125 0.05926125509175694
0.006123667064702456 -0.013184150381476014 0.059345091710880836
0.006383065100166826 -0.013753250013036025 0.059428927633604085
0.006650959337440341 -0.014306898502327976 0.059285407789109096
0.00690457153482694 -0.014886520739526867 0.059524074447498236
0.007175818837847212 -0.015434071907636267 0.05929083126095621
0.007438148607029799 -0.015997840040301865 0.05929621579319568
0.0076990462978797575 -0.01656421247635275 0.059339921860497566
0.007959943962705178 -0.017130584959730515 0.0593836286242001
0.008222273938242871 -0.017694353497705116 0.05938901290307674
0.008473748624971382 -0.018277862120355558 0.05968487276295155
0.008738842325982073 -0.01883660390994156 0.0596162961800427
0.00895997607402267 -0.019475288990148495 0.06072406089125523
0.009195649624927863 -0.020087532738928927 0.06144274942375469
0.009478362859195115 -0.02061423255911854 0.060902684971717816
0.009722268607865417 -0.02121150565998148 0.06140108495706947
-0.0004416958938472885 0.002219002538762187 0.06042055989380277
0.0001645315293432436 0.0012397998373504648 0.05824863308399233
0.0004478034359135727 0.0007141159896373742 0.05769361890486089
0.0007155831079083408 0.0001602587675832278 0.05755316739102271
0.000981863107167827 -0.000396325681531297 0.05745284619687299
0.0012467109760456088 -0.0009555145286848643 0.05739084793058699
0.0015074116301182884 -0.0015222437244487882 0.057439816043671765
0.0017736916120280827 -0.002078828205114564 0.05733949531378915
0.002016424209348641 -0.002678234738180186 0.05786928810745192
0.002296342826201823 -0.003210017485240316 0.05740401116653664
0.0025390753888229964 -0.003809424081408441 0.057933804888733634
0.0027983586907697183 -0.004378732361393338 0.058020711009796735
0.003042823143087757 -0.004974989432777984 0.05850416042929001
0.0032706311877770218 -0.005601536983241936 0.05943332506869669
0.0035150956400950588 -0.006197794054626582 0.059916774488189974
0.0037652106791204306 -0.006783775262075922 0.06024901768404671
0.00401922387219954 -0.007362667879016998 0.06047695131013952
0.004281307822261487 -0.007926883045586721 0.060488913810801515
0.0044890565852929816 -0.008589909560503225 0.06195485380258517
0.004814844837440783 -0.009038275582275181 0.06026212969208991
0.005094763313000205 -0.009570057805709112 0.05979685126353584
0.005378035234422889 -0.01009574165080547 0.05924183685160744
0.005645814907600489 -0.010649598943887555 0.05910138580004611
0.005909272700437098 -0.011211315808809455 0.05907658577191766
0.0061699737298915956 -0.011778046078218805 0.059125555694304964
0.006430674753300257 -0.012344776163478868 0.05917452446133185
0.006686605149064277 -0.012920181864759253 0.05935115228889248
0.006948689099126223 -0.013484397031328978 0.05936311478955447
0.0072121466990139 -0.014046113759277988 0.05933831663176272
0.007472847946127362 -0.014612844218295807 0.05938728468115966
0.00773769582367999 -0.015172033049673747 0.05932528618274011
0.007999779799766477 -0.015736248168916597 0.059337247987001455
0.008260480823175138 -0.016302978254176658 0.05938621675402833
0.008522564773237085 -0.016867193420746385 0.05939817925469032
0.008788844978851677 -0.017423778275169912 0.05929785780717777
0.009050928928913626 -0.01798799344173964 0.05930982030783976
0.009306859298653106 -0.0185633991903469 0.05948644883180105
0.009573139306587439 -0.019119983623685798 0.05938612740551778
0.00982520866704459 -0.019702410803534295 0.05966607416230064
0.010053016733420968 -0.020328958314559182 0.06059523822137343
0.00014308356247352393 0.0025226906417866388 0.059842158796591355
0.0003765632440397683 0.0019064556748534063 0.060619564459919
0.0007246348994682768 0.0014986132897701148 0.058330548870858166
0.0009997431683966456 0.0009580834740238195 0.05799398861216232
0.001274851489374093 0.00041755375293128045 0.057657426960665184
0.0015413281647497215 -0.00013867303119844115 0.05755184283465693
0.0018078048054259652 -0.0006948998784306651 0.05744625963718286
0.0020728981240884046 -0.001253640802183965 0.05737768274853225
0.0023379918554610564 -0.0018123825365552767 0.057309105353155976
0.0025988895116116316 -0.002378755035708665 0.057352812348992054
0.0028667840801049217 -0.002932404093525062 0.05720929154411895
0.0031225156223663687 -0.003508171419472289 0.057391240569059324
0.0033761275873733206 -0.004087793298689052 0.05762990817721195
0.0036096068649041973 -0.004704027439228647 0.0584073141151317
0.003820167137689922 -0.005361940893172667 0.05979801851859417
0.004064072877854806 -0.005959214009503115 0.0602964187315455
0.0043234709133191775 -0.006528313641063125 0.06038025465426876
0.004574945677200701 -0.007111822513694948 0.060676115083862794
0.004824293387030794 -0.0076991991462236065 0.061028891536868496
0.005112080292582329 -0.008216672446090215 0.06035306008009873
0.005365692298334502 -0.008796294446353761 0.06059172791507758
0.005626589967497344 -0.009362666921843711 0.06063543456271334
0.005911035131525088 -0.0098862171687852 0.060049024900537686
0.006190046804892665 -0.010419648528835632 0.059608012434635496
0.006461294132622969 -0.01096719974958061 0.059374769245439815
0.00673640248567079 -0.01150772960749556 0.059038208052902455
0.006985750191163457 -0.01209510624791203 0.059390984621974924
0.007262812798873301 -0.012632082004506228 0.05900212745993811
0.00752928947424893 -0.01318830878863595 0.058896543333929845
0.0077829013924648315 -0.013767930362656642 0.059135209559895804
0.008043799220271125 -0.014334303330221539 0.059178917230903266
0.008326512440712842 -0.014861003175553555 0.05863885314882924
0.008564248942457624 -0.015469495348925846 0.05930233838613867
0.008829342665155428 -0.016028237099072782 0.05923376122289594
0.009088740674595261 -0.016597336777959673 0.05931759784201984
0.009348138881715352 -0.01716643687793119 0.05940143443991447
0.009595398083253107 -0.017757611563326108 0.05981009808982103
0.009878111329719361 -0.018284311361331247 0.05927003331134636
0.010143205052417167 -0.018843053111478183 0.05920145614810364
0.010380941480425752 -0.01945154541894329 0.059864943358548244
0.010634553480132092 -0.020031167235057552 0.06010361003816666
0.010859544534379989 -0.020662837618243453 0.061108155608567014
0.0009437322504814013 0.0021781183270404916 0.06051240816624564
0.0012422324334029622 0.0016801278329310922 0.05954989468149774
0.001543178706120277 0.0011865856708651774 0.05852192533882764
0.0018546324298370003 0.0007121518142495069 0.05721278307236102
0.002104747460187524 0.0001261705910245393 0.057545026500351315
0.002372527132182292 -0.00042768663102960925 0.05740457498651312
0.0026439728499703845 -0.0009748754111810315 0.057166011805717676
0.0029074305920724222 -0.0015365922707942297 0.057141212476643534
0.0031722784956495905 -0.0020957810548452934 0.057079213281823325
0.0034343626520666436 -0.002659996626724024 0.05709117552912249
0.0036964465934537444 -0.003224211809069374 0.057103138261918034
0.003944612611378444 -0.003813737405212288 0.05748753606324925
0.004182391992888668 -0.004422151599666977 0.058149873864418195
0.004355746725896306 -0.00514772511869823 0.06053617562078989
0.0046105541844891716 -0.005725172935280323 0.060742852556138024
0.004858720154702218 -0.0063146986181891775 0.061127251634203766
0.005364969152515139 -0.007475715728049345 0.06163067807064464
0.00562842694186853 -0.008037432696877607 0.06160587879429656
0.005882440099624201 -0.008616325182912131 0.061833812048479674
0.006158143093245933 -0.009155773463174678 0.06148133732290728
0.006422991000831897 -0.009714962264328542 0.06141933818545705
0.006704739935212517 -0.01024341578346045 0.06090507829900778
0.006982569901165094 -0.010778996159723095 0.06049568776110157
0.007273057086859741 -0.011291558870163336 0.0597475984691108
0.007535141036921687 -0.011855774036733059 0.05975956096977279
0.007818412952166863 -0.012381457868670523 0.05920454655850781
0.008081870720293437 -0.012943174680956845 0.05917974653303302
0.008331985660478679 -0.01352915567786387 0.05951198973950439
0.008598265840068734 -0.014085740579614276 0.059411668988392494
0.00885419621848306 -0.014661146312445915 0.059588297280220234
0.009110126614247082 -0.0152365520137263 0.05976492510778088
0.009372210564309027 -0.015800767180296025 0.059776887608442866
0.009632911587717691 -0.01636749726555609 0.059825856375469735
0.009893612834831152 -0.016934227724573904 0.059874824424866684
0.010154313814865583 -0.017500957888712098 0.05992379435256131
0.010425759919339351 -0.01804814752680841 0.059685231361440855
0.010685043247310611 -0.01861745575946643 0.059772136786103304
0.010952822884605994 -0.01917131304462308 0.059631686200799325
0.011172229778698025 -0.0198131384918628 0.06078566046118943
0.0012672536280133014 0.0030475244746635335 0.05989994552589929
0.0015060797474994716 0.002441012262454588 0.060534283800006944
0.0018462222463824975 0.002018750324499491 0.05845744756150977
0.002146861316766496 0.001524649500202329 0.057437698764266035
0.002388053573672147 0.0009224417839432705 0.058008710119702364
0.0026651162160813754 0.0003854660904515758 0.05761985202913135
0.00293020989540495 -0.00017327573857348977 0.05755127602655637
0.0032033740655529326 -0.000717339430385569 0.05726672811792707
0.0034684677795758924 -0.0012760811963081322 0.0571981511868179
0.003736362150388923 -0.0018297298330398966 0.05705463040317406
0.003998692117251769 -0.002393498386790126 0.05706001491418425
0.0042637858312747304 -0.002952240152712688 0.05699143798307508
0.004526115600457315 -0.0035160082853782854 0.05699682251531456
0.004785513618571994 -0.004085107948489548 0.0570806589023049
0.005029419384761417 -0.004682381017493119 0.0575790584188556
0.005178579611330227 -0.0054519534111588655 0.06061279028131137
0.00540481102004751 -0.006081368150033987 0.06158414472926718
0.005643636866462482 -0.006687879687972497 0.06221848240773275
0.008061578482701304 -0.011658184258134627 0.06074236748020142
0.008313053171598528 -0.012241692876841162 0.061038227282042834
0.008612422780150612 -0.01273810227858903 0.060052448502355915
0.008878899330661574 -0.013294328899503311 0.05994686508336295
0.009141229297524419 -0.01385809745325354 0.05995224959437314
0.009406323020222226 -0.014416839203400478 0.059883672431130415
0.009665721029662058 -0.014985938882287365 0.05996750905025432
0.009930814752359863 -0.015544680632434303 0.05989893188701159
0.010190212787824234 -0.016113780263994314 0.05998276780973484
0.010439560690997163 -0.016701157325495417 0.06033554435757803
0.010706037379385063 -0.017257384085961697 0.06022995988336944
0.010957512048763881 -0.017840892740163393 0.06052582020751135
0.01121840967455249 -0.01840726529453147 0.06056952801581487
0.011482129648584437 -0.018968505272756807 0.06053771152164052
0.01172462804023489 -0.019568337720107715 0.061073771514934996
0.0020696038499958672 0.002706046766253001 0.0605246572423967
0.0023668948981356505 0.002205857402337593 0.05959449946046155
0.002676976399959469 0.0017289280941536372 0.0583220770075584
0.002950542073012883 0.0011855929935512368 0.05802679566535925
0.003226245072056395 0.0006461447231484556 0.057674320794703395
0.003504075021973786 0.00011056441529701385 0.057264930027317286
0.0037755207397618786 -0.00043662436485440844 0.05702636684652184
0.0040376046811489786 -0.001000839547199759 0.057038329579317384
0.004302452584726146 -0.0015600283312508228 0.056976330384497176
0.004570232437051481 -0.002113886005940854 0.05683587931369682
0.00482230180618348 -0.0026963131700137232 0.057115825838346124
0.005085759582984903 -0.0032580299665244186 0.05709102558073779
0.0053572056961335175 -0.003805219588845104 0.05685246235748378
0.005613136048523306 -0.0043806253690036176 0.05702909134571217
0.00584224412303426 -0.005004808752655971 0.057923467986963205
0.009910768830809276 -0.014259241417350833 0.06145494461575495
0.010172852825329811 -0.014823456503070478 0.0614669059267325
0.01044063248648102 -0.015377313744844159 0.06132645470306125
0.010688798456694067 -0.015966839427753014 0.061710853781126986
0.010949499679850042 -0.016533569930338672 0.06175982247161151
0.002354760927268314 0.0035056861568613677 0.06093878837068413
0.0026425481787603067 0.0029882121200966545 0.06026295687676313
0.0029514531372000345 0.0025091432111322685 0.059022018000923236
0.003234166357641749 0.0019824433658002525 0.05848195391884921
0.0035168795867583096 0.0014557435362438638 0.05794188960464164
0.0037881268724288893 0.0009081923365832131 0.057708646882366724
0.004059374175449161 0.00036064116847381376 0.0574754036958247
0.004330621048409526 -0.00018690922056882522 0.05724216148027543
0.004597097706435463 -0.000743136036249798 0.057136577818534276
0.004862191420458423 -0.0013018778021723601 0.0570680008874251
0.005125911548796398 -0.0018631182803604558 0.05703618553268923
0.00537738622251264 -0.0024466269266743357 0.057332045740764365
0.005654448847572175 -0.002983602651717282 0.056943188114460454
0.0059334605197569204 -0.0035170339407397787 0.0565021751862814
0.006172286261232262 -0.004123545279228209 0.05713651303858052
0.00643737997525522 -0.004682287045150772 0.05706793610747134
0.0066982776487554884 -0.005248659512752909 0.057111642639040325
0.006931756990427109 -0.005864893926937322 0.05788904949487965
0.0031767148166702355 0.0031998583764403675 0.061038923659542256
0.003488168609785729 0.002725424646029701 0.05972977953600723
0.003812522680139879 0.002274450690771252 0.05807543193075397
0.004068453049879359 0.0016990449421639907 0.05825206045471527
0.0043502019483777615 0.0011705914309575178 0.05773780103452335
0.004621648078876068 0.0006234018401880837 0.057499237347002234
0.004895213391268346 8.006764485744724e-05 0.05720395511872744
0.005161493373178139 -0.00047651683580832876 0.057103634388844825
0.005426341242055922 -0.001035705682961895 0.05704163612255882
0.0056897991644885276 -0.0015974229952109762 0.0570168372365225
0.00594908246643525 -0.002166731275195872 0.0571037433575856
0.006208365785731664 -0.002736039523629518 0.0571906490143816
0.006470449744468459 -0.0033002546744236166 0.057202611282910036
0.006732533737904637 -0.0038644697621152127 0.057214572622904275
0.007008236719598456 -0.004403918064069245 0.05686209821651551
0.007268937699632888 -0.004970648228207437 0.05691106814421014
0.007500749163298761 -0.0055899157588336365 0.05773310638928349
0.003460567734894134 0.003997126091039324 0.06148795328155539
0.003735676394845602 0.003456595425235953 0.06115139309646776
0.004042302106809166 0.0029733815968362646 0.059971445453971935
0.004348927844797268 0.002490167815763453 0.05879149711507543
0.0046168221809109134 0.0019365191159291869 0.05864797725996581
0.004914891796509404 0.0014377456144161293 0.057696985491866935
0.005182786167322434 0.000884096977684364 0.0575534647082231
0.005454033074982185 0.00033654665174422777 0.05732022156413963
0.005719126789005145 -0.0002221951141783353 0.057251644633030466
0.006014493096939156 -0.0007258847108111124 0.056372991714761726
0.006247972537450906 -0.0013421193355378416 0.057150398559986416
0.006513066268823559 -0.0019008610699091527 0.05708182116461014
0.006788174572451313 -0.002441390822552945 0.056745259977380114
0.00703752226059429 -0.0030287674945206683 0.057098037010719666
0.007303998901270535 -0.0035849943417528914 0.056992453813245615
0.00756632867045312 -0.004148762474418489 0.05699783834548508
0.007819940704858844 -0.004728384227430246 0.057236504096569295
0.008093105351857786 -0.005272449003505156 0.05695195659913389
0.008352503369972463 -0.005841548666616418 0.05703579298612425
0.008603978110458462 -0.0064250573866502046 0.05733165272462496
0.0040034990375483175 0.004224711169686926 0.06202938585388789
0.004590955947514908 0.0032113733864022427 0.060359746428966056
0.004889456139111315 0.0027133829080684684 0.059397232712084594
0.005189174157685528 0.0022176071067176086 0.05840213069457272
0.005460620253484449 0.0016704174528456718 0.05816356793558582
0.005742369221381621 0.0011419640678442039 0.05764930665832548
0.005996381915922657 0.0005630724957268958 0.057877240453558264
0.006284733847207068 4.662691749866496e-05 0.05718628793867843
0.006552513501852144 -0.0005072303361067339 0.05704583688910733
0.006815971406935057 -0.0010689476799070664 0.057021038467338116
0.007076672473717953 -0.0016356776862890012 0.05707000607369724
0.007340130163770912 -0.0021973946405559534 0.05704520813742441
0.007637421263959774 -0.0026975839098176075 0.056115048962687944
0.00787362765293348 -0.0033088586669206893 0.05681947907631479
0.00813432863296791 -0.0038755888310588816 0.056868449004009405
0.008390259037406776 -0.004450994516563641 0.0570450765994365
0.008658038790891982 -0.005004851980711357 0.056904625539250776
0.008922886659769763 -0.0055640408278649234 0.05684262727296478
0.00916735115283302 -0.006160298020296352 0.0573260769192843
0.00939779279149259 -0.006782056448493244 0.05818476952156719
0.004871554741295064 0.004002721686678216 0.06089586636879102
0.005136648420618638 0.0034439798576531505 0.06082729036621606
0.005438529121758791 0.002952136998655693 0.05977431629387914
0.005732486582598662 0.0024458853457631265 0.058933363257024404
0.00601862261113486 0.0019254100417181107 0.05830170693630235
0.0063013358402514204 0.00139871021216172 0.057761642622094767
0.006574500027749096 0.0008546465519008923 0.05747709424919836
0.00684239436386274 0.0003009978520666244 0.05733357439408874
0.007110288699976386 -0.0002526508477676427 0.0571900545389791
0.007375382629029299 -0.000811393003223586 0.05712147712237355
0.0076418592697055435 -0.0013676198504558091 0.057015893924899495
0.007918921929464464 -0.0019045955123962526 0.056627035370061383
0.008166181131002218 -0.0024957701977911706 0.057035699019967946
0.008402871663149968 -0.0031061645172265626 0.05772717376013744
0.00870351069883458 -0.0036002654046262267 0.05670742589142791
0.008959242275795413 -0.0041760326674709514 0.056889373987834085
0.009232406922794353 -0.004720097443545861 0.056604826490398684
0.009476312706333472 -0.005317370480998181 0.05710322554268228
0.009740032634362171 -0.005878610738026556 0.057071411596669674
0.010000930374632197 -0.0064449832793486 0.05711511765866424
0.010252405048348437 -0.00702849192566248 0.05741097786673937
0.005689712732367978 0.0036899923990555998 0.061097567907228444
0.00598700383255684 0.0031898031297939457 0.060167408732491975
0.006280702236460562 0.0026830803693925057 0.05933338789985794
0.006570143450849765 0.0021686157049262624 0.05861328683930003
0.006859584682588661 0.0016541510720112702 0.057893185314475015
0.0071310304003767535 0.0011069622918598479 0.05765462213367957
0.007412779298875155 0.0005785087806533748 0.057140362713487644
0.0076720626355212635 9.200563770981403e-06 0.05722726790601653
0.007939842487846599 -0.0005446571109190499 0.05708681683521617
0.008204690339374689 -0.0011038459896238677 0.05702481903319728
0.00847097037333356 -0.0016604303756358896 0.056924496910513364
0.008735818276910726 -0.002219619159686954 0.056862497715693155
0.008999275966963687 -0.0027813361139539055 0.05683769977942032
0.009262733657016646 -0.0033430530682208577 0.056812901843147474
0.009523434741149235 -0.0039097830430515415 0.0568618689852395
0.00978413585472318 -0.004476513354629547 0.05691083797378528
0.010046219813459975 -0.005040728505423645 0.05692280024231373
0.010302150215269826 -0.005616134390853317 0.057099429225234796
0.010579980249306668 -0.006151714740873414 0.05669003752400718
0.010801690883303494 -0.006789350726198801 0.0577823651219732
0.011049856907405705 -0.00737887633550061 0.058166762922640995
0.006273893080173226 0.003992590967695774 0.06053519911505045
0.006540369703499777 0.0034363640889122984 0.06042961638184349
0.006844661552154642 0.0029489060177381983 0.0593121214855261
0.007130797606715378 0.0024284307610200596 0.058680464468403394
0.00742753365553624 0.0019272321041266282 0.05776515812676664
0.007689863098757075 0.001363464939835299 0.05777054084439626
0.00797430817419627 0.0008399145561842598 0.05718413338815276
0.008238028156903063 0.0002786745937345505 0.05715231666184486
0.008501748250541653 -0.00028256594755604776 0.05712050223564319
0.008764078054423625 -0.0008463340171191418 0.05712588583934846
0.009031972442586347 -0.001399982622299656 0.05698236459143753
0.009298449100612284 -0.0019562094379806287 0.05687678092969636
0.009557847101377269 -0.0025253091326431416 0.05696061778095382
0.009829094387047849 -0.0030728603323037923 0.05672737505867889
0.01009698875786088 -0.0036265089690355567 0.05658385427503507
0.01034424811028784 -0.004217683770319037 0.05699251652152569
0.010612142446401487 -0.004771332470153304 0.05684899666641607
0.010871540513936228 -0.005340432238535724 0.0569328330480991
0.011127272122967432 -0.005916199638202859 0.05711478160346505
0.011359557863090244 -0.006534604283973537 0.057924125868073634
0.011648956177866975 -0.0070491469878431546 0.05720517293939343
0.01189438490126208 -0.007643650559035034 0.057662819552082786
0.012126670718144002 -0.008262055162787538 0.05847216242123641
0.00709494582588269 0.003685125975242178 0.06065943791752387
0.0073832977484922565 0.003168680381238323 0.05996848563477758
0.007678189672454351 0.0026641280945167147 0.05910252693972182
0.007966541603738763 0.0021476825162884835 0.05841157442484196
0.008253746047381876 0.0016291517376981774 0.057751317436079745
0.008525192177880182 0.0010819621469287432 0.057512753748558645
0.008796638273679103 0.0005347724930568073 0.05727419098957173
0.009062918453269158 -2.181240869360019e-05 0.05717387023845984
0.009330698125263926 -0.0005756696307477479 0.057033418724621664
0.009598477779909 -0.0011295268843531476 0.05689296767505058
0.009859178759943433 -0.0016962570484913397 0.0569419376027452
0.010139097231165432 -0.002228039279813083 0.0564766592902579
0.010387263249090133 -0.0028175648759559977 0.056861057091589104
0.0106521111526673 -0.0033767536600070613 0.05679905789676891
0.010918391233417223 -0.003933338351215153 0.05669873715627165
0.011172404358018166 -0.004512230702399221 0.05692666998051168
0.01143448834882533 -0.005076445990015729 0.0569386327079999
0.01168655780207678 -0.005658873196257254 0.057218578298807686
0.011950015526829123 -0.006220590087421703 0.05719377943400064
0.012209298834953355 -0.006789898380565494 0.05728068555440032
0.012469999850870005 -0.00735662855262912 0.05732965501583761
0.012711041502453899 -0.007959110249487596 0.057904697135592376
0.007331907245799914 0.004397117539308363 0.062363268545762136
0.0076109189483466195 0.0038636863055005553 0.06192225480511565
0.007936673993371857 0.0034152600901216183 0.06023041797964557
0.00824444475902731 0.00293412859698124 0.059019829404875046
0.008535416025463665 0.002422446405816409 0.05825878509293456
0.008818128876569397 0.0018957474499805332 0.05771872035691845
0.009079026550069662 0.0013293749823783956 0.05776242688848744
0.009358038187555023 0.0007959436302533973 0.05732141488884259
0.009637050040070335 0.0002625118885950179 0.05688040240370137
0.009890662057126368 -0.0003171098959679902 0.057119068619052686
0.010158556410589704 -0.0008707585642510069 0.056975548299675965
0.010419454101439664 -0.0014371310003018932 0.05701925436697784
0.010694562405067418 -0.001977660752945685 0.056682693179747806
0.010953960423182096 -0.002546760416056947 0.056766529566738146
0.011217680388539196 -0.003108000410057908 0.05673471330469736
0.011481400383337656 -0.0036692407408061905 0.05670289888911033
0.011737131942948795 -0.0042450080352021665 0.0568848474497836
0.01199286356932969 -0.004820775403318049 0.05706679554088245
0.01225795735012241 -0.005379517242960519 0.056998218140198856
0.012517355350887393 -0.0059486169376230325 0.057082054991456306
0.012773086934025735 -0.006524384213626652 0.05726400308719906
0.013038180631881835 -0.0070831260821284025 0.057195427082633844
0.013285439858129619 -0.0076743008201588985 0.05760409072988676
0.013544837960363747 -0.008243400525438817 0.05768792618303558
0.013787336319483525 -0.008843233031948318 0.05822398704683087
0.008476609153742487 0.00363739653979824 0.060852025476041446
0.008796609275346078 0.003178504719146457 0.0593141868604874
0.009095109458267638 0.0026805142250370573 0.05835167337573949
0.009368674718610838 0.002137179935052667 0.058056392540266
0.0096623731485391 0.0016304572219781027 0.05722237101123131
0.00991053914911411 0.0010409315942839377 0.05760676927682961
0.010190457783316984 0.0005091488787750593 0.05714149187164723
0.010456737851975241 -4.743544413445943e-05 0.05704116882042911
0.01072451747192093 -0.0006012927608423616 0.056900718699392235
0.010986601465357109 -0.0011655078485339582 0.056912680039386467
0.0112543810853028 -0.0017193651652418597 0.05677222991834959
0.011519228954180581 -0.002278554012395427 0.056710231652063584
0.011779929968914398 -0.0028452841134311156 0.056759200651224015
0.01203199947158591 -0.003427711424943799 0.05703914623672447
0.012303445584734524 -0.003974901047264483 0.056800583013470476
0.012555515037985973 -0.004557328253506008 0.057080528604278265
0.012823294655302651 -0.005111185770138822 0.05694007987073536
0.013079225059741517 -0.005686591455643581 0.05711670746616245
0.013344072969496192 -0.0062457802528535404 0.057054708270678836
0.013594188001029548 -0.006831761547106444 0.05738695216094598
0.013853471362385688 -0.007401069816624417 0.057473857350821216
0.01411417242653957 -0.007967800022931265 0.057522826344674316
0.014358636887532455 -0.008564057078540284 0.05800627553203405
0.01458644488017264 -0.009190604723657991 0.058935441564242026
0.009076130409706822 0.003967893315115391 0.05987914289059601
0.009342607102432144 0.0034116665625369214 0.059773558300320655
0.009650377816038518 0.002930534974742789 0.058562971118351424
0.009927440080436918 0.0023935601549716088 0.05817411260597186
0.010213576126322808 0.0018730848824778444 0.05754245582098271
0.01048147051448553 0.0013194362772973312 0.05739893457307177
0.010745190642823506 0.0007581957991092355 0.0573671192183359
0.011013084978937151 0.00020454709927496847 0.057223599363226275
0.011280979367099873 -0.00034910150590554564 0.057080078115315354
0.011558041974809717 -0.000886077262499743 0.056691220953278526
0.011821761905467434 -0.0014473173196032061 0.05665940561977194
0.012067190714428168 -0.002041820662010893 0.057117049448848926
0.012346202369263221 -0.0025752519825846397 0.056676036984936985
0.01260560048621803 -0.0031443518562382184 0.0567598733613127
0.01287207717894335 -0.0037005786088166875 0.05665428877103734
0.013117505933225995 -0.00429508224580304 0.05711193538040962
0.013388753268316641 -0.004842633550734848 0.056878692652827384
0.013642365285372672 -0.005422255335297856 0.057117358868178696
0.01393632273504036 -0.00592850703290057 0.05627640629492764
0.01416500026076077 -0.0065534734634332655 0.05718230465083747
0.014404973101877227 -0.007157898843577188 0.057785947481090956
0.014683984823482038 -0.0076913302378708425 0.05734493454760459
0.014935459479848586 -0.008274838915735973 0.057640795219946826
0.015191191056809418 -0.0088506061785807 0.057822743316352995
0.015436619813721075 -0.00944510961564214 0.05828038853823129
0.009895002501003582 0.0036564624127457443 0.06006174031435788
0.010191091414962583 0.00315408690995423 0.059163750903460155
0.010477076452805857 0.0026333385832171424 0.05853612446363456
0.01077196835074341 0.0021287862491686568 0.05767016646497945
0.0110368162022715 0.0015695973704638391 0.05760816866296055
0.01131038210770456 0.0010262619118793083 0.05731288637099792
0.011566312460094349 0.0004508561317207948 0.05748951535922631
0.011844142444711124 -8.472411302814413e-05 0.05708012366330602
0.012119845426404945 -0.0006241724149821768 0.05672764925691724
0.012380546458488455 -0.0011909024844666142 0.05677661779181058
0.01263982977778487 -0.00176021073290026 0.05686352344860656
0.012906109759694664 -0.002316795213566035 0.05676320271872395
0.013160122983135734 -0.0028956877752924198 0.05699113553234933
0.013427902637780811 -0.0034495450288978186 0.05685068448277825
0.01368383309163974 -0.004024950819673736 0.05702731207289802
0.013948680992587895 -0.004584139803649713 0.056965314265571804
0.014198796057637804 -0.005170120963772177 0.05729755676502788
0.014463643915343402 -0.0057293098556358895 0.05723555896234557
0.014725727927312107 -0.006293524982804171 0.05724752030034956
0.014986428966755954 -0.006860255136475439 0.05729648929685633
0.01524571230077305 -0.007429563553282744 0.057383395876879205
0.01550164267051253 -0.008004969301890007 0.0575600244008405
0.015760926007158636 -0.0085742775187724 0.057646929593369395
0.016012995376290636 -0.00915670468284527 0.057926876118018694
0.01627227857939723 -0.009726012752287851 0.05801378224969643
0.016500086839116444 -0.010352560692285184 0.05894294640360673
0.010452155156846617 0.003909909849202052 0.06022261539991615
0.010747521534179395 0.003406220378774279 0.059343960624579015
0.011030234359260588 0.002879521375611526 0.058803896584963544
0.011324191837450153 0.0023732697542702096 0.057962943083841714
0.01160125446250969 0.0018362940292272643 0.05757408545753779
0.011872501893811453 0.001288742313828228 0.0573408441068349
0.012137595607834412 0.0007300005479056659 0.05727226717572573
0.012405490048046211 0.0001763520373789058 0.0571287445350135
0.012671966636673379 -0.0003798749045070722 0.057023162730340735
0.012937060368046031 -0.0009386166388783831 0.05695458533496447
0.013203537008722274 -0.001494843486110607 0.056849002137490404
0.013471431362185614 -0.0020484921543936227 0.056705481818113676
0.013732329151875701 -0.002614864800986825 0.05674918787480092
0.013996049117232803 -0.003176104794987786 0.05671737161276013
0.014249661149009513 -0.003755726747924455 0.056956038751338325
0.014511990967612166 -0.0043194949858612105 0.05696142327827048
0.014771389020426226 -0.00488859458586997 0.057045258736726626
0.015039283380067074 -0.00544224326731188 0.05690173841668648
0.015288631121441961 -0.006029619915653786 0.0572545145195016
0.015544362688413438 -0.0066053872942365924 0.057436463541788316
0.01581225709129684 -0.007159036067790767 0.05729294321710426
0.01607165512676121 -0.007728135699350777 0.05737677913982751
0.016331053179575276 -0.008297235299359537 0.05746061459828366
0.016582527870641208 -0.008880743914122167 0.05775647434209169
0.016844857540983665 -0.009444511836245447 0.057761858884945796
0.017081548270811674 -0.010054906576765471 0.05845333360388601
0.017346641984834633 -0.010613648342688034 0.05838475667277683
0.011289456474764346 0.0036319942372715296 0.059912041105595906
0.011579943193991287 0.003119432434832646 0.05916395244170489
0.011865928575146003 0.0025986831712725414 0.05853632735222204
0.012150607871436287 0.002075558729514132 0.05794365229011312
0.012430526540338546 0.0015437760771077566 0.05747837395639654
0.01269680652224834 0.0009871915964419814 0.057378053226513924
0.012964586176893415 0.00043333434283658167 0.05723760217694285
0.013226670170329594 -0.0001308807448550148 0.05724956351693707
0.013492950204288466 -0.0006874651308670359 0.057149241394253154
0.013764396300087387 -0.001234654784738973 0.05691067863526625
0.014020326652477176 -0.001810060564897486 0.05708730762349464
0.014288106423312073 -0.002363917997493951 0.056946856099041814
0.014544036810401248 -0.0029393237145499615 0.057123484158736006
0.014806120818558104 -0.003503538970615218 0.05713544642195713
0.01506013397522942 -0.004082431458621696 0.05736337970515694
0.015314147117180054 -0.004661323778254513 0.05759131206512986
0.015589850122401074 -0.005200772061816188 0.05723883719381058
0.015853307848336252 -0.005762489024008574 0.0572140387912804
0.0161140088877801 -0.006329219177679842 0.05726300778778717
0.016373292239146887 -0.0068985275629358965 0.05734991390354294
0.01663257554109361 -0.007467835842920791 0.05743682002460604
0.016893276590526814 -0.008034565880853979 0.05748578809523226
0.01714920696026629 -0.008609971629461241 0.057662416619193545
0.017409907841460594 -0.009176701583057117 0.05771138655750281
0.01766919137578696 -0.009746010221024143 0.05779829172880243
0.01792512174552644 -0.010321415969631405 0.05797492025276372
0.018169586206519327 -0.010917673025240425 0.05845836944012346
0.011867507139051804 0.0039234457080726485 0.05951369834315503
0.01213260046638909 0.003364704800094974 0.05944512122237086
0.01243323951074855 0.0028706039284709353 0.0584253731215278
0.012710302135808087 0.00233362820342799 0.05803651549522387
0.012993015562604907 0.001806927952786968 0.05749645115978702
0.01325949225533023 0.001250701200208499 0.057390866569511666
0.013525968896006473 0.000694474352976275 0.057285283372037615
0.013793863249469811 0.00014082568469325806 0.057141763052660874
0.014058956963492773 -0.00041791608122930405 0.05707318612155171
0.014325433621518707 -0.0009741428969102768 0.05696760245981054
0.01458776342540068 -0.001537910966473371 0.056972986063515814
0.014850093293423395 -0.002101679309681285 0.05697837058514064
0.01512134061379336 -0.002649230446239432 0.05674512693433152
0.015372815319579973 -0.0032327392293757216 0.05704098760136643
0.015632213421814103 -0.0038018389346556394 0.057124823054515265
0.015893111060614983 -0.004368211465360278 0.05716853051461845
0.016159587724818427 -0.004924438294200146 0.05706294685221388
0.01641898574411594 -0.005493538028339344 0.05714678370148108
0.016682705751532762 -0.006054778043424632 0.05711496697251953
0.016942103819067505 -0.006623877811807053 0.057198803354202556
0.017203001509917465 -0.007190250247857938 0.057242509421504446
0.017456613509623804 -0.007769872063972198 0.05748117610112286
0.01765943710335456 -0.008441855041206037 0.059078909275928924
0.01797655808341645 -0.008905982329059703 0.05761811208228713
0.01823888806762899 -0.009469750851258679 0.05762349612903022
0.018498286085743672 -0.010038850514369941 0.05770733251602057
0.018745545287281423 -0.01063002519976486 0.05811599616592714
0.018975431911901392 -0.011252792752566115 0.05898953928528156
0.012679910247405404 0.003600251925074097 0.05986939688404326
0.012974802171367497 0.0030956996383524884 0.0590034381889875
0.013264243420456087 0.0025812350369887483 0.058283336199895376
0.013551448422440595 0.0020627029320420447 0.05762308007597952
0.013819228025036594 0.0015088455837828922 0.05748263041920975
0.0140785113616827 0.0009395373669004977 0.05756953561173865
0.0143584298329047 0.0004077551355787536 0.05710425729925134
0.014620513791641494 -0.0001564600152153448 0.057116219567779784
0.014881214771675925 -0.0007231901793535367 0.0571651894954744
0.015144672548477348 -0.0012849069758642316 0.05714038923786606
0.015412452319312247 -0.0018387644084606964 0.05699993771341323
0.01565023168347278 -0.002447178634466635 0.05766227597884929
0.015931980648740934 -0.002975632219393014 0.057148016089082945
0.01619406469159718 -0.0035398474123557685 0.05715997742376987
0.01645752238165014 -0.004101564366622719 0.05713517948749702
0.01671822341991116 -0.004668294449266052 0.05718414802172693
0.016974153825532856 -0.005243700205798748 0.05736077607943088
0.01724043383215268 -0.005800284739100103 0.0572604553468946
0.01746697253599758 -0.0064291408421370076 0.05822358808344896
0.017760670931226456 -0.006935863618314073 0.057389567482948475
0.01801995425052287 -0.0075051718667477185 0.057476473139744466
0.018283411957925523 -0.00806688878946342 0.057451674739204525
0.018527876302728584 -0.008663145666081375 0.057935124401446006
0.018803579482102664 -0.009202594389120038 0.05758264997382796
0.019055648868584355 -0.009785021521641657 0.05786259603421017
0.01929503972424945 -0.010390505172772554 0.058481811778490905
0.01950579800907765 -0.01104805853228542 0.05986721750152804
0.013229418689380573 0.0038397979906344207 0.060234826429429594
0.013540570858088942 0.003364815741719801 0.05893375358944791
0.013828357675183606 0.0028473424761340364 0.058257923182586435
0.014112802983002446 0.002323791734500868 0.05767151477657945
0.014380697336465784 0.0017701430662178524 0.05752799445720272
0.014648591707278813 0.0012164944294860871 0.057384473673558895
0.01491506836530475 0.0006602676138051143 0.057278890011817726
0.015174466366069735 9.116791914260151e-05 0.057362726863075184
0.015436796152602014 -0.00047260018197174507 0.057368110931047545
0.01570804347297198 -0.001020151318529892 0.05713486728023843
0.01597037337569408 -0.0015839195986353033 0.05714025087332905
0.016234093306351796 -0.0021451596557387665 0.057108435539822464
0.016497813286429575 -0.0027063998181133878 0.05707662020100855
0.016761533266507356 -0.00326763998048801 0.05704480486219464
0.01702093128462203 -0.0038367396435992716 0.05712864124918499
0.017283261112031205 -0.0044005076947700094 0.05713402438795974
0.017486084750319025 -0.005072490664153656 0.05873175686437491
0.017804195645223238 -0.005534818232073842 0.05724447345147825
0.018069289426015957 -0.006093560071716312 0.05717589605079465
0.01832868744413063 -0.006662659734827573 0.057259732437785
0.01858441898639208 -0.0072384270607748005 0.05744168146272537
0.01884381702185645 -0.007807526692334812 0.057525517385448616
0.019106146692198907 -0.008371294614458093 0.05753090192830273
0.019368476659061752 -0.008935063168208322 0.05753628643931292
0.01960844954486695 -0.009539488369511661 0.05813992741515166
0.01985779725035962 -0.010126865009928133 0.058492703984224126
0.02009127649319111 -0.01074309921357023 0.059270110850678084
0.020356370215888916 -0.011301840963717167 0.05920153368743536
0.020538172625190906 -0.012012052757328483 0.06136178609236751
0.014050288951022501 0.00353200114211959 0.06036394839327283
0.014367377733471614 0.003067814911069303 0.05890401542222516
0.01465572987978598 0.0025513689433076924 0.058213062421848934
0.014939001838405387 0.0020256851902483567 0.05765804684991621
0.015203849707283166 0.0014664963430947894 0.05759604858363022
0.015465933700719345 0.000902281255403193 0.05760800992362444
0.015745852171941348 0.00037049902408144934 0.05714273161113714
0.015972390756967405 -0.0002583570998893024 0.05810586621006723
0.016243836904815408 -0.0008055466591074846 0.05786730205827903
0.01652558591950363 -0.0013340003493050225 0.05735304216320536
0.016793365574148705 -0.0018878576029104214 0.05721259111363428
0.01705682331362173 -0.0024495746624485304 0.05718779317205412
0.017321671266618963 -0.0030087635517707535 0.0571257939719266
0.017577601619008752 -0.0035841693319292665 0.05730242296015499
0.017838302709318847 -0.004150899319918845 0.0573513901015836
0.018111868366205403 -0.004694234523100435 0.057056109685928405
0.01837256942299894 -0.005260964645220452 0.05710507821816807
0.018628499876857874 -0.00583637043599637 0.057281705808287835
0.018871232387429968 -0.006435777126818247 0.05781150092328612
0.0191213474004308 -0.0070217583815944664 0.058143744815543505
0.019397050451523387 -0.007561206557343493 0.057791268552086335
0.01965298072242274 -0.00813661209540844 0.057967897086662265
0.019908911307192172 -0.008712018233549083 0.058144525125127175
