ply
format ascii 1.0
element vertex 753
property float x
property float y
property float z
end_header
-0.00245313997896005 -0.011939675336730493 0.08067712448665032
-0.0023355512889040655 -0.011386994128795208 0.08053275042206173
-0.0022382495563861154 -0.01084526056493759 0.08057766401146277
-0.0021206608167887876 -0.010292579330267835 0.0804332894846282
-0.001997689426174439 -0.009736994229451488 0.08023869047342004
-0.001893220373987826 -0.009191392896630669 0.08021672931716582
-0.001792388102341929 -0.008647754114324075 0.08022870117700513
-0.001687919000613972 -0.008102152754768787 0.08020673955850492
-0.0015976180793066336 -0.007564197105329582 0.08031697428477905
-0.0014931489280373324 -0.007018595719039828 0.08029501220403285
-0.0014149631938445133 -0.0064871779033894225 0.0805182878011351
-0.0013141309717399586 -0.005943539147817295 0.08053026012322038
-0.0012408143011087983 -0.0054147490775714804 0.08079896616337132
-0.001162628566915981 -0.0048833312619210745 0.08102224176047357
-0.001075927839866618 -0.004347318419591949 0.08116606813417543
-0.0010438374283382144 -0.00384077546185107 0.08181943658628972
-0.0010370697405237559 -0.0033478976466421637 0.08270907895751944
-0.0036270702240882493 -0.014626348366426112 0.0817728645456569
-0.0035601999682455853 -0.014101036830108809 0.08210171932320821
-0.00338186466030069 -0.013515574346305867 0.0813905483514719
-0.0032450627718021395 -0.012952524937138414 0.08106690535254402
-0.0031132107324032187 -0.012392146662175255 0.08078944696862875
-0.00297640884390467 -0.011829097253007802 0.08046580396970085
-0.0028784411518665183 -0.011287004311072737 0.0805045038173422
-0.0027515520900234505 -0.01072930425494772 0.08027335254362764
-0.0026500956469812332 -0.01018532864508689 0.08027950056620228
-0.002541526940740551 -0.009637515801987859 0.08021928594117587
-0.0024365583136384305 -0.00909164487879821 0.08019266349632916
-0.0022997565489932424 -0.008528595536466926 0.07986902165301625
-0.002238287798300478 -0.008006198865809193 0.08024827522673604
-0.002083393336566504 -0.007433385989061194 0.07975581929782849
-0.0020318768969805985 -0.006916359978816381 0.08022793300681794
-0.0019541961872511565 -0.006385214694326214 0.0804559207395719
-0.0018562283961303157 -0.0058431216989222115 0.08049461966272126
-0.0017654280153846747 -0.005304896727699669 0.08060019377614537
-0.0016985577719273465 -0.004779585198065982 0.08092904866925821
-0.0016316874789286734 -0.004254273641697828 0.08125790310012503
-0.0016049449068890028 -0.003750616589504755 0.08196116962043597
-0.0015190742450627015 -0.0032150516831762 0.08211274092574904
-0.001500935229229696 -0.0027160375530805255 0.08289628280979792
-0.004159290243884267 -0.014520600679632754 0.08164506286582937
-0.004095872895883099 -0.01399715246885408 0.08200613503347154
-0.0039299285717162135 -0.013418376649619713 0.08141057825600588
-0.0037614015705757517 -0.012838207115816697 0.08079092378599934
-0.003671100525415052 -0.012300251399541325 0.08090115735665848
-0.003505156263174848 -0.011721475613725043 0.08030560115700032
-0.0034006871366762193 -0.011175874240802523 0.08028363930737711
-0.0032962180101775906 -0.010630272867880004 0.08026167745775391
-0.003178629320121607 -0.010077591659944717 0.08011730339316533
-0.0030703518922144957 -0.009529936002146511 0.08005980654345424
-0.002976538836388597 -0.008990085066112954 0.08013727126455299
-0.0028589501463326134 -0.008437403858177669 0.0799928971999644
-0.0027616482404199593 -0.007895670200749412 0.08003780917150446
-0.002674947686765303 -0.007359657451990924 0.08018163716306731
-0.002596761903031139 -0.006828239609606051 0.08040491229792356
-0.002510061225523122 -0.0062922267940113946 0.08054873913387142
-0.002423360498473759 -0.005756213951682271 0.08069256550757328
-0.0023003891577585457 -0.005200628258985184 0.08049796816710555
-0.002312048657803976 -0.004717694482632972 0.08155954559331258
-0.002214746751891322 -0.004175960825204718 0.08160445756485263
-0.002182656340362919 -0.003669417867463839 0.08225782601696692
-0.002304012970936517 -0.0032456809982433226 0.08434293358307489
-0.004821511116438951 -0.014974232294328052 0.08177744705502307
-0.004704427351763655 -0.014421823564084071 0.08163778420159422
-0.00455382693558468 -0.013851327924028725 0.08118539390636811
-0.00444885843233592 -0.013305457067675244 0.08115877261713639
-0.004281684578701877 -0.012726017745746391 0.08055174370305719
-0.004164600764485238 -0.012173608988767943 0.08041208038738236
-0.00404751697503927 -0.011621200245156728 0.08027241730283051
-0.003946060457685034 -0.0110772245951942 0.08027856463203616
-0.0038289766930097377 -0.010524815864950219 0.0801389017786073
-0.0037204078221082966 -0.00997700210791602 0.08007868722408684
-0.0035698075458194074 -0.009406507368428605 0.07962629662723181
-0.003529050049507586 -0.00889528730919422 0.0801987967607475
-0.0034240815710294996 -0.008349416466207975 0.08017217570263875
-0.003297192533957105 -0.00779171642345019 0.07994102466004718
-0.0032195116756036308 -0.007260571058756621 0.08016901100606318
-0.0031180551830200676 -0.0067165954221613255 0.08017515856639182
-0.0030236178567151625 -0.006176407605104599 0.08024679852573391
-0.002925650214218355 -0.005634314689904 0.08028549883562125
-0.002869485401007156 -0.005114780439805319 0.08071424044771548
-0.002857439070576561 -0.004619054060415888 0.08155463039283917
-0.0027905687528072144 -0.0040937424906805 0.08188348459258299
-0.0026233949239438453 -0.0035143031821188797 0.0812764559096268
-0.0025757463504989496 -0.0029993644253112775 0.0817846587811437
-0.005226873656998869 -0.014310801594632617 0.08141878878330147
-0.005093072834511502 -0.013749371679294261 0.08112314725988608
-0.005002771913204161 -0.013211416029855058 0.08123338198616019
-0.004828672278725391 -0.012628239282858602 0.08056173200676418
-0.004711083588669407 -0.012075558074923318 0.08041735794217561
-0.004577282766182039 -0.011514128159584962 0.08012171641876022
-0.004469005247926183 -0.010966471627953294 0.08006422033292405
-0.004351416508328854 -0.010413790393283542 0.07991984580608948
-0.004283035996991788 -0.00988766386341247 0.08023460913010845
-0.004149235363935852 -0.009326234875376514 0.07993896776731012
-0.0040484031418312975 -0.008782596119804385 0.07995094008939542
-0.003930814451775314 -0.0082299149118691 0.07980656602480683
-0.003829982229670759 -0.007686276156296972 0.07981853834689213
-0.003780914767355613 -0.007170571710977026 0.08031350226204911
-0.0036633260772996274 -0.0066178905030417415 0.08016912819746053
-0.0035766253502502662 -0.006081877660712618 0.08031295457116239
-0.0034984396160574454 -0.005550459845062212 0.08053623016826462
-0.003453770425909465 -0.005037129087503561 0.08107223180279965
-0.003390353065522961 -0.004513680870041269 0.08143330385488033
-0.0033930520226322517 -0.004025911630578162 0.08241127484834972
-0.00336495634024217 -0.003521524386561779 0.08310191615941781
-0.005858942280279849 -0.014748161863929243 0.08126983711832242
-0.005764504854892255 -0.014207973993403582 0.08134147615317253
-0.005637615916902551 -0.013650274004114733 0.08111032603507294
-0.005491413830808237 -0.013082151876805824 0.08069897440134337
-0.00535956161801461 -0.01252177350827203 0.0804215143995671
-0.005232672580942217 -0.011964073465514247 0.08019036335697555
-0.00512410375958212 -0.011416259735214518 0.08013014926470108
-0.005015534789597988 -0.010868445924711386 0.08006993378568862
-0.004906965968237889 -0.010320632194411657 0.08000971969341415
-0.004801997440218459 -0.00977476132469094 0.07998309817305943
-0.004697029002547771 -0.009228891328803692 0.07995647588882977
-0.004588460156417 -0.008681077585136728 0.07989626156543231
-0.004497659759276841 -0.008142852398797628 0.0800018359276059
-0.004453585147948138 -0.00762984229319964 0.08054338568729731
-0.004290406011067082 -0.007052558678311666 0.07997362951661043
-0.004195968684762175 -0.00651237086125494 0.08004526947595252
-0.004105168238080672 -0.0059741456481813724 0.08015084337588012
-0.004014367791399167 -0.005435920435107805 0.08025641727580772
-0.003919930506259451 -0.00489573284653487 0.08032805721752333
-0.003943851043136899 -0.004419415610243357 0.0815040363667616
-0.003967771679097036 -0.003943098427420778 0.08268001644049185
-0.00386280316346294 -0.0033972275643836813 0.08265339503569862
-0.0040024659910965765 -0.002983369442602409 0.08490930875095287
-0.006305855290009928 -0.01410715360525333 0.08129886804964412
-0.0061667505959768585 -0.013542861511206948 0.0809537387013508
-0.006032949823030834 -0.01298143162260306 0.08065809764018139
-0.005928480721302877 -0.012435830263047773 0.0806361360216812
-0.005789376027269807 -0.01187153816900139 0.08029100667338789
-0.005655575204782439 -0.011310108253663036 0.07999536514997249
-0.005577389470589619 -0.01077869043801263 0.08021864074707474
-0.005459800780533633 -0.010226009230077346 0.08007426668248614
-0.005342212016165634 -0.009673327982040358 0.07992989192452858
-0.0052246235155410815 -0.009120647701407471 0.07978551802055704
-0.00512015436427178 -0.008575046315117718 0.07976355593981085
-0.005041968630078961 -0.008043628499467312 0.07998683153691309
-0.004924379940022976 -0.0074909472915320255 0.07984245747232449
-0.004834078919632948 -0.006952991588623886 0.07995269127410663
-0.004716490180035619 -0.0064003103539541336 0.07980831674727205
-0.004684399818048561 -0.005893767422947721 0.08046168566163234
-0.004616019133316789 -0.005367640799506015 0.08077644736779031
-0.004547638663144913 -0.004841514498118735 0.08109121067418279
-0.004537569527763696 -0.0043468550913215295 0.08195004885688352
-0.004360439028155172 -0.0037620427697138627 0.08125011936101027
-0.006843167639811664 -0.014004153940992383 0.0812185804043048
-0.006692567322715377 -0.013433658354405971 0.08076619103357068
-0.006565678285642983 -0.012875958311648188 0.08053503999097911
-0.00643382624624406 -0.01231558003668503 0.08025758160706382
-0.006325257251489258 -0.011767766212814664 0.08019736589692839
-0.006220288797781844 -0.011221895383195651 0.08017074506994265
-0.006098335961168734 -0.010666859109296404 0.07998565129359263
-0.005993367457919974 -0.010120988252942923 0.0799590300043609
-0.005871414695618882 -0.009565952019145375 0.07977393692137988
-0.005776977484433392 -0.009025765089289347 0.07984557634797004
-0.005672008906872614 -0.008479894192834165 0.07981895436536933
-0.0055740412148344645 -0.007937801250899098 0.07985765421301066
-0.005465472269621005 -0.0073899874537631995 0.0797974389651212
-0.00538779151035022 -0.0068588421425385656 0.0800254262356292
-0.005279222614678104 -0.006311028372137135 0.07996521144998574
-0.005201541855407318 -0.005779883060912501 0.0801931987204937
-0.005129243738419605 -0.005251642436198992 0.08047140878700833
-0.005077727364769562 -0.004734616667805203 0.0809435227094943
-0.005087909442846498 -0.004250885616167466 0.08199131503570076
-0.0051188908350437955 -0.003778378696468803 0.0832331755639555
-0.005157121955839597 -0.0033097840168488856 0.08454267975518433
-0.007467271693556896 -0.013947990510399605 0.08194810359405126
-0.007248081608269989 -0.013340481174062262 0.08085573672624038
-0.0071089769142369166 -0.012776189080015881 0.08051060737794707
-0.006986005358961808 -0.012220603065264367 0.08031600843724485
-0.006868416668905824 -0.011667921857329082 0.08017163437265627
-0.006750827978849841 -0.011115240649393798 0.08002726030806769
-0.006633239288793856 -0.010562559441458513 0.07988288624347908
-0.006524961696225984 -0.010014902869725143 0.07982538946427394
-0.006416684103658114 -0.00946724629799177 0.0797678926850688
-0.006315852095755664 -0.008923608483089276 0.07977986539889416
-0.006192880689104587 -0.008368022548541165 0.0795852678449299
-0.0060990676332786905 -0.007828171612507607 0.07966273256602865
-0.006012366881458656 -0.007292158756811247 0.07980655870860753
-0.005918553875174103 -0.006752307847512156 0.07988402389195229
-0.0058501732399836755 -0.0062261812508049175 0.08019878606035627
-0.00578179272864661 -0.005700054720933847 0.08051354938437523
-0.005781401915967824 -0.005210618119577841 0.08146269125088182
-0.0057179845472051655 -0.004687170103864872 0.08182376282309
-0.005752738240290399 -0.004216698866815889 0.08310082084135188
-0.005784426302607543 -0.003744573294243226 0.08434927496201099
-0.00808028085512991 -0.01437506562372171 0.08162131851063632
-0.007963197065683943 -0.013822656880110498 0.08148165542608447
-0.007788439670777446 -0.01323912517959094 0.0808038682066406
-0.007633545184272799 -0.012666312289475708 0.08031141204661003
-0.007516461370056157 -0.01211390353249726 0.08017174873093519
-0.007407892449613372 -0.011566089748728596 0.08011153371416875
-0.007290808635396733 -0.011013680991750149 0.07997187039849389
-0.007154006821210198 -0.010450631622684397 0.079648228092935
-0.007067014865368608 -0.009914461621788913 0.07978933715356755
-0.006976214393916434 -0.009376236395348111 0.07989491082237216
-0.0068542617962761 -0.00882120107548573 0.0797098176688852
-0.006752805402775225 -0.00827722549235937 0.07971596615370583
-0.006644236408020423 -0.007729411668489005 0.07965575044357037
-0.0065665555992082915 -0.007198266330529901 0.07988373725183236
-0.006465099205707418 -0.006654290747403541 0.079889885736653
-0.006374298759025914 -0.006116065534329973 0.0799954596365806
-0.006296617925443111 -0.0055849201830036384 0.08022344621371957
-0.006240453046296049 -0.005065385691053933 0.0806521876123173
-0.006240839281225815 -0.004576368621567749 0.0816085793273502
-0.006271820722964457 -0.004103861728603554 0.08285044031785095
-0.006278657524866633 -0.0036183254337284255 0.08386701951227653
-0.008513461046271332 -0.013726646427701591 0.08152221309735608
-0.008350172881276898 -0.013149303976934581 0.08095143963880028
-0.008198977869884123 -0.012578487469802013 0.08049350146716727
-0.008065177047396755 -0.012017057554463657 0.08019785994375189
-0.00794758835734077 -0.011464376346528372 0.0800534858791633
-0.007857287312180071 -0.010926420630253 0.08016371944982244
-0.007713534129044498 -0.010359620027767257 0.07977521732889138
-0.0075959453399058255 -0.009806938766363038 0.07963084233981081
-0.007522628578568131 -0.009278148440898963 0.07989954793534224
-0.007371433781377461 -0.008707332874436027 0.07944161015544929
-0.007270601559272907 -0.0081636941188639 0.07945358247753459
-0.007225932427042424 -0.007650363186290393 0.07998958505418809
-0.00710834363790375 -0.007097681924886172 0.0798452100651075
-0.007039963126566685 -0.006571555395015102 0.08015997338912648
-0.006942661319736719 -0.006029821791055783 0.08020488628515852
-0.006869344607940369 -0.005501031492326176 0.08047359234293593
-0.00686257685819923 -0.005008153643699186 0.08136323413635815
-0.006874236424180521 -0.0045252201091979995 0.08242481177606167
-0.006846140717019768 -0.004020832851814383 0.08311545285600677
-0.009153399663848955 -0.014168253698381898 0.08144669302736642
-0.009075718805495481 -0.013637108333688329 0.0816746793733824
-0.008860141522738665 -0.013031548608383011 0.08061602179460448
-0.008705247036234019 -0.012458735718267779 0.08012356563457392
-0.008607279245113177 -0.011916642722863776 0.08016226455772328
-0.008490195430896538 -0.011364233965885328 0.08002260124204845
-0.008373111666221244 -0.010811825235641347 0.0798829383886196
-0.00827514397418309 -0.010269732293706282 0.07992163823626093
-0.008100386628817938 -0.009686200619921193 0.07924385147906306
-0.00805631206703058 -0.009173190541057672 0.07978540170100047
-0.007958344440570501 -0.008631098459588836 0.07982410055364389
-0.007826492277318218 -0.008070720117789507 0.07954664101411363
-0.007748811443735414 -0.007539574766463173 0.0797746275912526
-0.007612009654319553 -0.006976525410764654 0.0794509855168167
-0.007555844775172493 -0.006456990918814949 0.07987972691541444
-0.007461407473638259 -0.005916803115125457 0.07995136710587952
-0.0074206499525557666 -0.005405583042523838 0.08052386700827222
-0.007414767011223094 -0.004913182671483848 0.08142176451512781
-0.007412003184548818 -0.004422465704257989 0.08234876454982454
-0.007321202737867315 -0.003884240491184422 0.08245433844975214
-0.009582237426752469 -0.01351749118752608 0.08130707094799179
-0.009431042415359697 -0.01294667468039351 0.08084913277635879
-0.009247819222151505 -0.012358574500521323 0.0800923553437855
-0.009150517316238851 -0.011816840843093068 0.08013726731532556
-0.009049685143675643 -0.011273202114255408 0.08014924009965686
-0.008941407551107772 -0.010725545542522039 0.08009174332045171
-0.008797654442284216 -0.010158744980137998 0.07970324189288965
-0.008669255112561412 -0.009600229923775598 0.07945799905008122
-0.00857544210627686 -0.009060379014476504 0.07953546423342597
-0.008481629215111723 -0.008520528992378111 0.0796129288840188
-0.008403443431377557 -0.007989111149993238 0.07983620401887505
-0.008280471925643794 -0.007433525161976193 0.07964160554041881
-0.008212091414306727 -0.00690739863210512 0.07995636886443777
-0.008118278308939486 -0.006367547669337094 0.08003383312329054
-0.008069210920936355 -0.005851843264118851 0.0805287977318165
-0.00805227661854511 -0.005353479141874855 0.08132358040717272
-0.00805497551372772 -0.0048657098689936645 0.08230155082283462
-0.007996507907367337 -0.004344932940699671 0.08270880620112492
-0.010202568477576793 -0.013948517409182494 0.08104860188363712
-0.010093999656216697 -0.013400703678882764 0.08098838779136265
-0.00993082051933564 -0.01282342006399479 0.08041863162067575
-0.009798968331312686 -0.01226304170882823 0.08014117185002248
-0.00969399987760527 -0.011717170879209217 0.08011455102303675
-0.009585431006703827 -0.01116935712217502 0.08005433646851629
-0.009468347192487188 -0.010616948365196572 0.07991467315284144
-0.009341458155414794 -0.010059248322438789 0.07968352211024987
-0.009219505343572356 -0.009504212061906776 0.07949842856502286
-0.009125068042038123 -0.008964024258217282 0.07957006875548796
-0.009030630855623304 -0.008423837341728488 0.07964170841320112
-0.008929174338269069 -0.007879861691765957 0.07964785574240676
-0.008834737011964165 -0.007339673874709232 0.07971949570174885
-0.00874029971042993 -0.006799486071019737 0.07979113589221394
-0.008555099272631017 -0.006210318891820856 0.07901590975981765
-0.008579019933361824 -0.005734001722365512 0.0801918900646709
-0.008585856732167666 -0.00524846542581948 0.0812084692302061
-0.008586242963088249 -0.004759448147900355 0.08216486130954999
-0.008454390828615821 -0.004199070027901201 0.08188740163683172
-0.0106317963073726 -0.013297965445612908 0.08091261999831444
-0.010497995484885232 -0.012736535530274552 0.08061697847489904
-0.010320864985276708 -0.012151723208666886 0.0799170489790258
-0.010280489923371895 -0.011640709526153266 0.08049311742048375
-0.010132868997948675 -0.01107182173706648 0.08006852729264025
-0.01005955223661098 -0.010543031411602406 0.08033723288817166
-0.009896264059231209 -0.009965688954151779 0.07976645931405436
-0.009773292603038788 -0.0094101029928692 0.07957186129784413
-0.009679479448130204 -0.008870252003366707 0.07964932509445091
-0.009589178691483624 -0.008332297267862667 0.07975955975021909
-0.009498877596781578 -0.007794341524852826 0.07986979285863222
-0.00939804554807173 -0.007250702862851334 0.0798817667985785
-0.00933957778907813 -0.006729925645920996 0.0802890211544418
-0.009252877062028769 -0.006193912803591872 0.08043284752814367
-0.009220786650500365 -0.005687369845850993 0.08108621598025796
-0.009223485657151002 -0.0051996006331223536 0.08206418743597335
-0.009174418231991863 -0.004683896207853259 0.0825591516978148
-0.011281748300735563 -0.01374497637103987 0.0809305303650744
-0.011149896162253953 -0.013184598042607775 0.08065307105666712
-0.011013094372838093 -0.012621548686909258 0.08032942898223122
-0.010881242184815136 -0.012061170331742697 0.08005196921157796
-0.0107797856674609 -0.011517194681780168 0.08005811654078361
-0.010674817213753487 -0.010971323852161156 0.08003149571379788
-0.010547928176681095 -0.010413623809403373 0.07980034467120631
-0.01043935918192629 -0.009865809985533007 0.07974012896107086
-0.010361678447426175 -0.009334664687675607 0.07996811646270183
-0.010224876534156954 -0.00877161526514092 0.07964447323265096
-0.01013043939728348 -0.008231428375386592 0.07971611335261011
-0.010068970671361388 -0.007709031718096094 0.08009536715745288
-0.009932168881945529 -0.007145982362397577 0.07977172508301698
-0.009865298564176183 -0.006620670792662188 0.08010057928276082
-0.009830550928336429 -0.006112693891662904 0.08072915447767641
-0.009635672192605752 -0.005518303920390056 0.07986362489259721
-0.00938662435656609 -0.0048946821616952475 0.07849266999191845
-0.00971047599434961 -0.004580219601462781 0.08246715918597695
-0.009793556845474642 -0.004135827815168898 0.08419513381913973
-0.011704198195885217 -0.013090766683215072 0.08073130582101333
-0.011565093452310802 -0.012526474562434222 0.08038617601047401
-0.011431292679364777 -0.011965044673830333 0.08009053494930463
-0.01131370384068476 -0.011412363385691645 0.07994615949797805
-0.01123551810649194 -0.01088094557004124 0.0801694350950803
-0.011087897181068722 -0.010312057780954455 0.07974484496723679
-0.01097961958850085 -0.009764401209221086 0.07968734818803164
-0.010889318667193509 -0.00922644555978188 0.07979758291430575
-0.010788486445088955 -0.008682806804209752 0.07980955523639106
-0.010684017483251087 -0.008137206345222397 0.07978759331626192
-0.010625549724257489 -0.00761642912829206 0.08019484767212522
-0.010524717650776968 -0.007072790452923335 0.08020682138094849
-0.010434416556074922 -0.006534834709913492 0.08031705448936163
-0.010375948797081324 -0.006014057492983157 0.08072430884522494
-0.010177107818948825 -0.005417529339112782 0.0798218095190018
-0.01035460825697641 -0.00502408988733492 0.08243076742487042
-0.012356755880618138 -0.013539183659848946 0.08077352754255197
-0.012239672165484187 -0.012986774956339434 0.08063386515136912
-0.012093469955536514 -0.012418652762194357 0.08022251236202456
-0.011976386265173233 -0.011866244072052078 0.08008285020196469
-0.011830184055225559 -0.011298121877907 0.07967149741262014
-0.011757886012549864 -0.010769881293295192 0.07994970817250377
-0.01164080224787457 -0.010217472563051212 0.07981004531907492
-0.011532233376973126 -0.009669658806017016 0.07974983076455446
-0.011437795951585531 -0.009129470935491355 0.07982146979940456
-0.011360115192314744 -0.008598325624266719 0.08004945706991254
-0.011228263218493895 -0.00803794820976979 0.07977199769099934
-0.011141271188340289 -0.007501778168772606 0.07991310605826289
-0.01107440094488296 -0.0069764666391389195 0.0802419609513757
-0.01097996346995402 -0.0064362787418787894 0.08031359952397982
-0.010928447228533493 -0.0059192528385718455 0.08078571508195326
-0.010919471532546752 -0.005425183494887297 0.08165475561152498
-0.010828671110635922 -0.004886958295180963 0.08176032974257558
-0.010968334021870575 -0.004473100218514105 0.08401624423786995
-0.012787923714741092 -0.012889678516448394 0.08065564581260123
-0.01265412294179507 -0.012328248627844507 0.08036000475143185
-0.0125203221193077 -0.011766818712506151 0.08006436322801645
-0.012451941484117272 -0.011240692115798912 0.08037912539642043
-0.012323542203935814 -0.01068217708617098 0.08013388301585803
-0.012219073077437187 -0.01013657571324846 0.08011192116623482
-0.012079968383404114 -0.009572283619202078 0.0797667918179415
-0.01197549930644683 -0.009026682273014026 0.07974483043056428
-0.011885198335598146 -0.00848872659684035 0.07985506469459241
-0.01175679924484812 -0.007930212494514817 0.07960982247464705
-0.011707731782532971 -0.0074145080491948715 0.08010478638980402
-0.01160689956042842 -0.006870869293622744 0.08011675871188932
-0.011557832172425288 -0.006355164888404498 0.08061172332041527
-0.011540897870034043 -0.005856800766160504 0.08140650599577151
-0.01157627640951641 -0.005386666720922872 0.0826893941493997
-0.01345402988710602 -0.013345406958157058 0.0808242839769637
-0.01332217774862441 -0.012785028629724965 0.08054682466855644
-0.013185375959208552 -0.012221979274026448 0.08022318259412053
-0.01307680698922442 -0.011674165463523315 0.08016296711510808
-0.012959723175007778 -0.011121756706544868 0.08002330379943323
-0.01284263936079114 -0.01056934794956642 0.0798836404837584
-0.012734070539431042 -0.01002153421926669 0.07982342639148392
-0.0126169867252144 -0.009469125462288243 0.07968376307580907
-0.012499902910997758 -0.008916716705309795 0.07954409976013423
-0.012373013873925367 -0.00835901666255201 0.07931294871754267
-0.012306143795128798 -0.00783370604685349 0.07964180354014956
-0.012215343373217965 -0.007295480847147155 0.07974737767120015
-0.012148473179301981 -0.006770169344247937 0.08007623302655896
-0.012092308201072231 -0.006250634798829296 0.0805049735006647
-0.012051550729531083 -0.005739414752962145 0.08107747386530338
-0.012039504473412501 -0.005243688413674414 0.08191786450379605
-0.012119341947802401 -0.00479754616683865 0.08361557718060598
-0.013703672186035184 -0.01210871775824448 0.07996546482900171
-0.013616971533297837 -0.011572704956017057 0.08010929189607258
-0.013499382843241852 -0.011020023748081772 0.07996491783148398
-0.013394913716743225 -0.010474422375159253 0.0799429559818608
-0.013286636124175355 -0.009926765803425882 0.07988545920265563
-0.013158236893535239 -0.009368250800532416 0.0796402172843392
-0.013035265437342817 -0.008812664839249838 0.07944561926812896
-0.012934433215238263 -0.00826902608367771 0.07945759159021427
-0.012840620324073126 -0.007729176061579317 0.07953505624080709
-0.012804437450719516 -0.007220424649693462 0.08015023993818508
-0.012726251716526697 -0.006689006834043056 0.08037351553528732
-0.012667783957533096 -0.006168229617112718 0.08078076989115061
-0.012650849717068532 -0.005669865528286806 0.08157555314431433
-0.012729089825250985 -0.005222861279513688 0.08325836158023932
-0.014402883846401057 -0.012582311064009036 0.08044299192249146
-0.014271031658378102 -0.012021932708842475 0.08016553215183819
-0.014153947918473478 -0.011469523991965729 0.08002586952953233
-0.014052491500201932 -0.010925548395472134 0.08003201778322998
-0.01395103500761837 -0.010381572758876838 0.08003816534355863
-0.013814233094349149 -0.009818523336342153 0.07971452211350774
-0.013705664223447706 -0.009270709579307956 0.07965430755898728
-0.013573812084966094 -0.008710331250875863 0.07937684825058
-0.013479374783431863 -0.008170143447186369 0.0794484884410451
-0.013401694089739145 -0.0076389989964279655 0.07967647471655516
-0.013345529210592084 -0.00711946450447826 0.08010521611515288
-0.013251091909057853 -0.0065792767007887675 0.08017685630561797
-0.013213431093551631 -0.006069727732905478 0.08077825004941247
-0.013146560850094302 -0.005544416203271791 0.0811071049425253
-0.013131461583865085 -0.00504704233906594 0.08191900944058189
-0.01484979334357964 -0.011941300744142298 0.08047198793229585
-0.014695281440106032 -0.01136869431095123 0.07998310146694554
-0.014636813681112432 -0.010847917094020894 0.08039035582280883
-0.014532344554613805 -0.010302315721098375 0.08036839397318564
-0.014409373098421387 -0.009746729759815796 0.08017379595697541
-0.01425486107109442 -0.009174123259788561 0.07968490833601011
-0.014154028898531209 -0.0086304845309509 0.0796968811203414
-0.014085648387194144 -0.008104358001079828 0.08001164444436037
-0.01399534748192353 -0.007566403185372387 0.08012187771339058
-0.013917161722960038 -0.0070349853563547475 0.08034515307936982
-0.01380888415516284 -0.006487328797988611 0.08028765653128767
-0.013776793793175781 -0.005980785866982197 0.08094102544564795
-0.013648394512994322 -0.005422270837354264 0.08069578306508553
-0.01370863392081611 -0.004965552699234859 0.08221063579177951
-0.015407414424340213 -0.01184926047375742 0.08058119109806004
-0.0152612123382459 -0.011281138346448514 0.08016983946433047
-0.015166774838546289 -0.01074095043582115 0.08024147780581159
-0.015075974540488818 -0.010202725302950985 0.08034705309247718
-0.014974518023134584 -0.009658749652988456 0.08035320042168283
-0.01485743428322996 -0.00910634093611171 0.08021353779937697
-0.014759466467338446 -0.008564247927340474 0.08025223649140333
-0.014661498824841641 -0.008022155012139872 0.08029093680129068
-0.014560042472148167 -0.007478180276112509 0.08029708405999039
-0.014458585979564603 -0.006934204639517215 0.08030323162031903
-0.014367785557653771 -0.00639597943981088 0.08040880575136962
-0.014266329040299536 -0.00585200378984835 0.08041495308057527
-0.014245159126368848 -0.005351353964215951 0.08117021534139868
-0.014207498323247962 -0.0048418050030162784 0.08177160920075469
-0.014192398957936059 -0.004344431085341493 0.08258351277431929
-0.0158661650211462 -0.011214640079238829 0.08072067060273679
-0.015714970009753425 -0.01064382357210626 0.08026273243110378
-0.015678787198326497 -0.010135072193638489 0.08087791670628927
-0.015581485403881868 -0.009593338596362787 0.08092282971788281
-0.015494784726373851 -0.00905732578076813 0.08106665655383066
-0.015285950491213462 -0.008455404870447566 0.08007091504602472
-0.015269016337446251 -0.00795704082840697 0.08086569910811893
-0.015146044946831902 -0.0074014557275906235 0.08067110009691077
-0.015037767379034702 -0.006853799169224487 0.08061360354882861
-0.014933298252536075 -0.006308197796301967 0.08059164169920541
-0.014846597698881418 -0.005772185047543477 0.08073546969076825
-0.014814507163499654 -0.005265642022966429 0.08138883698726757
-0.014727806572688988 -0.00472962925415709 0.08153266463214592
-0.014664389088449123 -0.0042061809698586295 0.0818937355286116
-0.014596008577112057 -0.003680054439987559 0.08220849885263055
-0.01453259123312007 -0.0031566064376418236 0.08256957065596174
-0.014459274496553046 -0.0026278161255449835 0.08283827648261616
-0.014461973366964986 -0.002140046839296559 0.08381624666715506
-0.014172689750729888 -0.0005162609597493149 0.08397544792440949
-0.014055101048288568 3.642025486958692e-05 0.08383107374425941
-0.013954268857304537 0.000580058930800134 0.08384304623431639
-0.013752087534616512 0.0016676153297129155 0.08386216806036767
-0.013683707046958375 0.002193741743671186 0.08417693140446376
-0.013347144185408276 0.003843041166312301 0.0838949928032181
-0.012761091084886846 0.007094652389397608 0.08414354795158113
-0.01629997287896616 -0.010566559928323796 0.08062742593472884
-0.016227674761978447 -0.010038319303610287 0.08090563600124348
-0.016133237448058876 -0.009498131493237177 0.08097727607614708
-0.01603526980556207 -0.008956038578036576 0.08101597638603442
-0.01596297167618902 -0.008427797946639452 0.08129418633698754
-0.015816769552938703 -0.007859675799279691 0.0808828343565735
-0.015699685890997486 -0.0073072679495527915 0.08074317085483121
-0.01557773312869639 -0.006752231715755245 0.08055807777185019
-0.015479765486199585 -0.006210138800554646 0.08059677808173751
-0.01537830896884535 -0.005666163150592114 0.08060292541094316
-0.01530601087662831 -0.0051379225392458394 0.0808811357085808
-0.01521157350078206 -0.004597734695454646 0.0809527752056769
-0.015110116983427825 -0.004053759045492117 0.08095892253488254
-0.015012149340931018 -0.0035116661302915173 0.08099762284476988
-0.014921348960185377 -0.0029734411590689744 0.081103196958194
-0.01488660127480428 -0.0024654642313352232 0.0817317716908636
-0.014778032317205484 -0.0019176504275157083 0.08167155632741264
-0.014772149375872812 -0.0014252500564757176 0.08256945383426824
-0.014677712030989902 -0.0008850622293935656 0.08264109362026809
-0.014579744297607666 -0.0003429693682823101 0.0826797928812887
-0.014412570437780957 0.0002364699569883525 0.08207276390942876
-0.01431460280782667 0.0007785628025727972 0.08211146421394554
-0.014209634225920633 0.0013244336610858552 0.08208484211234064
-0.014092550411703993 0.001876842418064303 0.0819451787966658
-0.014025680151673249 0.0024021538535069446 0.08227403333428088
-0.013947999450141066 0.0029332990304388328 0.08250202094266011
-0.013870318597980259 0.0034644443917905927 0.08273000734645684
-0.013753234855892148 0.004016852903576208 0.08259034430205926
-0.01365879750481657 0.004557040734000168 0.08266198403027836
-0.013581116677426435 0.005088186081984695 0.0828899706651981
-0.01349412467823617 0.005624356106272837 0.0830310793213654
-0.013296156123176073 0.006220413466173052 0.0821367201470774
-0.013164303972309128 0.006780791801288762 0.08185926072310863
-0.013055735183738065 0.007328605101355377 0.08179904613333519
-0.013004218830849512 0.007845631064814873 0.08227116065125514
-0.01302813946061698 0.008321948250979259 0.08344714066720464
-0.012801181798523336 0.00893364969129399 0.08228229915212965
-0.012857863267757466 0.009392287833693724 0.08376395449833744
-0.01684796699322836 -0.009980098862946492 0.08159959294424197
-0.016730378303172377 -0.009427417655011207 0.08145521887965339
-0.016640077245626342 -0.008889461932052218 0.08156545233475102
-0.01653560811912771 -0.008343860559129697 0.08154349048512781
-0.01641801942907173 -0.007791179351194411 0.08139911642053924
-0.016274266323899562 -0.007224379615858517 0.08101061342017177
-0.0161875657330889 -0.0066883668470491785 0.08115444106505011
-0.016039944782895006 -0.00611947904459516 0.0807298507060836
-0.015876656605515235 -0.0055421365871445305 0.0801590771319663
-0.015813239195587386 -0.005018688342947771 0.08052014872180098
-0.01570496167733153 -0.004471031811316102 0.08046265263596482
-0.015587372937734203 -0.00391835057664635 0.08031827810913023
-0.015490071081362893 -0.0033766169459525635 0.08036319054291628
-0.01540337049456141 -0.002840604385576165 0.08050701782348366
-0.015313069474171383 -0.0023026486826680254 0.08061725162526578
-0.015179268651684013 -0.0017412187673296693 0.0803216101018504
-0.015187985556889824 -0.00125669705050346 0.08135573161837803
-0.015044232311827572 -0.0006898964145996339 0.08096722891963949
-0.0149758518210731 -0.0001637699989704589 0.08128199223484521
-0.014828230846108535 0.00040511781685079336 0.08085740164475572
-0.014730929126133106 0.0009468513110922565 0.08090231522878619
-0.014622651566375985 0.0014945078248326527 0.08084481867726136
-0.014521819319500757 0.002038146593772014 0.08085679076822365
-0.014428006309028126 0.002577997402196443 0.08093425571163215
-0.014341305652102704 0.0031140101035492043 0.08107808253876679
-0.01426798889076501 0.0036428004290132783 0.0813467881342982
-0.014139589676519413 0.004201315216790187 0.08110154596723229
-0.014022000813068723 0.004753996518296108 0.08095717028478272
-0.013989910475852336 0.005260539435935286 0.08161053943026601
-0.01382938856328263 0.005836389107564856 0.08106557651677783
-0.013721111020256103 0.00638404565256376 0.08100808019981867
-0.013630810098948764 0.006922001302002965 0.08111831492609277
-0.013562429620400732 0.007448127401640921 0.08143307775261277
-0.013494049009980979 0.007974253984980926 0.08174784015213976
-0.013425668498643913 0.008500380514851996 0.08206260347615872
-0.01333185537287297 0.00904023190116952 0.08214006834807194
-0.013258538636305947 0.009569022213266361 0.08240877417472635
-0.013195121139680747 0.010092470504248439 0.08276984495563053
-0.017501652933717596 -0.009939898987589237 0.08260513021504816
-0.01732689555661502 -0.009356367296677381 0.08192734316172394
-0.017209811773361717 -0.008803958556407974 0.08178768013495284
-0.017063609643918724 -0.008235836405706408 0.08137632809675802
-0.01696215313894983 -0.0076918607624274936 0.08138247554152518
-0.01682535151419473 -0.007128812320664142 0.08105883339658335
-0.016708267699978088 -0.006576403563685694 0.0809191700809085
-0.01658631492529166 -0.0060213673232045305 0.08073407688236597
-0.016464362187761237 -0.005466331102774217 0.08054898403050795
-0.01633251004927963 -0.004905952774342123 0.08027152472210068
-0.016195708259863766 -0.004342903418643605 0.07994788264766478
-0.016078624445647127 -0.0037904946616651577 0.07980821933198994
-0.015956671609034016 -0.0032354583877659106 0.07962312555563991
-0.015848102853609783 -0.002687644899317206 0.07956291167686196
-0.015753665403451515 -0.0021474570154243113 0.07963455048058908
-0.015662864931999337 -0.0016092317889835096 0.07974012414939369
-0.01556489728950253 -0.0010671388737829098 0.07977882445928101
-0.015459928662400412 -0.0005212679505932607 0.0797522020144343
-0.015354960229275592 2.4602764783856557e-05 0.07972558117863532
-0.015264159757823416 0.000562827991224658 0.07983115484743994
-0.015197289526908606 0.0010881394512421896 0.08016000973518218
-0.015092321006929251 0.0016340102763371632 0.08013338821138478
-0.014990864514345687 0.0021779859129324587 0.08013953577171343
-0.014896427208623376 0.0027181736157472895 0.08021117572224228
-0.01480562680729514 0.0032563987012117278 0.08031674984447965
-0.014704170314711579 0.0038003743378070233 0.08032289740480829
-0.014613369933965937 0.004338599309029566 0.08042847151823239
-0.01451893260766103 0.004878787126086293 0.08050011147757449
-0.01439697977104792 0.005433823399985539 0.08031501770122448
-0.014330109527590592 0.005959134929619227 0.0806438725943373
-0.01423567215174434 0.00649932277341042 0.0807155120914334
-0.01415799134293221 0.007030468111369521 0.08094349889969538
-0.0141018265708862 0.007550002132984411 0.08137224049416313
-0.014024145712532726 0.008081147497677979 0.08160022684017912
-0.013967980858156337 0.00860068197626045 0.08202896846989984
-0.013890299917472482 0.0091318277979216 0.08225695485116878
-0.01381800192433813 0.009660068355798943 0.0825351660732984
-0.013740321090755327 0.010191213707125278 0.08276315265043738
-0.013684156230186269 0.010710748189049558 0.08319189422237735
-0.013624346817686192 0.011721475118626078 0.08453941861518607
-0.0179094111142822 -0.009277760407205026 0.08226881589512985
-0.01778643969834212 -0.008722174467644202 0.08207421825449449
-0.017647335007405382 -0.008157882375268724 0.08172908893509154
-0.01751893570245325 -0.007599367332273555 0.08148384632340613
-0.01739053659931789 -0.007040853223264404 0.08123860398789927
-0.017267565180281476 -0.006485267282032676 0.08104400631837352
-0.017144593625006366 -0.005929681267281163 0.08084940737767131
-0.01702700494733572 -0.005377000066029493 0.08070503342864421
-0.016858477946195258 -0.004796830532226478 0.08008537895863768
-0.01675400881969663 -0.004251229159303959 0.08006341710901449
-0.016579909259529877 -0.0036680524524092054 0.07939176782298747
-0.016521441599618963 -0.0031472752889478038 0.07979902310334275
-0.016328935861131474 -0.002554166087043456 0.07895563439032846
-0.016200536556179344 -0.0019956510440482886 0.07871039177864304
-0.016151469093864196 -0.0014799465987283432 0.07920535569380001
-0.016050636921300987 -0.0009363078698906833 0.0792173284781313
-0.0159603359504523 -0.00039835219371701057 0.07932756274215942
-0.01586303411466359 0.0001433813227348802 0.07937247516713222
-0.015762201991641724 0.000687020024838073 0.07938444841370954
-0.015758658058338072 0.0011781581118545737 0.08030416993525781
-0.015592713729825926 0.0017569338931468163 0.07970861303878798
-0.015495411873454618 0.0022986675238406027 0.07975352547257403
-0.015405110923188529 0.00283662308577238 0.0798637597277889
-0.015318410266263106 0.0033726357871251412 0.08000758655492354
-0.015221108459433143 0.003914369391084461 0.08005249945095558
-0.015116639374099704 0.004459970535523189 0.0800305375837059
-0.015029938696591687 0.0049959833511178465 0.08017436441965375
-0.01493612566553646 0.005535834273784171 0.08025182937187551
-0.014872708156525923 0.006059282571449866 0.08061290003721819
-0.014786007578100592 0.0065952953335755874 0.08075672779765804
-0.014712690692909538 0.0071240857258758295 0.08102543223757447
-0.014649273439624085 0.007647533473003306 0.08138650448552516
-0.014580892928287018 0.008173660002874377 0.08170126780954413
-0.014507576154563988 0.008702450335022068 0.08196997328951405
-0.014449108350396016 0.009223227988869136 0.0823772280273148
-0.014408733276105867 0.009734241678066375 0.08295329635321126
-0.01430790106638665 0.010277880426954884 0.08296526879085805
-0.014297831907782926 0.010772539846283872 0.08382410675688097
-0.01850630370533428 -0.009206912595879514 0.08274444226840419
-0.01836950177503522 -0.008643863164154855 0.08242079887945625
-0.018180999943855393 -0.008052914422608496 0.08161476906411248
-0.018063916160602093 -0.007500505682339089 0.0814751060373414
-0.017946832511046215 -0.006948097839295807 0.08133544265116062
-0.017838263664915442 -0.006400284095628844 0.08127522832776314
-0.01769206154166512 -0.005832161948269085 0.08086387634734907
-0.017574977776989825 -0.005279753218025103 0.08072421349392021
-0.017380099041259152 -0.0046853632467522555 0.07985868390884103
-0.017216919854836747 -0.004108079605129814 0.07928892727590814
-0.017085067716355137 -0.00354770127669772 0.07901146796750087
-0.01696311487974203 -0.002992665002798473 0.07882637419115085
-0.016841162232918143 -0.0024376290375864185 0.07864128178391233
-0.01675417022753521 -0.0019014590099564678 0.0787823903822989
-0.016656202485955715 -0.001359366041286933 0.07882108976769425
-0.01656921048057278 -0.0008231960136569822 0.0789621983660808
-0.016474773154267874 -0.00028300819660025556 0.07903383832542289
-0.016380335699921533 0.00025717958641797707 0.07910547688921377
-0.016289535302781374 0.0007954047727570775 0.07921105125138737
-0.01622806671325516 0.0013178012935952527 0.07959030620647457
-0.016119497726540432 0.0018656150728398773 0.07953009049289644
-0.016032505745928172 0.0024017850871025947 0.07967119932240599
-0.015941705295058593 0.0029400101993015005 0.07977677298239735
-0.015864024506829055 0.003471155423018706 0.0800047597818461
-0.01566302256003065 0.004068849720987968 0.07908209751653522
-0.015680005615929967 0.004548910489932054 0.08019334603052987
-0.015589205194019136 0.0050871356896383885 0.08029892016158047
-0.01551152443474835 0.005618281000863022 0.08052690743208846
-0.015433843576394874 0.0061494263655565914 0.08075489377810444
-0.015361545484177834 0.006677666976902866 0.08103310407574206
-0.015283864625824359 0.007208812341596435 0.08126109042175804
-0.015085896301718674 0.007804869164325666 0.08036673259895506
-0.015127820212641209 0.008271471068445108 0.08171069240426278
-0.015087062716329388 0.008782691127679492 0.08228319253777847
-0.01503089777962262 0.009302226063229545 0.08271193420275214
-0.014986823205449924 0.009815236148776682 0.08325348430912805
-0.014885366700481026 0.010359211792055595 0.0832596317538952
-0.014837718099169124 0.010874150563901334 0.08376783436539874
-0.018933055617550855 -0.008555024446490256 0.08258535773629387
-0.018789302460734125 -0.007988223858207199 0.082196855860931
-0.018650197769797386 -0.007423931765831719 0.08185172654152807
-0.018559896895490115 -0.006885976966833319 0.08196196009946202
-0.01843692545168303 -0.006330391012234358 0.08176736219881328
-0.01829782075764996 -0.005766098918187975 0.08142223285051996
-0.018169421489853836 -0.005207583895243657 0.08117699058551903
-0.01798619813563628 -0.00461948362848445 0.08042021165064628
-0.01779681152855949 -0.004028057426895586 0.07960592642521808
-0.017663010755613467 -0.003466627538291699 0.07931028536404869
-0.017529209933126098 -0.0029051976229533434 0.0790146438406333
-0.01739540917657459 -0.002343767949466013 0.07871900253071443
-0.01727782048651861 -0.0017910867415307282 0.07857462846612584
-0.017214403076590758 -0.0012676384973339676 0.07893570005596051
-0.01710612553356423 -0.0007199819523350652 0.07887820373900135
-0.017019424781744195 -0.00018396909663870656 0.07902202988158022
-0.016941239092904646 0.0003474485914025697 0.07924530570099221
-0.01684393728607468 0.0008891821953618891 0.07929021859702427
-0.016780519963001363 0.001412630329840793 0.07965129087485735
-0.016683218065128787 0.001954363942643306 0.07969620284295474
-0.01661483755379172 0.002480490472514377 0.0800109661669737
-0.016524536653066975 0.0030184460077116865 0.08012120088443457
-0.016461119139868363 0.0035418942045027193 0.08048227130984102
-0.016360287091158512 0.0040855328665042115 0.0804942452497873
-0.016315617826698513 0.004598863664164562 0.08103024619095334
-0.01620734030844266 0.005146520195796232 0.08097275010511717
-0.01611352725261676 0.005686371131829789 0.08105021482621594
-0.01605505949362316 0.006207148348760126 0.08145746918207923
-0.01595775771156387 0.006748881939352212 0.08150238230923428
-0.01587957197737105 0.007280299755002617 0.08172565790633651
-0.01580138632550861 0.007811717113685441 0.08194893346818578
-0.015728069440317557 0.008340507505985684 0.08221763790810223
-0.01566960179279198 0.008861284662763468 0.08262489330401901
-0.015611133951468003 0.009382062336661386 0.08303214769513527
-0.015552666195570736 0.009902839551920822 0.08343940207988894
-0.01552057581655384 0.010409382492117206 0.08409277083535216
-0.015452195278897934 0.010935509036190963 0.08440753391380296
-0.019517520475026882 -0.008477470801669551 0.08294503561143662
-0.01937131834945431 -0.007909348653056614 0.08253368360935477
-0.019254234564652844 -0.007356939911951754 0.0823940205681385
-0.01913715091896738 -0.006804532070997103 0.08225435721807069
-0.01904635049550838 -0.0062663068704553165 0.0823599313346761
-0.01889575017996026 -0.005695811284704356 0.08190754197838716
-0.01877866639670696 -0.0051434025444349486 0.08176787895161607
-0.01858694080033634 -0.0045507141317805595 0.08093176976390537
-0.018436340483240048 -0.0039802185451941465 0.08047938039317125
-0.018299538594741503 -0.0034171691360266945 0.08015573739424335
-0.018172649557669104 -0.0028594690932689116 0.07992458635165178
-0.018045760660844592 -0.0023017693324638537 0.07969343621592573
-0.017928676846627953 -0.001749360575485406 0.07955377290025088
-0.01782370829383785 -0.0012034896923974582 0.07952715114877316
-0.017729270917991598 -0.0006633018486062645 0.07959879064586926
-0.017562097064357556 -8.386252667741054e-05 0.07899176173179007
-0.01753011578822248 0.00042262143415721927 0.0796461482718905
-0.017432147972330968 0.000964714442928455 0.07968484696391687
-0.01733771065856858 0.0015049021903690268 0.07975648691788839
-0.01727084042315133 0.0020302136753769726 0.08008534180755854
-0.01718003995169915 0.0025684389018177742 0.08019091547636314
-0.017102359163469614 0.0030995841255349803 0.08041890227581187
-0.017011558712600034 0.0036378092377338856 0.08052447593580325
-0.016933877903787902 0.004168954575692987 0.08075246274406522
-0.016843077473500917 0.004707179573649998 0.08085803639524335
-0.016756085492888657 0.005243349587912715 0.08099914522475289
-0.016669093512276394 0.005779519602175431 0.08114025405426246
-0.01660762473681296 0.006301916286200398 0.08151950739685924
-0.016509657094316153 0.006844009201400998 0.08155820770674659
-0.016415219668928557 0.0073841970719266585 0.08162984674159668
-0.01635905489688255 0.007903731093541547 0.08205858833606443
-0.016329729660254637 0.008408781853619651 0.082737757279396
-0.016212645846037994 0.0089611906105981 0.08259809396372114
-0.016114678121210813 0.009503283982766281 0.08263679430886145
-0.016102631778394876 0.009999010368839331 0.08347718413842363
-0.01608146179634484 0.010499660231231623 0.08423244576365879
-0.01952833148534671 -0.005644222514138882 0.08271616224675853
-0.019367809628511017 -0.005068372872585585 0.08217119985329707
-0.01925953207619549 -0.00452071632257397 0.08211370344966681
-0.01909358777060661 -0.003941940513365029 0.0815181468455434
-0.0190445203206768 -0.0034262360747287007 0.08201311087626187
-0.018881232143297025 -0.0028488936172780736 0.08144233730214458
-0.018762388562614807 -0.0022955354270339547 0.08128625406668309
-0.01864354482929937 -0.001742176948153493 0.08113016980879463
-0.018469445269132616 -0.001159000241258739 0.08045852052276761
-0.01839612848302425 -0.0006302099024274319 0.08072722588717604
-0.01831577779208731 -9.762379055351612e-05 0.08093030133438811
-0.018207500244872707 0.0004500326535707246 0.08087280477749272
-0.018190565992022806 0.0009483967490802525 0.08166758791509494
-0.018036053977238356 0.0015210031794913332 0.08117870028875908
-0.017949353369697097 0.002057015917042165 0.08132252769907175
-0.017841075839055906 0.0026046724553574515 0.08126503149767408
