ply
format ascii 1.0
element vertex 631
property float x
property float y
property float z
property uchar red
property uchar green
property uchar blue
end_header
0.006619025849318087 0.007711383242660002 0.0021436039549195575 0 95 159
0.006619025849318087 0.008252883181566882 0.0031777626162703835 0 19 235
0.006619025849318087 0.008794383120473764 0.0024450568370543574 0 73 181
0.006619025849318087 0.009335883059380644 0.0031558903929766384 0 20 234
0.006619025849318087 0.009877382998287526 0.003425524910962974 0 0 254
0.006077525910411206 -0.00907511434703871 -0.0009525240512720951 109 145 0
0.006077525910411206 -0.00799211446922495 -0.0010132507914567617 116 138 0
0.006077525910411206 -0.00745061453031807 -0.001080846362024157 124 130 0
0.006077525910411206 -0.00690911459141119 -0.001017853594644587 116 138 0
0.006077525910411206 -0.006367614652504309 -0.0009548618600941848 109 145 0
0.006077525910411206 -0.005826115230012013 -0.0008567694262644738 98 156 0
0.006077525910411206 -0.0052846152911051325 -0.0006728540527079957 77 177 0
0.006077525910411206 -0.0047431153521982515 -0.0003893001000570979 44 210 0
0.006077525910411206 -0.004201615413291371 -0.00020538627574437208 23 231 0
0.006077525910411206 -0.0036601154743844903 2.8140014074643213e-05 0 252 2
0.006077525910411206 -0.0031186155354776097 0.00021205435480195313 0 239 15
0.006077525910411206 -0.002577115596570729 0.00039596921194384716 0 225 29
0.006077525910411206 -0.0020356156576638485 0.0004940616457735582 0 218 36
0.006077525910411206 -0.001494115718756968 0.0007776171476682082 0 197 57
0.006077525910411206 -0.0009526157798500874 0.0008757100979125033 0 190 64
0.006077525910411206 -0.00041111584094320676 0.0009387013160483213 0 185 69
0.006077525910411206 0.00013038409796367384 0.0008379230099668567 0 192 62
0.006077525910411206 0.0006718841659742004 0.0014175488047865343 0 149 105
0.006077525910411206 0.0012133841048810811 0.0018782680759655177 0 115 139
0.006077525910411206 0.0017548840437879617 0.001608634594842839 0 135 119
0.006077525910411206 0.0022963839524361754 0.0016055650265551207 0 135 119
0.006077525910411206 0.002837883889325811 0.001635035774038887 0 133 121
0.006077525910411206 0.0033793838605086033 0.0016645065215226535 0 131 123
0.006077525910411206 0.003920883799415484 0.0011367473418687352 0 170 84
0.006077525910411206 0.0044623837383223645 0.001716373653102997 0 127 127
0.006077525910411206 0.005003883548125599 0.0017458428513430113 0 125 129
0.006077525910411206 0.0055453834870324795 0.0018439368344164745 0 118 136
0.006077525910411206 0.006086883425939361 0.001873407581900241 0 115 139
0.006077525910411206 0.006628383364846241 0.001838182943120755 0 118 136
0.006077525910411206 0.007169883303753122 0.0018351144076622049 0 118 136
0.006077525910411206 0.007711383242660002 0.0017675193535093934 0 123 131
0.006077525910411206 0.008252883181566882 0.0017322957475590756 0 126 128
0.006077525910411206 0.008794383120473764 0.0017952874821094776 0 121 133
0.006077525910411206 0.009335883059380644 0.001979201306422204 0 108 146
0.006077525910411206 0.009877382998287526 0.0024728616310899106 0 71 183
0.006077525910411206 0.010418882937194406 0.003077984879583512 0 26 228
0.005536025971504326 -0.00907511434703871 -0.0008992595018272554 103 151 0
0.005536025971504326 -0.00799211446922495 -0.0009785312061404972 112 142 0
0.005536025971504326 -0.00745061453031807 -0.000975462670681947 112 142 0
0.005536025971504326 -0.00690911459141119 -0.0009723936188088128 111 143 0
0.005536025971504326 -0.006367614652504309 -0.0009047990810705855 103 151 0
0.005536025971504326 -0.005826115230012013 -0.0008372040269177741 96 158 0
0.005536025971504326 -0.0052846152911051325 -0.0007696094891795469 88 166 0
0.005536025971504326 -0.0047431153521982515 -0.0005454716164989432 62 192 0
0.005536025971504326 -0.004201615413291371 -9.783002824697513e-05 11 243 0
0.005536025971504326 -0.0036601154743844903 -3.0235490508747837e-05 3 251 0
0.005536025971504326 -0.0031186155354776097 0.00033076412448611656 0 230 24
0.005536025971504326 -0.002577115596570729 0.0005100240205671941 0 217 37
0.005536025971504326 -0.0020356156576638485 0.0008710246683912266 0 190 64
0.005536025971504326 -0.001494115718756968 0.0008740932038497767 0 190 64
0.005536025971504326 -0.0009526157798500874 0.0012350938516738092 0 163 91
0.005536025971504326 -0.00041111584094320676 0.0013358721577552738 0 155 99
0.005536025971504326 0.00013038409796367384 0.0014366509802513224 0 148 106
0.005536025971504326 0.0006718841659742004 0.001338556997177859 0 155 99
0.005536025971504326 0.0012133841048810811 0.0013416260490509934 0 155 99
0.005536025971504326 0.0017548840437879617 0.0011577122247382675 0 169 85
0.005536025971504326 0.0022963839524361754 0.0012253067624764947 0 164 90
0.005536025971504326 0.002837883889325811 0.0014045671749721564 0 150 104
0.005536025971504326 0.0033793838605086033 0.0016742011725094192 0 130 124
0.005536025971504326 0.003920883799415484 0.0014902873481966933 0 144 110
0.005536025971504326 0.0044623837383223645 0.001460817117127511 0 146 108
0.005536025971504326 0.005003883548125599 0.0013627231340540477 0 153 101
0.005536025971504326 0.0055453834870324795 0.0015419835465497094 0 140 114
0.005536025971504326 0.006086883425939361 0.0015772081853291954 0 137 117
0.005536025971504326 0.006628383364846241 0.0016124323076940974 0 135 119
0.005536025971504326 0.007169883303753122 0.001582962076624915 0 137 117
0.005536025971504326 0.007711383242660002 0.0016837403827063796 0 130 124
0.005536025971504326 0.008252883181566882 0.0013015150954770272 0 158 96
0.005536025971504326 0.008794383120473764 0.0015711496094288739 0 138 116
0.005536025971504326 0.009335883059380644 0.00160637424820836 0 135 119
0.005536025971504326 0.009877382998287526 0.0017856346607040216 0 122 132
0.005536025971504326 0.010418882937194406 0.002925125646283899 0 37 217
0.005536025971504326 0.010960382876101286 0.002928194181742449 0 37 217
0.005536025971504326 0.011501883331422751 0.0030289735206530818 0 30 224
0.005536025971504326 0.012043383270329631 0.003389973123544479 0 3 251
0.004994526032597445 -0.00907511434703871 -0.0006972412150261668 80 174 0
0.004994526032597445 -0.00799211446922495 -0.0011513854957207576 132 122 0
0.004994526032597445 -0.00745061453031807 -0.0009178592059017423 105 149 0
0.004994526032597445 -0.00690911459141119 -0.0009530838446812283 109 145 0
0.004994526032597445 -0.006367614652504309 -0.0008549898616077651 98 156 0
0.004994526032597445 -0.005826115230012013 -0.0006710750044658711 77 177 0
0.004994526032597445 -0.0052846152911051325 -0.0007062996432453571 81 173 0
0.004994526032597445 -0.0047431153521982515 -0.00047277335342634186 54 200 0
0.004994526032597445 -0.004201615413291371 -0.0004758413724703079 54 200 0
0.004994526032597445 -0.0036601154743844903 -0.0006551017849659696 75 179 0
0.004994526032597445 -0.0031186155354776097 -0.00010232645003048179 11 243 0
0.004994526032597445 -0.002577115596570729 0.0006583971603749824 0 206 48
0.004994526032597445 -0.0020356156576638485 0.0010406224476043348 0 177 77
0.004994526032597445 -0.001494115718756968 0.0010375533957312007 0 178 76
0.004994526032597445 -0.0009526157798500874 0.0012214682528730947 0 164 90
0.004994526032597445 -0.00041111584094320676 0.0013195612031173898 0 157 97
0.004994526032597445 0.00013038409796367384 0.0012843375971670718 0 159 95
0.004994526032597445 0.0006718841659742004 0.001347329331717474 0 155 99
0.004994526032597445 0.0012133841048810811 0.0011231914590368703 0 171 83
0.004994526032597445 0.0017548840437879617 0.0010224131529554057 0 179 75
0.004994526032597445 0.0022963839524361754 0.0010193441010822716 0 179 75
0.004994526032597445 0.002837883889325811 0.0015130044257499785 0 142 112
0.004994526032597445 0.0033793838605086033 0.0010653628374980106 0 175 79
0.004994526032597445 0.003920883799415484 0.0011634563041568898 0 168 86
0.004994526032597445 0.0044623837383223645 0.0011603872522837554 0 168 86
0.004994526032597445 0.005003883548125599 0.0012584812353572188 0 161 93
0.004994526032597445 0.0055453834870324795 0.001356574702016098 0 154 100
0.004994526032597445 0.006086883425939361 0.0012557963959346334 0 161 93
0.004994526032597445 0.006628383364846241 0.0014893226857536487 0 144 110
0.004994526032597445 0.007169883303753122 0.001310062273257987 0 157 97
0.004994526032597445 0.007711383242660002 0.0013395330207417533 0 155 99
0.004994526032597445 0.008252883181566882 0.0014025242388775714 0 150 104
0.004994526032597445 0.008794383120473764 0.0014655159734279733 0 146 108
0.004994526032597445 0.009335883059380644 0.0014949867209117398 0 144 110
0.004994526032597445 0.009877382998287526 0.0017785406735626376 0 123 131
0.004994526032597445 0.010418882937194406 0.0017433165511977356 0 125 129
0.004994526032597445 0.010960382876101286 0.0027370562338131527 0 51 203
0.004994526032597445 0.011501883331422751 0.0033904650084358064 0 3 251
0.004994526032597445 0.012043383270329631 0.0029428231740800132 0 36 218
0.004994526032597445 0.012584883209236513 0.0034035421749482376 0 2 252
0.0044530260936905645 -0.009616614285945593 0.0014967456289850859 0 143 111
0.0044530260936905645 -0.008533614408131832 -0.00035355026764561184 40 214 0
0.0044530260936905645 -0.00799211446922495 -0.000814269022410011 93 161 0
0.0044530260936905645 -0.00745061453031807 -0.0009123630054834743 104 150 0
0.0044530260936905645 -0.00690911459141119 -0.0009753547400338763 112 142 0
0.0044530260936905645 -0.006367614652504309 -0.0010048249711030585 115 139 0
0.0044530260936905645 -0.005826115230012013 -0.0009372309497794154 107 147 0
0.0044530260936905645 -0.0052846152911051325 -0.0010002221679152334 114 140 0
0.0044530260936905645 -0.0047431153521982515 -0.0005120430676428564 58 196 0
0.0044530260936905645 -0.004201615413291371 -0.0008942673220430408 102 152 0
0.0044530260936905645 -0.0036601154743844903 -0.00040608770535607966 46 208 0
0.0044530260936905645 -0.0031186155354776097 -0.0003053088828600311 35 219 0
0.0044530260936905645 -0.002577115596570729 0.000142332705391937 0 244 10
0.0044530260936905645 -0.0020356156576638485 0.000979848197277934 0 182 72
0.0044530260936905645 -0.001494115718756968 0.001427489785529902 0 149 105
0.0044530260936905645 -0.0009526157798500874 0.0017428688197533462 0 125 129
0.0044530260936905645 -0.00041111584094320676 0.0019670066924339495 0 109 145
0.0044530260936905645 0.00013038409796367384 0.0020022313312134357 0 106 148
0.0044530260936905645 0.0006718841659742004 0.0033092724960426235 0 9 245
0.0044530260936905645 0.0012133841048810811 0.00185338154074455 0 117 137
0.0044530260936905645 0.0017548840437879617 0.0014711562535151975 0 145 109
0.0044530260936905645 0.0022963839524361754 0.0010104374987507981 0 180 74
0.0044530260936905645 0.002837883889325811 0.0009123435156773348 0 187 67
0.0044530260936905645 0.0033793838605086033 0.000915411534721301 0 187 67
0.0044530260936905645 0.003920883799415484 0.0009830071052886965 0 182 72
0.0044530260936905645 0.0044623837383223645 0.0010506016430269238 0 177 77
0.0044530260936905645 0.005003883548125599 0.0012298615391080014 0 163 91
0.0044530260936905645 0.0055453834870324795 0.0012650861778874874 0 161 93
0.0044530260936905645 0.006086883425939361 0.0012681557461752058 0 160 94
0.0044530260936905645 0.006628383364846241 0.001335749767498849 0 155 99
0.0044530260936905645 0.007169883303753122 0.0013062795364296666 0 158 96
0.0044530260936905645 0.007711383242660002 0.0013415036587945686 0 155 99
0.0044530260936905645 0.008252883181566882 0.0014090981965327958 0 150 104
0.0044530260936905645 0.008794383120473764 0.0014443228353122819 0 147 107
0.0044530260936905645 0.009335883059380644 0.0013813311007618797 0 152 102
0.0044530260936905645 0.009877382998287526 0.0014165557395413658 0 149 105
0.0044530260936905645 0.010418882937194406 0.0015958161520370274 0 136 118
0.0044530260936905645 0.010960382876101286 0.0015328244174866255 0 141 113
0.0044530260936905645 0.011501883331422751 0.0018024589314384722 0 121 133
0.0044530260936905645 0.012043383270329631 0.0026399739069098847 0 59 195
0.0039115261547836835 -0.009616614285945593 0.0009568884048701351 0 183 71
0.0039115261547836835 -0.00907511434703871 0.0016616579786769175 0 131 123
0.0039115261547836835 -0.008533614408131832 -0.00031581843606046095 36 218 0
0.0039115261547836835 -0.00799211446922495 -0.0005854519171831397 67 187 0
0.0039115261547836835 -0.00745061453031807 -0.0008550864311349866 98 156 0
0.0039115261547836835 -0.00690911459141119 -0.000922682001702382 106 148 0
0.0039115261547836835 -0.006367614652504309 -0.0009902760230260253 113 141 0
0.0039115261547836835 -0.005826115230012013 -0.0010255006618055112 117 137 0
0.0039115261547836835 -0.0052846152911051325 -0.0010607253005849972 121 133 0
0.0039115261547836835 -0.0047431153521982515 -0.0009977335660345953 114 140 0
0.0039115261547836835 -0.004201615413291371 -0.0010985123885306437 126 128 0
0.0039115261547836835 -0.0036601154743844903 -0.0009145980478033339 105 149 0
0.0039115261547836835 -0.0031186155354776097 -0.0006810707251551504 78 176 0
0.0039115261547836835 -0.002577115596570729 2.3698848651631956e-05 0 253 1
0.0039115261547836835 -0.0020356156576638485 0.0012649302206830977 0 161 93
0.0039115261547836835 -0.001494115718756968 0.001725649491862081 0 126 128
0.0039115261547836835 -0.0009526157798500874 0.0018237429585209602 0 119 135
0.0039115261547836835 -0.00041111584094320676 0.002107297427586442 0 98 156
0.0039115261547836835 0.00013038409796367384 0.002440637361043877 0 73 181
0.0039115261547836835 0.0006718841659742004 0.001874237976551427 0 115 139
0.0039115261547836835 0.0012133841048810811 0.0021077652991996106 0 98 156
0.0039115261547836835 0.0017548840437879617 0.0021707570337500125 0 93 161
0.0039115261547836835 0.0022963839524361754 0.0016825763842338833 0 130 124
0.0039115261547836835 0.002837883889325811 0.001321576769239019 0 156 98
0.0039115261547836835 0.0033793838605086033 0.0011423163567433573 0 170 84
0.0039115261547836835 0.003920883799415484 0.0008726818427915103 0 190 64
0.0039115261547836835 0.0044623837383223645 0.0012060217762489454 0 165 89
0.0039115261547836835 0.005003883548125599 0.0008906432584400854 0 188 66
0.0039115261547836835 0.0055453834870324795 0.000823048204287274 0 193 61
0.0039115261547836835 0.006086883425939361 0.0010565739776917053 0 176 78
0.0039115261547836835 0.006628383364846241 0.0011195667450712755 0 171 83
0.0039115261547836835 0.007169883303753122 0.0006719251568193073 0 205 49
0.0039115261547836835 0.007711383242660002 0.0012770468560691567 0 160 94
0.0039115261547836835 0.008252883181566882 0.0012418222172896707 0 162 92
0.0039115261547836835 0.008794383120473764 0.0013399162003631339 0 155 99
0.0039115261547836835 0.009335883059380644 0.001438010183436597 0 148 106
0.0039115261547836835 0.009877382998287526 0.0018202354706659497 0 119 135
0.0039115261547836835 0.010418882937194406 0.0013725933659993975 0 153 101
0.0039115261547836835 0.010960382876101286 0.0013373687272199115 0 155 99
0.0039115261547836835 0.011501883331422751 0.001942491975713513 0 110 144
0.0039115261547836835 0.012043383270329631 0.0021760182655325283 0 93 161
0.0039115261547836835 0.012584883209236513 0.003079470604341884 0 26 228
0.003370025957669511 -0.00907511434703871 0.0015340059740549796 0 141 113
0.003370025957669511 -0.008533614408131832 0.0007168413480980547 0 201 53
0.003370025957669511 -0.00799211446922495 -0.00015757816279482722 18 236 0
0.003370025957669511 -0.00745061453031807 -0.0012779442506682171 146 108 0
0.003370025957669511 -0.00690911459141119 -0.0009625652164447729 110 144 0
0.003370025957669511 -0.006367614652504309 -0.0010606591995182362 121 133 0
0.003370025957669511 -0.005826115230012013 -0.0012445735402455461 143 111 0
0.003370025957669511 -0.0052846152911051325 -0.0012415050047869958 142 112 0
0.003370025957669511 -0.0047431153521982515 -0.0012709757522707623 146 108 0
0.003370025957669511 -0.004201615413291371 -0.0012357511134912763 142 112 0
0.003370025957669511 -0.0036601154743844903 -0.0012005264747117902 137 117 0
0.003370025957669511 -0.0031186155354776097 -0.000839526859716926 96 158 0
0.003370025957669511 -0.002577115596570729 -0.00023540907041851077 27 227 0
0.0033700259576695106 -0.0020356156576638485 0.001876686814509092 0 115 139
0.0033700259576695106 -0.001494115718756968 0.0020822311800902174 0 100 154
0.0033700259576695106 -0.0009526157798500874 0.00244323182791425 0 73 181
0.0033700259576695106 0.00013038409796367384 0.0029331083829244684 0 37 217
0.0033700259576695106 0.0006718841659742004 0.002936176918383019 0 37 217
0.0033700259576695106 0.0012133841048810811 0.0031603145167183747 0 20 234
0.0033700259576695106 0.0017548840437879617 0.0028767603219981403 0 41 213
0.0033700259576695106 0.0022963839524361754 0.0028472895745143743 0 43 211
0.0033700259576695106 0.002837883889325811 0.002422219434902983 0 75 179
0.0033700259576695106 0.0033793838605086033 0.002088880017860132 0 100 154
0.003370025957669511 0.003920883799415484 0.0014592756195940587 0 146 108
0.003370025957669511 0.0044623837383223645 0.0014945002583735447 0 144 110
0.003370025957669511 0.005003883548125599 0.0010337815036091456 0 178 76
0.003370025957669511 0.0055453834870324795 0.0010368495226531116 0 178 76
0.003370025957669511 0.006086883425939361 0.0013522285568765557 0 154 100
0.003370025957669511 0.006628383364846241 0.0012892373387407379 0 159 95
0.003370025957669511 0.007169883303753122 0.0014684977512363995 0 146 108
0.003370025957669511 0.007711383242660002 0.001647757647317477 0 132 122
0.003370025957669511 0.008252883181566882 0.0016829822860969631 0 130 124
0.003370025957669511 0.008794383120473764 0.0017505768238351904 0 125 129
0.0033700259576695106 0.009335883059380644 0.0018181708451588336 0 120 134
0.0033700259576695106 0.009877382998287526 0.001885766415726229 0 115 139
0.003370025957669511 0.010418882937194406 0.001701852591413503 0 128 126
0.0033700259576695106 0.010960382876101286 0.0018026308974949676 0 121 133
0.003370025957669511 0.011501883331422751 0.0017045374308360885 0 128 126
0.0033700259576695106 0.012043383270329631 0.0027386973993613305 0 51 203
0.0028285260187626304 -0.009616614285945593 0.0009395936804495956 0 185 69
0.0028285260187626304 -0.00907511434703871 0.0015192199916838575 0 142 112
0.0028285260187626304 -0.008533614408131832 -0.00027265960361130755 31 223 0
0.0028285260187626304 -0.00799211446922495 -0.0011398890742501681 131 123 0
0.0028285260187626304 -0.00745061453031807 -0.0006156554569617031 70 184 0
0.0028285260187626304 -0.00690911459141119 -0.0009310350075997313 106 148 0
0.0028285260187626304 -0.006367614652504309 -0.0009662586135500491 111 143 0
0.0028285260187626304 -0.005826115230012013 -0.0011903959698160687 136 118 0
0.0028285260187626304 -0.0052846152911051325 -0.0012256206085955546 140 114 0
0.0028285260187626304 -0.0047431153521982515 -0.0013263994310916032 152 102 0
0.0028285260187626304 -0.004201615413291371 -0.0012969286836078367 149 105 0
0.0028285260187626304 -0.0036601154743844903 -0.0013321533223873228 153 101 0
0.0028285260187626304 -0.0031186155354776097 -0.0013026825749035565 149 105 0
0.0028285260187626304 -0.002577115596570729 -0.001204588591830093 138 116 0
0.0028285260187626304 -0.0020356156576638485 -0.0007438698370656941 85 169 0
0.00282852601876263 -0.001494115718756968 0.0019345428060209074 0 111 143
0.00282852601876263 -0.0009526157798500874 0.0028089623169137894 0 46 208
0.00282852601876263 -0.00041111584094320676 0.00338858809963 0 3 251
0.00282852601876263 0.0044623837383223645 0.0023202554409364915 0 82 172
0.00282852601876263 0.005003883548125599 0.0026038093935873896 0 61 193
0.0028285260187626304 0.0055453834870324795 0.0017662944181159766 0 123 131
0.0028285260187626304 0.006086883425939361 0.0016986998803777493 0 128 126
0.0028285260187626304 0.006628383364846241 0.0017281706278615158 0 126 128
0.0028285260187626304 0.007169883303753122 0.0016929459890820298 0 129 125
0.00282852601876263 0.007711383242660002 0.001791039972155493 0 122 132
0.0028285260187626304 0.008252883181566882 0.0017558153333760071 0 124 130
0.00282852601876263 0.008794383120473764 0.0018539088000348862 0 117 137
0.00282852601876263 0.009335883059380644 0.0021872487334923213 0 92 162
0.00282852601876263 0.009877382998287526 0.0021196531629249257 0 97 157
0.00282852601876263 0.010418882937194406 0.0024032076319904076 0 76 178
0.00282852601876263 0.010960382876101286 0.002466200399369978 0 72 182
0.00282852601876263 0.011501883331422751 0.0024631308310822594 0 72 182
0.00282852601876263 0.012043383270329631 0.002956791672164551 0 35 219
0.0022870260798557498 -0.00907511434703871 0.0014768786435212882 0 145 109
0.0022870260798557498 -0.008533614408131832 0.0006880161188443769 0 203 51
0.0022870260798557498 -0.00799211446922495 -0.00040023053114354615 45 209 0
0.0022870260798557498 -0.00745061453031807 -0.0006337568209625614 72 182 0
0.0022870260798557498 -0.00690911459141119 -0.0009173112900280432 105 149 0
0.0022870260798557498 -0.006367614652504309 -0.0012506507070708943 143 111 0
0.0022870260798557498 -0.005826115230012013 -0.0014345645313836202 164 90 0
0.0022870260798557498 -0.0052846152911051325 -0.0013993398926041341 160 94 0
0.0022870260798557498 -0.0047431153521982515 -0.0014288106400879006 164 90 0
0.0022870260798557498 -0.004201615413291371 -0.0015269046231613638 175 79 0
0.0022870260798557498 -0.0036601154743844903 -0.001257270109209517 144 110 0
0.0022870260798557498 -0.0031186155354776097 -0.001254202606580135 144 110 0
0.0022870260798557498 -0.002577115596570729 -0.0014381164308928608 165 89 0
0.0022870260798557498 -0.0020356156576638485 -0.0012588555019826151 144 110 0
0.0022870260798557498 -0.001494115718756968 -0.00045176973946300464 51 203 0
0.0022870260798557493 0.007169883303753122 0.0030334410232198796 0 29 225
0.0022870260798557493 0.007711383242660002 0.0030686646291701977 0 27 227
0.0022870260798557493 0.008252883181566882 0.0029705706460967343 0 34 220
0.0022870260798557493 0.008794383120473764 0.0033315712777828113 0 7 247
0.0022870260798557493 0.009335883059380644 0.0033991658195555276 0 2 252
0.0017455261409488694 -0.009616614285945593 0.001780443661304939 0 122 132
0.0017455261409488694 -0.00907511434703871 0.001214044276812489 0 164 90
0.0017455261409488696 -0.008533614408131832 0.0001533369837639066 0 243 11
0.0017455261409488696 -0.00799211446922495 -0.0002943046044880615 33 221 0
0.0017455261409488696 -0.00745061453031807 -0.0007419461927400296 85 169 0
0.0017455261409488698 -0.00690911459141119 -0.0009212066052356913 105 149 0
0.0017455261409488698 -0.006367614652504309 -0.001100467017731353 126 128 0
0.0017455261409488698 -0.005826115230012013 -0.0012797269138124306 147 107 0
0.0017455261409488698 -0.0052846152911051325 -0.0013473214515506578 154 100 0
0.0017455261409488698 -0.0047431153521982515 -0.0013825460903301439 158 96 0
0.0017455261409488698 -0.004201615413291371 -0.001385614625788694 159 95 0
0.0017455261409488698 -0.0036601154743844903 -0.001102060156723212 126 128 0
0.0017455261409488698 -0.0031186155354776097 -0.0014174391909466562 162 92 0
0.0017455261409488698 -0.002577115596570729 -0.0017784388059415206 204 50 0
0.0017455261409488698 -0.0020356156576638485 -0.0011988130111218428 137 117 0
0.0017455261409488698 -0.001494115718756968 -0.0012340376499013288 141 113 0
0.0017455261409488698 -0.0009526157798500874 -0.0011710459153509267 134 120 0
0.0017455261409488696 -0.00041111584094320676 -0.00046627530871497626 53 201 0
0.0012040263311456348 -0.00907511434703871 0.001858873609846145 0 117 137
0.001204026331145635 -0.008533614408131832 0.0007385059727290028 0 200 54
0.001204026331145635 -0.00799211446922495 -0.0006838165014986565 78 176 0
0.001204026331145635 -0.00745061453031807 -0.0005045560890029948 57 197 0
0.0012040263311456352 -0.00690911459141119 -0.0009296257121998016 106 148 0
0.0012040263311456352 -0.006367614652504309 -0.0011135400529271114 127 127 0
0.0012040263311456352 -0.005826115230012013 -0.0013470673755752948 154 100 0
0.0012040263311456352 -0.0052846152911051325 -0.0014100585937111129 162 92 0
0.0012040263311456352 -0.0047431153521982515 -0.001439528308365711 165 89 0
0.0012040263311456352 -0.004201615413291371 -0.001436459772907161 165 89 0
0.0012040263311456352 -0.0036601154743844903 -0.0013356804339965283 153 101 0
0.0012040263311456352 -0.0031186155354776097 -0.0012349021279150637 141 113 0
0.0012040263311456352 -0.002577115596570729 -0.0011996774891355776 137 117 0
0.0012040263311456352 -0.0020356156576638485 -0.00116445388318526 133 121 0
0.0012040263311456352 -0.001494115718756968 -0.0014480078358361577 166 88 0
0.0012040263311456352 -0.0009526157798500874 -0.0013804122652687622 158 96 0
0.001204026331145635 -0.00041111584094320676 -0.000636601748906209 73 181 0
0.0006625263922387542 -0.009616614285945593 0.002192964926523403 0 92 162
0.0006625263922387542 -0.00907511434703871 0.0019233314454007245 0 112 142
0.0006625263922387543 -0.008533614408131832 0.0009159739102033539 0 187 67
0.0006625263922387544 -0.00799211446922495 -9.138414140860093e-05 10 244 0
0.0006625263922387544 -0.00745061453031807 -0.00019216244749006546 22 232 0
0.0006625263922387545 -0.00690911459141119 -0.00099924872642426 114 140 0
0.0006625263922387545 -0.006367614652504309 -0.0011000275489203087 126 128 0
0.0006625263922387545 -0.005826115230012013 -0.0012792879614159703 147 107 0
0.0006625263922387545 -0.0052846152911051325 -0.0013145126001954564 151 103 0
0.0006625263922387546 -0.0047431153521982515 -0.0020583231165580097 236 18 0
0.0006625263922387546 -0.004201615413291371 -0.0013535525099220593 155 99 0
0.0006625263922387546 -0.0036601154743844903 -0.0013887771487015453 159 95 0
0.0006625263922387546 -0.0031186155354776097 -0.001658411662653392 190 64 0
0.0006625263922387545 -0.002577115596570729 -0.001325071212781373 152 102 0
0.0006625263922387546 -0.0020356156576638485 -0.0013926657505196002 160 94 0
0.0006625263922387546 -0.001494115718756968 -0.0013631950030358337 156 98 0
0.0006625263922387545 -0.0009526157798500874 -0.0011296692296314027 129 125 0
0.0006625263922387546 -0.00041111584094320676 -0.001353806585897422 155 99 0
0.0006625263922387545 0.00013038409796367384 -0.001255712602823959 144 110 0
0.0006625263922387545 0.0006718841659742004 -0.0009721586501730611 111 143 0
0.00012102645333187341 -0.009616614285945593 0.0026326434018889957 0 59 195
0.00012102645333187359 -0.008533614408131832 0.0012217058035817667 0 164 90
0.00012102645333187368 -0.00799211446922495 0.00040454117762484166 0 224 30
0.00012102645333187379 -0.00745061453031807 -0.000441129016958221 50 204 0
0.00012102645333187382 -0.00690911459141119 -0.0006250428412709468 71 183 0
0.00012102645333187386 -0.006367614652504309 -0.0010501140137115059 120 134 0
0.00012102645333187383 -0.005826115230012013 -0.0008259761410309022 94 160 0
0.00012102645333187391 -0.0052846152911051325 -0.00140560193585058 161 93 0
0.00012102645333187393 -0.0047431153521982515 -0.0015036959189240432 172 82 0
0.00012102645333187393 -0.004201615413291371 -0.0015006263506363248 172 82 0
0.00012102645333187391 -0.0036601154743844903 -0.0014330328457272657 164 90 0
0.00012102645333187391 -0.0031186155354776097 -0.0014299632774395475 164 90 0
0.00012102645333187401 -0.002577115596570729 -0.002218826834945627 255 0 0
0.00012102645333187393 -0.0020356156576638485 -0.0015778902350466984 181 73 0
0.00012102645333187393 -0.001494115718756968 -0.0015102946644793029 173 81 0
0.0001210264533318739 -0.0009526157798500874 -0.0013310347683982253 152 102 0
0.00012102645333187391 -0.00041111584094320676 -0.0014291287514716887 164 90 0
0.00012102645333187391 0.00013038409796367384 -0.0014585984661262868 167 87 0
0.00012102645333187386 0.0006718841659742004 -0.0010109568778743187 116 138 0
0.00012102645333187377 0.0012133841048810811 -0.00023508424564513047 27 227 0
-0.0004204735178509186 -0.00907511434703871 0.0016319765340428495 0 133 121
-0.0004204735178509186 -0.008533614408131832 0.0015967529280925318 0 136 118
-0.0004204735178509185 -0.00799211446922495 0.0007004611939059048 0 203 51
-0.0004204735178509184 -0.00745061453031807 -1.0372636361623944e-05 1 253 0
-0.0004204735178509183 -0.00690911459141119 -0.000538131299600958 61 193 0
-0.00042047351785091827 -0.006367614652504309 -0.0009857728878529262 113 141 0
-0.0004204735178509182 -0.005826115230012013 -0.0012099107605335298 139 115 0
-0.0004204735178509182 -0.0052846152911051325 -0.0013106890666149944 150 104 0
-0.0004204735178509182 -0.0047431153521982515 -0.0014114673726964588 162 92 0
-0.0004204735178509182 -0.004201615413291371 -0.0014466920114759448 166 88 0
-0.0004204735178509182 -0.0036601154743844903 -0.001514286549214172 174 80 0
-0.00042047351785091816 -0.0031186155354776097 -0.0018296660998522003 210 44 0
-0.0004204735178509182 -0.002577115596570729 -0.0014474408126228478 166 88 0
-0.00042047351785091827 -0.0020356156576638485 -0.0008178364143567743 93 161 0
-0.00042047351785091816 -0.001494115718756968 -0.001685064852166467 193 61 0
-0.0004204735178509182 -0.0009526157798500874 -0.001501151027853741 172 82 0
-0.00042047351785091816 -0.00041111584094320676 -0.0017252883841197607 198 56 0
-0.0004204735178509182 0.00013038409796367384 -0.0012645701457699456 145 109 0
-0.0004204735178509182 0.0006718841659742004 -0.0012676376483993276 145 109 0
-0.0004204735178509182 0.0012133841048810811 -0.0012046464302635095 138 116 0
-0.00042047351785091827 0.0017548840437879617 -0.0009210919611980277 105 149 0
-0.0009619734446543324 -0.008533614408131832 0.0017992478655547177 0 121 133
-0.0009619734446543323 -0.00799211446922495 0.001010384308048638 0 180 74
-0.0009619734446543322 -0.00745061453031807 0.00030561421782727174 0 232 22
-0.0009619734446543322 -0.00690911459141119 -0.0002995085142517457 34 220 0
-0.0009619734446543321 -0.006367614652504309 -0.0009046312463307632 103 151 0
-0.0009619734446543321 -0.005826115230012013 -0.0010885455870580732 125 129 0
-0.000961973444654332 -0.0052846152911051325 -0.00151361521025488 173 81 0
-0.000961973444654332 -0.0047431153521982515 -0.0014128369041734154 162 92 0
-0.000961973444654332 -0.004201615413291371 -0.0015109308872468788 173 81 0
-0.000961973444654332 -0.0036601154743844903 -0.001540400601901477 177 77 0
-0.000961973444654332 -0.0031186155354776097 -0.0016033928528664631 184 70 0
-0.000961973444654332 -0.002577115596570729 -0.0016328636003502296 187 67 0
-0.000961973444654332 -0.0020356156576638485 -0.0016297940320625112 187 67 0
-0.000961973444654332 -0.001494115718756968 -0.001626724463774793 186 68 0
-0.000961973444654332 -0.0009526157798500874 -0.0015591309588657337 179 75 0
-0.000961973444654332 -0.00041111584094320676 -0.0014915364211275065 171 83 0
-0.000961973444654332 0.00013038409796367384 -0.0014563117823480204 167 87 0
-0.0009619734446543321 0.0006718841659742004 -0.0012770508534377747 146 108 0
-0.000961973444654332 0.0012133841048810811 -0.001610391303309794 185 69 0
-0.0009619734446543321 0.0017548840437879617 -0.0006301548292386663 72 182 0
-0.0009619734446543322 0.0022963839524361754 -0.0002691552142438019 30 224 0
-0.0015034733633887683 -0.008533614408131832 0.0012734143958848003 0 160 94
-0.0015034733633887683 -0.00799211446922495 0.001205820374561157 0 165 89
-0.001503473363388768 -0.00745061453031807 0.00025309123972515785 0 236 18
-0.001503473363388768 -0.00690911459141119 -0.00027466793992876034 31 223 0
-0.0015034733633887678 -0.006367614652504309 -0.0010505395393287805 120 134 0
-0.0015034733633887678 -0.005826115230012013 -0.0010210703410887664 117 137 0
-0.0015034733633887678 -0.0052846152911051325 -0.0015092494413611434 173 81 0
-0.0015034733633887678 -0.0047431153521982515 -0.0015123190096488616 173 81 0
-0.0015034733633887678 -0.004201615413291371 -0.0015153865122782438 174 80 0
-0.0015034733633887678 -0.0036601154743844903 -0.0014859167976236454 170 84 0
-0.0015034733633887678 -0.0031186155354776097 -0.001586696136534278 182 72 0
-0.0015034733633887678 -0.002577115596570729 -0.0016542906742725053 190 64 0
-0.0015034733633887678 -0.0020356156576638485 -0.0015561966911990422 178 76 0
-0.0015034733633887678 -0.001494115718756968 -0.0017354565872801197 199 55 0
-0.0015034733633887678 -0.0009526157798500874 -0.0018362359261907524 211 43 0
-0.0015034733633887678 -0.00041111584094320676 -0.0014540116717905681 167 87 0
-0.0015034733633887678 0.00013038409796367384 -0.0015547899778720327 178 76 0
-0.0015034733633887678 0.0006718841659742004 -0.0014566959947985693 167 87 0
-0.0015034733633887678 0.0012133841048810811 -0.0012727821704858436 146 108 0
-0.001503473363388768 0.0017548840437879617 -0.0005400750840954016 62 192 0
-0.0015034733633887678 0.0022963839524361754 -0.001144193389808401 131 123 0
-0.001503473363388768 0.002837883889325811 -0.000719122217367842 82 172 0
-0.001503473363388768 0.0033793838605086033 1.3583319778847652e-05 0 253 1
-0.002044973302295649 -0.00799211446922495 0.001372928002649875 0 153 101
-0.002044973302295649 -0.00745061453031807 0.0007933022078301971 0 196 58
-0.002044973302295649 -0.00690911459141119 6.0595637854339285e-05 0 250 4
-0.002044973302295649 -0.006367614652504309 -0.0005190301569653385 59 195 0
-0.002044973302295649 -0.005826115230012013 -0.0010718065247299943 123 131 0
-0.002044973302295649 -0.0052846152911051325 -0.0012557208654573042 144 110 0
-0.002044973302295649 -0.0047431153521982515 -0.0014396346897700301 165 89 0
-0.002044973302295649 -0.004201615413291371 -0.0015026259079058482 172 82 0
-0.002044973302295649 -0.0036601154743844903 -0.0016007198909793114 183 71 0
-0.002044973302295649 -0.0031186155354776097 -0.0016988138740527746 195 59 0
-0.002044973302295649 -0.002577115596570729 -0.0016312183034853792 187 67 0
-0.0020449733022956484 -0.0020356156576638485 -0.002013443590714732 231 23 0
-0.002044973302295649 -0.001494115718756968 -0.0016524439757198673 189 65 0
-0.002044973302295649 -0.0009526157798500874 -0.0016819147232036338 193 61 0
-0.002044973302295649 -0.00041111584094320676 -0.0017449059413394516 200 54 0
-0.002044973302295649 0.00013038409796367384 -0.0015207685850734322 174 80 0
-0.002044973302295649 0.0006718841659742004 -0.0014855439462939462 170 84 0
-0.002044973302295649 0.0012133841048810811 -0.0012159104651712673 139 115 0
-0.002044973302295649 0.0017548840437879617 -0.0012128414132981332 139 115 0
-0.002044973302295649 0.0022963839524361754 -0.0011120625908020846 127 127 0
-0.002044973302295649 0.002837883889325811 -0.0010444670202346892 120 134 0
-0.002044973302295649 0.0033793838605086033 -0.000516708356995355 59 195 0
-0.00258647324120253 -0.008533614408131832 0.002804613073286742 0 46 208
-0.00258647324120253 -0.00799211446922495 0.0024436124254627097 0 73 181
-0.0025864732412025295 -0.00745061453031807 0.000988497625146539 0 181 73
-0.0025864732412025295 -0.00690911459141119 -4.5661826964119106e-05 5 249 0
-0.0025864732412025295 -0.006367614652504309 -0.0006865984268630477 78 176 0
-0.0025864732412025295 -0.005826115230012013 -0.0011342405315295997 130 124 0
-0.0025864732412025295 -0.0052846152911051325 -0.0010712487969791976 123 131 0
-0.0025864732412025295 -0.0047431153521982515 -0.001432247895559478 164 90 0
-0.002586473241202529 -0.004201615413291371 -0.0017932475105543423 206 48 0
-0.0025864732412025295 -0.0036601154743844903 -0.001559721737149911 179 75 0
-0.0025864732412025295 -0.0031186155354776097 -0.0016605000432313756 190 64 0
-0.0025864732412025295 -0.002577115596570729 -0.0015975088250955577 183 71 0
-0.002586473241202529 -0.0020356156576638485 -0.0018671433390474044 214 40 0
-0.0025864732412025295 -0.001494115718756968 -0.0017690493559739413 203 51 0
-0.002586473241202529 -0.0009526157798500874 -0.0017721189242616594 203 51 0
-0.002586473241202529 -0.00041111584094320676 -0.0017751864268910416 204 50 0
-0.0025864732412025295 0.00013038409796367384 -0.0015912726025783157 182 72 0
-0.0025864732412025295 0.0006718841659742004 -0.0014073587782655898 161 93 0
-0.0025864732412025295 0.0012133841048810811 -0.0014425834170450759 165 89 0
-0.0025864732412025295 0.0017548840437879617 -0.0013444894339716127 154 100 0
-0.0025864732412025295 0.0022963839524361754 -0.0011605756096588868 133 121 0
-0.0025864732412025295 0.002837883889325811 -0.0011957992156092045 137 117 0
-0.0025864732412025295 0.0033793838605086033 -0.0008135739283798522 93 161 0
-0.0025864732412025295 0.003920883799415484 -0.0007154809781355571 82 172 0
-0.0025864732412025295 0.0044623837383223645 -0.00022181962063868194 25 229 0
-0.0031279733092130562 -0.00745061453031807 0.0014983062338581475 0 143 111
-0.0031279733092130562 -0.00690911459141119 0.0001778961121385727 0 241 13
-0.0031279733092130562 -0.006367614652504309 -0.0006392685138183524 73 181 0
-0.0031279733092130562 -0.005826115230012013 -0.0008727942872227836 100 154 0
-0.0031279733092130562 -0.0052846152911051325 -0.001577564893858734 181 73 0
-0.0031279733092130562 -0.0047431153521982515 -0.0012165647624492856 139 115 0
-0.0031279733092130562 -0.004201615413291371 -0.001598789533264054 183 71 0
-0.0031279733092130562 -0.0036601154743844903 -0.0016617828170582083 190 64 0
-0.0031279733092130562 -0.0031186155354776097 -0.0017598757673025034 202 52 0
-0.0031279733092130562 -0.002577115596570729 -0.0017246521613521854 198 56 0
-0.003127973309213056 -0.0020356156576638485 -0.0018227451115964807 209 45 0
-0.003127973309213056 -0.001494115718756968 -0.0018522148262510789 212 42 0
-0.003127973309213056 -0.0009526157798500874 -0.0017846202885128516 205 49 0
-0.0031279733092130562 -0.00041111584094320676 -0.001514986807390173 174 80 0
-0.0031279733092130562 0.00013038409796367384 -0.0016989006317028987 195 59 0
-0.0031279733092130562 0.0006718841659742004 -0.00142926715058022 164 90 0
-0.0031279733092130562 0.0012133841048810811 -0.001527359067995347 175 79 0
-0.0031279733092130562 0.0017548840437879617 -0.0013480991719142695 154 100 0
-0.0031279733092130562 0.0022963839524361754 -0.001377569919398036 158 96 0
-0.0031279733092130562 0.002837883889325811 -0.0010621903687600077 122 132 0
-0.0031279733092130562 0.0033793838605086033 -0.0009614120626785432 110 144 0
-0.0031279733092130562 0.003920883799415484 -0.0008938175249403158 102 152 0
-0.0031279733092130562 0.0044623837383223645 -0.0004461759366883477 51 203 0
-0.0031279733092130562 0.005003883548125599 0.00039134058802681724 0 225 29
-0.003669473248119937 -0.00745061453031807 0.0006133900801294375 0 209 45
-0.003669473248119937 -0.00690911459141119 0.0005457945095620421 0 214 40
-0.003669473248119937 -0.006367614652504309 -0.0004883639097194478 56 198 0
-0.003669473248119937 -0.005826115230012013 -0.000803743460357476 92 162 0
-0.003669473248119937 -0.0052846152911051325 -0.0013315026400113942 153 101 0
-0.003669473248119937 -0.0047431153521982515 -0.0014322819789220269 164 90 0
-0.003669473248119937 -0.004201615413291371 -0.001435350514380577 164 90 0
-0.003669473248119937 -0.0036601154743844903 -0.0015361288204620415 176 78 0
-0.003669473248119937 -0.0031186155354776097 -0.0016369081593726742 188 66 0
-0.0036694732481199364 -0.002577115596570729 -0.0019522866771815343 224 30 0
-0.0036694732481199364 -0.0020356156576638485 -0.0019553552126400846 224 30 0
-0.003669473248119937 -0.001494115718756968 -0.0015302861058578618 175 79 0
-0.0036694732481199364 -0.0009526157798500874 -0.001891285720852726 217 37 0
-0.0036694732481199364 -0.00041111584094320676 -0.0017931917377792628 206 48 0
-0.0036694732481199364 0.00013038409796367384 -0.0018607873083466584 213 41 0
-0.003669473248119937 0.0006718841659742004 -0.0014357161359060994 165 89 0
-0.003669473248119937 0.0012133841048810811 -0.001614976031987177 185 69 0
-0.003669473248119937 0.0017548840437879617 -0.0013814502585827457 158 96 0
-0.0036694732481199364 0.0022963839524361754 -0.0020922835724356903 240 14 0
-0.003669473248119937 0.002837883889325811 -0.0012751194628933492 146 108 0
-0.003669473248119937 0.0033793838605086033 -0.0007223430951286933 83 171 0
-0.003669473248119937 0.003920883799415484 -0.0010833427101235578 124 130 0
-0.003669473248119937 0.0044623837383223645 -0.0007997882410580758 91 163 0
-0.003669473248119937 0.005003883548125599 -0.0006158744167453499 70 184 0
-0.003669473248119937 0.0055453834870324795 -0.00019080427713395916 21 233 0
-0.0042109731870268174 -0.00690911459141119 0.0007639507521153508 0 198 56
-0.0042109731870268174 -0.006367614652504309 3.2266252953025035e-06 0 254 0
-0.0042109731870268174 -0.005826115230012013 -0.0005210069919931627 59 195 0
-0.0042109731870268174 -0.0052846152911051325 -0.0012537130455544364 144 110 0
-0.0042109731870268174 -0.0047431153521982515 -0.0012831827602090345 147 107 0
-0.0042109731870268174 -0.004201615413291371 -0.0015167095664426339 174 80 0
-0.0042109731870268174 -0.0036601154743844903 -0.0013374486375323882 153 101 0
-0.0042109731870268174 -0.0031186155354776097 -0.0016707890874044073 192 62 0
-0.0042109731870268174 -0.002577115596570729 -0.0019543430400553053 224 30 0
-0.0042109731870268174 -0.0020356156576638485 -0.0018867485023170778 216 38 0
-0.0042109731870268174 -0.001494115718756968 -0.0017859701962356133 205 49 0
-0.0042109731870268174 -0.0009526157798500874 -0.0018489614143714314 212 42 0
-0.0042109731870268174 -0.00041111584094320676 -0.0016248240581054117 186 68 0
-0.0042109731870268174 0.00013038409796367384 -0.001722918041178875 198 56 0
-0.0042109731870268174 0.0006718841659742004 -0.0015436581450977973 177 77 0
-0.0042109731870268174 0.0012133841048810811 -0.0015731278597523957 180 74 0
-0.0042109731870268174 0.0017548840437879617 -0.0012577493419435356 144 110 0
-0.0042109731870268174 0.0022963839524361754 -0.001287219056598134 147 107 0
-0.0042109731870268174 0.002837883889325811 -0.001251995450647816 143 111 0
-0.0042109731870268174 0.0033793838605086033 -0.0011844003964950047 136 118 0
-0.0042109731870268174 0.003920883799415484 -0.001083621057584372 124 130 0
-0.0042109731870268174 0.0044623837383223645 -0.0009043606450887104 103 151 0
-0.0042109731870268174 0.005003883548125599 -0.0008035823390072458 92 162 0
-0.0042109731870268174 0.0055453834870324795 -0.000533947825055399 61 193 0
-0.0042109731870268174 0.006086883425939361 -0.0004331690025593504 49 205 0
-0.0042109731870268174 0.006628383364846241 0.0004043459729120623 0 224 30
-0.004752473125933698 -0.00690911459141119 0.0008707499358324996 0 190 64
-0.004752473125933698 -0.006367614652504309 0.00012693787022619396 0 245 9
-0.004752473125933698 -0.005826115230012013 -0.00032070371802577413 36 218 0
-0.004752473125933698 -0.0052846152911051325 -0.0010315375482933028 118 136 0
-0.004752473125933698 -0.0047431153521982515 -0.001346916582516747 154 100 0
-0.004752473125933698 -0.004201615413291371 -0.0015261754457686564 175 79 0
-0.004752473125933698 -0.0036601154743844903 -0.0015614000845481425 179 75 0
-0.004752473125933698 -0.0031186155354776097 -0.0016621804562879433 191 63 0
-0.004752473125933698 -0.002577115596570729 -0.0017297739611970024 198 56 0
-0.004752473125933698 -0.0020356156576638485 -0.0017649985999764885 202 52 0
-0.004752473125933698 -0.001494115718756968 -0.0018325931377147157 210 44 0
-0.004752473125933698 -0.0009526157798500874 -0.0019333714437961803 222 32 0
-0.004752473125933698 -0.00041111584094320676 -0.0018703802256603622 214 40 0
-0.004752473125933698 0.00013038409796367384 -0.0018734497939480806 215 39 0
-0.004752473125933698 0.0006718841659742004 -0.0016399229877144812 188 66 0
-0.004752473125933698 0.0012133841048810811 -0.0016104522402307147 185 69 0
-0.004752473125933698 0.0017548840437879617 -0.0015123592899864197 173 81 0
-0.004752473125933698 0.0022963839524361754 -0.0016131375960678842 185 69 0
-0.004752473125933698 0.002837883889325811 -0.0012797981790250333 147 107 0
-0.004752473125933698 0.0033793838605086033 -0.0010958838382977233 125 129 0
-0.004752473125933698 0.003920883799415484 -0.0011966621443791877 137 117 0
-0.004752473125933698 0.0044623837383223645 -0.0010985686777203085 126 128 0
-0.004752473125933698 0.005003883548125599 -0.0010004757274760135 114 140 0
-0.004752473125933698 0.0055453834870324795 -0.0007169217748251156 82 172 0
-0.004752473125933698 0.006086883425939361 -0.0006874510273413492 79 175 0
-0.004752473125933698 0.006628383364846241 -5.7846629075275685e-05 6 248 0
-0.004752473125933698 0.007169883303753122 -9.30712678547617e-05 10 244 0
-0.005293972806633286 -0.006367614652504309 0.0005899257506730012 0 211 43
-0.005293972806633286 -0.005826115230012013 -3.967813117848823e-05 4 250 0
-0.005293972806633286 -0.0052846152911051325 -0.0005639107156377853 64 190 0
-0.005293972806633286 -0.0047431153521982515 -0.0010575715567200765 121 133 0
-0.005293972806633286 -0.004201615413291371 -0.001439796843949429 165 89 0
-0.005293972806633286 -0.0036601154743844903 -0.0015027880620852468 172 82 0
-0.005293972806633286 -0.0031186155354776097 -0.0016008820451587102 183 71 0
-0.005293972806633286 -0.002577115596570729 -0.0015656584392083922 179 75 0
-0.005293972806633286 -0.0020356156576638485 -0.0016286506901733785 187 67 0
-0.005293972806633286 -0.001494115718756968 -0.0018125645144861043 208 46 0
-0.005293972806633286 -0.0009526157798500874 -0.0016333035855758584 187 67 0
-0.005293972806633286 -0.00041111584094320676 -0.0017313975686493218 198 56 0
-0.005293972806633286 0.00013038409796367384 -0.0015521376725682442 178 76 0
-0.005293972806633286 0.0006718841659742004 -0.0015169130337887582 174 80 0
-0.005293972806633286 0.0012133841048810811 -0.0012927756775227386 148 106 0
-0.005293972806633286 0.0017548840437879617 -0.001068638837671303 122 132 0
-0.005293972806633286 0.0022963839524361754 -0.0013521933067367849 155 99 0
-0.005293972806633286 0.002837883889325811 -0.0013491237384490667 155 99 0
-0.005293972806633286 0.0033793838605086033 -0.0012815292007108392 147 107 0
-0.005293972806633286 0.003920883799415484 -0.0011807498618002068 135 119 0
-0.005293972806633286 0.0044623837383223645 -0.0010799710393041581 124 130 0
-0.005293972806633286 0.005003883548125599 -0.001012377017980515 116 138 0
-0.005293972806633286 0.0055453834870324795 -0.0008331166054848532 95 159 0
-0.005293972806633286 0.006086883425939361 -0.0007655210349174577 87 167 0
-0.005293972806633286 0.006628383364846241 -0.0006647427288359933 76 178 0
-0.005293972806633286 0.007169883303753122 -0.00048548231634033156 55 199 0
-0.005293972806633286 0.007711383242660002 -3.7840728088363455e-05 4 250 0
-0.005835472745540167 -0.006367614652504309 0.00020756826131012652 0 239 15
-0.005835472745540167 -0.005826115230012013 0.0001723436225306405 0 242 12
-0.005835472745540167 -0.0052846152911051325 -0.0006948848152790521 79 175 0
-0.005835472745540167 -0.0047431153521982515 -0.001010263849502496 116 138 0
-0.005835472745540167 -0.004201615413291371 -0.0014579054377544642 167 87 0
-0.005835472745540167 -0.0036601154743844903 -0.0015255010083218595 175 79 0
-0.005835472745540167 -0.0031186155354776097 -0.001593095546060087 183 71 0
-0.005835472745540167 -0.002577115596570729 -0.0016938738521415514 194 60 0
-0.005835472745540167 -0.0020356156576638485 -0.0017290984909210374 198 56 0
-0.005835472745540167 -0.001494115718756968 -0.0017966930286592647 206 48 0
-0.005835472745540167 -0.0009526157798500874 -0.0017672233140046665 203 51 0
-0.005835472745540167 -0.00041111584094320676 -0.0017377525665209 199 55 0
-0.005835472745540167 0.00013038409796367384 -0.0019170134954311457 220 34 0
-0.005835472745540167 0.0006718841659742004 -0.0016334585099510798 187 67 0
-0.005835472745540167 0.0012133841048810811 -0.0015353655597067847 176 78 0
-0.005835472745540167 0.0017548840437879617 -0.0014723733087417985 169 85 0
-0.005835472745540167 0.0022963839524361754 -0.001539967846480026 176 78 0
-0.005835472745540167 0.002837883889325811 -0.0014418738634065626 165 89 0
-0.005835472745540167 0.0033793838605086033 -0.001444943431694281 166 88 0
-0.005835472745540167 0.003920883799415484 -0.0013468494486208178 154 100 0
-0.005835472745540167 0.0044623837383223645 -0.0012838582304849997 147 107 0
