ply
format ascii 1.0
element vertex 729
property float x
property float y
property float z
end_header
-0.01368266969582131 0.0004616011460257531 -0.003039047122001647
-0.013248806643349514 9.754681871522053e-05 -0.003042257158085703
-0.012814942877443235 -0.0002665081072379236 -0.003112955950200557
-0.012381079111536958 -0.0006305630331910677 -0.0032183625735342494
-0.011947216059065163 -0.0009946173605016003 -0.0029741115868091575
-0.011513352293158884 -0.0013586722864547445 -0.003010953776538371
-0.011079489240687088 -0.001722726613765277 -0.0036033643409609786
-0.010645625474780809 -0.0020867815397184212 -0.003708770964294671
-0.010211762065591773 -0.0024508361663502596 -0.003814178053289651
-0.009777898299685494 -0.0028148910923034036 -0.003884878009557723
-0.009344034890496457 -0.003178945718935242 -0.0037822790909558526
-0.008910171481307419 -0.0035430003455670803 -0.0037854891270399085
-0.008476307715401142 -0.003907055271520224 -0.0037546653766185037
-0.008042444306212104 -0.004271109898152063 -0.0037238411605358115
-0.007608580718664446 -0.004635164674444554 -0.003531480906531214
-0.007174717309475409 -0.004999219301076392 -0.0030868882313370696
-0.006740853632748441 -0.00536327415219921 -0.002477486850693821
-0.014620205354152519 0.0019876290911488522 -0.0017246913630515328
-0.014186342301680723 0.0016235747638383194 -0.0022729996126145116
-0.013752478535774444 0.0012595198378851753 -0.0032179434783756724
-0.013318614769868167 0.0008954649119320312 -0.003147245151922106
-0.012884751717396371 0.0005314105846214986 -0.0033914956729859105
-0.012450887951490092 0.0001673556586683545 -0.0034223198890686026
-0.012017024185583813 -0.00019669926728478965 -0.0034191098529845467
-0.011583161133112018 -0.0005607535945953222 -0.003415900981053709
-0.011149297367205739 -0.0009248085205484664 -0.003181469626724719
-0.010715434314733943 -0.001288862847858999 -0.0037877149879932395
-0.010281570548827666 -0.0016529177738121431 -0.0038535995408892623
-0.009847707139638628 -0.0020169724004439815 -0.004369931761175393
-0.00941384337373235 -0.0023810273263971254 -0.003992352634668349
-0.008979979964543312 -0.002745081953028964 -0.0040582376532256595
-0.008546116555354276 -0.003109136579660802 -0.0034263753332197657
-0.008112252789447997 -0.0034731915056139466 -0.003775024088099598
-0.00767838938025896 -0.0038372461322457845 -0.0037718145176768294
-0.007244525792711302 -0.004201300908538276 -0.0037011152599006883
-0.006810662383522265 -0.004565355535170114 -0.0026758608873933545
-0.014690014493426959 0.0027855474262910335 -0.0019028719980269662
-0.014256150727520681 0.0024214925003378895 -0.0018002729630097738
-0.013822287675048886 0.0020574381730273567 -0.0028538946062326423
-0.013388423909142607 0.0016933832470742126 -0.0024541153106838456
-0.012954560143236328 0.0013293283211210686 -0.003391568781808018
-0.012520697090764532 0.0009652739938105359 -0.0034284109715372315
-0.012086833324858255 0.0006012190678573909 -0.0037104280199855557
-0.011652969558951976 0.00023716414190424678 -0.0036078295670449725
-0.01121910650648018 -0.00012689018540628578 -0.00364467198960483
-0.010785242740573901 -0.0004909451113594299 -0.0036138477735221377
-0.010351379688102106 -0.0008549994386699625 -0.0040820473805069915
-0.009917515922195828 -0.0012190543646231067 -0.00405122386291623
-0.00948365251300679 -0.001583108991254945 -0.004121923353523015
-0.009049788747100513 -0.001947163917208089 -0.003877671202644705
-0.008615925337911475 -0.0023112185438399274 -0.003983079455792903
-0.008182061928722438 -0.0026752731704717658 -0.0041705723851919166
-0.007748198162816159 -0.00303932809642491 -0.0038219236303120843
-0.007314334753627121 -0.0034033827230567472 -0.0033773314207792273
-0.006880471166079464 -0.0037674374993492397 -0.003754911245778202
-0.006446607756890426 -0.004131492125981077 -0.003206601366400718
-0.006012744080163459 -0.004495546977103895 -0.0021016590762883416
-0.014325959567473815 0.0032194111921973125 -0.0013212781632319084
-0.013892095801567536 0.0028553562662441685 -0.002058416372165083
-0.01345823274909574 0.0024913019389336357 -0.002741832518950104
-0.013024368983189462 0.0021272470129804918 -0.002772656735032796
-0.012590505217283185 0.0017631920870273476 -0.0034055705182254306
-0.012156642164811389 0.0013991377597168141 -0.0035979307722300282
-0.01172277839890511 0.00103508283376367 -0.0035947200376540414
-0.011288914632998833 0.0006710279078105258 -0.0037870807573199263
-0.010855051580527037 0.0003069735804999932 -0.00403133314102888
-0.010421187814620758 -5.708134545315093e-05 -0.004097217228263616
-0.009987324762148963 -0.00042113567276368347 -0.004128041211515664
-0.009553460996242684 -0.0007851905987168276 -0.004193926230072974
-0.009119597587053647 -0.001149245225348666 -0.004123226273804902
-0.008685733821147368 -0.00151330015130181 -0.004189110826700925
-0.008251870411958332 -0.0018773547779336484 -0.0040016178973019114
-0.007818007002769294 -0.0022414094045654868 -0.00403244188055396
-0.0073841432368630154 -0.002605464330518631 -0.0037980102933943263
-0.006950279827673978 -0.002969518957150469 -0.0036105173639953128
-0.00651641624012632 -0.00333357373344296 -0.0035051107406616202
-0.006082552830937282 -0.003697628360074798 -0.0028732484206557265
-0.005648689154210315 -0.004061683211197616 -0.001997269690036773
-0.014395768706748255 0.004017329527339493 -0.0020037139765918246
-0.013961904940841976 0.003653274601386349 -0.0017071370966732495
-0.013528041174935699 0.003289219675433205 -0.002485108096152543
-0.013094178122463903 0.002925165348122672 -0.002862687921151518
-0.012660314356557624 0.002561110422169528 -0.003192549804225563
-0.012226450590651347 0.002197055496216384 -0.003570129629224538
-0.011792587538179551 0.0018330011689058514 -0.003573338966816663
-0.011358723772273272 0.0014689462429527073 -0.003855356713756918
-0.010924860006366994 0.001104891316999563 -0.0038921984378248444
-0.010490996953895198 0.0007408369896890305 -0.003997605759650468
-0.010057133187988919 0.00037678206373588635 -0.00406830571591854
-0.009623270135517123 1.272773642535381e-05 -0.004445884376764297
-0.009189406369610846 -0.00035132718952779035 -0.004097235389053821
-0.008755542960421808 -0.0007153818161596287 -0.004649231676012277
-0.00832167919451553 -0.0010794367421127727 -0.004204640630632638
-0.007887815785326492 -0.001443491368744611 -0.004012278746813535
-0.007453952376137456 -0.0018075459953764495 -0.004015489481389522
-0.007020088610231177 -0.002171600921329594 -0.003949604462832212
-0.00658622520104214 -0.002535655547961432 -0.00365302781574428
-0.006152361613494481 -0.0028997103242539234 -0.003356451401486992
-0.005718498204305444 -0.003263764950885762 -0.002673034789040684
-0.005284634527578476 -0.0036278198020085793 -0.002559626242145895
-0.004850770940030818 -0.0039918745783010705 -0.0017932696500793093
-0.014031714080116418 0.004451192936528531 -0.0020819816272705785
-0.013597850314210139 0.004087138010575386 -0.001752118114382028
-0.01316398654830386 0.0037230830846222422 -0.0024106374476104966
-0.012730123495832064 0.0033590287573117095 -0.0030940540600568047
-0.012296259729925785 0.0029949738313585655 -0.003023355267941951
-0.011862395964019508 0.0026309189054054202 -0.0036818741355091325
-0.011428532911547712 0.002266864578094888 -0.0037477586884051553
-0.010994669145641433 0.0019028096521417437 -0.0038136434741318217
-0.010560805379735154 0.0015387547261885995 -0.004006003495305776
-0.010126942327263359 0.001174700398878067 -0.00410860264673829
-0.009693078561357081 0.0008106454729249228 -0.004071759991347789
-0.009259215508885286 0.00044659114561439026 -0.00426412047818303
-0.008825351742979007 8.25362196612461e-05 -0.004260911606252193
-0.00839148833378997 -0.00028151840697059223 -0.004155503120273351
-0.007957624567883691 -0.0006455733329237364 -0.003968010656535625
-0.007523761158694654 -0.0010096279595555747 -0.0038626035675406447
-0.007089897749505617 -0.001373682586187413 -0.003757196944206952
-0.006656033983599339 -0.0017377375121405572 -0.004001447465270757
-0.0062221705744103005 -0.0021017921387723945 -0.002947826636955141
-0.005788306986862643 -0.002465846915064886 -0.0029446177650243035
-0.0053544435776736055 -0.0028299015416967245 -0.00231275544501841
-0.014101522206635068 0.0052491110297453415 -0.0018482333980500692
-0.013667659154163273 0.004885056702434809 -0.0020357258617877956
-0.013233795388256994 0.004521001776481665 -0.002546326490119099
-0.012799931622350717 0.004156946850528521 -0.002617025282233953
-0.012366068569878921 0.003792892523217988 -0.0032873973250389095
-0.011932204803972642 0.003428837597264844 -0.0034748904872685667
-0.011498341038066363 0.003064782671311699 -0.00366238341666758
-0.011064477985594567 0.002700728344001167 -0.0036992258392274375
-0.01063061421968829 0.0023366734180480225 -0.0038867183029651638
-0.010196750453782011 0.0019726184920948785 -0.003992125391960143
-0.009762887401310216 0.001608564164784346 -0.00450272625312209
-0.009329023635403937 0.0012445092388312018 -0.00395441660657525
-0.008895160582932141 0.0008804549115206692 -0.00402511516585946
-0.008461296817025862 0.0005163999855675251 -0.0043071326799690715
-0.008027433407836826 0.00015234535893568672 -0.0041147726587951175
-0.0075935696419305474 -0.0002117095670174574 -0.004151614848524331
-0.00715970623274151 -0.0005757641936492958 -0.004120790865272283
-0.006725842823552473 -0.0009398188202811341 -0.00412399973720312
-0.006291979057646195 -0.0013038737462342782 -0.003724220441654324
-0.005858115648457157 -0.0016679283728661162 -0.0028991289436817165
-0.005424252060909499 -0.0020319831491586076 -0.0026025525294244285
-0.004990388651720462 -0.002396037775790446 -0.003272924572229385
-0.004556524974993494 -0.0027600926269132635 -0.00279104639776051
-0.013303604527531435 0.005318920111623846 -0.0022082147188484664
-0.012869740761625156 0.004954865185670702 -0.0025568634737282987
-0.012435876995718877 0.004590810259717558 -0.0024861635174602266
-0.012002013943247082 0.004226755932407025 -0.0032233016099780794
-0.011568150177340803 0.0038627010064538813 -0.003415661863982677
-0.011134286411434526 0.003498646080500736 -0.0037643106188625093
-0.01070042335896273 0.0031345917531902037 -0.0038669090718030925
-0.010266559593056451 0.0027705368272370593 -0.004059269558638333
-0.009832695827150172 0.0024064819012839154 -0.0037772520445287223
-0.009398832774678376 0.0020424275739733826 -0.004125900100916623
-0.008964969008772099 0.0016783726480202386 -0.004156724549829959
-0.008531105956300303 0.001314318320709706 -0.004349084571003913
-0.008097242190394024 0.000950263394756562 -0.004379909019917249
-0.007663378781204987 0.0005862087681247236 -0.003911708947271108
-0.007229515015298709 0.00022215384217157946 -0.004104069434106349
-0.006795651606109672 -0.00014190078446025888 -0.0039986628107726565
-0.0063617881969206345 -0.0005059554110920972 -0.003811169648543
-0.0059279244310143555 -0.0008700103370452405 -0.003300569951534271
-0.005494061021825318 -0.0012340649636770789 -0.00297070643864572
-0.0050601974342776605 -0.00159811973996957 -0.002003467176109552
-0.004626334025088623 -0.0019621743666014086 -0.0013330949004739516
-0.013373412953371392 0.006116837848123415 -0.0022651406470686193
-0.012939549900899596 0.005752783520812883 -0.0022343175951391454
-0.012505686134993317 0.0053887285948597385 -0.0025163341779261823
-0.01207182236908704 0.0050246736689065945 -0.002984533784911036
-0.011637959316615244 0.004660619341596063 -0.0033143975306302305
-0.011204095550708965 0.004296564415642917 -0.003596415044739842
-0.010770231784802686 0.003932509489689773 -0.0037018216680735345
-0.01033636873233089 0.0035684551623792406 -0.0038072299212217327
-0.009902504966424613 0.003204400236426096 -0.003912636544555425
-0.009468641200518334 0.0028403453104729522 -0.003983335569500922
-0.009034778148046539 0.0024762909831624194 -0.004054035060107707
-0.00860091438214026 0.0021122360572092755 -0.0041594416834414
-0.008167051329668464 0.001748181729898743 -0.004093557130545377
-0.007733187563762186 0.0013841268039455987 -0.0035772253759205337
-0.007299324154573149 0.0010200721773137604 -0.004209087695926427
-0.006865460388666871 0.0006560172513606163 -0.004178263247013091
-0.006431596979477833 0.000291962624728778 -0.004112379159778356
-0.005997733570288796 -7.209200190306038e-05 -0.004046494606882333
-0.005563869804382518 -0.0004361469278562045 -0.004015670157968997
-0.00513000639519348 -0.000800201554488042 -0.0028438502922654148
-0.004696142807645822 -0.0011642563307805332 -0.001672029145993292
-0.004262279398456785 -0.0015283109574123716 -0.0017427279381081458
-0.012575495124607105 0.006186647108360541 -0.0022245638538151975
-0.012141631358700826 0.005822592182407396 -0.002624343149363994
-0.011707767592794549 0.005458537256454252 -0.0029729912057518955
-0.011273904540322753 0.00509448292914372 -0.003038875991478562
-0.010840040774416474 0.0047304280031905755 -0.003438655054196715
-0.010406177008510195 0.0043663730772374315 -0.003787303809076547
-0.0099723139560384 0.004002318749926899 -0.0035998108796775337
-0.00953845019013212 0.0036382638239737548 -0.0037921711336821313
-0.009104586424225843 0.003274208898020611 -0.003984531853348017
-0.008670723371754048 0.002910154570710078 -0.004176891874521971
-0.008236859605847769 0.002546099644756934 -0.0042427764274179935
-0.007802996553375973 0.0021820453174464017 -0.00405528349801898
-0.007369132787469694 0.0018179903914932573 -0.004247643519192934
-0.006935269378280658 0.001453935764861419 -0.004176944959908724
-0.006501405612374379 0.001089880838908275 -0.004369305446743965
-0.006067542203185341 0.0007258262122764365 -0.0037374426610767837
-0.005633678793996305 0.0003617715856445982 -0.0034554267767816778
-0.005199815028090026 -2.2833403085459474e-06 -0.0031734090298414226
-0.004765951618900989 -0.0003663379669403843 -0.0023292570840567346
-0.004332088031353331 -0.0007303927432328756 -0.003095613559707999
-0.012211440348314614 0.006620510695908199 -0.0022537407930940385
-0.011777576582408335 0.006256455769955054 -0.002764340257272124
-0.011343712816502058 0.00589240084400191 -0.0030463577713817354
-0.010909849764030262 0.005528346516691378 -0.0033762196544557805
-0.010475985998123983 0.005164291590738233 -0.0034816279076039787
-0.010042122232217704 0.004800236664785089 -0.0035523262340575452
-0.009608259179745908 0.004436182337474556 -0.003786757821217179
-0.00917439541383963 0.0040721274115214125 -0.0038574566133320327
-0.008740531647933352 0.0037080724855682685 -0.0040918877348303795
-0.008306668595461556 0.0033440181582577357 -0.004061064217239618
-0.007872804829555278 0.0029799632323045918 -0.004131763242185116
-0.007438941777083482 0.0026159089049940594 -0.004134973045438528
-0.007005078011177203 0.002251853979040915 -0.004240380600094795
-0.0065712146019881665 0.0018877993524090766 -0.004048019181936979
-0.0061373508360818875 0.0015237444264559327 -0.004153427202254534
-0.00570348742689285 0.0011596897998240943 -0.003961065784096718
-0.005269624017703814 0.0007956351731922559 -0.003716814564540982
-0.004835760251797535 0.00043158024723911176 -0.003272223519161343
-0.0044018968426084975 6.75256206072734e-05 -0.0022328451741486783
-0.011847385572022123 0.007054374283455856 -0.0014462259132415054
-0.011413521806115844 0.006690319357502712 -0.0026180462446063753
-0.010979658040209566 0.006326264431549568 -0.0030178253073245283
-0.01054579498773777 0.005962210104239036 -0.003262077691033482
-0.010111931221831492 0.005598155178285891 -0.003454437712207436
-0.009678067455925213 0.005234100252332747 -0.003646797966212034
-0.009244204403453417 0.004870045925022214 -0.0038391582202166315
-0.008810340637547138 0.00450599099906907 -0.003941757138818502
-0.008376476871640861 0.004141936073115926 -0.004044356290251017
-0.007942613819169065 0.0037778817458053934 -0.004075179807841778
-0.007508750053262786 0.0034138268198522495 -0.00431943079456687
-0.007074887000790991 0.003049772492541717 -0.004282588604837656
-0.006641023234884712 0.0026857175665885727 -0.0041771819815039635
-0.006207159825695675 0.0023216629399567344 -0.00414033979177475
-0.005773296059789396 0.0019576080140035904 -0.0038583229761570688
-0.005339432650600359 0.001593553387371752 -0.0035763054620474573
-0.004905569241411323 0.0012294987607399136 -0.002638851990923285
-0.004471705475505044 0.0008654438347867695 -0.0023089891765266653
-0.011917193923031753 0.007852292109134736 -0.001686888397671282
-0.011483330870559957 0.0074882377818242035 -0.001874381094239652
-0.011049467104653678 0.0071241828558710595 -0.00261786044575274
-0.010615603338747401 0.0067601279299179156 -0.003169856732711196
-0.010181740286275606 0.006396073602607383 -0.0033573496621102095
-0.009747876520369327 0.006032018676654239 -0.0034627574495971203
-0.009314012754463048 0.005667963750701095 -0.003650250378996134
-0.008880149701991252 0.005303909423390562 -0.00402782903984189
-0.008446285936084975 0.004939854497437418 -0.0039252303540706635
-0.008012422170178696 0.004575799571484273 -0.0038593460340052843
-0.0075785591177069 0.004211745244173741 -0.004093776922672987
-0.007144695351800621 0.003847690318220597 -0.004130618181079626
-0.0067108322993288255 0.0034836359909100646 -0.004236026667058468
-0.006276968533422547 0.0031195810649569202 -0.004043665714561939
-0.00584310512423351 0.002755526438325082 -0.004080506972968578
-0.005409241358327232 0.002391471512371938 -0.0040146224200725555
-0.004975377949138195 0.0020274168857400995 -0.003822262166067958
-0.004541514539949157 0.0016633622591082611 -0.003422483103349805
-0.004107650774042878 0.0012993073331551172 -0.002477539237588644
-0.0036737873648538416 0.0009352527065232788 -0.0012376504018902776
-0.011119276094267466 0.007922101369371862 -0.0017787012038752434
-0.010685412328361187 0.007558046443418717 -0.0024116146378219128
-0.01025154856245491 0.007193991517465573 -0.0029279470909386873
-0.009817685509983114 0.0068299371901550405 -0.0032765958458185196
-0.009383821744076835 0.0064658822642018965 -0.0034689558669924736
-0.008949957978170556 0.0061018273382487526 -0.0033982570748776197
-0.00851609492569876 0.00573777301093822 -0.0038428488187491894
-0.008082231159792484 0.005373718084985076 -0.004035210236907005
-0.007648367393886205 0.005009663159031932 -0.003800779115408659
-0.007214504341414409 0.004645608831721399 -0.004317110870033503
-0.00678064057550813 0.004281553905768255 -0.004347935318946838
-0.006346777523036334 0.003917499578457722 -0.0038373346906155348
-0.005912913757130056 0.003553444652504578 -0.004029695875942707
-0.005479050347941019 0.0031893900258727396 -0.0037476783618330956
-0.00504518658203474 0.0028253350999195956 -0.0037444683257490396
-0.0046113231728457035 0.0024612804732877572 -0.003510036738589406
-0.004177459763656666 0.002097225846655919 -0.0026340584736317396
-0.0037435959977503873 0.001733170920702775 -0.0015804371796548364
-0.011189084407861934 0.008720019239640397 -0.0017597583355382085
-0.010755221355390138 0.008355964912329865 -0.0015673980815336108
-0.01032135758948386 0.00799190998637672 -0.0027043900918215513
-0.009887493823577582 0.007627855060423576 -0.0032563861459493637
-0.009453630771105786 0.007263800733113043 -0.0032595968805253506
-0.009019767005199507 0.006899745807159899 -0.003447089809924364
-0.008585903239293228 0.006535690881206755 -0.0036345822736620903
-0.008152040186821433 0.006171636553896223 -0.003637791844084859
-0.0077181764209151545 0.005807581627943078 -0.0043812706135213375
-0.007284312655008876 0.005443526701989934 -0.0038649379275739193
-0.006850449602537081 0.005079472374679402 -0.003868148662149906
-0.006416585836630802 0.004715417448726257 -0.004198011476546526
-0.005982722784159006 0.004351363121415725 -0.004005651455372572
-0.005548859018252728 0.00398730819546258 -0.0043832301162183285
-0.005114995609063691 0.0036232535688307424 -0.0039834510535001755
-0.004681131843157413 0.0032591986428775984 -0.00395262660458684
-0.004247268433968375 0.00289514401624576 -0.0034043174237012863
-0.003813405024779338 0.0025310893896139217 -0.0025198094081133604
-0.0033795412588730595 0.0021670344636607777 -0.0016052327118813992
-0.002945677849684022 0.0018029798370289391 -0.0015393482754006982
-0.010391166625866602 0.008789828444140453 -0.0018934326944872737
-0.009957302859960323 0.008425773518187308 -0.0024097650311887264
-0.009523439094054044 0.008061718592234165 -0.003234856529161334
-0.009089576041582248 0.007697664264923632 -0.0032316476572304964
-0.00865571227567597 0.007333609338970488 -0.0032624714076519012
-0.008221848509769692 0.006969554413017344 -0.0033650703262537718
-0.0077879854572978965 0.006605500085706811 -0.003809661604464054
-0.0073541216913916175 0.006241445159753667 -0.004106238484382629
-0.006920257925485339 0.005877390233800523 -0.004069396294653416
-0.006486394873013544 0.00551333590648999 -0.004032553639262915
-0.006052531107107265 0.005149280980536846 -0.0038450611755251884
-0.005618668054635469 0.004785226653226313 -0.004089313093572855
-0.005184804288729191 0.004421171727273169 -0.0038072953466326
-0.004750940879540154 0.004057117100641331 -0.0037704533897340298
-0.004317077113633875 0.003693062174688187 -0.003302253084257245
-0.003883213704444838 0.0033290075480563487 -0.002524282783269882
-0.0034493502952558006 0.0029649529214245103 -0.0015570437535643578
-0.003015486529349522 0.0026008979954713664 -0.0011794640449807048
-0.010460974930107277 0.009587746325556402 -0.0020635114051401615
-0.010027111877635483 0.009223691998245869 -0.002168918028473854
-0.009593248111729204 0.008859637072292726 -0.002800780115649104
-0.009159384345822925 0.00849558214633958 -0.003130643628537655
-0.00872552129335113 0.008131527819029049 -0.0032013419549912214
-0.00829165752744485 0.007767472893075904 -0.003306749276816845
-0.007857793761538574 0.00740341796712276 -0.0034942422062158585
-0.007423930709066777 0.007039363639812227 -0.0037762599531561136
-0.006990066943160499 0.006675308713859083 -0.004010690841823816
-0.00655620317725422 0.0063112537879059395 -0.0039798663929104805
-0.006122340124782424 0.005947199460595407 -0.003949042875319719
-0.005688476358876146 0.005583144534642263 -0.00398588553071022
-0.005254613306404351 0.00521909020733173 -0.0039550610817968845
-0.004820749540498072 0.004855035281378586 -0.003924237098544836
-0.004386886131309035 0.004490980654746748 -0.004768389277160168
-0.003953022365402756 0.004126925728793604 -0.003596568014472723
-0.003519158956213719 0.0037628711021617653 -0.002589438809081912
-0.003085295547024682 0.003398816475529927 -0.0016444945940747857
-0.0026514317811184036 0.003034761549576783 -0.001974357757717371
-0.009663057213588481 0.009657555452024562 -0.0021934248507022858
-0.009229193447682202 0.009293500526071417 -0.002542073605582118
-0.008795329681775923 0.008929445600118274 -0.0033084300812333822
-0.008361466629304128 0.00856539127280774 -0.002756433794274926
-0.00792760286339785 0.008201336346854597 -0.00323831127025187
-0.007493739097491571 0.007837281420901452 -0.0030038803815841675
-0.007059876045019776 0.0074732270935909196 -0.0036367936991155148
-0.006626012279113497 0.007109172167637776 -0.0038810446858406067
-0.006192148513207219 0.006745117241684632 -0.0038442034274339676
-0.005758285460735423 0.006381062914374099 -0.0037735034711658955
-0.005324421694829144 0.006017007988420955 -0.003702805144712329
-0.0048905586423573484 0.005652953661110422 -0.0037336277309805155
-0.00445669487645107 0.005288898735157278 -0.003356049070134759
-0.004022831467262033 0.00492484410852544 -0.0032506424468010664
-0.0035889677013557545 0.004560789182572296 -0.0026187803596258163
-0.0031551042921667176 0.0041967345559404574 -0.0016515402821823957
-0.0027212408829776803 0.003832679929308619 -0.0011833402095362546
-0.009732865489767786 0.010455473366882751 -0.0020779501646757126
-0.00929900243729599 0.01009141903957222 -0.002407813211902976
-0.008865138671389711 0.009727364113619075 -0.0027853918727487326
-0.008431274905483432 0.009363309187665932 -0.0031152553856372833
-0.007997411853011636 0.008999254860355398 -0.0031520978081971407
-0.007563548087105358 0.008635199934402255 -0.0032227961346507072
-0.00712968432119908 0.00827114500844911 -0.0035048136487603188
-0.006695821268727285 0.007907090681138578 -0.003610221901908517
-0.006261957502821006 0.007543035755185433 -0.0034178607165813446
-0.0058280937369147275 0.007178980829232289 -0.0037954405415803194
-0.005394230684442932 0.0068149265019217566 -0.0037646163254976273
-0.004960366918536653 0.006450871575968613 -0.003415967570617795
-0.004526503866064857 0.006086817248658081 -0.0037935462314635515
-0.004092640100158579 0.005722762322704936 -0.0034969698172062635
-0.003658776690969542 0.0053587076960730975 -0.002890723990276456
-0.0032249129250632633 0.0049946527701199535 -0.0038281772285699844
-0.0027910495158742265 0.004630598143488115 -0.005287832580506802
-0.002357186106685189 0.004266543516856277 -0.0012246103724464776
-0.008934947661003499 0.010525282627119877 -0.002273205434903503
-0.00850108389509722 0.010161227701166732 -0.002672985196113587
-0.008067220129190941 0.00979717277521359 -0.003021633252501488
-0.007633357076719146 0.009433118447903056 -0.0032139951363205914
-0.007199493310812867 0.009069063521949913 -0.0030265019740909342
-0.006765629544906589 0.008705008595996768 -0.003508379682898522
-0.006331766492434793 0.008340954268686236 -0.0036109786015003924
-0.0058979027265285144 0.007976899342733091 -0.0035402786452323203
-0.005464038960622236 0.007612844416779947 -0.0035711028613150124
-0.005030175908150441 0.007248790089469414 -0.003636987647041679
-0.004596312142244162 0.00688473516351627 -0.0032594087533652787
-0.004162449089772366 0.006520680836205738 -0.0032902313396334652
-0.003728585323866088 0.0061566259102525936 -0.0032195330131798987
-0.0032947219146770507 0.005792571283620755 -0.002841954352334142
-0.002860858148770772 0.005428516357667611 -0.0038176046218723063
-0.002426994739581735 0.005064461731035774 -0.0011652401881292465
-0.009004756086843455 0.011323200363619447 -0.002132612513378263
-0.00857089303437166 0.010959146036308914 -0.002320104511454702
-0.008137029268465382 0.01059509111035577 -0.002788305282592774
-0.007703165502559103 0.010231036184402626 -0.0029757972806692128
-0.007269302450087308 0.009866981857092094 -0.003443998051807285
-0.006835438684181029 0.009502926931138949 -0.003199746366590262
-0.006401574918274751 0.009138872005185806 -0.0033872390631586318
-0.005967711865802955 0.008774817677875272 -0.0034926461521536116
-0.005533848099896676 0.00841076275192213 -0.0034618231002241377
-0.005099984333990398 0.008046707825968984 -0.003269461682066322
-0.004666121281518602 0.0076826534986584516 -0.0035993247292935853
-0.004232257515612323 0.007318598572705308 -0.003496726276353002
-0.003798394463140528 0.006954544245394775 -0.0032001493964344267
-0.0033645306972342496 0.006590489319441631 -0.00316932681016624
-0.0029306672880452123 0.0062264346928097925 -0.002724734134972096
-0.0024968035221389338 0.0058623797668566485 -0.0018700406653806572
-0.002062940112949897 0.00549832514022481 -0.0018041559960693125
-0.008206838258079168 0.011393009623856571 -0.0022438250016421084
-0.00777297449217289 0.011028954697903428 -0.0025924730580300097
-0.007339110726266612 0.010664899771950283 -0.002941121812909842
-0.006905247673794817 0.010300845444639752 -0.0026591054629534487
-0.006471383907888538 0.009936790518686607 -0.002955682342872024
-0.0060375201419822595 0.009572735592733464 -0.003021566895768047
-0.005603657089510464 0.00920868126542293 -0.0034213461913168435
-0.005169793323604185 0.008844626339469787 -0.003487230278551579
-0.004735929557697907 0.008480571413516642 -0.003416530787944794
-0.004302066505226111 0.00811651708620611 -0.003713107202202082
-0.003868202739319832 0.007752462160252965 -0.0032449073623865847
-0.003434339686848037 0.0073884078329424325 -0.003275731578469277
-0.0030004759209417585 0.0070243529069892886 -0.002807531272992492
-0.002566612511752721 0.00666029828035745 -0.0020295607391744856
-0.008276646683919127 0.012190927360356141 -0.001972619211301208
-0.007842783631447331 0.01182687303304561 -0.0023024820256978278
-0.007408919865541052 0.011462818107092465 -0.002680060919374228
-0.006975056099634773 0.011098763181139322 -0.002785469172522426
-0.006541193047162977 0.010734708853828788 -0.0029729621019214396
-0.006107329281256699 0.010370653927875645 -0.0031604552641510968
-0.00567346551535042 0.0100065990019225 -0.0032658618874847893
-0.005239602462878625 0.009642544674611968 -0.003453354816883803
-0.0048057386969723465 0.009278489748658823 -0.00364084797911346
-0.004371874931066068 0.008914434822705678 -0.003922865260392428
-0.003938011878594273 0.008550380495395147 -0.0036262886133044962
-0.003504148112687994 0.008186325569442002 -0.0035604040604084734
-0.003070285060216198 0.00782227124213147 -0.003263826481997967
-0.0026364212943099197 0.007458216316178326 -0.002864048350602389
-0.0022025578851208824 0.0070941616895464875 -0.0023157384712249045
-0.0017686941192146038 0.0067301067635933435 -0.001490646274760366
-0.007044864939587908 0.011896681872998744 -0.0028925570659339432
-0.006611001173681629 0.0115326269470456 -0.0027871499769389634
-0.006177138121209833 0.011168572619735067 -0.002979510230943561
-0.005743274355303555 0.010804517693781924 -0.003045394783839584
-0.005309410589397276 0.010440462767828779 -0.0031479937024414544
-0.004875547536925481 0.010076408440518247 -0.0034445701166987423
-0.0044416837710192026 0.009712353514565102 -0.003688821336254478
-0.0040078200051129245 0.009348298588611957 -0.00371964555233717
-0.003573956952641129 0.008984244261301426 -0.0036828031297773127
-0.0031400931867348494 0.008620189335348282 -0.0030903930310159926
-0.0027062301342630542 0.008256135008037749 -0.002902900101616979
-0.0022723663683567757 0.007892080082084606 -0.0025253214407712225
-0.0018385029591677384 0.0075280254554527665 -0.001747350441291929
-0.007114674078862348 0.012694600208140925 -0.002302209381014109
-0.00668081031295607 0.012330545282187782 -0.00263207289390266
-0.006246946547049791 0.011966490356234637 -0.002819565357640386
-0.005813083494577995 0.011602436028924105 -0.002856406616047025
-0.005379219728671717 0.01123838110297096 -0.0028932490386068825
-0.004945355962765438 0.010874326177017817 -0.0032708288636058573
-0.004511492910293642 0.010510271849707284 -0.003376235952600837
-0.004077629144387364 0.010146216923754139 -0.0037060989998281006
-0.0036437653784810856 0.009782161997800994 -0.0036752747837454085
-0.00320990232600929 0.009418107670490464 -0.003482914529740811
-0.002776038560103011 0.009054052744537319 -0.003083135467022658
-0.002342175507631216 0.008689998417226787 -0.0030523112509399657
-0.001908311741724937 0.008325943491273642 -0.002474148757755757
-0.0014744483325359 0.007961888864641805 -0.0021775718778371815
-0.0010405845666296215 0.00759783393868866 -0.0013819113373756415
-0.006316755686324231 0.012764408691376818 -0.002261668676510454
-0.005882891920417952 0.012400353765423673 -0.002809976926073433
-0.005449028867946157 0.012036299438113142 -0.0024323982652276763
-0.0050151651020398785 0.011672244512159997 -0.002498282818123699
-0.0045813013361335995 0.011308189586206854 -0.0027425340376794347
-0.004147438283661804 0.01094413525889632 -0.0032908434513956317
-0.0037135745177555254 0.010580080332943177 -0.003321666968986393
-0.003279710751849247 0.010216025406990032 -0.0030396494548767814
-0.0028458476993774517 0.0098519710796795 -0.002968951128423215
-0.0024119839334711727 0.009487916153726355 -0.0027814579661935577
-0.0019781208809993775 0.009123861826415823 -0.002884057117626072
-0.0015442571150930987 0.008759806900462679 -0.002252194331958891
-0.0011103937059040617 0.008395752273830841 -0.002548771211877466
-0.005952700760371087 0.013198272457283097 -0.002095064613968135
-0.005518836994464808 0.012834217531329952 -0.002563264453783632
-0.005084973941993013 0.01247016320401942 -0.0025324418675154456
-0.004651110176086735 0.012106108278066276 -0.0024665561504662046
-0.004217246410180456 0.011742053352113133 -0.002503398573026062
-0.0037833833577086604 0.011377999024802599 -0.002690891036763788
-0.0033495195918023814 0.011013944098849456 -0.0026941015385091313
-0.002915655825896103 0.010649889172896311 -0.002697310410439969
-0.0024817927734243077 0.010285834845585779 -0.0027341528329998263
-0.0020479290075180287 0.009921779919632634 -0.0027709952555596837
-0.0016140659550462333 0.009557725592322102 -0.0027051104698330173
-0.0011802021891399548 0.009193670666368958 -0.0027419528923928746
-0.0007463387799509177 0.00882961603973712 -0.002004814799875022
-0.00031247501404463914 0.008465561113783975 -0.001426652306690813
-0.00515478236783297 0.01326808094051899 -0.0019403733313083657
-0.004720919315361174 0.012904026613208457 -0.0024567057844251403
-0.004287055549454896 0.012539971687255314 -0.0018642953364178547
-0.003853191783548617 0.012175916761302169 -0.0018610853003337988
-0.003419328731076822 0.011811862433991637 -0.0017556780949234971
-0.002985464965170543 0.011447807508038492 -0.0028276657685637483
-0.0025516011992642645 0.011083752582085347 -0.002049693604931236
-0.0021177381467924693 0.010719698254774816 -0.00229394598864019
-0.0016838743808861906 0.010355643328821672 -0.0023965449072420606
-0.001250011328414395 0.009991589001511139 -0.0024624294601380834
-0.0008161475625081164 0.009627534075557996 -0.002357021439820529
-0.00038228415331907937 0.009263479448926156 -0.0017251601675525316
5.157961258719921e-05 0.008899424522973012 -0.001619752263650299
0.00048544302177623626 0.008535369896341174 -0.0012898900313302883
-0.00435686438940803 0.013337890379114736 -0.002026130910962821
-0.003923000623501752 0.012973835453161591 -0.001781879924237729
-0.0034891368575954733 0.012609780527208448 -0.0017510557081550368
-0.003055273805123678 0.012245726199897914 -0.0017542645800858745
-0.002621410039217399 0.011881671273944771 -0.0015100137097761044
-0.0021875462733111205 0.011517616347991626 -0.0019782138988375672
-0.0017536832208393251 0.011153562020681095 -0.0021657068282365808
-0.0013198194549330466 0.01078950709472795 -0.002400137949734927
-0.0008859564024612511 0.010425452767417418 -0.0024033468216657647
-0.0004520926365549725 0.010061397841464273 -0.0024401890113949784
-1.8229227365935406e-05 0.009697343214832435 -0.0021959380246698865
0.0004156345385403432 0.00933328828887929 -0.0021651142742484817
0.0008494979477293803 0.008969233662247451 -0.002201956696808339
0.0012833613569184174 0.008605179035615614 -0.0022051655687391767
0.001717225122824696 0.008241124109662469 -0.002139281015843154
0.0021510885320137328 0.007877069483030632 -0.0015330355381593117
0.002584952119561391 0.00751301470673814 -0.0016384434420615443
0.004320406291393401 0.006056795751228828 -0.001396693754941226
0.004754269824597417 0.005692741020536067 -0.0013999026268720636
0.005188133332719751 0.005328686310889335 -0.0014706022338941702
0.005621996875677754 0.004964631572012007 -0.0016580952797085055
0.006055860463225412 0.004600576795719516 -0.0013615187490358957
0.0064897240507730694 0.004236522019427025 -0.001169157214462758
0.007357450869151144 0.003508412766163348 -0.001164289773441852
0.007791314635057422 0.003144357840210204 -0.0011334659066051253
0.009092905219341776 0.002052193660993383 -0.0018057466950267562
0.009526768628530812 0.0016881390343615446 -0.0021356097422540197
0.009960632037719849 0.0013240844077297062 -0.0022410168312489995
0.010394495803626128 0.0009600294817765622 -0.0017964250873774299
0.011262222622004202 0.00023192022851288547 -0.0018713045865297326
-0.003125082230963635 0.013043643936397484 -0.0012034722603857528
-0.0026912191784918397 0.012679589609086953 -0.0011327737011015426
-0.0022573554125855607 0.012315534683133808 -0.0011986583704128872
-0.0018234916466792824 0.011951479757180663 -0.001391018508002163
-0.0013896285942074868 0.011587425429870131 -0.0018356110667809855
-0.0009557648283012082 0.011223370503916988 -0.0017302031628787528
-0.0005219017758294127 0.010859316176606454 -0.0022120808716863402
-8.803800992313409e-05 0.010495261250653311 -0.0028449941892176875
0.00034582539926590296 0.010131206624021472 -0.002515131141990424
0.0007796891651721816 0.009767151698068327 -0.0026177295949310073
0.0012135525743612186 0.00940309707143649 -0.0028100903145968923
0.0016474159835502557 0.00903904244480465 -0.0028068809770047673
0.0020812797494565343 0.008674987518851507 -0.0027014731895178565
0.002515143158645571 0.008310932892219668 -0.0026307743974030027
0.0029490067461932293 0.007946878115927177 -0.002979423152282835
0.003382870155382266 0.007582823489295339 -0.0019541692454367885
0.0038167338321092345 0.007218768638172521 -0.002398761687800289
0.004250597419656893 0.00685471386188003 -0.002116743940860034
0.00468446091802524 0.006490659160417865 -0.002598622115328909
0.005118324451229255 0.006126604429725104 -0.002595411380752922
0.00555218795935159 0.005762549720078372 -0.002698010532185436
0.005986051502309592 0.005398494981201044 -0.0027288347482681283
0.00641991508985725 0.005034440204908553 -0.002691992325708271
0.006853778677404908 0.004670385428616062 -0.002586585236713291
0.007287642086593945 0.0043063308019842235 -0.0023521541152149448
0.007721505495782982 0.003942276175352385 -0.0026487305294722327
0.008155369261689261 0.003578221249399241 -0.002841092413291336
0.008589232670878298 0.003214166622767403 -0.002209229627624155
0.009023096080067334 0.0028501119961355645 -0.0028154754545539626
0.009456959845973613 0.0024860570701824205 -0.002918073907494546
0.00989082325516265 0.002122002443550582 -0.0028473739512264737
0.010324686664351688 0.0017579478169187435 -0.0025653569027781495
0.010758550430257967 0.0013938928909655996 -0.0022833403199911126
0.011192414196164244 0.0010298379650124554 -0.002001322805881501
0.01162627724863604 0.0006657836377019228 -0.0019644803833216437
0.012060141014542319 0.00030172871174877864 -0.0017300491454079758
0.012494004780448598 -6.232621420436551e-05 -0.001400187029503287
-0.0018933004866324161 0.012749398449040087 -0.0013175933854654442
-0.0014594367207261376 0.012385343523086942 -0.0013544356916099798
-0.001025573668254342 0.01202128919577641 -0.0017320144688710581
-0.0005917099023480634 0.011657234269823265 -0.0019195075146853935
-0.00015784684987626784 0.011293179942512733 -0.002153938403353096
0.0002760169160300107 0.010929125016559588 -0.0023883688263595113
0.0007098803252190478 0.010565070389927751 -0.0027182318735867747
0.0011437440911253264 0.010201015463974606 -0.0030958105344325313
0.0015776075003143635 0.009836960837342767 -0.0032833036966621884
0.0020114709095034006 0.00947290621071093 -0.003517735283821822
0.002445334675409679 0.009108851284757784 -0.0036231419071555146
0.002879198084598716 0.008744796658125947 -0.003592318622395397
0.003313061672146374 0.008380741881833456 -0.0035264345351606616
0.003746925081335411 0.008016687255201617 -0.0035296434070914992
0.004180788758062379 0.007652632404078799 -0.0036003433633595714
0.0046146523456100375 0.007288577627786308 -0.003671041689813138
0.0050485158439783845 0.006924522926324143 -0.0036051576025784024
0.0054823793771824 0.0065604681956313825 -0.003308580722659827
0.005916242885304734 0.0061964134859846505 -0.003379279514774681
0.006350106428262737 0.005832358747107322 -0.0034161219373345384
0.006783970015810395 0.005468303970814831 -0.0033852977212518462
0.007217833603358053 0.00510424919452234 -0.0033194131683558234
0.00765169701254709 0.004740194567890502 -0.003356255358085037
0.008085560421736127 0.004376139941258663 -0.0032903708051890143
0.008519424187642406 0.004012085015305519 -0.003259546589106322
0.008953287596831443 0.003648030388673681 -0.003493978176265956
0.009387151006020479 0.0032839757620418426 -0.0031974012963473806
0.009821014771926758 0.0029199208360886986 -0.0031665775459259757
0.010254878181115794 0.0025558662094568602 -0.0029742168262600907
0.010688741590304833 0.002191811582825022 -0.0025744377635419377
0.011122605356211112 0.0018277566568718777 -0.00238207750953734
0.011556469122117389 0.0014637017309187335 -0.0019822982139885434
0.011990332174589185 0.001099647403608201 -0.0017899380763992678
0.012424195940495463 0.0007355924776550568 -0.0015456859255209576
0.012858059706401742 0.0003715375517019126 -0.0013533254386857163
-0.0010953817947729936 0.01281920728899322 -0.0011959240073338162
-0.000661518742301198 0.012455152961682689 -0.001492500538006426
-0.00022765497639491944 0.012091098035729544 -0.001736751408316196
0.00020620807607687612 0.011727043708419012 -0.0019810036756098283
0.0006400718419831547 0.011362988782465867 -0.0021733636967837824
0.0010739352511721918 0.01099893415583403 -0.002856780542060734
0.0015077990170784704 0.010634879229880885 -0.002922665094956757
0.0019416624262675074 0.010270824603249046 -0.0036598027218133224
0.0023755258354565445 0.009906769976617208 -0.0032822228968143476
0.002809389601362823 0.009542715050664063 -0.004196800757199527
0.00324325301055186 0.009178660424032226 -0.004493377637118102
0.003677116598099518 0.008814605647739735 -0.004025177564471961
0.004110980007288555 0.008450551021107896 -0.004056001547724009
0.004544843684015523 0.008086496169985078 -0.003985302057117225
0.004978707271563181 0.007722441393692587 -0.0039820927195251
0.0054125707699315285 0.007358386692230422 -0.0040129157714545735
0.005846434303135544 0.0069943319615376615 -0.003105859272181989
0.006280297811257878 0.0066302772518909295 -0.003764378605410458
0.006714161354215881 0.006266222513013601 -0.0037611690349876894
0.007148024941763539 0.00590216773672111 -0.003690469777211548
0.007581888529311197 0.005538112960428619 -0.0035850626882165683
0.008015751938500234 0.005174058333796781 -0.0035818526521325124
0.00844961534768927 0.004810003707164942 -0.0036477372050285352
0.00888347911359555 0.004445948781211798 -0.0035423301160335554
0.009317342522784586 0.00408189415457996 -0.003505487693473698
0.009751205931973624 0.0037178395279481215 -0.003175625810399653
0.010185069697879903 0.0033537846019949776 -0.0030702175572514547
0.01061893310706894 0.002989729975363139 -0.0028357875999063266
0.011052796516257976 0.002625675348731301 -0.002505924087017776
0.011486660282164255 0.0022616204227781564 -0.0022239065729081644
0.011920524048070534 0.0018975654968250125 -0.001989475451409818
0.01235438710054233 0.00153351116951448 -0.0016118965577334176
-0.0007313268688198496 0.013253071054899498 -0.0011511783814057719
-0.000297463816348054 0.012889016727588966 -0.0013386714272201072
0.00013639994955822452 0.012524961801635823 -0.0014440782833844434
0.00057026300203002 0.01216090747432529 -0.0019122783560305845
0.0010041267679362987 0.011796852548372146 -0.002099770819768311
0.0014379901771253358 0.011432797921740307 -0.003037224290892483
0.0018718539430316143 0.011068742995787162 -0.003669087076559664
0.002305717352220651 0.010704688369155325 -0.003998950123786927
0.0027395807614096885 0.010340633742523486 -0.004233381710946561
0.003173444527315967 0.009976578816570342 -0.004467811435461045
0.003607307936505004 0.009612524189938503 -0.004365212749689818
0.004041171524052662 0.009248469413646012 -0.004368423018604518
0.004475034933241699 0.008884414787014175 -0.004265823867172004
0.004908898609968667 0.008520359935891357 -0.0042350003495812425
0.005342762197516325 0.008156305159598864 -0.004204177297651769
0.0057766256958846724 0.0077922504581367 -0.0041382922790944585
0.006210489229088688 0.00742819572744394 -0.003789642592892052
0.006644352737211022 0.007064141017797208 -0.00389505084604025
0.007078216280169025 0.0067000862789198794 -0.0037924519274383796
0.007512079867716683 0.006336031502627388 -0.003726567840203644
0.00794594345526434 0.005971976726334897 -0.003534207120537759
0.008379806864453377 0.005607922099703059 -0.004530689679086209
0.008813670273642415 0.00524386747307122 -0.0034257487859576954
0.009247534039548694 0.004879812547118076 -0.003359864000231029
0.00968139744873773 0.004515757920486238 -0.0031675028149038566
0.010115260857926767 0.0041517032938544 -0.002975142560899259
0.010549124623833046 0.0037876483679012557 -0.002730891574174167
0.010982988033022082 0.0034235937412694173 -0.0025385313201695694
0.01141685144221112 0.003059539114637579 -0.003505769651383163
0.0118507152081174 0.0026954841886844346 -0.002160392934456469
0.012284578974023677 0.0023314292627312906 -0.0016120834043249499
0.012718442026495472 0.001967374935420758 -0.001212304225191475
0.0009343173293405528 0.012594770526797085 -0.001281611970625819
0.0013681810952468315 0.012230715600843942 -0.0015781886177137507
0.0018020445044358686 0.011866660974212103 -0.0024032813962548984
0.002235908270342147 0.011502606048258958 -0.0032877894118428243
0.002669771679531184 0.01113855142162712 -0.0036364377010613693
0.0031036350887202213 0.010774496794995281 -0.003985086455941201
0.0035374988546265 0.010410441869042138 -0.00433373497799039
0.003971362263815537 0.010046387242410299 -0.004526095464825631
0.004405225851363195 0.009682332466117808 -0.004196232184767724
0.004839089260552232 0.00931827783948597 -0.004298830870538951
0.0052729529372792 0.008954222988363153 -0.004193424247205258
0.005706816524826858 0.00859016821207066 -0.004005931317806245
0.006140680023195205 0.008226113510608497 -0.004002721048891545
0.0065745435563992205 0.007862058779915734 -0.0036728577688336385
0.007008407064521555 0.007498004070269003 -0.0036696486640721573
0.007442270607479558 0.007133949331391675 -0.0033876311499625457
0.007876134195027217 0.006769894555099184 -0.0033169311936944736
0.008309997782574874 0.006405839778806693 -0.0029870693106204284
0.00874386119176391 0.006041785152174854 -0.003017891896888615
0.009177724600952947 0.005677730525543016 -0.002507292898371817
0.009611588366859226 0.005313675599589872 -0.0026098913513124
0.010045451776048262 0.004949620972958034 -0.002573048928752543
0.0104793151852373 0.004585566346326195 -0.0021954702679067863
0.01091317895114358 0.004221511420373051 -0.0021922602318227304
0.011347042360332616 0.003857456793741213 -0.002004767302423717
0.011780905769521652 0.0034934021671093746 -0.0018172741401940597
0.012214769535427931 0.00312934724115623 -0.0015828442992642535
0.01264863330133421 0.002765292315203086 -0.0012052644742652787
0.0021660994303890125 0.012300524740118382 -0.0018209670670330537
0.002599963196295291 0.011936469814165237 -0.002331566531211139
0.003033826605484328 0.0115724151875334 -0.002709146356210114
0.0034676900146733652 0.01120836056090156 -0.002991164103150369
0.0039015537805796438 0.010844305634948417 -0.0032731804531067623
0.004335417189768681 0.010480251008316578 -0.0034606736153364195
0.004769280777316339 0.010116196232024087 -0.0035313731059432043
0.005203144186505376 0.009752141605392249 -0.0035005493555217994
0.0056370078632323435 0.009388086754269432 -0.004170921165496113
0.006070871450780002 0.009024031977976939 -0.0035380073823034776
0.006504734949148349 0.008659977276514776 -0.003541217884048821
0.0069385984823523645 0.008295922545822013 -0.0035103936679661287
0.007372461990474699 0.007931867836175282 -0.0032138167880475534
0.007806325533432702 0.007567813097297954 -0.003147932700812818
0.00824018912098036 0.007203758321005463 -0.002955571981146933
0.008674052708528017 0.006839703544712972 -0.0028896878939121975
0.009107916117717054 0.006475648918081133 -0.0026973271742463125
0.009541779526906092 0.006111594291449295 -0.002631443087011577
0.009975643292812371 0.005747539365496151 -0.0025288441684097065
0.010409506702001407 0.005383484738864313 -0.0024262450169771923
0.010843370111190444 0.005019430112232474 -0.002077596960589291
0.011277233877096723 0.00465537518627933 -0.0020808058325201286
0.01171109728628576 0.004291320559647492 -0.0020499827805906547
0.012144960695474797 0.0039272659330156535 -0.001650203485041858
0.013012688227287354 0.003199156081109365 -0.0011791774304583682
0.01344655127975915 0.0028351017537988324 -0.0011823864188045276
0.002964018122248435 0.012370333580071516 -0.00120454386342317
0.003831744940626509 0.011642224326807839 -0.0013692574575543417
