ply
format ascii 1.0
element vertex 738
property float x
property float y
property float z
end_header
0.02357638644201106 0.008395271551898346 -0.006768889190770231
0.022778807782801752 0.009345788784387514 -0.006624547700916823
0.021981229123592443 0.010296306016876682 -0.005748703150641933
0.02118365046438313 0.01124682324936585 -0.004420528091185583
0.020386071615016252 0.012197340708475985 -0.0030339278556802624
0.019588492955806943 0.013147857940965154 -0.0034446909173107055
0.032196812359403325 -0.00380851299069711 -0.005799620685356124
0.02820891982398706 0.0009440722652648592 -0.003177442197406474
0.02661376250556844 0.0028451067302431954 -0.0028536000973057797
0.02581618384635913 0.0037956239627323627 -0.0029979415871591894
0.025018605187149823 0.004746141195221531 -0.007205587902011363
0.024221026527940514 0.005696658427710699 -0.006794824248715593
0.0234234478687312 0.006647175660199868 -0.006939165738569002
0.022625869209521893 0.007597692892689035 -0.007163940579641195
0.021828290550312584 0.008548210125178203 -0.007083225595726742
0.021030711891103275 0.009498727357667372 -0.007150755909493492
0.020233133231893963 0.01044924459015654 -0.006637159639027953
0.019435554382527084 0.011399762049266675 -0.0036421586285441377
0.03363903110454209 -0.007457643347373924 -0.003521636401426603
0.032043873786123465 -0.0055566088823955865 -0.005834095840631944
0.03124629512691416 -0.004606091649906418 -0.004090945654081971
0.03044871646770485 -0.0036555744174172513 -0.006078143588067056
0.02965113780849554 -0.0027050571849280814 -0.004811492255977371
0.02885355914928623 -0.0017545399524389138 -0.0033687956391503003
0.028055981250707202 -0.000804023626433617 -0.004578122884364632
0.027258402591497893 0.00014649360605555043 -0.004585154235111145
0.026460823932288585 0.0010970108385447179 -0.004592186769188313
0.025663245273079272 0.0020475280710338865 -0.007401427941930114
0.024865666613869963 0.002998045303523054 -0.006200182845083115
0.024068087954660655 0.0039485625360122225 -0.00766884765311386
0.023270509295451346 0.00489907976850139 -0.007133734881365277
0.022472930636242033 0.005849597000990559 -0.0076473311518308155
0.021675351977032725 0.006800114233479726 -0.007654364869238637
0.020877773317823416 0.0077506314659688946 -0.0075100233793852274
0.020080194658614107 0.008701148698458063 -0.007590735996638372
0.019282615999404795 0.009651665930947231 -0.006714891446363483
0.018485037150037915 0.010602183390057366 -0.0034560372832873037
0.03189093611932748 -0.007304704013463782 -0.004299386982135968
0.03109335746011817 -0.006354186780974614 -0.004524163006538814
0.030295778800908862 -0.005403669548485446 -0.0058523380659951645
0.029498200141699554 -0.004453152315996279 -0.005771625448742019
0.02870062148249024 -0.0035026350835071093 -0.006647469999016909
0.027903042823280932 -0.002552117851017942 -0.006566755015102455
0.027105464924701905 -0.001601601525012645 -0.00615599254513734
0.026307886265492596 -0.0006510842925234775 -0.005642395091341147
0.025510307606283287 0.00029943293996568995 -0.0061775054964284225
0.024712728947073975 0.0012499501724548587 -0.007856455261672213
0.023915150287864666 0.002200467404944026 -0.007849425094256355
0.023117571628655357 0.0031509846374331947 -0.008074198751997892
0.022319992969446048 0.004101501869922362 -0.00806716740125138
0.021522414310236736 0.005052019102411531 -0.00813469771501813
0.020724835651027427 0.0060025363349006985 -0.008127665180940961
0.019927256991818118 0.006953053567389867 -0.007972776664967781
0.01912967833260881 0.007903570799879035 -0.007562013011672011
0.018332099673399497 0.008854088032368203 -0.007331083667867974
0.017534520824032618 0.009804605491478338 -0.005411971029726401
0.03253557620525693 -0.010003317137651428 -0.003145818869006975
0.030940418886838315 -0.00810228267267309 -0.0027079587187288697
0.030142840227629003 -0.007151765440183923 -0.005632264597611612
0.029345261568419694 -0.006201248207694755 -0.006658007558491446
0.028547682909210385 -0.005250730975205588 -0.006665040092568613
0.027750104250001073 -0.004300213742716418 -0.006819928608541793
0.026952525590791764 -0.0033496965102272507 -0.007050855585684521
0.026154947692212736 -0.0023991801842219536 -0.006515745180597246
0.025357369033003428 -0.0014486629517327862 -0.006596460164511699
0.02455979037379412 -0.0004981457192436188 -0.007894325392594574
0.02376221171458481 0.00045237151324554987 -0.008125252369737303
0.0229646330553755 0.0014028887457347172 -0.008356180530210686
0.02216705439616619 0.002353405978223886 -0.008511071412845173
0.02136947573695688 0.003303923210713053 -0.008286295388442326
0.02057189707774757 0.004254440443202222 -0.008293327922519493
0.019774318418538262 0.00520495767569139 -0.008225798792083398
0.01897673975932895 0.006155474908180558 -0.008158268478316648
0.01817916110011964 0.007105992140669725 -0.0077368418324970075
0.017381582440910332 0.008056509373158894 -0.006762818704514827
0.01658400359154345 0.00900702683226903 -0.005427729444046717
0.030787480313558456 -0.009850378564371568 -0.003778489561534787
0.029989901654349147 -0.008899861331882399 -0.004979734658381787
0.029192322995139835 -0.007949344099393232 -0.00704993732109696
0.028394744335930526 -0.006998826866904064 -0.006895049988454434
0.027597165676721217 -0.0060483096344148965 -0.007430159210211056
0.026799587017511905 -0.0050977924019257265 -0.007497689523977805
0.026002008358302596 -0.004147275169436559 -0.007490656989900637
0.025204430459723568 -0.0031967588434312624 -0.007483626822484778
0.02440685180051426 -0.002246241610942095 -0.006970029368688586
0.02360927314130495 -0.0012957243784529277 -0.008298204428144936
0.02281169448209564 -0.000345207145963759 -0.008442545917998345
0.022014115822886333 0.0006053100865254084 -0.009573736656793454
0.02121653716367702 0.0015558273190145772 -0.008746529363062354
0.02041895850446771 0.0025063445515037443 -0.008890870852915763
0.019621379845258403 0.0034568617839929134 -0.0075065739705286
0.018823801186049094 0.004407379016482081 -0.00827040089109679
0.01802622252683978 0.005357896248971249 -0.008263369540350278
0.017228643867630473 0.006308413481460416 -0.008108479841046444
0.016431065208421164 0.007258930713949585 -0.005862331293368828
0.030634541740278597 -0.011598474456070049 -0.004168851411023651
0.029836963081069288 -0.01064795722358088 -0.003944075386620805
0.029039384421859975 -0.00969743999109171 -0.006252371276919784
0.028241805762650667 -0.008746922758602544 -0.005376526726644894
0.027444227103441358 -0.007796405526113376 -0.007430318959849355
0.02664664844423205 -0.006845888293624209 -0.007511033943763809
0.025849069785022737 -0.005895371061135039 -0.008128882828184004
0.025051491125813428 -0.0049448538286458715 -0.007904107987111811
0.0242539132272344 -0.003994337502640575 -0.007984822971026265
0.02345633456802509 -0.0030438202701514074 -0.007917292657259515
0.022658755908815782 -0.00209330303766224 -0.008943034434808695
0.02186117724960647 -0.0011427858051730713 -0.0088755053043726
0.02106359859039716 -0.0001922685726839039 -0.009030395003676434
0.020266019931187852 0.0007582486598052648 -0.00849528223192785
0.019468441271978543 0.0017087658922944322 -0.00872621275906254
0.01867086261276923 0.002659283124783601 -0.00913697641235831
0.017873283953559922 0.0036098003572727685 -0.008373149491790119
0.017075705294350613 0.004560317589761937 -0.007399127547138593
0.016278126635141305 0.005510834822251104 -0.008226337207531001
0.015480547975931992 0.006461352054740272 -0.00702508856069204
0.014682969126565113 0.007411869513850408 -0.0046043585082961285
0.02968402450778943 -0.012396053115279358 -0.0028946835626192822
0.02888644584858012 -0.01144553588279019 -0.004509621056130887
0.02808886718937081 -0.01049501865030102 -0.006006863299457543
0.0272912885301615 -0.009544501417811853 -0.006074393613224293
0.026493709870952193 -0.008593984185322683 -0.0074609944403949404
0.025696131211742884 -0.007643466952833516 -0.00788242108621458
0.024898552552533572 -0.006692949720344346 -0.007875387368806759
0.024100973893324263 -0.005742432487855179 -0.008296815197957053
0.023303395994745235 -0.004791916161849882 -0.008831927969705635
0.022505817335535926 -0.0038413989293607145 -0.00897626827622839
0.021708238676326617 -0.002890881696871547 -0.00904379858999514
0.020910660017117305 -0.0019403644643823784 -0.00918814007984855
0.020113081357907996 -0.000989847231893211 -0.009033249197214063
0.019315502698698687 -3.93299994040423e-05 -0.009177590687067472
0.01851792403948938 0.0009111872330851251 -0.008766827033771702
0.017720345380280066 0.0018617044655742938 -0.00883435734753845
0.016922766721070757 0.0028122216980634614 -0.00832075989374226
0.01612518806186145 0.003762738930552629 -0.007909996240446488
0.015327609402652138 0.004713256163041797 -0.007679069263303761
0.014530030743442826 0.0056637733955309634 -0.0062947723809165974
0.013732451894075947 0.006614290854641099 -0.004375659742775023
0.02953108593450957 -0.014144149006977833 -0.0043897780608087925
0.02873350727530026 -0.013193631774488667 -0.0037400313152773515
0.02793592861609095 -0.012243114541999498 -0.005444426239575716
0.027138349956881642 -0.011292597309510329 -0.006271635899968124
0.02634077129767233 -0.010342080077021162 -0.0069943042137262795
0.025543192638463025 -0.009391562844531994 -0.007821513874118688
0.024745613979253716 -0.008441045612042827 -0.007828545224865202
0.023948035320044404 -0.0074905283795536565 -0.008446395292616052
0.023150456660835095 -0.006540011147064489 -0.00852710909319985
0.022352878762256067 -0.005589494821059192 -0.008758037253673233
0.021555300103046758 -0.004638977588570025 -0.00891292813630772
0.02075772144383745 -0.0036884603560808577 -0.009740135430038821
0.019960142784628137 -0.002737943123591689 -0.00897630850947063
0.019162564125418828 -0.0017874258911025217 -0.010185633388023653
0.01836498546620952 -0.0008369086586133529 -0.009211613810033435
0.01756740680700021 0.00011360857387581452 -0.008790183614221833
0.016769828147790898 0.0010641258063649832 -0.008797217331629654
0.01597224948858159 0.002014643038854151 -0.008652875841776245
0.01517467082937228 0.0029651602713433186 -0.008003129096244805
0.01437709217016297 0.003915677503832486 -0.007353383534044018
0.013579513510953658 0.004866194736321655 -0.005856140107386708
0.012781934661586778 0.0058167121954317905 -0.005607682086603859
0.011984356002377468 0.006767229427920959 -0.003928732321360069
0.0285805687020204 -0.014941727666187144 -0.004561248589237524
0.027782990042811092 -0.013991210433697977 -0.003838576725487406
0.026985411383601783 -0.013040693201208809 -0.005281274525645131
0.026187832724392474 -0.012090175968719639 -0.00677851795230244
0.025390254065183162 -0.011139658736230473 -0.006623629436329261
0.024592675405973857 -0.010189141503741303 -0.008066326053156332
0.023795096746764548 -0.009238624271252136 -0.008210667543009741
0.022997518087555235 -0.008288107038762966 -0.00835500903286315
0.022199939428345927 -0.007337589806273798 -0.00877643567868279
0.0214023615297669 -0.006387073480268501 -0.009001211703085637
0.02060478287055759 -0.005436556247779334 -0.008920496719171184
0.01980720421134828 -0.0044860390152901665 -0.009341923364990824
0.01900962555213897 -0.003535521782800998 -0.009334893197574964
0.01821204689292966 -0.0025850045503118305 -0.009103962670440273
0.01741446823372035 -0.0016344873178226616 -0.008693200200475157
0.016616889574511042 -0.0006839700853334943 -0.008462272040001776
0.01581931091530173 0.0002665471471556744 -0.008231345062859047
0.015021732256092421 0.0012170643796448417 -0.008766454284615668
0.01422415359688311 0.002167581612134008 -0.006458159577647343
0.0134265749376738 0.0031180988446231762 -0.006451129410231484
0.01262899627846449 0.004068616077112344 -0.005066832527844321
0.028427630128740545 -0.016689823557885623 -0.004049148048718736
0.027630051469531236 -0.015739306325396454 -0.004459910518683853
0.026832472810321927 -0.014788789092907286 -0.0055785449359085715
0.02603489415111262 -0.01383827186041812 -0.005733433451881751
0.025237315491903306 -0.012887754627928948 -0.007202098259912497
0.024439736832693997 -0.01193723739543978 -0.007612861913208267
0.02364215817348469 -0.010986720162950613 -0.008023625566504038
0.02284457951427538 -0.010036202930461445 -0.00810434055041849
0.022047000855066067 -0.009085685697972275 -0.008515103020383606
0.02124942219585676 -0.008135168465483109 -0.008746031180856989
0.02045184429727773 -0.007184652139477811 -0.009864665598081707
0.01965426563806842 -0.006234134906988644 -0.008663418134573398
0.018856686978859113 -0.005283617674499476 -0.008818305467215924
0.0180591083196498 -0.004333100442010307 -0.009436155534966774
0.01726152966044049 -0.0033825832095211402 -0.009014728889147136
0.016463951001231183 -0.0024320659770319716 -0.009095443873061588
0.015666372342021874 -0.001481548744542804 -0.009027913559294838
0.014868793682812562 -0.0005310315120536353 -0.009034943726710697
0.014071215023603253 0.00041948572043553207 -0.008159099176435808
0.013273636364393944 0.0013700029529246985 -0.006351471669206599
0.012476057705184633 0.0023205201854138665 -0.005701726107005812
0.011678479045975323 0.0032710374179030365 -0.007170390915036558
0.010880900196608444 0.00422155487701317 -0.0061146824720035835
0.026679534237042064 -0.016536884984605763 -0.0048378024297400755
0.025881955577832755 -0.015586367752116597 -0.005601629350308266
0.025084376918623447 -0.014635850519627428 -0.005446738467673779
0.024286798259414138 -0.013685333287138259 -0.007061675961185385
0.02348921960020483 -0.01273481605464909 -0.007483102607005024
0.02269164094099552 -0.011784298822159924 -0.008246929527573214
0.02189406228178621 -0.010833781589670756 -0.008471704368645406
0.0210964836225769 -0.009883264357181586 -0.0088931321977957
0.02029890496336759 -0.00893274712469242 -0.00827528213004485
0.019501327064788562 -0.007982230798687122 -0.009039107867282388
0.018703748405579253 -0.007031713566197954 -0.009106638181049138
0.017906169746369945 -0.006081196333708787 -0.009528064826868776
0.017108591087160632 -0.005130679101219618 -0.009595595140635526
0.016311012427951323 -0.00418016186873045 -0.008569853363086346
0.015513433768742013 -0.003229644636241282 -0.008991280008905986
0.014715855109532704 -0.002279127403752115 -0.008760353031763257
0.013918276450323393 -0.001328610171262946 -0.008349589378467488
0.013120697791114085 -0.0003780929387737785 -0.007230957327904078
0.012323119131904774 0.0005724242937153887 -0.006508285464153959
0.011525540472695463 0.0015229415262045568 -0.004389237278699881
0.010727961813486153 0.002473458758693725 -0.0029205718790038075
0.02652659566376221 -0.01828498087630424 -0.004962517197364997
0.0257290170045529 -0.017334463643815072 -0.004894989250259556
0.02493143834534359 -0.016383946411325907 -0.005512836951349098
0.024133859686134282 -0.015433429178836739 -0.006538578728898278
0.02333628102692497 -0.014482911946347567 -0.007261250592648397
0.02253870236771566 -0.0135323947138584 -0.007879100660399246
0.021741123708506352 -0.012581877481369233 -0.008110027637541975
0.020943545049297043 -0.011631360248880064 -0.008340958164676664
0.02014596639008773 -0.010680843016390894 -0.008571885141819393
0.019348387730878422 -0.009730325783901728 -0.008726773657792572
0.018550809832299394 -0.00877980945789643 -0.00888166454042706
0.017753231173090085 -0.007829292225407264 -0.009112591517569789
0.016955652513880776 -0.006878774992918096 -0.008968250027716378
0.016158073854671464 -0.005928257760428927 -0.007837059288921271
0.015360495195462157 -0.004977740527939759 -0.009221356171308434
0.014562916536252846 -0.004027223295450591 -0.009153825857541684
0.013765337877043538 -0.0030767060629614236 -0.00900948555101893
0.012967759217834227 -0.0021261888304722545 -0.008865144061165519
0.012170180558624918 -0.0011756715979830874 -0.008797613747398769
0.011372601899415606 -0.00022515436549392102 -0.006230366060076606
0.010575023240206297 0.0007253628669952471 -0.003663116006093134
0.009777444580996986 0.001675880099484415 -0.0038180045220663136
0.02477849977206373 -0.018132042303024384 -0.004873620665308271
0.023980921112854423 -0.017181525070535216 -0.0057494652155831594
0.023183342453645114 -0.016231007838046048 -0.006513290952820696
0.0223857637944358 -0.015280490605556878 -0.006657632442674106
0.021588185135226493 -0.014329973373067711 -0.007533476992948995
0.020790606476017184 -0.013379456140578543 -0.008297303913517184
0.019993027816807875 -0.012428938908089377 -0.007886540260221415
0.019195449157598563 -0.011478421675600207 -0.008307966906041055
0.018397870498389254 -0.010527904443111039 -0.008729394735191348
0.017600292599810226 -0.009577388117105743 -0.009150821381010988
0.016802713940600917 -0.008626870884616574 -0.009295162870864397
0.016005135281391608 -0.007676353652127407 -0.008884399217568627
0.015207556622182296 -0.006725836419638238 -0.009305825863388267
0.014409977962972987 -0.005775319187149071 -0.009150937347415088
0.013612399303763676 -0.0048248019546599024 -0.009572365176565381
0.012814820644554368 -0.003874284722170735 -0.008188067110847564
0.012017241985345057 -0.002923767489681566 -0.007570220593088676
0.011219663326135748 -0.0019732502571923986 -0.0069523705253378264
0.01042208466692644 -0.0010227330247032306 -0.005102984462656965
0.009624506007717129 -7.221579221406266e-05 -0.0067819342279007554
0.023827982539574563 -0.018929620962233693 -0.004937541820580091
0.023030403880365254 -0.017979103729744525 -0.006056173871143502
0.022232825221155945 -0.017028586497255357 -0.006674023938894352
0.021435246561946633 -0.01607806926476619 -0.007396692252652508
0.020637667902737324 -0.01512755203227702 -0.007627622779787199
0.019840089243528015 -0.014177034799787854 -0.007782510112429724
0.019042510584318707 -0.013226517567298686 -0.008296107566225917
0.018244931925109394 -0.012276000334809516 -0.008450996082199097
0.017447353265900085 -0.01132548310232035 -0.008964592352664634
0.016649775367321058 -0.010374966776315052 -0.00889706322222854
0.01585219670811175 -0.009424449543825885 -0.009051952921532373
0.015054618048902438 -0.008473932311336717 -0.009058984272278886
0.014257039389693128 -0.007523415078847548 -0.009289913616082923
0.013459460730483819 -0.00657289784635838 -0.008868484603601975
0.012661882071274508 -0.005622380613869212 -0.009099413947406012
0.0118643034120652 -0.004671863381380045 -0.008677984934925064
0.011066724752855889 -0.0037213461488908757 -0.008142874529837788
0.01026914609364658 -0.0027708289164017083 -0.007168854951847569
0.009471567434437271 -0.0018203116839125403 -0.004891763490896548
0.022877465307085395 -0.019727199621443002 -0.0031684216678304626
0.022079886647876086 -0.018776682388953834 -0.0057356699468179536
0.021282307988666777 -0.01782616515646467 -0.006611514497092842
0.020484729329457465 -0.016875647923975497 -0.007146627268841426
0.019687150670248156 -0.01592513069148633 -0.007568053914661066
0.018889572011038847 -0.014974613458997163 -0.007989480560480705
0.01809199335182954 -0.014024096226507996 -0.008410907206300345
0.017294414692620226 -0.013073578994018826 -0.008635683230703193
0.016496836033410917 -0.012123061761529658 -0.008860459255106038
0.01569925813483189 -0.011172545435524362 -0.008927988385542134
0.014901679475622579 -0.010222028203035194 -0.009463098790629409
0.01410410081641327 -0.009271510970546027 -0.009382383806714956
0.01330652215720396 -0.008320993738056857 -0.009151456829572227
0.01250894349799465 -0.00737047650556769 -0.009070741845657775
0.01171136483878534 -0.006419959273078522 -0.008452894144568233
0.010913786179576031 -0.0054694420405893545 -0.007835044076817383
0.01011620752036672 -0.004518924808100185 -0.005781251843612921
0.009318628861157412 -0.003568407575611018 -0.0050585811631934565
0.022724526733805536 -0.02147529551314148 -0.0036956700240520636
0.021926948074596227 -0.020524778280652314 -0.004106433085682506
0.021129369415386918 -0.019574261048163146 -0.005735262881072951
0.02033179075617761 -0.018623743815673978 -0.006944587759625975
0.019534212096968297 -0.017673226583184806 -0.007355351412921745
0.018736633437758988 -0.01672270935069564 -0.007586280756725782
0.01793905477854968 -0.015772192118206473 -0.007997044410021553
0.01714147611934037 -0.014821674885717305 -0.008824251703752653
0.016343897460131058 -0.013871157653228135 -0.008599475679349806
0.015546318800921749 -0.012920640420738969 -0.008455135372827051
0.014748740902342721 -0.011970124094733671 -0.008968731643292588
0.013951162243133412 -0.011019606862244503 -0.009049444260545735
0.013153583583924103 -0.010069089629755336 -0.009280374787680424
0.012356004924714793 -0.009118572397266166 -0.008858946958530131
0.011558426265505482 -0.008168055164777 -0.008939659575783276
0.010760847606296172 -0.007217537932287832 -0.008795318085929866
0.009963268947086863 -0.006267020699798664 -0.008373891440110226
0.009165690287877552 -0.005316503467309495 -0.007498046889835337
0.008368111628668243 -0.004365986234820328 -0.005427844227120164
0.007570532969458934 -0.0034154690023311604 -0.0027114702524448386
0.020976430728796576 -0.02132235703494041 -0.0038968155269583603
0.020178852069587264 -0.02037183980245124 -0.005283415170798354
0.019381273410377955 -0.019421322569962072 -0.0064146070929241164
0.018583694751168646 -0.018470805337472904 -0.007178434013492307
0.017786116091959337 -0.017520288104983735 -0.007599860659311947
0.016988537432750025 -0.016569770872494567 -0.007444972143338767
0.016190958773540716 -0.0156192536400054 -0.008418992904659639
0.015393380114331405 -0.01466873640751623 -0.008840421917140587
0.014595801455122097 -0.013718219175027063 -0.00832682564667505
0.013798223556543069 -0.012767702849021765 -0.009458016385470157
0.01300064489733376 -0.011817185616532598 -0.009525546699236907
0.012203066238124451 -0.010866668384043432 -0.008406912282012189
0.01140548757891514 -0.009916151151554262 -0.008828341294493136
0.010607908919705832 -0.008965633919065095 -0.008210491226742285
0.009810330260496521 -0.008015116686575926 -0.008203458692665118
0.009012751601287212 -0.007064599454086759 -0.007689861238868926
0.008215172942077902 -0.00611408222159759 -0.005770749784058006
0.007417594282868592 -0.0051635649891084235 -0.003462454485424354
0.020823492212171956 -0.023070452879099493 -0.0038553149375892977
0.020025913552962647 -0.022119935646610325 -0.0034338882917696583
0.01922833489375334 -0.021169418414121156 -0.005924833635186415
0.01843075623454403 -0.020218901181631988 -0.007134158513739439
0.017633177575334717 -0.01926838394914282 -0.00714119223114726
0.01683559891612541 -0.01831786671665365 -0.00755195588444303
0.0160380202569161 -0.017367349484164483 -0.007962718354408146
0.01524044159770679 -0.01641683225167532 -0.00796974970515466
0.01444286293849748 -0.015466315019186147 -0.00959857831721445
0.013645284279288171 -0.01451579778669698 -0.00846738639508869
0.012847706380709143 -0.013565281460691683 -0.00847442011249651
0.012050127721499833 -0.012614764228202516 -0.009197090792915974
0.011252549062290524 -0.011664246995713348 -0.008775664147096336
0.010454970403081213 -0.01071372976322418 -0.009602871440827434
0.009657391743871905 -0.009763212530735012 -0.008727026890552545
0.008859813084662594 -0.008812695298245844 -0.008659496576785797
0.008062234425453285 -0.007862178065756675 -0.007458249113277488
0.007264655766243975 -0.006911660833267507 -0.0055204505007774175
0.006467077107034666 -0.005961143600778341 -0.003516777054095647
0.005669498447825355 -0.005010626368289172 -0.0033724361559075646
0.019075396313391575 -0.022917514311762057 -0.004148171524513039
0.018277817654182266 -0.021966997079272892 -0.005279363446638801
0.017480238994972957 -0.021016479846783724 -0.007086990953868011
0.016682660335763645 -0.020065962614294552 -0.007079960786452151
0.015885081676554336 -0.019115445381805388 -0.007147489916888247
0.015087503017345027 -0.01816492814931622 -0.007372265941291094
0.014289924358135718 -0.01721441091682705 -0.008346285519281313
0.013492345698926407 -0.01626389368433788 -0.008996032264812753
0.012694767039717097 -0.015313376451848713 -0.0089153172808983
0.011897189141138069 -0.014362860125843417 -0.008834602296983846
0.01109961048192876 -0.013412342893354249 -0.00842383982701873
0.010302031822719451 -0.012461825660865082 -0.008958951415436659
0.00950445316351014 -0.011511308428375914 -0.008341101347685809
0.008706874504300832 -0.010560791195886746 -0.00826038754710201
0.007909295845091521 -0.009610273963397578 -0.007234644586222176
0.007111717185882212 -0.00865975673090841 -0.005530250845254466
0.006314138526672901 -0.007709239498419241 -0.0034112038431310414
0.005516559867463592 -0.006758722265930074 -0.002583994182738633
0.01892245769053838 -0.024665610245057503 -0.0045207834141907785
0.01812487903132907 -0.02371509301256834 -0.0047517103913335065
0.017327300372119762 -0.02276457578007917 -0.00613600727372067
0.016529721712910454 -0.021814058547590002 -0.0068586791374707886
0.01573214305370114 -0.02086354131510083 -0.0070135664701133135
0.01493456439449183 -0.019913024082611665 -0.007244494630586696
0.014136985735282522 -0.018962506850122497 -0.007655258283882466
0.013339407076073213 -0.01801198961763333 -0.008273108351633316
0.012541828416863902 -0.01706147238514416 -0.008786704622098854
0.011744249757654592 -0.016110955152654993 -0.008719174308332104
0.010946671859075564 -0.015160438826649695 -0.008651645177896008
0.010149093199866255 -0.014209921594160528 -0.008732360161810462
0.009351514540656946 -0.01325940436167136 -0.008664829848043712
0.008553935881447636 -0.012308887129182192 -0.008597299534276962
0.006958778563029016 -0.010407852664203856 -0.00787943554297435
0.006161199903819707 -0.009457335431714689 -0.005672996022055528
0.005363621244610396 -0.008506818199225519 -0.0036027927676750286
0.004566042585401087 -0.007556300966736353 -0.00432546403975982
0.017174361912150386 -0.024512671576698862 -0.0048054004697701954
0.016376783252941077 -0.023562154344209694 -0.005569227390338387
0.015579204593731768 -0.022611637111720526 -0.007248177155582177
0.014781625934522457 -0.021661119879231357 -0.006038852277029154
0.013984047275313147 -0.02071060264674219 -0.007094559536731474
0.013186468616103838 -0.01976008541425302 -0.006580963266265936
0.012388889956894529 -0.018809568181763853 -0.007967562910105929
0.011591311297685217 -0.017859050949274684 -0.008502673315193204
0.010793732638475908 -0.016908533716785516 -0.008421960697940059
0.00999615473989688 -0.01595801739078022 -0.008267069815305571
0.009198576080687571 -0.015007500158291052 -0.008112182482663046
0.008400997421478262 -0.014056982925801886 -0.008179709246437834
0.007603418762268952 -0.013106465693312716 -0.007352501952706734
0.006805840103059642 -0.01215594846082355 -0.007121574975564006
0.006008261443850332 -0.011205431228334381 -0.005737278093176842
0.005210682784641023 -0.010254913995845213 -0.00361822872439211
0.004413104125431712 -0.009304396763356045 -0.0025924863551776024
0.017021423338870526 -0.02626076746839734 -0.004552416209235511
0.016223844679661217 -0.02531025023590817 -0.005275086889654976
0.015426266020451909 -0.024359733003419003 -0.006102294183386075
0.0146286873612426 -0.023409215770929838 -0.006824966047136193
0.013831108702033289 -0.022458698538440666 -0.006905681031050647
0.01303353004282398 -0.021508181305951498 -0.007060568363693172
0.01223595138361467 -0.02055766407346233 -0.007678418431444022
0.01143837272440536 -0.019607146840973165 -0.007909348958578711
0.01064079406519605 -0.018656629608483993 -0.007487919946097764
0.00984321540598674 -0.017706112375994825 -0.008315129606490172
0.009045637507407712 -0.01675559604998953 -0.008247599292723423
0.008248058848198403 -0.015805078817500363 -0.007483772372155232
0.007450480188989094 -0.014854561585011195 -0.008310979665886332
0.0066529015297797835 -0.013904044352522026 -0.007661234103685546
0.005855322870570475 -0.012953527120032858 -0.006333057860898541
0.0034625868929425443 -0.010101975422565353 -0.002682901692128835
0.01527332744717205 -0.02610782889511748 -0.0049801855073609924
0.01447574878796274 -0.025157311662628315 -0.005856031240966535
0.013678170128753431 -0.024206794430139147 -0.006619856978204073
0.01288059146954412 -0.023256277197649975 -0.0070412871740156745
0.012083012810334812 -0.02230575996516081 -0.006630523520719904
0.011285434151125501 -0.021355242732671642 -0.007686230780422225
0.010487855491916193 -0.020404725500182474 -0.007911006804825071
0.009690276832706882 -0.019454208267693302 -0.0077561159221905835
0.008892698173497571 -0.018503691035204137 -0.007823646235957332
0.008095120274918544 -0.01755317470919884 -0.007967987725810742
0.007297541615709235 -0.01660265747670967 -0.007140780432079643
0.006499962956499926 -0.015652140244220503 -0.0072083071958544305
0.005702384297290615 -0.014701623011731335 -0.007053419863211905
0.0049048056380813065 -0.013751105779242169 -0.006226212569480805
0.003309648319662686 -0.011850071314263832 -0.0025528323532942234
0.015120388873892191 -0.027855924786815957 -0.004672171638089205
0.014322810214682883 -0.02690540755432679 -0.005082932924723667
0.013525231555473574 -0.025954890321837624 -0.006108677068934156
0.012727652896264265 -0.025004373089348456 -0.006519438355568618
0.011930074237054953 -0.024053855856859284 -0.007545182499779106
0.011132495577845644 -0.02310333862437012 -0.007010070911361177
0.010334916918636335 -0.02215282139188095 -0.007420833381326293
0.009537338259427024 -0.021202304159391783 -0.007651761541799675
0.008739759600217714 -0.020251786926902614 -0.007584233594694234
0.007942180941008405 -0.019301269694413446 -0.007162804582213286
0.007144603042429376 -0.01835075336840815 -0.00788547526263275
0.006347024383220067 -0.01740023613591898 -0.007660700421560558
0.0055494457240107585 -0.016449718903429816 -0.007010953676029117
0.004751867064801448 -0.015499201670940646 -0.006943426912254329
0.003954288405592138 -0.014548684438451477 -0.005969403784272149
0.003156709746382828 -0.01359816720596231 -0.004096923840546361
0.0023591310871735193 -0.012647649973473141 -0.003952582350692952
0.013372292982193714 -0.0277029862135361 -0.004915818236432585
0.012574714322984406 -0.026752468981046933 -0.005679643973670122
0.011777135663775097 -0.025801951748557764 -0.006443470894238313
0.010979557004565784 -0.024851434516068596 -0.0058256231931487715
0.010181978345356476 -0.023900917283579428 -0.006475369938680212
0.009384399686147167 -0.02295040005109026 -0.006619711428533621
0.008586821026937856 -0.021999882818601095 -0.007495555978808511
0.007789242367728546 -0.021049365586111923 -0.007639896285331266
0.006991663708519236 -0.020098848353622755 -0.007485006586027432
0.006194085809940208 -0.01914833202761746 -0.00813475214822822
0.005396507150730899 -0.018197814795128293 -0.0071090103706790385
0.00459892849152159 -0.017247297562639125 -0.007176540684445789
0.0038013498323122797 -0.016296780330149956 -0.006150797723565954
0.0030037711731029705 -0.015346263097660788 -0.004446403982598244
0.013219354408913855 -0.029451082105234578 -0.004321654898384353
0.012421775749704546 -0.02850056487274541 -0.005044325578803817
0.011624197090495237 -0.02755004764025624 -0.005871532872534917
0.010826618431285929 -0.026599530407767077 -0.006102463399669608
0.010029039772076616 -0.025649013175277905 -0.0065132270529653785
0.009231461112867307 -0.024698495942788737 -0.006923990706261148
0.008433882453658 -0.02374797871029957 -0.007154917683403876
0.0076363037944486905 -0.0227974614778104 -0.007565681336699647
0.006838725135239379 -0.021846944245321232 -0.007976444989995418
0.006041146476030069 -0.020896427012832064 -0.008594295057746268
0.0052435685774510415 -0.019945910686826766 -0.007944548312214828
0.004445989918241733 -0.0189953934543376 -0.0078002068223614164
0.0036484112590324234 -0.018044876221848433 -0.0071504588934993224
0.0028508325998231115 -0.017094358989359265 -0.0062746167098857416
0.0020532539406138022 -0.016143841756870097 -0.00507336806304678
0.0012556752814044919 -0.015193324524380929 -0.0032657387808215886
0.010673679858006067 -0.028347626299465554 -0.006337074085138472
0.009876101198796759 -0.027397109066976386 -0.00610614592466509
0.009078522539587448 -0.026446591834487214 -0.006527572570484729
0.008280943880378137 -0.02549607460199805 -0.006671914060338138
0.0074833652211688285 -0.02454555736950888 -0.006896690084740985
0.0066857865619595214 -0.023595040137019713 -0.007546435646941772
0.00588820790275021 -0.02264452290453054 -0.008081546052029048
0.0050906292435409 -0.021694005672041376 -0.008149076365795796
0.004293051344961872 -0.02074348934603608 -0.008068361381881344
0.003495472685752562 -0.01979297211354691 -0.006770497337129123
0.0026978940265432526 -0.018842454881057746 -0.006359733683833353
0.0019003153673339422 -0.017891937648568574 -0.005532526390102253
0.0011027367081246331 -0.01694142041607941 -0.003828131465803889
0.01052074128472621 -0.03009572219116403 -0.0050437279968235105
0.009723162625516901 -0.029145204958674863 -0.005766399860573629
0.008925583966307592 -0.028194687726185694 -0.006177162330538745
0.00812800530709828 -0.027244170493696526 -0.006257874947791889
0.007330426647888971 -0.026293653261207358 -0.006338589931706343
0.006532847988679663 -0.02534313602871819 -0.007165799592098751
0.005735269329470354 -0.02439261879622902 -0.007396727752572133
0.004937690670261043 -0.02344210156373985 -0.008119398432991597
0.004140112011051733 -0.022491584331250685 -0.008051868119224847
0.0033425341124727055 -0.021541068005245387 -0.007630441473405207
0.0025449554532633945 -0.020590550772756223 -0.006754596923130319
0.0017473767940540852 -0.019640033540267055 -0.006687066609363569
0.000949798134844775 -0.018689516307777886 -0.005420416460604538
0.00015221947563546573 -0.017738999075288718 -0.004770669715073097
-0.0006453591835738446 -0.01678848184279955 -0.003027520120188451
0.008772645393027733 -0.02994278361788417 -0.004954910747920606
0.007975066733818424 -0.028992266385395007 -0.006156155844767606
0.0071774880746091115 -0.028041749152905835 -0.005328948551036506
0.006379909415399803 -0.027091231920416667 -0.005473290040889915
0.005582330756190493 -0.026140714687927502 -0.006008400445977191
0.004784752096981186 -0.02519019745543833 -0.007209647909485499
0.003987173437771874 -0.024239680222949162 -0.007277177039921594
0.0031895947785625634 -0.023289162990459997 -0.006659326972170744
0.0023920168799835355 -0.0223386466644547 -0.0065044396395282185
0.0015944382207742263 -0.02138812943196553 -0.006093675986232448
0.000796859561564917 -0.020437612199476363 -0.006318452010635295
-7.190976443932866e-07 -0.019487094966987195 -0.004934153944917478
-0.0007982977568537025 -0.018536577734498027 -0.005583900690448918
0.007822128160538564 -0.03074036227709348 -0.004589911224340531
0.007024549501329255 -0.029789845044604316 -0.0056156530018897114
0.006226970842119943 -0.028839327812115144 -0.005548126238114924
0.0054293921829106345 -0.027888810579625976 -0.0054037823816002065
0.004631813523701325 -0.02693829334713681 -0.005484497365514659
0.003834234864492016 -0.025987776114647643 -0.0058952598354797756
0.0030366562052827045 -0.02503725888215847 -0.005902293552887597
0.002239077546073395 -0.024086741649669306 -0.005909323720303456
0.0014414996474943673 -0.02313622532366401 -0.005990038704217909
0.000643920988285058 -0.02218570809117484 -0.006070753688132362
-0.00015365767092425118 -0.021235190858685672 -0.005926412198278953
-0.0009512363301335615 -0.020284673626196504 -0.0060071271821934055
-0.0017488149893428707 -0.019334156393707336 -0.0043921896886818
-0.0025463936485521812 -0.018383639161218168 -0.0031255395399227693
0.0060740322688400865 -0.030587423703813624 -0.004251010058336079
0.005276453609630775 -0.029636906471324456 -0.005382201980461842
0.004478874950421466 -0.028686389238835288 -0.004084336752378967
0.0036812962912121565 -0.02773587200634612 -0.0040773042183018
0.0028837176320028477 -0.02678535477385695 -0.0038463760578284173
0.0020861389727935362 -0.025834837541367783 -0.006194908740357907
0.0012885603135842267 -0.024884320308878615 -0.004490511449398235
0.000490982415005199 -0.023933803982873317 -0.005025624221146817
-0.0003065962442041102 -0.022983286750384153 -0.0052504002455496645
-0.0011041749034134195 -0.022032769517894985 -0.005394741735403073
-0.0019017535626227298 -0.021082252285405816 -0.005163811208268383
-0.002699332221832039 -0.020131735052916648 -0.0037795166925425282
-0.0034969108810413495 -0.01918121782042748 -0.0035485867570731644
-0.004294489540250659 -0.01823070058793831 -0.0028259178516496816
0.004325936377141609 -0.030434485130533765 -0.004438889832944868
0.0035283577179322993 -0.029483967898044597 -0.003903779427857594
0.00273077905872299 -0.02853345066555543 -0.0038362491140908443
0.001933200399513681 -0.02758293343306626 -0.0038432792815067036
0.0011356217403043695 -0.026632416200577092 -0.0033081694680847555
0.0003380430810950603 -0.025681898968087924 -0.004333911837299262
-0.0004595348174839675 -0.024731382642082626 -0.004744675490595033
-0.0012571134766932767 -0.02378086540959346 -0.005258271761060571
-0.002054692135902586 -0.022830348177104293 -0.00526530192847643
-0.002852270795111896 -0.021879830944615125 -0.005346016912390883
-0.0036498494543212054 -0.020929313712125957 -0.004810906507303608
-0.0044474281135305155 -0.01997879647963679 -0.004743377376867513
-0.005245006772739825 -0.01902827924714762 -0.004824092360781965
-0.006042585431949135 -0.018077762014658452 -0.004831122528197825
-0.006840164091158445 -0.017127244782169284 -0.004686781038344415
-0.007637742750367754 -0.016176727549680116 -0.0033586059788880654
-0.008435321409577064 -0.015226210317190948 -0.003589535914357429
-0.011625636236571873 -0.011424141160613308 -0.0030599055135291753
-0.012423214867554669 -0.01047362396176319 -0.0030669356809450345
-0.0132207935074511 -0.009523106752290214 -0.003221825971914195
-0.014018372214199803 -0.008572589463145803 -0.0036325896252099653
-0.014815950873409112 -0.007622072230656636 -0.0029828434713438517
-0.015613529532618423 -0.006671554998167468 -0.002561413867197577
-0.01720868666087947 -0.0047705207598101 -0.0025507502830083803
-0.018006265320088782 -0.0038200035273209315 -0.0024832205609069576
-0.020399001297716712 -0.0009684518298534265 -0.003956067259469204
-0.02119657995692602 -1.7934597364259073e-05 -0.004678737939888668
-0.02199415861613533 0.0009325826351249096 -0.00490966610036205
-0.022791737275344642 0.0018830998676140783 -0.003935645339041178
-0.02438689459376326 0.003784134332592413 -0.004099692834276898
0.001780261826233822 -0.029331029324764737 -0.002636592046981613
0.0009826831670245127 -0.02838051209227557 -0.0024817041226737604
0.0001851045078152013 -0.0274299948597864 -0.00262604561252717
-0.0006124741513941079 -0.026479477627297233 -0.0030474722583468095
-0.0014100520499731356 -0.025528961301291935 -0.004021494794663663
-0.002207630709182445 -0.02457844406880277 -0.003790564859194299
-0.003005209368391754 -0.023627926836313602 -0.0048462727105619465
-0.0038027880276010643 -0.022677409603824434 -0.00623287235440194
-0.004600366686810374 -0.021726892371335266 -0.005510201673982476
-0.005397945346019684 -0.020776375138846098 -0.005734976515054668
-0.0061955240052289934 -0.01982585790635693 -0.006156404344204962
-0.006993102664438303 -0.01887534067386776 -0.0061493729934584485
-0.007790681323647613 -0.017924823441378593 -0.005918443649654412
-0.008588259982856922 -0.016974306208889425 -0.005763555133681233
-0.009385838642066232 -0.016023788976400256 -0.0065273820542494235
-0.010183417301275543 -0.015073271743911088 -0.004281234689902462
-0.010980996150642422 -0.014122754284800953 -0.005255256634553988
-0.011778574809851733 -0.013172237052311785 -0.004637406566803138
-0.012576153469061041 -0.012221719819822617 -0.005693115009836112
-0.013373732100043837 -0.011271202620972498 -0.005686081292428291
-0.014171310739940268 -0.010320685411499523 -0.005910857316831137
-0.014968889446688971 -0.009370168122355112 -0.005978387630597887
-0.015766468105898282 -0.008419650889865944 -0.005897672646683434
-0.01656404676510759 -0.0074691336573767765 -0.005666744486210052
-0.01736162523415933 -0.006518616651508576 -0.005153148215744514
-0.018159203893368638 -0.0055680994190194085 -0.0058028937779453
-0.01895678255257795 -0.00461758218653024 -0.006224323973756902
-0.01975436121178726 -0.0036670649540410712 -0.004840025908039084
-0.020551939870996568 -0.002716547721551904 -0.006168202150826089
-0.02134951853020588 -0.0017660304890627352 -0.006392976991898281
-0.02214709718941519 -0.000815513256573568 -0.006238086109263794
-0.022944675848624498 0.0001350039759156008 -0.005620237224843598
-0.02374225450783381 0.0010855212084047695 -0.005002389523754056
-0.02453983316704312 0.002036038440893937 -0.0043845394560032055
-0.025337411826252428 0.002986555673383104 -0.004303824472088753
-0.026134990485461737 0.003937072905872272 -0.0037902276099578878
-0.02693256990530133 0.0048875910448453125 -0.003067558704534405
-0.0007654127246739687 -0.028227573518995713 -0.0028866108808971867
-0.001562991383883278 -0.027277056286506545 -0.0029673258648116397
-0.0023605692824623056 -0.026326539960501247 -0.00379453315854274
-0.003158147941671615 -0.025376022728012083 -0.00420529681183851
-0.003955726600880924 -0.024425505495522915 -0.004718893082304048
-0.004753305260090234 -0.023474988263033746 -0.005232488169438933
-0.005550883919299544 -0.022524471030544578 -0.005955158849858397
-0.006348462578508854 -0.02157395379805541 -0.006782366143589497
-0.007146041237718163 -0.02062343656556624 -0.0071931297968852665
-0.007943619896927474 -0.019672919333077073 -0.007706727250681459
-0.008741198556136783 -0.018722402100587905 -0.007937654227824187
-0.009538777215346092 -0.017771884868098737 -0.007870126280718745
-0.010336355874555402 -0.01682136763560957 -0.00772578597419599
-0.011133934533764713 -0.0158708504031204 -0.00773281614161185
-0.011931513383131592 -0.014920332944010265 -0.007887707024246337
-0.012729092042340902 -0.013969815711521097 -0.008042594356888862
-0.013526670701550211 -0.013019298479031929 -0.007898254050366106
-0.014324249332533007 -0.01206878128018181 -0.007248507304834667
-0.015121827972429438 -0.011118264070708836 -0.007403395820807846
-0.01591940667917814 -0.010167746781564424 -0.0074841108047223
-0.01671698533838745 -0.009217229549075256 -0.0074165804909555495
-0.017514563997596762 -0.008266712316586088 -0.00727223900110214
-0.0183121424666485 -0.007316195310717888 -0.007352953985016593
-0.01910972112585781 -0.006365678078228721 -0.0072086124951631836
-0.01990729978506712 -0.005415160845739553 -0.0071410821813964334
-0.02070487844427643 -0.0044646436132503835 -0.007654679635192626
-0.02150245710348574 -0.003514126380761216 -0.007004932889661185
-0.02230003576269505 -0.0025636091482720475 -0.00693740375922509
-0.023097614421904358 -0.0016130919157828802 -0.006515975930074796
-0.02389519308111367 -0.0006625746832937115 -0.005640131379799907
-0.02469277174032298 0.0002879425491954572 -0.005218704733980267
-0.025490350399532288 0.0012384597816846247 -0.004342860183705379
-0.026287929058741596 0.002188977014173792 -0.003921433537885739
-0.027085507717950905 0.003139494246662959 -0.0033863207661371554
-0.0278830871377905 0.004090012385636 -0.0029648935286521886
-0.0025135095228563183 -0.02807463570634614 -0.002620055001090916
-0.003311087421435346 -0.02712411938034084 -0.0032698011549570295
-0.004108666080644655 -0.026173602147851673 -0.0038049109683789776
-0.004906244739853964 -0.025223084915362504 -0.004340023740127561
-0.005703823399063275 -0.024272567682873336 -0.0047614503859472
-0.0065014020582725845 -0.023322050450384168 -0.006258693812604511
-0.007298980717481894 -0.022371533217895 -0.0064030353024579195
-0.008096559376691204 -0.02142101598540583 -0.00801797161263887
-0.008894138035900515 -0.020470498752916663 -0.007190761952246463
-0.009691716695109823 -0.0195199815204275 -0.00919443776558954
-0.010489295354319132 -0.01856946428793833 -0.009844184511120981
-0.011286874013528443 -0.017618947055449162 -0.0088184427335718
-0.012084452672737753 -0.016668429822959994 -0.008885971864007896
-0.012882031522104632 -0.015717912363849857 -0.008731082164704062
-0.013679610181313943 -0.014767395131360689 -0.00872405081395755
-0.014477188840523252 -0.01381687789887152 -0.008791578761062992
-0.015274767471506048 -0.012866360700021402 -0.0068043808270779075
-0.01607234611140248 -0.011915843490548427 -0.008247078627235631
-0.01686992481815118 -0.010965326201404016 -0.008240047276489118
-0.017667503477360492 -0.010014808968914848 -0.008085157577185285
-0.0184650821365698 -0.00906429173642568 -0.007854229416711902
-0.01926266060562154 -0.00811377473055748 -0.007847196882634735
-0.02006023926483085 -0.007163257498068312 -0.007991538372488144
-0.02085781792404016 -0.006212740265579144 -0.007760610212014762
-0.02165539658324947 -0.005262223033089975 -0.007679895228100309
-0.02245297524245878 -0.004311705800600808 -0.006957226914342154
-0.02325055390166809 -0.003361188568111639 -0.006726296387207463
-0.0240481325608774 -0.0024106713356224717 -0.006212702483403233
-0.02484571122008671 -0.001460154103133303 -0.005490030619653114
-0.02564328987929602 -0.0005096368706441343 -0.004872180551902265
-0.02644086853850533 0.00044088036184503304 -0.004358584281436727
-0.02723844719771464 0.0013913975943342005 -0.003531376396040299
-0.0034640267553454865 -0.028872214365555447 -0.002522025523046038
-0.004261604653924515 -0.02792169803955015 -0.0029327891763418082
-0.005059183313133824 -0.026971180807060985 -0.0031637167451498637
-0.0058567619723431325 -0.026020663574571817 -0.004189459114364371
-0.006654340631552443 -0.02507014634208265 -0.004600221584329487
-0.007451919290761753 -0.02411962910959348 -0.006654013817533948
-0.008249497949971063 -0.023169111877104312 -0.008038311883251765
-0.009047076609180372 -0.022218594644615144 -0.008760982563671228
-0.009844655268389683 -0.021268077412125976 -0.009274580017467421
-0.010642233927598992 -0.020317560179636807 -0.009788173921271652
-0.0114398125868083 -0.01936704294714764 -0.009563399080199458
-0.012237391246017611 -0.01841652571465847 -0.009570431614276625
-0.013034969905226922 -0.017466008482169303 -0.00934565558987378
-0.0138325487545938 -0.016515491023059166 -0.009278126459437683
-0.014630127413803111 -0.01556497379057 -0.009210598512332241
-0.01542770607301242 -0.014614456558080831 -0.009066257022478832
-0.016225284703995216 -0.013663939359230713 -0.008302427735249333
-0.017022863343891647 -0.012713422149757738 -0.008533358262384024
-0.01782044205064035 -0.011762904860613327 -0.008308582237981177
-0.01861802070984966 -0.010812387628124158 -0.008164241931458422
-0.01941559936905897 -0.00986187039563499 -0.007742814102308129
-0.021010756497320017 -0.007960836157277622 -0.007505201306969877
-0.02180833515652933 -0.007010318924788455 -0.007360859817116468
-0.022605913815738638 -0.006059801692299286 -0.0069394308046355204
-0.023403492474947947 -0.005109284459810118 -0.006518004158815881
-0.02420107113415726 -0.00415876722732095 -0.005982893753728605
-0.024998649793366568 -0.0032082499948317823 -0.005561467107908966
-0.02659380711178519 -0.001307215529853445 -0.004733033883620244
-0.027391385770994498 -0.00035669829736427754 -0.003531785828446609
-0.028188964430203807 0.0005938189351248898 -0.0026559412781717202
-0.006807279204832301 -0.026818242233781125 -0.0028077821260453295
-0.007604857864041611 -0.025867725001291957 -0.0034575282799114435
-0.008402436523250921 -0.02491720776880279 -0.005265158745467288
-0.009200015182460232 -0.02396669053631362 -0.007202957357967359
-0.00999759384166954 -0.023016173303824453 -0.007966783095204898
-0.010795172500878851 -0.022065656071335284 -0.00873061001577309
-0.01159275116008816 -0.021115138838846116 -0.009494436936341279
-0.012390329819297469 -0.020164621606356948 -0.009915863582160919
-0.01318790847850678 -0.01921410437386778 -0.009193192901741455
-0.01398548713771609 -0.01826358714137861 -0.009417967742813648
-0.014783065987082969 -0.017313069682268475 -0.00918704076567092
-0.01558064464629228 -0.016362552449779307 -0.00877627711237515
