ply
format ascii 1.0
element vertex 775
property float x
property float y
property float z
end_header
0.05221325408861749 -0.016036293560153535 0.08873833131076618
0.052275638030364335 -0.015516158410490538 0.08874401264802609
0.0523352052269355 -0.015026424545689691 0.0891515598724447
0.052387755243650254 -0.014612427487180807 0.09056025027186705
0.05075253812121042 -0.023839637001972953 0.08949439666353741
0.05081534625608507 -0.023314923444442515 0.08943955427239453
0.050881403538800614 -0.022755141656415616 0.08892115497490875
0.05094331210927243 -0.02224013714672469 0.08899465370951713
0.05100803742654718 -0.02169473133460852 0.0886662863248052
0.051069946101220474 -0.021179725973144617 0.08873978605858739
0.051130882673852754 -0.02067521201646106 0.08895194415366471
0.05119151659586672 -0.020173964993786195 0.08920730530254892
0.05125523856295379 -0.019639388395166383 0.08902208619294051
0.05132232876153133 -0.01906845828970189 0.08835632047664391
0.05138445435797785 -0.01855111154322619 0.08839886398253803
0.05144726248552983 -0.0180263980647297 0.08834402263612225
0.05150938802499384 -0.01750905179682978 0.0883865663389142
0.05157173317777484 -0.01698933536681807 0.0883977856760832
0.05163385871235707 -0.01647198915160745 0.08844033007535987
0.05169554885906688 -0.015959342101535805 0.08854499139423523
0.05175648556683279 -0.015454827027446728 0.08875715004179509
0.051817951825458064 -0.0149445964819463 0.08889375750789442
0.051874446940341476 -0.014488019762958973 0.08973959955696992
0.05010577948431944 -0.0248491947358078 0.08990092110310866
0.050228782615645465 -0.023827971366785484 0.09016405357096142
0.050299539978943236 -0.023217461351764734 0.08897509235356645
0.05036470669844079 -0.022667291461296604 0.08858374998006423
0.050426873650026856 -0.02214949823009655 0.08862038540286238
0.05048947598785807 -0.021627005851320623 0.08859490413822342
0.05055230234565294 -0.02110209588569415 0.08853747774316617
0.05061287275402364 -0.02060153395992866 0.0888018766043219
0.0506752567315844 -0.020081398491943826 0.08880755679840578
0.05074122476238158 -0.019522580004757272 0.08830189109914004
0.050804051009465924 -0.018997670961156173 0.08824446463355527
0.05086687731516004 -0.01847276142141619 0.08818703773891112
0.05092947966112756 -0.017950268954824773 0.08816155531346428
0.05099096401160757 -0.017439843074726083 0.08829557764276276
0.051053131018548886 -0.016922049382513342 0.08833221310082466
0.051115078410545946 -0.016406625869975495 0.08840017315667108
0.051177025799288484 -0.015891202392563843 0.08846813367684067
0.05123793110745884 -0.015387026216028284 0.08868477211420606
0.05129720920026008 -0.014900412664041006 0.08913356586102407
0.051355424071122036 -0.014425274524642474 0.08973404980387815
0.04965071992447545 -0.02424927312393209 0.08967578582541405
0.04971640344037394 -0.02369352542162062 0.08921071195289826
0.049784645749930315 -0.02311016051929806 0.08838057421437741
0.04984633589989464 -0.022597513434100217 0.08848523506892961
0.04991005786372719 -0.022062936870606602 0.08830001642364435
0.049972402961152934 -0.021543220901607582 0.08831123572554958
0.05003452860644568 -0.02102587376437159 0.08835378019535378
0.05009665403845369 -0.020508528383370847 0.08839632336329507
0.05015728796046765 -0.020007281360695982 0.08865168451217928
0.0502233452431832 -0.01944749957266908 0.08813328521469352
0.05028591652477058 -0.018925342385632832 0.08811223475376717
0.05035139380836221 -0.01837182069633746 0.08767659203973475
0.05041110419722898 -0.017880541281032506 0.08806370600957325
0.05047367547881636 -0.01735838409399626 0.08804265554864689
0.0505317454780511 -0.01688480963021975 0.08866381233682942
0.050596140940101154 -0.01634296396359919 0.0883825054969101
0.0506582664779379 -0.015825617713262373 0.08842504943186363
0.05071995664907082 -0.015312970467810577 0.08852971123269403
0.0507754887502702 -0.014866787608227749 0.08951294673568214
0.04907065389708236 -0.024692191953002058 0.08947326870307708
0.04913213824837599 -0.02418176606412182 0.08960729091629477
0.04920108166504487 -0.023590834074357334 0.08867712601372989
0.04926064883231115 -0.023101100457625933 0.0890846734526782
0.0493288428187752 -0.022518257109083915 0.08826142998437217
0.049391226740980704 -0.02199812210211177 0.08826711014319231
0.049455192346212706 -0.021460915903657524 0.08804713110566867
0.04951667681228502 -0.020950489048844168 0.08818115280900993
0.04957906062378001 -0.020430354963897394 0.08818683289730256
0.0496410080678778 -0.019914931025473055 0.0882547934527359
0.04970617478249359 -0.019364761187694216 0.08786345177571843
0.04976812217449065 -0.018849337675156366 0.08793141183156486
0.049830724572558896 -0.018326844782678455 0.08790592990570494
0.049891295085131085 -0.017826282005139985 0.08817032976603448
0.049954121341978984 -0.017301372856160294 0.08811290190748025
0.0500174772050415 -0.016770747774756567 0.08797992290272927
0.05007737422915975 -0.016277453994966457 0.0883404095647234
0.05013665229753788 -0.015790840638359324 0.08878920282958638
0.050201234429026076 -0.015246980306494866 0.08848126777080828
0.050259843417209946 -0.014767588437267908 0.08902552287600024
0.0503148614330224 -0.014326954129405895 0.09008210309681333
0.04854783308133228 -0.024670443205069656 0.09000963909394644
0.04861473478470095 -0.024101547538712194 0.08937076604617762
0.04868128991438282 -0.023536392461126925 0.08878133877125192
0.04874363501180857 -0.0230166764921279 0.08879255807315714
0.0488098643381414 -0.022455037827922356 0.08824961326069528
0.04887325154544422 -0.021924074309977795 0.08811215443087503
0.04893537707514466 -0.021406728147456474 0.08815469952663645
0.04899876439641252 -0.020875763672360343 0.08801724030302052
0.04906248625929811 -0.02034118792551351 0.0878320201942383
0.04912505759298623 -0.019819030312590774 0.08781097023289884
0.049187402690411976 -0.01929931434359175 0.08782218953480408
0.04924997397199936 -0.0187771571565555 0.08780113907387774
0.049311664167555384 -0.018264509715723562 0.08790580135666315
0.04937423544914277 -0.017742352528687316 0.0878847508957368
0.04943517212760379 -0.017237837702667683 0.08809690975782636
0.04949751728201205 -0.016718121255092873 0.08810812886283377
0.049558151148670765 -0.016216874693430697 0.08836348997645423
0.04961908782713178 -0.015712359867411062 0.0885756488385438
0.04968055409389335 -0.01520212923409514 0.08871225514383525
0.04973862406545048 -0.014728555000824975 0.08933341191438589
0.049795119180333886 -0.014271978281837648 0.09017925396346138
0.04797102047999423 -0.025078252401353897 0.08934300478789821
0.04803125354297942 -0.024581332008558256 0.08965556454861884
0.04809841866952529 -0.02400959320143018 0.08897910883639093
0.04816300077333586 -0.023465733100072068 0.08867117375998095
0.048227275037112854 -0.02292519553304655 0.0884071583143773
0.04829185714092342 -0.022381335431688437 0.0880992232379673
0.0483540240876277 -0.02186354225317768 0.08813585935725018
0.04841798969611422 -0.021326336019597235 0.08791587985540338
0.04848037372577574 -0.020806200125725913 0.08792156054907418
0.04854319986540408 -0.020281291969023993 0.08786413354863877
0.04860580226672685 -0.019758799041419882 0.08783865115845567
0.04867038436565564 -0.019214938992751063 0.08753071677853042
0.04873028138814662 -0.01872164523052405 0.08789120367268613
0.04879598875155867 -0.018165640277133042 0.08742273540100484
0.048855266826445844 -0.01767902685027352 0.08787152773722151
0.04891617209554775 -0.017174851027185994 0.08808816778208606
0.04897833910574359 -0.016657057299847053 0.0881248027758248
0.0490400603103245 -0.01614407504047263 0.08822503305882595
0.04910029326422643 -0.01564715555213926 0.0885375925168575
0.049160526247433244 -0.015150235815736454 0.08885015176035935
0.04921826362834277 -0.0146802512515309 0.0895187593393149
0.04927967827193015 -0.014170577789959787 0.08966273073850095
0.04933688057335971 -0.013706368333760429 0.09040767628568833
0.047452456131765484 -0.025010558320886566 0.08927203770621756
0.047512474454290105 -0.024515955633636177 0.08961523455347378
0.04757886896859678 -0.02395253408658702 0.08904872232276316
0.04764542410153317 -0.023387378973875553 0.0884592945835143
0.04770711424824298 -0.022874731923803904 0.08856395590238965
0.04777350875929513 -0.022311310411880947 0.08799744413600218
0.04783608004088251 -0.0217891532248447 0.08797639367507583
0.04789865132246989 -0.021266996037808454 0.08795534321414948
0.047962038638855974 -0.02073603161540162 0.0878178846870183
0.04802484666220647 -0.020211318988678104 0.0877630423414287
0.04808675528152451 -0.019696314088226887 0.08783654203994713
0.04815014248720007 -0.019165350587845426 0.08769908344228845
0.04821226802829133 -0.01864800430238241 0.08774162691291881
0.04827373431296698 -0.018137773543938737 0.08787823462881161
0.04833467099630978 -0.01763325866522981 0.08809039279441644
0.0483961372321392 -0.01712302829754643 0.08822699954639916
0.0484576035265784 -0.016612797433724163 0.0883636058693225
0.04852132549041095 -0.016078220870230555 0.08817838722403723
0.04857667456397851 -0.015634013369676614 0.08918773136827302
0.048638800132747406 -0.015116666853707255 0.08923027485653527
0.04869687010430453 -0.014643092620437089 0.0898514316270859
0.04686973311151717 -0.025482159264869155 0.08944866052147575
0.04693308891515629 -0.02495153468838586 0.08931568206186495
0.046998529278703634 -0.024398411615589193 0.0888853146745482
0.04706113161816211 -0.023875919219250166 0.08885983317774766
0.04712760259738353 -0.023311672382190656 0.0882824116744955
0.04719095840346354 -0.022781047779362712 0.08814943286664234
0.0472543142111708 -0.02225042315897167 0.0880164538266276
0.04731669813337631 -0.021730288151999524 0.08802213398544774
0.047380053936201795 -0.021199663584297784 0.08788915564191772
0.04744288029725118 -0.020674753583545116 0.08783172878253732
0.04750832044181837 -0.020121632328454545 0.0874013609059232
0.04756692946093439 -0.019642240193595048 0.08794561556442387
0.04762953179551109 -0.019119747849945315 0.0879201347641081
0.047693497403997615 -0.01858254161636487 0.08770015526226128
0.047754402739845596 -0.018078365209322968 0.08791679371725855
0.04781678666205111 -0.017558230202350825 0.08792247387607868
0.047878734050793646 -0.017042806724939172 0.08799043439624826
0.04794090105122593 -0.016525013102978825 0.08802707078295646
0.04800046821849221 -0.016035279486247424 0.08843461822190479
0.04805729159387198 -0.015575159765534925 0.08923362328015524
0.048117524577078796 -0.015078240029132117 0.08954618252365708
0.04818399558235059 -0.014513992979129363 0.08896876127019836
0.04824303313856313 -0.014029975551710303 0.08945187244496429
0.04641513287327545 -0.024877280169798028 0.089157993691696
0.04647952844603602 -0.024335433581152092 0.08887668692230419
0.04654121858623679 -0.023822786601332836 0.08898134916982584
0.04660812028960546 -0.023253890934975378 0.08834247612205705
0.04667150749528102 -0.022722927434593917 0.08820501752439835
0.046735902957331064 -0.022181081767973357 0.08792371068447903
0.046798711088137566 -0.021656368254350664 0.08786886887374011
0.0468620982986949 -0.02112540470127991 0.08773140957959669
0.046922425287087184 -0.020627470566424305 0.0880305689740458
0.04698682063517219 -0.020085625856955315 0.08774926252792214
0.04704916578795319 -0.019565909426943605 0.08776048186509113
0.04711255299362876 -0.019034945926562144 0.08762302326743245
0.047174898091054504 -0.01851522995756312 0.08763424256933768
0.04723402391796226 -0.018030259887918593 0.08810476410369372
0.04729741112363783 -0.017499296387537135 0.08796730550603503
0.04735887736272177 -0.016989065984727558 0.08810391179369459
0.047419814096538046 -0.016484550697695236 0.08831607069104791
0.04747866633719218 -0.01600253332302191 0.0888256169262399
0.04753868454819265 -0.015507931566578445 0.08916881381904941
0.04759459091903221 -0.015057709194282669 0.09009865215914004
0.047652412452843074 -0.014586816363206708 0.09075525361817965
0.045834284832354 -0.025328641836479666 0.08906707965743851
0.045896232227605575 -0.02481321828881562 0.08913503924896178
0.04596019794029359 -0.02427601120346219 0.08891506074628881
0.04602536465653663 -0.023725841348120256 0.08852371883710976
0.046089638930077184 -0.023185303675716147 0.08825970199853667
0.04615360453856371 -0.022648097442135702 0.08803972249668986
0.04621643078564805 -0.022123188398534607 0.08798229603110509
0.0462792570441232 -0.021598279231991816 0.08792486794038931
0.04634208329120755 -0.02107337018839072 0.08786744147480455
0.04640468573974929 -0.02055087688758942 0.0878419602806931
0.04646728797500629 -0.02002838534302337 0.08781647778471875
0.04653011427744588 -0.019503475838409588 0.08775905135439775
0.04659183548202679 -0.018990493579035157 0.08785928163739892
0.04665065073995869 -0.018508875360907166 0.08837410420876991
0.046716873339230004 -0.017947309438684528 0.08783212708102814
0.04677882072634529 -0.017431885978835975 0.0879000878333593
0.04684054193580797 -0.01691890366677225 0.08800031741987574
0.04690226319574413 -0.016405920946385134 0.08810054773814066
0.04696421058448668 -0.015890497468973485 0.08816850825831024
0.04701879712597112 -0.01545452001893161 0.08928664308574867
0.04707338368943778 -0.015018542399854236 0.09040477874338448
0.047135986055760255 -0.014496049781790414 0.09037929738029661
0.04537710026377096 -0.024751653037446995 0.08914508703883718
0.045441825691756234 -0.024206246303305447 0.08881671972465276
0.04550622115055176 -0.02366440067181108 0.08853541334905658
0.04556879243213914 -0.023142243484774835 0.08851436288813025
0.045633517749413884 -0.02259683767265866 0.08818599550341831
0.04569791321146393 -0.0220549920060381 0.08790468866349899
0.04575884989155221 -0.021550477162455367 0.08811684729342698
0.04582223709722777 -0.02101951366207391 0.08797938869576828
0.045885624416868366 -0.020488549204540876 0.08784192970431395
0.04594901151346067 -0.01995758660862169 0.08770447080396618
0.0460115828504033 -0.019435428960572754 0.08768342037830358
0.04607251952886433 -0.018930914134553122 0.08789557924039315
0.046135906732912624 -0.018399950651734758 0.08775812087489604
0.04619759693660495 -0.017887303123087325 0.08786278199687357
0.04626098414716229 -0.01735633957001657 0.08772532270273015
0.04631905408616 -0.016882765619942043 0.08834648015213364
0.046379381030587835 -0.016384831823157434 0.08864563788618797
0.0464397079082696 -0.015886898610327205 0.08894479721010959
0.046496408316545466 -0.015428106080298095 0.0897613460223108
0.04656349854280063 -0.014857175744327262 0.08909558032364606
0.04485821968068422 -0.02468737714270142 0.08911930324247734
0.04492366003853616 -0.0241342541313756 0.08868893666772612
0.04498762564702268 -0.023597047897795154 0.08846895716587931
0.04505189991079968 -0.023056510330769636 0.08820494172027568
0.04511472616764758 -0.022531601181789943 0.08814751386172145
0.04517732850385154 -0.022009108820577116 0.08812203282924407
0.045240987121733856 -0.02147521595339172 0.08794585176986001
0.04530358946119233 -0.020952723557052695 0.08792037027305948
0.04536724818653065 -0.020418829802968122 0.08774418974852607
0.04542919546781719 -0.019903407212455645 0.087812149733845
0.04549179786588544 -0.019380914319977734 0.08778666780798505
0.04555396481421699 -0.018863121123903877 0.08782330369510635
0.04561679106781037 -0.018338212010050384 0.08776587630087529
0.04567769639714932 -0.017834035673260876 0.08798251568451886
0.0457405226507427 -0.017309126559407386 0.08792508829028779
0.04580142792472639 -0.016804950683630568 0.08814172763866761
0.045861998497535604 -0.016304387392390114 0.08840612683777617
0.04592127657405004 -0.01581777394796749 0.08885491894183127
0.04597671753081426 -0.015372574747042522 0.08985115408257571
0.04433394116187731 -0.02468135894085741 0.08986361158869027
0.04440364721808531 -0.024082196013681688 0.0888246565377734
0.04446837253536006 -0.023536790201565513 0.08849628915306146
0.044532094510583424 -0.02300221351513021 0.08831106888264517
0.04459548171625898 -0.022471250014748746 0.08817361028498648
0.04465886892193453 -0.021940286514367288 0.08803615168732778
0.04472225612923735 -0.021409322996422727 0.08789869285750752
0.04478506426329837 -0.02088460944767384 0.08784385058244543
0.04484787250806991 -0.02035989497689958 0.08778900837791084
0.044910217491530624 -0.019840179965052124 0.08780022807361174
0.04497393951397294 -0.01930560290541963 0.08761500899926707
0.045035848079562985 -0.018790598448418 0.08768850843036018
0.04509731431701967 -0.01828036806317152 0.08782511495018132
0.0451592229363377 -0.017765363162720302 0.08789861464869976
0.045219549822155765 -0.017267429862074583 0.08819777281181349
0.045279876699837525 -0.01676949664924435 0.0884969321357351
0.045335975254897014 -0.01631720009036301 0.08939935546137971
0.045395993469152005 -0.015822598298793348 0.08974255188986606
0.043754278567206775 -0.025119927282662168 0.08960358606943987
0.04381763437247315 -0.024589302688615776 0.08947060737766749
0.04388457709503765 -0.02401996457271187 0.08882589797444071
0.04395028440146718 -0.023463960097896645 0.08835742989965722
0.04401364020917445 -0.022933335477505604 0.08822445085964249
0.044076466462767826 -0.02240842636365211 0.08816702346541143
0.04413982227047509 -0.02187780174326107 0.08803404442539668
0.04420440436614936 -0.02133394172971845 0.08772611050979459
0.044265888718256624 -0.020823515832056667 0.0878601326069315
0.04432761003680257 -0.020310532615530667 0.08796036249613702
0.044391268542347116 -0.019776640687933743 0.08778418159838702
0.04445365251339884 -0.019256505290201304 0.08778986272111722
0.044516478768619486 -0.01873159615878471 0.08773243509472459
0.04457738404748495 -0.018227420230318595 0.08794907374661967
0.044639768016909415 -0.017707284850149257 0.08795475510151145
0.04470148922149033 -0.017194302590774833 0.08805498538451262
0.044762394501983056 -0.016690126644745618 0.08827162380424612
0.044821961726231846 -0.01620039254943843 0.08867917104629663
0.04487801190284376 -0.015748618005350316 0.08958848860689228
0.0449321593170139 -0.015317380080448343 0.09076927386123519
0.04329794807624721 -0.024533720377089396 0.08955974193767194
0.04336417751084968 -0.02397208081720312 0.08901679754397995
0.04342965474234058 -0.02341855955379424 0.08858115433036062
0.04349405020439063 -0.022876713887173678 0.08829984749044131
0.04355743741006619 -0.022345750386792217 0.08816238889278262
0.04361912755840325 -0.02183310331915747 0.0882670499794964
0.043684141971311624 -0.021284577282043225 0.08789743723319297
0.04374752918512348 -0.020753613693846273 0.08775997747472639
0.04380816316574723 -0.02025236617503252 0.08801533819455121
0.04387364028490035 -0.01969884585121211 0.08757969514256596
0.04393598543768135 -0.0191791294212004 0.08759091447973494
0.043994837668571936 -0.018697112151905667 0.08810046210789639
0.04405822488238379 -0.01816614856370871 0.08796300234942982
0.044118551815420806 -0.017668214889865794 0.08826216170861519
0.04418067735000304 -0.017150868674655175 0.08830470610789187
0.04424131121666175 -0.016649622112992996 0.08856006722151233
0.0442978063624773 -0.016193045128373124 0.08940590882389655
0.04435315543523123 -0.01574883763660074 0.09041525308421311
0.04271661073112845 -0.02499036470750257 0.08953865769465331
0.04277751601162118 -0.02448618876147336 0.08975529611438682
0.0428469973807461 -0.023889450894284008 0.08874839723764993
0.04291270468880289 -0.023333446401905687 0.0882799289307049
0.04297487164364347 -0.022815653135579435 0.08831656388917988
0.04303822744972347 -0.02228502853275149 0.0881835850813267
0.04310158325417622 -0.021754403947486647 0.08805060650563512
0.04316375020250776 -0.02123661075141279 0.0880872423927564
0.04323069280866633 -0.020667273619005104 0.08744253373156764
0.043289508175681495 -0.020185654496414837 0.08795735660562772
0.043351675019811554 -0.019667862152113958 0.08799399149357519
0.04341594934545285 -0.01912732405382336 0.08772997515458898
0.04347685462594558 -0.018623148107794144 0.0879466135743225
0.043541436723247104 -0.018079288076688425 0.08763867942655881
0.04360100394586864 -0.017589553998944334 0.08804622690077091
0.043662951334611184 -0.017074130521532685 0.08811418742094049
0.043721560298371945 -0.01659473884768587 0.08865844204417742
0.04377800041678683 -0.0161387557768134 0.08951213442247705
0.04383424650077375 -0.01568486679370344 0.09039350181855794
0.04389596770698191 -0.015171884516765911 0.09049373186939755
0.042260550385999775 -0.024401243049237974 0.08945628414333318
0.04232602772901483 -0.02384772085502217 0.08902064088416056
0.0423934968414306 -0.023272701111760892 0.08830081541582337
0.04245562238252186 -0.02275535482629788 0.08834335888645375
0.04251796747669309 -0.022235638892425053 0.08835457865268213
0.04258077561075411 -0.021710925343676166 0.08829973637762004
0.042645790022035224 -0.021162399324125017 0.08793012386347819
0.04270984955592884 -0.020624179348484612 0.08769674399535989
0.04277175823060214 -0.02010917398702071 0.08777024372914208
0.0428336666838544 -0.01959417046960755 0.08784374332186926
0.042894603420925194 -0.019089655147449033 0.08805590175489941
0.04295832539289404 -0.018555078496139927 0.08787068194880626
0.0430186522705758 -0.018057145283309695 0.08816984127272788
0.04308056089314836 -0.01754214034773228 0.08824334050692316
0.04313968665981909 -0.01705717079178974 0.08871386270250019
0.04319681402350965 -0.01659377010859939 0.08946949765639896
0.04325272042446772 -0.016143547479452625 0.0903993356658791
0.04331243080763908 -0.015652268125618516 0.09078645044828311
0.04168043238000528 -0.02484472603969151 0.08926122405027963
0.041743258626275995 -0.02431981700487196 0.08920379770077566
0.04180948127927531 -0.023758250639199736 0.08866182084045922
0.04187375555444312 -0.023217712949232527 0.08839780376972453
0.041936357889019824 -0.022695220605582794 0.08837232296940875
0.04199918414098594 -0.0221703115092924 0.08831489580733926
0.04206253994706595 -0.02163968690646446 0.08818191699948609
0.042126505555552474 -0.021102480672884016 0.0879619374976393
0.04219016417180753 -0.02056858782326172 0.0877857566704168
0.04225211166963333 -0.020053163441387793 0.08785371749327547
0.04231405895091987 -0.019537740850875316 0.08792167747859439
0.04237644292848063 -0.019017605382890483 0.08792735767267829
0.04243839031722318 -0.01850218190547883 0.08799531819284788
0.042500337705965716 -0.017986758428067177 0.08806327871301746
0.04256792983758614 -0.01741041106823602 0.08732590999031642
0.042622516374188804 -0.016974433670883447 0.08844404551423955
0.042678165377682445 -0.016526989010219942 0.08941059856509873
0.04273421560802235 -0.01607521402268224 0.09031991639311973
0.04279848988074928 -0.01553467635905968 0.09005589967062741
0.04122434785831698 -0.02425586626640635 0.0891823121439867
0.041288743432704805 -0.023714019660197316 0.08890100514243332
0.04135583362965509 -0.023143089572295925 0.08823523965829828
0.04141441880939384 -0.02266395460070047 0.08878288755515658
0.0414796737637727 -0.022112832386328708 0.0883789566844205
0.04154030763368592 -0.021611585789540335 0.0886343173337178
0.041606536956764244 -0.02104994716046098 0.0880913729855791
0.041670258925478564 -0.020515370544278076 0.0879061536438091
0.0417321676066609 -0.02000036511256178 0.08797965244894498
0.041793857636151156 -0.019487719054767896 0.08808431462593914
0.04185554784147074 -0.018975071508557362 0.08818897551575508
0.041917892929132936 -0.01845535564493693 0.0882001962106298
0.04197760331962695 -0.017964076212068875 0.08858730994830671
0.04203906961243889 -0.017453845365809708 0.08872391650339162
0.04209713955631839 -0.01698027136304589 0.08934507325631039
0.0421530458962258 -0.016530049256382656 0.09027491204309228
0.042212171719879045 -0.016045079221864326 0.09074543404177149
0.04064238773460629 -0.02471923196490208 0.0892500757886152
0.040706662005705954 -0.02417869431884262 0.08898605929828446
0.04077124421371801 -0.023634833365711524 0.08867812522104829
0.04083551848725856 -0.023094295693307416 0.08841410838247518
0.04089790240946407 -0.02257416068633527 0.08841978854129533
0.04096050474566803 -0.02205166832512244 0.08839430750881794
0.041024470354154546 -0.021514462091541998 0.08817432800697114
0.041087296611002445 -0.020989552942562308 0.08811690014841693
0.04114820188335888 -0.02048537708434859 0.08833353972895831
0.04121278409787996 -0.0199415160609651 0.08802560472307584
0.041274731375911984 -0.01942609350557882 0.08809356517271792
0.041334628455385485 -0.01893279926477602 0.0884540518699758
0.04139921055268701 -0.018388939233670302 0.08814611772221213
0.041459443508216204 -0.017892019727773836 0.08845867694808209
0.04151767876376968 -0.01741666164350357 0.08905625656722958
0.04158587275023374 -0.016833818294961552 0.08823301309892355
0.04165743559142858 -0.01621461471290803 0.086929134106045
0.041693369038525434 -0.015979961268051526 0.09070851949096329
0.04018672457780598 -0.02412582248522043 0.08911102289026998
0.040251450009045765 -0.023580415715952686 0.0887826551117624
0.04031584546784129 -0.02303857008445832 0.08850134873616625
0.040379232684907666 -0.022507606461135168 0.08836388851337652
0.04044016936336868 -0.022003091635115535 0.08857604737546608
0.04050542431774754 -0.021451969420743778 0.08817211650472999
0.04056823245180856 -0.020927255871994888 0.0881172742296679
0.04062992259200933 -0.020414608892175636 0.08822193647718957
0.0406922678001456 -0.01989489200115124 0.08823315584962231
0.04075483897102246 -0.019372735736140366 0.08821210531816845
0.040814549415244476 -0.018881455859822722 0.0885992193232707
0.04087689450290667 -0.01836173999620229 0.0886104400181454
0.040938584654498254 -0.017849092893441346 0.08871510064053602
0.04099829509872027 -0.0173578130171237 0.08910221464563828
0.04106673550268816 -0.01677231007097458 0.0882438147174421
0.04111177068702344 -0.01643942094145938 0.09072464456162085
0.03960460252475978 -0.02459093715729519 0.0892019055328213
0.03966795832433075 -0.024060312624719644 0.08906892765361443
0.03973312515779335 -0.023510141777099938 0.0886775848863166
0.03979648095736432 -0.022979517244524388 0.08854460700710973
0.039861647680116394 -0.022429347318930058 0.08815326416928439
0.0399222181959431 -0.02192878450626539 0.08841766356529077
0.039985573998768585 -0.021398159938563647 0.08828468522176075
0.0400484002507347 -0.020873250842273254 0.08822725805969127
0.040110347645986276 -0.020357827294609207 0.08829521765121455
0.040171253029053236 -0.019853650514370113 0.08851185730228345
0.04023552718862875 -0.019313113799117574 0.08824784085750599
0.040297011599345796 -0.018802687405316904 0.0883818625255835
0.04035724455162047 -0.018305767934546635 0.08869442221577661
0.04041919195175382 -0.01779034433419329 0.08876238111081516
0.04047847007223269 -0.01730373055169967 0.08921117487526506
0.04053510247652857 -0.016845671992348956 0.09003742583588394
0.04059682368110947 -0.016332689732974526 0.0901376561188851
0.03914839718549975 -0.024003379482578958 0.08914020597018439
0.0392127927550058 -0.02346153292905922 0.08885889966511575
0.03927718821705584 -0.022919687262438655 0.08857759282519642
0.0393375151028739 -0.022421753961792933 0.08887675098831016
0.039401574636767515 -0.021883533986152524 0.08864337112019186
0.03946414591672763 -0.02136137681667938 0.08862232089142708
0.03952887123562964 -0.020815970987000103 0.08829395327455358
0.03959144251233524 -0.020293813852653157 0.08827290351011195
0.03965313276812831 -0.01978116589811923 0.0883775651316764
0.039717192186429634 -0.019242946897193493 0.08814418588951532
0.03977631801333739 -0.01875797682754897 0.08861470742387136
0.039838663110763145 -0.018238260858549946 0.0886259267257766
0.03989778887743387 -0.017753291302607402 0.08909644892135363
0.03995491629647969 -0.017289890158404365 0.08985208391051616
0.03856543228607064 -0.024477588519004886 0.08935130478022495
0.03862970655717031 -0.023937050872945422 0.0890872882898942
0.0386942887635551 -0.02339318993737743 0.0887793544448196
0.038757115022030254 -0.02286828077083464 0.08872192635410381
0.038820470828110264 -0.022337656168006696 0.08858894754625064
0.03888382663581753 -0.021807031547615655 0.0884559685062359
0.03894665288290187 -0.02128212250401456 0.08839854204065115
0.03901000869060914 -0.020751497883623515 0.08826556300063641
0.03907336449668914 -0.020220873280795575 0.08813258419278325
0.03913733021588619 -0.019683666125189757 0.08791260476146395
0.03919756305745034 -0.01918674757644486 0.08822516438112955
0.03925928431901376 -0.018673764838494648 0.08832539446723289
0.03931951726803392 -0.018176845402850576 0.08863795462174917
0.03937908444343649 -0.01768711169830368 0.0890455008998896
0.039437693459297984 -0.017207719598570377 0.08958975602271346
0.039494516827355095 -0.016747599956891825 0.090388762125691
0.038176590820459017 -0.0233161497444781 0.08858484304287416
0.03823805705628844 -0.022805919376794718 0.08872144979485688
0.038301444261963996 -0.022274955876413257 0.0885839911971982
0.03836401554355138 -0.02175279868937701 0.08856294073627184
0.038426823677612396 -0.02122808514062812 0.08850809846120974
0.03849088320825149 -0.020689865200113913 0.08827471905741462
0.038554605175338555 -0.020155288601494105 0.0880894999478062
0.038616950383474825 -0.01963557171046971 0.08810071932023894
0.03867885883672709 -0.01912056819305655 0.08817421891296612
0.038737183352335225 -0.018644246720130445 0.0887590637730857
0.03879812003079625 -0.018139731894110812 0.08897122263517528
0.03885783042129027 -0.017648452461242758 0.08935833637285219
0.03891495783626794 -0.017185051360947466 0.09011397194241867
0.03759156717688009 -0.023812581169118597 0.08908968061973667
0.03765584156275843 -0.023272042557126015 0.0888256636195295
0.03771919736558392 -0.022741417989424268 0.08869268527599948
0.03778158128128039 -0.022221283052704516 0.08869836636346594
0.037843965203485895 -0.02170114804573237 0.08870404652228608
0.03790854730729646 -0.02115728794437426 0.08839611144587609
0.037971373557635316 -0.020632378865646964 0.08833868451596819
0.038035647827921355 -0.020091841228369052 0.08807466814171823
0.03809759532737442 -0.019576416828932026 0.08814262873241532
0.038158500497156626 -0.019072241804928187 0.08835926708162133
0.038218067721405416 -0.018582507709620995 0.08876681432367182
0.03828001511014796 -0.018067084232209343 0.08883477484384142
0.03833843148451544 -0.01758977118622602 0.08940650625413595
0.038398664492145365 -0.017092851254443066 0.08971906597959281
0.038455677732072716 -0.01663068231527594 0.09049098300534772
0.03713438272215894 -0.023235588891253007 0.08916765464087242
0.037200066236430164 -0.022679841206504636 0.0887025810005182
0.03725977662529693 -0.02218856179119968 0.0890896949703567
0.0373223479068843 -0.02166640460416343 0.08906864450943035
0.03738606987559863 -0.021131827987980526 0.08888342516766035
0.03745175339637889 -0.02057608023297976 0.08841835059865981
0.037514098490550124 -0.020056364299106937 0.0884295703648882
0.03757442547894241 -0.019558430164251336 0.08872872975933732
0.037636115519823474 -0.019045783983515762 0.08883339031120044
0.03769705225363975 -0.018541268696483443 0.08904554920855375
0.037759860389328034 -0.018016555130171454 0.08899070670133008
0.03781793032832575 -0.017542981180096926 0.08961186415073358
0.03788198991757462 -0.01700476074344383 0.08937848431787905
0.03661423910840371 -0.02318494495564728 0.08932206781244624
0.03667940582383312 -0.02263477510908689 0.08893072601934798
0.036741353222339214 -0.022119351526296648 0.0889986851465481
0.036803074420411086 -0.02160636933717461 0.08909891635819558
0.03686545834261659 -0.02108623433020247 0.08910459651701572
0.03692881414544208 -0.020555609762500725 0.08897161817348571
0.03699098110190991 -0.020037816478611376 0.0890082528997991
0.0370531481560702 -0.01952002241320144 0.08904488955393264
0.03711553196756519 -0.018999888328254666 0.08905056964222528
0.03717791594512595 -0.018479752860269833 0.08905624983630916
0.037239637149706864 -0.017966770600895406 0.08915648011931034
0.03730202107191237 -0.01744663559392326 0.08916216027813048
0.037359411910880866 -0.016980391344075807 0.08988021306715707
0.03741782828524835 -0.016503078298092486 0.0904519444774516
0.03615631858912146 -0.022615901835589907 0.08950510648414119
0.03622179581979873 -0.022062380580962573 0.08906946338660265
0.0362801202767971 -0.021586059604175353 0.08965430867578165
0.03634224581137933 -0.021068713388964735 0.08969685307505833
0.03640371204720875 -0.020558483021281354 0.08983345982704107
0.03647277394706852 -0.0199662722359521 0.08888639089175307
0.03652990141089242 -0.019502870744896515 0.08964202742522961
0.03659362327459163 -0.018968294989268133 0.0894568072003666
0.036656431464007905 -0.018443580979506557 0.08940196496056825
0.03671900274559529 -0.017921423792470307 0.0893809144996419
0.03678046897491567 -0.01741119349503932 0.08951752218027094
0.03683853898065946 -0.01693761896101042 0.09013867803980716
0.036900005210793486 -0.016427388654797884 0.0902752856043554
0.03696002343155751 -0.015932786792975825 0.09061848110419543
0.03569994880381467 -0.0220301165132629 0.08946683550760631
0.03576051932289589 -0.02152955366547203 0.08973123443928954
0.0358224667108248 -0.021014130196841934 0.0897991950755399
0.03588463365590182 -0.020496337035894274 0.08983583142698437
0.0359452041766103 -0.019995774170540312 0.09010023012650602
0.03601037100437749 -0.01944560338439145 0.08970888817177369
0.03607372670056061 -0.01891497969480733 0.08957590917731223
0.03613738537054366 -0.018381086401735445 0.08939972861751506
0.03619955231562069 -0.017863293240787784 0.08943636496895951
0.0362619362378262 -0.017343158233815638 0.08944204512777965
0.03632250681226267 -0.016842594925012087 0.08970644409472664
0.03638445420425973 -0.01632717141247424 0.08977440415057307
0.03644683812646524 -0.015807036405502094 0.0897800843093932
0.03650900512689752 -0.015289242783541745 0.08981672069610142
0.036570726331478426 -0.01477626052416732 0.08991695097910257
0.03662896153493117 -0.014300902865783546 0.09051453009866317
0.036691787818643073 -0.013775993495079061 0.09045710237382162
0.03693881328672651 -0.011722546621684381 0.0908379688612263
0.03700098024915335 -0.011204753318248481 0.09087460534032246
0.0370635826099272 -0.010682260732357016 0.09084912315750612
0.037126938437579055 -0.010151635947867768 0.09071614424679607
0.037187171406133424 -0.009654716335499679 0.09102870359756275
0.03724807669070141 -0.009150540379595886 0.09124534341908166
0.03737233780413815 -0.008115739609013933 0.09132900316467468
0.03743428522218557 -0.0076003158835328405 0.09139696347031456
0.03762506102872407 -0.006000796469588057 0.09089696504010977
0.037689335354365375 -0.005460258371297458 0.09063294870112358
0.03775216160470424 -0.004935349292570164 0.09057552177121567
0.03781143967715051 -0.004448735892055285 0.0910243144556747
0.03793621528443049 -0.0034083822294810693 0.0910345751752654
0.03529986530576949 -0.020990013337270862 0.09030426207614534
0.035361555454920195 -0.020477366260854564 0.09040892304677833
0.035424126735693943 -0.01995520908259987 0.09038787270193277
0.03548751405289365 -0.019424244651411487 0.0902504140587208
0.03555252836160055 -0.018875719466070216 0.08988080031324355
0.03561399464708982 -0.018365488698844995 0.09001740791305556
0.03567924960228232 -0.017814366475691682 0.0896134769262387
0.03574547892698789 -0.01725272782904923 0.0890705323459384
0.03580549719659813 -0.01675812557646688 0.08941372880968851
0.03586830532740464 -0.01623341206284419 0.08935888699894957
0.035931692537961975 -0.015702448509773433 0.08922142770480614
0.03599381813115397 -0.015185101798423929 0.08926397167502344
0.03605528436372889 -0.014674871465866749 0.08940057889132931
0.036116974510438694 -0.014162224415795099 0.08950524021020467
0.03618137000016637 -0.013620378518668194 0.08922393338791723
0.0362369021054339 -0.013174195615177619 0.0902071683105014
0.036301916550088055 -0.012625669303649282 0.0898375550014259
0.03636224344160863 -0.012127735975565879 0.09013671433416347
0.03642749841308082 -0.01157661361081475 0.08973278300792017
0.03648962396257197 -0.01105926727946054 0.08977532788309094
0.03655243211306659 -0.010534553593848509 0.08972048561849777
0.036614777232877815 -0.01001483743440663 0.08973170470146533
0.036676685810679406 -0.009499832879714929 0.08980520437353595
0.036738152058720386 -0.008989602414341477 0.08994181136649619
0.03679878593026087 -0.008488355799989999 0.09019717178363193
0.0368628454885776 -0.007950135628969447 0.08996379239746867
0.03692623273169435 -0.00741917179270305 0.0898263324244724
0.036984302699996946 -0.006945597594559083 0.09044748965934618
0.03705035998596701 -0.006385815771405984 0.08992908989753727
0.03711316811677351 -0.005861102257783292 0.08987424808679832
0.03717485831232954 -0.005348454816951351 0.08997891036958375
0.03723518519326582 -0.004850521568994924 0.0902780692291822
0.037295512079083874 -0.004352588268349201 0.09057722739229593
0.03735583895595201 -0.00385465506430052 0.09087638683229834
0.03741774757527005 -0.0033396501638493043 0.09094988653081677
0.03747838144436964 -0.0028384035758424768 0.09120524729619488
0.037538399775844195 -0.002343800791995044 0.09154844286656241
0.03490582520550826 -0.019884683438197357 0.09027947525283449
0.03496820923842429 -0.019364547509199838 0.09028515548218213
0.035032791224201665 -0.01882068840890104 0.08997722137997174
0.03509614708645056 -0.01829006333627886 0.08984424249130153
0.035159805701078364 -0.01775617050421966 0.08966806189624063
0.035223464314078905 -0.01722227768972356 0.08949188153334128
0.03528773863972019 -0.016681739591432963 0.0892278651943551
0.03535232073702173 -0.016137879560327244 0.08891993104659142
0.03541567654310174 -0.015607254957499301 0.08878695223873824
0.03547933521796656 -0.015073361611738119 0.08861077098245636
0.03554216146505092 -0.014548452568137023 0.08855334451687161
0.03560410886030249 -0.014033029020472976 0.08862130410839489
0.035665830095815546 -0.013520046495466006 0.08872153394470478
0.0357279970685702 -0.013002253104012002 0.08875817031378108
0.03579059944221534 -0.01247976040691424 0.08873268790596611
0.035853201790630854 -0.011957267948011337 0.08870720711446627
0.03591492301393236 -0.011444285520694441 0.08880743670979864
0.03597515598437047 -0.010947365898654384 0.08911999641156268
0.03603775834026254 -0.010424873365452217 0.08909451492523107
0.03610014228322627 -0.009904738185600314 0.08910019509727511
0.03616208968418036 -0.009389314610498588 0.08916815585842222
0.03622381090422734 -0.008876332218307892 0.08926838591807774
0.036286194826432853 -0.008356197211335745 0.08927406607689789
0.036347916058691386 -0.007843214721454973 0.08937429637753094
0.036409863475111555 -0.007327791013536978 0.0894422569153324
0.03647352212067151 -0.006793897915845239 0.0892660758735802
0.03653375507294618 -0.006296978445074972 0.08957863556377332
0.03659570246494323 -0.005781554932537122 0.08964659561961975
0.0366566077975367 -0.0052773785606214174 0.08986323453894017
0.03671617496643024 -0.004787644926326917 0.09027078174572692
0.036777080245295704 -0.004283468997860801 0.090487420397622
0.03683664741500287 -0.0037937353547847505 0.09089496748832797
0.036897552750037234 -0.0032895589565243993 0.091111606059406
0.03695812326179578 -0.002788996187767479 0.09137600603581636
0.03701902865137177 -0.0022848193372759897 0.09159264475823893
0.03444811690489254 -0.0193133400121562 0.09043212056400443
0.034512176326448374 -0.018775120976104266 0.09019874085752021
0.03457589834726344 -0.018240543934034868 0.09001352201533712
0.03463962032167318 -0.017705967256381114 0.0898283018610016
0.03470300752816237 -0.0171750037472181 0.08969084314726213
0.034769562716454004 -0.01660984817349395 0.08910141544327702
0.034832133998041394 -0.016087690986457702 0.08908036498235065
0.03489903569652829 -0.015518795372789539 0.08844149263106658
0.034958746135868524 -0.015027515549161192 0.08882860733265358
0.03502679254455894 -0.014446265015608088 0.08802641883000117
0.03509085208007981 -0.013908045022404579 0.0877930387297213
0.03514997787768269 -0.013423075200829497 0.08826356047860705
0.035212322999531545 -0.012903359036450327 0.08827478026246731
0.03527401317066447 -0.012390711790998534 0.08837944206329769
0.035336138722340024 -0.011873365425408544 0.08842198600706716
0.03539848382709555 -0.011353649411408746 0.08843320624643465
0.03545477844272757 -0.010899236668365902 0.08930765222096707
0.035521172973467845 -0.010335814984453606 0.08874114000072537
0.03558329853206281 -0.009818468561237031 0.0887836839489028
0.03564498868935691 -0.009305821431038409 0.08888834574091727
0.03570645493902515 -0.008795590948101856 0.08902495250171592
0.03576858047360738 -0.008278244732891236 0.08906749690099261
0.035831151782872384 -0.007756087315348645 0.08904644645769814
0.03589261804637944 -0.007245856717158923 0.08918305322731275
0.035954526638019846 -0.006730852047214051 0.08925655290819928
0.036014544860411134 -0.006236250167828892 0.08959974817587775
0.036076011088104265 -0.005726019887961006 0.08973635608866837
0.036136645021509047 -0.005224772742344447 0.08999171561242154
0.036196663234136776 -0.004730170968337882 0.09033491227306947
0.036256990111818536 -0.004232237755507652 0.09063407159699108
0.03631762398254539 -0.0037309911499377253 0.09088943213020761
0.036377334425140156 -0.0032397112911831815 0.09127654636747143
0.0339287594306848 -0.01925421122938327 0.09047437496828545
0.03399211512686792 -0.018723587539799146 0.09034139597382398
0.03405494143093478 -0.018198678017622264 0.0902839693113414
0.03412010814880508 -0.017648508144717228 0.08989262717000078
0.0341834639524442 -0.017117883568233933 0.08975964871038998
0.03425165799426351 -0.016535039758679225 0.0889364052773477
0.03431788053980682 -0.015973474279906176 0.08839442788218059
0.03438215481009286 -0.015432936642628264 0.08813041150793063
0.03444581348333043 -0.01489904331443018 0.08795423048381033
0.0345094720914492 -0.01436515055262338 0.08777805081739573
0.034570956446810984 -0.013854724619835395 0.08791207245020949
0.03463312342607468 -0.013336931158128996 0.0879487078906395
0.034694607805859576 -0.012826505029960867 0.08808273000540827
0.034756555225534266 -0.012311081286916674 0.08815069007888658
0.03481850263625191 -0.011795657606436357 0.08821864944706422
0.034880223854671634 -0.011282675231808759 0.08831887973888133
0.03494012088881702 -0.01078938138856435 0.08867936757325429
0.035002947163725776 -0.010264472085158419 0.08862193949300741
0.035064431534964004 -0.009754046032179976 0.0887559618355298
0.0351261527582655 -0.009241063604863079 0.08885619143086218
0.03518705804771527 -0.00873688759626999 0.08907283055589635
0.03525563284865642 -0.008149934096231841 0.08819525617082685
0.035310650870977914 -0.007709299718117431 0.08925183546299363
0.035372372103236446 -0.007196317228236661 0.08935206576362667
0.035433277403270506 -0.006692141139516598 0.08956870536179994
0.03549418268376323 -0.006187965193487384 0.08978534378153345
0.03555475320284445 -0.0056874023456965185 0.09004974271321668
0.03561565853869244 -0.005183225938654617 0.09026638116821395
0.03568404467518976 -0.004598308704285769 0.08941572359647633
0.035737511561382204 -0.004174415755097355 0.09069359998346944
0.03579612052270207 -0.0036950241075951913 0.09123785495494875
0.03585568774695087 -0.003205290012288004 0.09164540219699925
0.03359697075382534 -0.01763017625373927 0.09047416401543015
0.0336610302860917 -0.017091956295661962 0.09024078437947343
0.033728499461999024 -0.016516936003572506 0.0895209577855921
0.03379635188510768 -0.01593777916702162 0.08874644526463105
0.03386074734390321 -0.015395933535527255 0.08846513888903489
0.0339251428613085 -0.014854087407894005 0.08818383208437933
0.033989538324985816 -0.014312241723710348 0.08790252501229842
0.03405292552903411 -0.013781278240891984 0.08776506664680132
0.03411294377422125 -0.01328667618368978 0.08810826262859639
0.03417575193270538 -0.012761962439560744 0.08805342083548932
0.03423721819946696 -0.012251731806244823 0.08819002714078077
0.03429815489176678 -0.011747216864972017 0.08840218601168627
0.03436028044018783 -0.011229870534508227 0.0884447304197789
0.034420298670979 -0.010735268609231872 0.08878792709199775
0.03448242422850386 -0.010217922186905716 0.08883047057309705
0.03454275112694384 -0.009719988801195728 0.08912962991024258
0.034604441280983424 -0.009207341706123303 0.08923429216658019
0.03466445951721353 -0.008712739711484974 0.08957748744307457
0.03472680460487572 -0.008193023847864543 0.08958870813794928
0.03478565687483474 -0.007711006225121773 0.09009825415861156
0.03484846503331887 -0.007186292480992739 0.0900434123655045
0.03491037362495927 -0.0066712878110478675 0.09011691204639105
0.0349700840154533 -0.006180008378179812 0.09050402578406798
0.03503220955003552 -0.005662662162969192 0.09054657018334465
0.0350931462838518 -0.005158146875936871 0.09075872908069797
0.03515408296312645 -0.004653632041135689 0.09097088782670675
0.03521471684117597 -0.004152385356531819 0.09122624731519616
0.035274427223533696 -0.003661106011479257 0.09161336221368098
0.03320567399879637 -0.01649523741585014 0.09005799122992769
0.03327111424593779 -0.015942115326549697 0.08962762458464894
0.03333569634974835 -0.01539825522519158 0.08931968950823894
0.03339966201359013 -0.014861048530598449 0.08909971004165591
0.03346362761394037 -0.0143238423848335 0.08887973170061698
0.03352698342164763 -0.013793217764442457 0.08874675266060225
0.03358958579203826 -0.013270725102470888 0.08872127071711045
0.03365153321171295 -0.012755301359426695 0.08878923079058874
0.033718004216984745 -0.012191054309423941 0.08821180953713004
0.033776067390659005 -0.011717553411965644 0.08883393418048266
0.0338382343593384 -0.011199760030386221 0.08887056914777358
0.03390018176624438 -0.01068433640170478 0.08893852967951409
0.03396041473495265 -0.01018741679407137 0.08925108938017613
0.03402213596354629 -0.00967443432669099 0.08935131921207805
0.03408304125462332 -0.009170258300534799 0.08956795810495066
0.03414476247629756 -0.008657275890781004 0.0896681879324446
0.034205667753535764 -0.008153099979877987 0.08988482681650127
0.03426738898904882 -0.007640117454871017 0.08998505665281116
0.034328873368833716 -0.007129691326702888 0.09011907876757995
0.034390357746991354 -0.006619265216097859 0.0902531011145103
0.034450254774364114 -0.006125971401181548 0.09061358731218129
0.03451242171944114 -0.0056081782402338885 0.09065022366362574
0.034574369170047976 -0.005092754231557153 0.09071818329041277
0.03463393633894151 -0.004603020597262653 0.09112573049719952
0.03475519012013765 -0.003600678059946993 0.09163844327780864
0.0348173571197563 -0.0030828844467681964 0.09167507978059762
0.032744774734165594 -0.015958344057388073 0.09066600840249918
0.03287012988333804 -0.014911735367445743 0.09059358570479731
0.0329335951356244 -0.014379929505721945 0.09044499217354345
0.03299706039441978 -0.013848123573745747 0.09029639771364327
0.0330639621230252 -0.013279227703226593 0.08965752503174872
0.03312459602061606 -0.012777980875931872 0.08991288569867789
0.03318566736944413 -0.012272012613488962 0.09010583506512775
0.03324847551734396 -0.0117472989494869 0.0900509927988816
0.033305602891618824 -0.011283898186169577 0.09080662822591946
0.03337128643218979 -0.010728150262335926 0.09034155343632827
0.03343275268038466 -0.01021791980169715 0.09047816077918386
0.03349556083276301 -0.009693206106413152 0.09042331886558805
0.03355557906004318 -0.009198604208371866 0.09076651541897113
0.033619301049919 -0.008664027397901841 0.09058129504128996
0.03368164614409022 -0.008144311464029016 0.09059251480751836
0.03374377170635008 -0.007626965018312051 0.09063505922442691
0.03380378994746907 -0.007132363005017594 0.09097825578662593
0.033865480124297395 -0.006619715698094955 0.09108291677489078
0.03392694635280415 -0.006109485409445519 0.09121952457160062
0.033988412590260836 -0.0055992550241990395 0.09135613109142177
0.03235088003890263 -0.014851434839469768 0.09062035261212943
0.03241632029499397 -0.01429831265357228 0.090189984689962
