ply
format ascii 1.0
element vertex 655
property float x
property float y
property float z
property uchar red
property uchar green
property uchar blue
end_header
-0.007183495201554244 0.0014230067964244152 0.08001028569988256 122 132 0
-0.007450431259057888 0.0009245208527902411 0.07997110297208358 132 122 0
-0.007678447995658315 0.0003812477256892495 0.07948808669084133 212 42 0
-0.007983699954929134 -7.314543106382021e-05 0.07988585616159166 154 100 0
-0.00825063601243278 -0.0005716313746979952 0.07984667343379269 164 90 0
-0.008577858448446626 -0.0010007415678764857 0.08049499287657232 67 187 0
-0.008820363264503096 -0.0015273422490657603 0.08017719776667412 120 134 0
-0.009093269157992996 -0.0020189582850710713 0.08020609468306629 120 134 0
-0.009372006283073633 -0.002503863915215468 0.08030149060760672 109 145 0
-0.00973321839032489 -0.002893859817436205 0.08133742618077008 0 211 43
-0.004129891597381665 0.006261776629385329 0.0816801337457589 0 105 149
-0.0044113848965346755 0.005780042721433949 0.08180696091072338 0 91 163
-0.004592979007615202 0.0051833478336773394 0.08079454384944444 0 236 18
-0.004900149121049193 0.004731162031020636 0.08121418783286702 0 181 73
-0.005091780337100037 0.00414601754166124 0.0803162333023279 61 193 0
-0.0053612256941803355 0.003650419224478519 0.08030566647331423 67 187 0
-0.005609487586142532 0.003130443613019092 0.08005352470467127 110 144 0
-0.005890980838627395 0.002648709651363414 0.08018035133743505 95 159 0
-0.006160425935708808 0.0021531118033266084 0.08016978448387897 100 154 0
-0.006435717784863792 0.0016642414533105665 0.08022589069263847 95 159 0
-0.006667893213347546 0.0011257540236996122 0.07979029987909239 167 87 0
-0.006943185015834383 0.0006368836199792715 0.0798464055556512 163 91 0
-0.007209705073478886 0.00013791895622405686 0.07980247879092067 173 81 0
-0.007503437420765096 -0.0003297306233916871 0.08006887931168007 136 118 0
-0.007766958583306553 -0.0008321463253988764 0.07999075333074797 152 102 0
-0.008023387494266933 -0.0013427235771295157 0.07983174774688107 181 73 0
-0.008326139860935599 -0.0017999931898398523 0.08020101201658918 127 127 0
-0.008637181890491818 -0.0022477233079237022 0.08066481109448105 59 195 0
-0.008877187020609844 -0.002777200552478841 0.08031850971913924 117 137 0
-0.009197190407688195 -0.003214618209961091 0.0808845035697152 33 221 0
-0.009565287718285465 -0.003596691019423697 0.08199895684529622 0 133 121
-0.003689970969234855 0.0060516156886698605 0.08232321352285848 0 25 229
-0.0038989097208209614 0.0054863881904446046 0.08162263306822024 0 127 127
-0.0041124901329399645 0.004926502175499456 0.08097498582619675 0 220 34
-0.004382455466510119 0.0044315022316158866 0.08097034877724717 0 225 29
-0.0046003993503399045 0.003876637568624668 0.08037246229953818 63 191 0
-0.004856407734630915 0.003365576387455987 0.08020866105527304 93 161 0
-0.005129313721457109 0.002873960458859274 0.08023755903606661 92 162 0
-0.005385322059079974 0.0023628992239862943 0.08007375725960075 122 132 0
-0.005636846634520016 0.0018466789788483423 0.07985882587410886 160 94 0
-0.005903782738691809 0.0013481930889184678 0.07981964367851058 170 84 0
-0.006173748072261963 0.0008531931450348981 0.079815006629561 174 80 0
-0.006440684129765608 0.00035470720140072434 0.07977582390176202 185 69 0
-0.006719421301514391 -0.0001301983750393726 0.07987122035850312 174 80 0
-0.006986357359018036 -0.0006286843186735463 0.07983203763070415 184 70 0
-0.007275185630782797 -0.0011019773608425191 0.08004251237438095 155 99 0
-0.0075451509643529495 -0.0015969773047260875 0.08003787532543136 160 94 0
-0.007838034791396964 -0.00206560333590575 0.08029459937328416 124 130 0
-0.008126863063161724 -0.0025388963780747227 0.08050507411696095 95 159 0
-0.008408598943340964 -0.003020351131080042 0.0806346676611009 79 175 0
-0.008735821379354811 -0.003449461324258533 0.08128298710388053 0 239 15
-0.009084135922587215 -0.003854299547168484 0.08217183891127755 0 118 136
-0.0028682076929200705 0.006207709644432648 0.08169508830091513 0 119 135
-0.0031664609702438235 0.005745262615075568 0.08201304523110983 0 78 176
-0.003371871703280287 0.005175975179256588 0.08127223146887108 0 185 69
-0.0036118768333983126 0.00464649793470145 0.08092593009352927 0 237 17
-0.003856004860931194 0.004121765196439037 0.08062664598795606 31 223 0
-0.00409600999104922 0.0035922879518838985 0.08028034461261425 89 165 0
-0.004368361280284458 0.003100033693989598 0.08030291685603197 89 165 0
-0.004616623125578509 0.0025800580288258723 0.08005077455518832 133 121 0
-0.004886068529326952 0.0020844597653474502 0.08004020825837532 138 116 0
-0.005149589525205818 0.0015820446398947747 0.07996208331730217 154 100 0
-0.005416109536182173 0.0010830799224352612 0.07991815602037099 165 89 0
-0.005656114759636493 0.0005536027852887193 0.07957185570943054 223 31 0
-0.00595886712630516 9.633317257838267e-05 0.07994111997913865 170 84 0
-0.006183802411851136 -0.00045048599567946556 0.07942296301867799 255 0 0
-0.00649484434807106 -0.0008982162211719127 0.07988676103216849 186 68 0
-0.006784093286509627 -0.001371025172789947 0.08010203303284562 157 97 0
-0.0070564444824085725 -0.0018632795380928448 0.08012460421186195 157 97 0
-0.007334765607630065 -0.002348663888358282 0.08021525609947082 147 107 0
-0.007633018884953818 -0.0028111109177153637 0.08053321302966553 101 153 0
-0.007931272115609423 -0.0032735580007767434 0.08085116942765955 56 198 0
-0.008262948932883705 -0.003697542226026906 0.08155028636169362 0 211 43
-0.00854537626665513 -0.004178201467129427 0.08168776446515974 0 195 59
-0.008884219211186619 -0.004593939128750865 0.08246860347581744 0 90 164
-0.002371274036736491 0.0059319398264957275 0.08168799499588299 0 130 124
-0.0026724033319331882 0.005472802431971426 0.08203874985786816 0 85 169
-0.0028881348656033877 0.004915391862983115 0.08141563387435072 0 175 79
-0.0031017152310542444 0.004355505794333667 0.08076798610012655 16 238 0
-0.0033804523094667343 0.0038706001104849715 0.08086338149246629 5 249 0
-0.0035961838898050805 0.0033131895952009604 0.0802402660411495 106 148 0
-0.0038631199473087257 0.002814703651566786 0.08020108331335055 116 138 0
-0.004130056004812372 0.0023162177079326125 0.08016190058555157 126 128 0
-0.004386064389103383 0.0018051565267639316 0.07999809934128642 156 98 0
-0.004649828012676625 0.0013030206099616144 0.07992274131158944 171 83 0
-0.004925639838321466 0.0008147486332447241 0.07998477730041302 166 88 0
-0.0051816482226124784 0.0003036874520760428 0.07982097605614785 195 59 0
-0.005454554069434231 -0.000187928637633567 0.07984987244033936 195 59 0
-0.005736290089617914 -0.0006693832295259893 0.07997946758108136 179 75 0
-0.006025118314714526 -0.00114267632539926 0.08018994179255748 150 104 0
-0.006306854241561914 -0.0016241310247002813 0.08031953586889812 134 120 0
-0.006588590121741155 -0.0021055857777056005 0.08044912941303806 117 137 0
-0.006840115097184523 -0.0026218063308765705 0.08023419964869064 155 99 0
-0.007203778122160986 -0.00300898179072387 0.08129808533757878 0 249 5
-0.007476683968982741 -0.00350059788043348 0.08132698172177029 0 248 6
-0.007803906404996588 -0.003929708073611971 0.08197530116454992 0 162 92
-0.0016286704374550666 0.006179128356783168 0.08196260188569732 0 98 156
-0.001885099395083593 0.005668551158756828 0.08180359683403111 0 124 130
-0.002113611327388009 0.005125847887972233 0.0813262277342877 0 194 60
-0.002380131431700659 0.004626883277921316 0.08128230150175787 0 203 51
-0.002594838879561003 0.004068294221796354 0.0806475069063461 45 209 0
-0.002851267790521382 0.0035577169700657142 0.08048850132247923 74 180 0
-0.0031076967014817608 0.003047139718335075 0.08032949573861234 103 151 0
-0.003377142058562059 0.002551541401152354 0.08031892890959867 109 145 0
-0.003633571016190585 0.002040964203126014 0.08015992385793247 137 117 0
-0.0038970922720683344 0.0015385486085274232 0.08008179894140173 154 100 0
-0.004125603944373866 0.0009958458068887433 0.07960442981711591 232 22 0
-0.004445607284784068 0.0005584280957021941 0.08017042313549118 148 106 0
-0.004712127435764864 5.9463539355576744e-05 0.08012649743516202 159 95 0
-0.004960389281058913 -0.0004605121258081492 0.07987435513431837 202 52 0
-0.005249638079493041 -0.0009333212385390795 0.08008962553839342 172 82 0
-0.005519083436573338 -0.0014289195557218 0.08007905870937976 178 76 0
-0.005794375285728323 -0.0019177899057378428 0.08013516491813924 173 81 0
-0.006066726621631708 -0.002410044109927844 0.08015773769375764 174 80 0
-0.006373896735065698 -0.0028622299125845457 0.08057738167718022 112 142 0
-0.006717814467199044 -0.0032721276613271156 0.0814160932550367 0 242 12
-0.007016067697854651 -0.0037345747443884953 0.08173404965303072 0 201 53
-0.007230775145714996 -0.0042931638005134585 0.08109925505761897 43 211 0
-0.007545038789101597 -0.004737186774421415 0.08159979248732979 0 227 27
-0.0013800249007320962 0.005383413109202843 0.08170366590880877 0 147 107
-0.0016225297167885675 0.004856812428013569 0.08138587079891058 0 195 59
-0.0019012668885373504 0.0043719068515734715 0.08148126725565169 0 185 69
-0.002110205640123456 0.0038066793533482173 0.08078068680101341 35 219 0
-0.002366214024414467 0.003295618172179536 0.08061688555674827 65 189 0
-0.002608718840470939 0.0027690174909902623 0.08029909044685006 119 135 0
-0.002872482770711213 0.0022668811587463283 0.08022373297389618 134 120 0
-0.0031284911083340784 0.001755819923873349 0.08005993119743034 164 90 0
-0.0034254864457651663 0.0012919252951374637 0.0803635426580839 121 133 0
-0.003667991048490898 0.0007653251367984032 0.08004574805584398 174 80 0
-0.003937956382061052 0.00027032519291483436 0.0800411110068944 179 75 0
-0.004193964766352064 -0.00024073598825384698 0.07987730976262924 208 46 0
-0.004463930099922218 -0.0007357359321374154 0.07987267271367966 213 41 0
-0.004777011854163603 -0.0011811187964260732 0.08035973268703563 141 113 0
-0.005033020238454615 -0.0016921799775947537 0.08019593144277049 171 83 0
-0.0053147561186338566 -0.0021736347306000737 0.08032552498691044 155 99 0
-0.005603584390398615 -0.0026469277727690452 0.08053599973058721 126 128 0
-0.005920329547483045 -0.0030880949032926594 0.08106483692573917 47 207 0
-0.006221458842679741 -0.003547232297816962 0.08141559178772433 0 252 2
-0.006577658370968611 -0.003942996525086038 0.08239436421720582 0 119 135
-0.006908208129167478 -0.0043682777360085365 0.08308062823852783 0 27 227
-0.0006123066049959639 0.00560170040247673 0.08169186633745022 0 155 99
-0.0008875983608146549 0.00511282994505209 0.08174797148180833 0 151 103
-0.0011358602994449986 0.004592854387296962 0.08149583024536605 0 190 64
-0.0013680357279287516 0.004054366957686007 0.08106023943181999 0 254 0
-0.0016121636154571924 0.0035296340583106994 0.0807609537296447 49 205 0
-0.0018604254607512425 0.0030096583931469726 0.08050881142880105 93 161 0
-0.0021239467632971397 0.0025072428522526814 0.080430687044471 109 145 0
-0.002387467925838596 0.0020048271502454925 0.08035256106353889 125 129 0
-0.002650989228384493 0.0015024116093512014 0.08027443667920885 141 113 0
-0.002917509332697142 0.0010034469993002852 0.080230510446679 152 102 0
-0.0031840290836746125 0.0005044827509866866 0.0801865831252054 163 91 0
-0.0034475503862205093 2.0672100923949978e-06 0.08010845874087535 179 75 0
-0.0037258715114420016 -0.0004833171401730429 0.08019911062848423 169 85 0
-0.004043111957566714 -0.0009239143069716617 0.08073359606953638 90 164 0
-0.004261146704278006 -0.0014786744076927816 0.08013674578656665 187 67 0
-0.004536438553432991 -0.0019675447577088235 0.08019285199532614 182 72 0
-0.004814759631986337 -0.0024529291616785607 0.08028350335073434 172 82 0
-0.005093080757207828 -0.0029383135119439977 0.08037415523834321 162 92 0
-0.005368372606362814 -0.0034271838619600397 0.08043026144710269 157 97 0
-0.0057422482085409555 -0.0038026069952459885 0.08161061074131701 0 234 20
-0.0061161239040553915 -0.004178030021123338 0.0827909610999327 0 74 180
-0.0063826440083680405 -0.004676994631174254 0.08274703486740288 0 83 171
-0.0003982698858118667 0.004845811940788626 0.08182760719747119 0 149 105
-0.0006363569551030152 0.0043141274495457176 0.08145943237385853 0 204 50
-0.0008788618178276332 0.0037875268220607414 0.08114163779616101 0 252 2
-0.0011457978753312784 0.0032890408784265685 0.08110245506836203 7 247 0
-0.0013838849446224269 0.0027573563871836587 0.08073428024474938 69 185 0
-0.0016263897606788981 0.0022307557059943845 0.08041648513485117 122 132 0
-0.0019152180324436574 0.0017574626638254126 0.08062695987852796 93 161 0
-0.0021712264167346685 0.0012464014826567321 0.08046315863426282 123 131 0
-0.0024272347543575334 0.000735340247783752 0.08029935685779696 152 102 0
-0.0026832428786496597 0.00022427953576098654 0.08013555558898941 182 72 0
-0.0029501789361533054 -0.000274206407873187 0.08009637286119044 192 62 0
-0.003239007207918065 -0.0007474994500421596 0.08030684760486723 163 91 0
-0.0034950155922090767 -0.00125856063121084 0.08014304636060207 193 61 0
-0.0037737526706215657 -0.0017434663150595353 0.0802384417529418 182 72 0
-0.004029761008244431 -0.0022545275499325146 0.08007463997647596 211 43 0
-0.0043569834909264245 -0.0026836376894067075 0.08072295995145629 114 140 0
-0.004653978688353073 -0.0031475324792554892 0.08102656981550778 71 183 0
-0.004950974025784162 -0.003611427107991374 0.08133018127616135 28 226 0
-0.005296538630144265 -0.004019429685727503 0.08218767368409156 0 164 90
-0.005502952868337915 -0.0045875623180056755 0.08145830383324376 16 238 0
9.442224252809942e-05 0.004574923145472421 0.08186888401635617 0 153 101
-0.00013408978311261035 0.004032219982096424 0.08139151598101413 0 224 30
-0.00038235162840666043 0.0035122443169326974 0.08113937368017048 8 246 0
-0.0006264796559395411 0.002987511578670286 0.08084008957459725 59 195 0
-0.000890000818480998 0.002485095876663097 0.08076196359366515 75 179 0
-0.0011565209694617941 0.0019861313203164803 0.080718037893336 86 168 0
-0.0014088943251429186 0.0014708870575965316 0.0805127830052931 122 132 0
-0.0016754144294555677 0.0009719224475456159 0.08046885677276328 133 121 0
-0.001927787831804839 0.00045667823852996604 0.08026360241692106 169 85 0
-0.0022030793742927914 -3.2191696044460124e-05 0.08031970806893744 164 90 0
-0.002469599431937294 -0.0005311563597996747 0.08027578130420694 175 79 0
-0.002741950721172532 -0.0010234106176939756 0.08029835354762464 175 79 0
-0.003005471930382136 -0.001525826265996865 0.08022022809889322 192 62 0
-0.0032947208221525554 -0.0019986352713191975 0.08043549956736964 162 92 0
-0.003558242031362159 -0.0025010509196220867 0.08035737411863823 178 76 0
-0.0038474909231325793 -0.0029738599249444202 0.08057264558711466 149 105 0
-0.0041412231770824965 -0.003441509611968762 0.08083904504347267 111 143 0
-0.004452265113302422 -0.003889239837461209 0.08130284305696318 43 211 0
-0.004814697545920152 -0.004277831425968115 0.08235269514591326 0 151 103
0.0005148229616459871 0.004387225128740335 0.08273456764126541 0 43 211
0.0003434414044330646 0.0037787779412745224 0.08160568724076066 0 203 51
0.00010535433514191573 0.003247093450031612 0.081237512417148 4 250 0
-0.00014617050029701144 0.0027308727357477467 0.0810225810561985 41 213 0
-0.00040217888458802305 0.0022198115545790653 0.08085877981193335 71 183 0
-0.0006581872688790351 0.0017087503734103848 0.08069497856766819 100 154 0
-0.0009141956531700467 0.001197689192241704 0.08053117732340305 130 124 0
-0.0011779595367421745 0.0006955528062934718 0.08045581931824848 146 108 0
-0.0014417234203143025 0.00019341642034523916 0.0803804613130939 162 92 0
-0.0017116885405537175 -0.00030158300068811603 0.08037582477180259 166 88 0
-0.0019632134693289382 -0.0008178036075633848 0.08016089447525448 204 50 0
-0.002239025294973779 -0.001306075584280276 0.08022293046407805 198 56 0
-0.0025207611751530204 -0.0017875303372855951 0.080352524008218 182 72 0
-0.002796573000797861 -0.0022758023140024854 0.08041455999704157 176 78 0
-0.003093568244892656 -0.0027396970501469683 0.08071817039329376 133 121 0
-0.003390563582323745 -0.003203591678882854 0.08102178185394733 90 164 0
-0.00374418954899804 -0.0036023174834230683 0.08197120554429632 0 206 48
-0.00404531879752659 -0.004061454931651669 0.08232195987408082 0 161 93
0.0012984163608244343 0.004587243830632743 0.08254172936191907 0 76 178
0.0010419874265299818 0.004076666605754252 0.08238272404415252 0 101 153
0.0008335965589854216 0.0035108086190590603 0.08167589555343883 0 203 51
0.0006086612734394464 0.0029639894508012117 0.08115773859297819 27 227 0
0.00035223236247906766 0.0024534121990705733 0.08099873300911128 56 198 0
8.871115326946439e-05 0.0019509965507676832 0.08092060756037987 72 182 0
-0.00016771775769091517 0.001440419299037044 0.08076160197651297 101 153 0
-0.0004077229811452346 0.0009109421618905026 0.08041530166557255 159 95 0
-0.0006892162802982448 0.0004292082539391242 0.08054212883053703 143 111 0
-0.0009675373588515907 -5.617615003061251e-05 0.08063278018594522 133 121 0
-0.001219910501201976 -0.0005714198899003471 0.08042752580556059 169 85 0
-0.0014893559516185673 -0.0010670180996744697 0.08041696004094831 175 79 0
-0.0017528771141600244 -0.0015694338016816588 0.08033883406001618 191 63 0
-0.0020421259592622977 -0.0020422428607082903 0.08055410499629194 161 93 0
-0.002311571409678889 -0.0025378410704824128 0.08054353923167963 167 87 0
-0.0025898925349003817 -0.00302322542074785 0.08063419111928852 157 97 0
-0.0028791413333345084 -0.0034960345334787814 0.08084946152336357 127 127 0
-0.0031863114467684988 -0.003948220336135483 0.08126910550678614 66 188 0
-0.003540584607300388 -0.004346201369457546 0.08222590975627432 0 184 70
-0.00392034144598839 -0.004714856552726231 0.0834733283116739 0 14 240
0.0015238918045257532 0.003818192064241898 0.08254702438238984 0 88 166
0.0013059478740278217 0.0032633274549549777 0.08194913843688155 0 175 79
0.0010779311840955418 0.002720054274149686 0.08146612162343861 0 246 8
0.0008354263680390717 0.0021934535929604127 0.0811483265135404 44 210 0
0.00057941798374806 0.0016823924117917314 0.08098452526927526 73 181 0
0.0003006809053355704 0.0011974867279430364 0.08107992066161498 62 192 0
6.646570549850373e-05 0.0006613466058315731 0.0806675912757337 131 123 0
-0.00018954258545621433 0.00015028531725429467 0.08050378896706718 160 94 0
-0.0004824263658320814 -0.00031834076762966694 0.08076051248271929 124 130 0
-0.0007104428424336217 -0.0008616134255847441 0.08027749617693464 203 51 0
-0.0009804081760037755 -0.001356613369468313 0.08027285912798506 208 46 0
-0.0012971534264244978 -0.00179778039258333 0.08080169738753837 130 124 0
-0.001553161717379216 -0.0023088416811606082 0.08063789507887184 159 95 0
-0.0018501570548103048 -0.0027727363098964935 0.08094150653952539 116 138 0
-0.002123062994968352 -0.003264352292197505 0.08097040398811828 115 139 0
-0.0024159468220123657 -0.003732978323377168 0.0812271280359711 79 175 0
-0.0027642612535769004 -0.004137816482704939 0.08211597930503181 0 206 48
-0.0031279243018874367 -0.004524991915700088 0.08317986526002032 0 61 193
0.0022850548764958537 0.004044022894139979 0.0826099798442764 0 86 168
0.0019958060780617265 0.003571213781409047 0.08282525024835144 0 59 195
0.0018214152887512773 0.002966229527697431 0.08173068694650064 0 215 39
0.0015964800032053016 0.0024194103594395817 0.08121252998603999 41 213 0
0.0013241288073063573 0.0019271559941366847 0.08123510116505632 41 213 0
0.0010676998963459784 0.0014165787424060446 0.08107609558118944 70 184 0
0.0008112709387174525 0.0009060015443797045 0.08091709052952323 99 155 0
0.0005389196494822144 0.0004137472864854041 0.08093966277294096 99 155 0
0.00033052873526950833 -0.00015211064650548858 0.08023283481442796 213 41 0
1.3288242476649191e-05 -0.000592707759599809 0.08076732078768079 134 120 0
-0.00025906269342341006 -0.0010849616557567921 0.08078989194215473 134 120 0
-0.000503190627619998 -0.0016096945014278021 0.08049060677218015 185 69 0
-0.0007924394260541252 -0.0020825036141587333 0.08070587717625519 156 98 0
-0.0010324446495084446 -0.0026119807513052744 0.08035957686531477 214 40 0
-0.0013396147629424347 -0.003064166553961976 0.08077922084873733 152 102 0
-0.0016149066120974193 -0.0035530369039780177 0.08083532705749683 147 107 0
-0.0019349099525076223 -0.003990454615164568 0.08140132037587208 63 191 0
-0.0022839613674438862 -0.004394444676202965 0.08229857615819543 0 190 64
-0.0026356107514354165 -0.0047954450726218605 0.083225459020611 0 64 190
-0.002913931853322836 -0.005280829449739449 0.08331611064211952 0 55 199
0.0025141471634511888 0.0032708089402679863 0.08257402797311071 0 104 150
0.0022861304735189093 0.0027275357594626955 0.08209101115966778 0 175 79
0.0020847910229271176 0.0021535632143056533 0.0813037687416212 37 217 0
0.0018118851761053643 0.0016619471245960444 0.08133266512581269 37 217 0
0.001541919795867064 0.0011669472344167737 0.0813280286090638 41 213 0
0.0012781559122949353 0.0006648108484685414 0.08125267060390921 57 197 0
0.0010439406657897221 0.0001286707800613773 0.08084034175022863 126 128 0
0.0007969367603883366 -0.0003927524844811527 0.08057385397984382 171 83 0
0.0005211249347434962 -0.0008810244611980433 0.08063588996866738 165 89 0
0.0002453133690975413 -0.0013692959687690188 0.08069792593294856 160 94 0
-4.351485599907146e-05 -0.0018425890646422893 0.08090840014442466 131 123 0
-0.0002950397381061459 -0.002358809725221858 0.08069346931567585 168 86 0
-0.0005920350755372345 -0.002822704353957743 0.08099708077632942 125 129 0
-0.0008678468545139284 -0.003310976384378932 0.0810591162329523 119 135 0
-0.0011809286554234602 -0.0037563591949632907 0.08154617673850896 48 206 0
-0.0015207750584439886 -0.004170942106748223 0.08233845912835695 0 191 63
-0.001876974540064711 -0.004566706387721598 0.08331723102563773 0 58 196
-0.002182226592671823 -0.00502109943706607 0.08371500156078945 0 6 248
0.0032916420414593702 0.0034778456522691708 0.08245073715110474 0 127 127
0.0030281207389134734 0.0029754301113748783 0.08237261276677468 0 142 112
0.0028100859922021815 0.002420670010653759 0.08177576248380496 0 229 25
0.0025659581046737394 0.0018959371112784488 0.0814764767816297 21 233 0
0.002299437953692944 0.001396972554931833 0.08143255108130054 32 222 0
0.002035916697815194 0.0008945569603332419 0.08135442616476982 48 206 0
0.001779487786854815 0.0003839797086026027 0.08119542058090291 77 177 0
0.0015312259415607651 -0.00013599595656112358 0.08094327828005926 120 134 0
0.001278852539211494 -0.0006512401655767731 0.08073802392421706 156 98 0
0.0010035606900565095 -0.0011401105155928156 0.08079413013297654 152 102 0
0.000728269147568557 -0.0016289804501672417 0.08085023578499292 147 107 0
0.0004588237904882591 -0.002124578767349962 0.08083966895597926 153 101 0
0.0001835319413332743 -0.0026134491173660053 0.08089577516473874 148 106 0
-9.175990782171029e-05 -0.003102319467382047 0.08095188137349824 143 111 0
-0.0006653281817011808 -0.004053610209422879 0.0813262084839936 93 161 0
-0.0010249742459556602 -0.004445408266804238 0.0823442849986746 0 200 54
-0.0013792474298216229 -0.0048433892732741525 0.08330108951426311 0 70 184
-0.0016233753406841374 -0.005368122145797312 0.08300180407818819 0 115 139
0.003520409316024634 0.002705005675374224 0.0824184909844592 0 145 109
0.003277904499968163 0.0021784049941849497 0.08210069587456101 0 193 61
0.003071490261774513 0.0016102723619067765 0.0813713260237132 49 205 0
0.0027511683645953505 0.0011732212362650146 0.08194095214398375 0 222 32
0.0025201747135889458 0.0006333738526911795 0.08149188441241913 38 216 0
0.0022272909332130783 0.00016474776780721822 0.08174860792807123 2 252 0
0.002009347002715147 -0.0003901168414797024 0.08115072198256296 99 155 0
0.001757822073939926 -0.0009063374483549711 0.08093579168601484 136 118 0
0.001482010341631379 -0.0013946095324804597 0.08099782661043703 131 123 0
0.001203273429881482 -0.0018795146397746422 0.08109322304263573 120 134 0
0.0009245363981371395 -0.0023644203773276365 0.08118861790277479 109 145 0
0.0006545709245625456 -0.0028594201600983093 0.08118398245042725 114 140 0
0.0003493189652917268 -0.003313813316851379 0.08158175192117759 56 198 0
6.758308511248522e-05 -0.003795268069856698 0.08171134546531754 40 214 0
-0.00025963935090136134 -0.004224378263035189 0.08235966490809717 0 204 50
-0.000615838925858377 -0.004620142436599967 0.08333843786977935 0 71 183
-0.0009289207034338354 -0.005065525274036475 0.08382549810923566 0 6 248
0.004273231932711974 0.0029404344679070556 0.08257656082525244 0 129 125
0.004029103998515386 0.0024157016222360445 0.08227727565527784 0 175 79
0.003789098775061066 0.0018862244850895037 0.08193097534433742 0 226 28
0.0035449708875326244 0.0013614915857141938 0.08163168964216215 19 235 0
0.0032755255304523266 0.0008658932685314741 0.08162112281314847 24 230 0
0.003009005379471531 0.0003669287121848566 0.08157719711281934 35 219 0
0.002760743534177481 -0.00015304695297886926 0.08132505481197566 79 175 0
0.002497222371636024 -0.000655462654986058 0.08124692883104356 95 159 0
0.002207973479865604 -0.0011282716603083906 0.08146220029951999 65 189 0
0.0019679683497475777 -0.0016577489048635297 0.08111589892417818 123 131 0
0.0016926767605914789 -0.002146618785733657 0.08117200510839527 119 135 0
0.0013899243939228113 -0.0026038883984439935 0.08154126937810338 65 189 0
0.0011499191704684914 -0.0031333655355905354 0.08119496906716293 123 131 0
0.0008516659398128852 -0.003595812618651915 0.08151292546515697 77 177 0
0.0005266567873215574 -0.004027469791913476 0.08213600475811435 0 241 13
-0.0004351836986246872 -0.005337616481754526 0.0838548592208199 0 12 242
0.00450764489808175 0.002161097635201573 0.08247993222094194 0 156 98
0.004269557875458748 0.0016294130902543649 0.08211175686512859 0 211 43
0.004027053012734131 0.001102812462769389 0.08179396228743108 4 250 0
0.0037710447684475594 0.0005917511204878125 0.08163015944656385 34 220 0
0.0034822164966827997 0.00011845807831884002 0.08184063419024065 5 249 0
0.003251222845676395 -0.00042138930525499423 0.081391566458676 79 175 0
0.002987458962104267 -0.0009235256912032269 0.08131620845352143 95 159 0
0.002708721790355485 -0.001408431267643324 0.08141160491026254 84 170 0
0.002438756456785331 -0.0019034312115268934 0.08140696786131295 89 165 0
0.0021718206592805708 -0.0024019166860151523 0.08136778510897158 99 155 0
0.0018665687000097519 -0.002856309842768222 0.08176555457972191 41 213 0
0.001596603226435158 -0.003351309625538895 0.08176091912737438 46 208 0
0.0013178661946908153 -0.003836215363091889 0.08185631398751343 35 219 0
0.0010126142354199967 -0.004290608519844959 0.08225408345826375 0 234 20
0.0003224864317903772 -0.005107766062164568 0.08395764831176421 0 4 250
0.005258297259277773 0.0023990238924538223 0.0826627515225232 0 137 117
0.005001868254981101 0.0018884467481317803 0.08250374700305768 0 163 91
0.0047696929198336405 0.0013499592111122292 0.08206815512511025 0 227 27
0.004513263915536968 0.0008393820667901872 0.08190915060564474 0 253 1
0.004281088580389509 0.00030089452977063677 0.08147355872769728 69 185 0
0.003987356279771445 -0.0001667551035494072 0.081739958716256 32 222 0
0.003730927322142919 -0.0006773323015757473 0.08158095366458978 61 193 0
0.003467406066265169 -0.001179747896174338 0.08150282874805906 77 177 0
0.003192114310446478 -0.001668618353598978 0.08155893389241718 72 182 0
0.0029028654186760575 -0.0021414273589213106 0.0817742053608936 43 211 0
0.0026587377444783553 -0.002666159735446406 0.08147492016637661 93 161 0
0.0023772444919934917 -0.0031478936971020837 0.0816017467991404 77 177 0
0.0020789912146697387 -0.0036103407264591655 0.0819197037293351 32 222 0
0.001803699505519194 -0.004099211237588104 0.08197580834149253 27 227 0
0.001492657429294829 -0.0045469413019676545 0.08243960795158509 0 218 36
0.0011461820493849115 -0.004953895786605035 0.0833074867881395 0 101 153
0.0008678609241634188 -0.005439280136870473 0.08339813867574838 0 92 162
0.005485448801034904 0.0016280432875555662 0.08264893174864095 0 152 102
0.005242943938310286 0.001101442660070591 0.08233113717094344 0 200 54
0.005000439122253815 0.000574841978881316 0.08201334206104524 0 248 6
0.00470344387815902 0.00011094724273683402 0.08231695245729742 0 209 45
0.004456439972757634 -0.0004104760218056967 0.08205046468691263 0 250 4
0.004189503915253988 -0.0009089619654398704 0.08201128195911364 4 250 0
0.00395141684596284 -0.00144064645668278 0.08164310713550098 66 188 0
0.0036844807417910474 -0.0019391323466126545 0.0816039249399027 76 178 0
0.003405743616710412 -0.002424037976757051 0.0816993208644431 65 189 0
0.003158739924639765 -0.0029454607184493673 0.08143283360171659 111 143 0
0.00284565817039838 -0.0033908435827380247 0.08191989357507257 39 215 0
0.002575692836828226 -0.0038858435266215944 0.08191525652612297 43 211 0
0.0022626110359186937 -0.004331226337205953 0.08240231703167965 0 230 24
0.0019227646328981655 -0.0047458092489908845 0.08319459942152761 0 123 131
0.0062248160110150354 0.0018789561572724516 0.08296044622395737 0 115 139
0.005980688076818447 0.0013542233116014405 0.08266116105398277 0 160 94
0.005740682853364127 0.0008247461744548996 0.08231486074304235 0 212 42
0.005477161690822669 0.0003223304724477105 0.08223673476211024 0 226 28
0.0052207327798622916 -0.00018824677928292767 0.08207772917824335 0 252 2
0.004964303868901912 -0.0006988240310135678 0.08191872359437646 26 228 0
0.004700782566356016 -0.0012012395719078592 0.08184059921004641 42 212 0
0.004444353655395637 -0.0017118168236384987 0.08168159362617954 71 183 0
0.004187924744435258 -0.002222394075369138 0.08152258804231266 100 154 0
0.0039396628991412086 -0.002742369740532864 0.08127044574146898 143 111 0
0.003641409881816341 -0.00320481630074403 0.08158840264712129 97 157 0
0.003363088756594848 -0.003690200651009467 0.08167905453473016 87 167 0
0.003064835432602949 -0.00415264762666225 0.08199701199712556 42 212 0
0.0027576654125052516 -0.00460483353672755 0.08241665491614676 0 237 17
0.0024376620254269025 -0.0050422511942097995 0.08298264876672269 0 162 92
0.0020937442232913358 -0.005452148862395921 0.08382136114288022 0 49 205
0.0062492140573372 0.0005356302474760213 0.08217550971287055 0 241 13
0.005967478130489812 5.417554817499981e-05 0.0823051037892112 0 227 27
0.005711469746198801 -0.0004568856329936796 0.08214130254494603 0 253 1
0.005444533688695155 -0.0009553715766278542 0.08210211981714707 8 246 0
0.005180769805123027 -0.0014575079625760864 0.08202676181199249 24 230 0
0.004933765853053495 -0.001978931173414318 0.08176027457380837 69 185 0
0.0046822409242782735 -0.0024951517802895866 0.08154534427726026 107 147 0
0.00441227559070812 -0.002990151724173156 0.08154070722831067 112 142 0
0.004136464025062165 -0.0034784232317441313 0.08160274319259184 106 148 0
0.0038126503238151512 -0.003911456094328173 0.08221218963272912 15 239 0
0.003523822052050392 -0.0043847491364971455 0.08242266437640591 0 243 11
0.0032185700927795727 -0.004839142293250215 0.08282043384715625 0 191 63
0.002878723643090898 -0.005253725151330847 0.08361271676920491 0 84 170
0.006961006926193995 0.0008182748392838049 0.08280148028661326 0 160 94
0.0067168790386655545 0.0002935419399084959 0.08250219458443799 0 205 49
0.006460450081037029 -0.000217035258117845 0.0823431895327718 0 231 23
0.006191004630620438 -0.0007126334678919668 0.08233262376815949 0 236 18
0.00592155927354014 -0.0012082317850746881 0.08232205693914582 0 241 13
0.005681554143422113 -0.0017377090296298268 0.08197575556380401 43 211 0
0.005418032887544362 -0.0022401246242284177 0.08189763064727328 59 195 0
0.005173904953347775 -0.002764857469899428 0.0815983454772987 110 144 0
0.00489861310419279 -0.0032537278199154702 0.08165445168605817 105 149 0
0.00460936456575755 -0.0037265364635004857 0.08186972206559083 75 179 0
0.004302194452323559 -0.004178722266157188 0.08228936604901341 14 240 0
0.004026902603168575 -0.00466759261617323 0.08234547225777289 9 245 0
0.003704319914293614 -0.005102042090755569 0.08294088030816592 0 184 70
0.003406066636969861 -0.00556448912011265 0.08325883723836063 0 143 111
0.0030646917821446733 -0.005977313135549783 0.0840685499990369 0 34 220
0.007175046772143916 6.23827794076718e-05 0.08293718548918814 0 155 99
0.006949792836492687 -0.00048406969589679305 0.08242266239502416 0 230 24
0.006644540877221869 -0.0009384628526498619 0.08282043186577448 0 178 76
0.006377604819718222 -0.0014369487962840365 0.08278124913797552 0 187 67
0.006126079890943001 -0.0019531694031593052 0.0825663188414274 0 221 33
0.0059008260486280665 -0.0024996219858723673 0.08205179468286204 46 208 0
0.005630860668389765 -0.0029946218760516373 0.08204715816611315 51 203 0
0.005333865330958677 -0.0034585165047875226 0.0823507696267667 7 247 0
0.00505512855921322 -0.003943421773194601 0.08244616446236334 0 252 2
0.00476630028744846 -0.004416714815363574 0.08265663920604013 0 226 28
0.004502536403876332 -0.004918851201311807 0.08258128120088555 0 240 14
0.004175313921194339 -0.005347961340785998 0.08322960117586588 0 153 101
0.003928310015792953 -0.005869384605328529 0.08296311340548106 0 194 60
0.007650823144039658 -0.00018903987236426655 0.08317136855919942 0 132 122
0.007418647715555903 -0.0007275273019752208 0.08273577774565334 0 196 58
0.007143356006405359 -0.0012163978131041588 0.08279188235781076 0 192 62
0.0068650347878475735 -0.0017017820559609986 0.08288253530982102 0 183 71
0.006595589430767275 -0.002197380373143719 0.08287196848080734 0 188 66
0.00633916047313875 -0.00270795757117006 0.08271296342914114 0 213 41
0.006066809277239805 -0.003200211936472958 0.0827355346081575 0 214 40
0.0057944579413364205 -0.0036924661406629593 0.08275810738377588 0 214 40
0.005525012844255007 -0.004188063988699765 0.0827475405302198 0 219 35
0.00525556748717471 -0.004683662305882486 0.08273697370120614 0 224 30
0.004977246361953217 -0.005169046656147924 0.08282762558881501 0 215 39
0.00470780100487292 -0.005664644973330644 0.08281705875980135 0 221 33
0.004371482573733887 -0.006083287769005 0.0835691083742495 0 119 135
0.0040488998848589265 -0.006517737243587339 0.08416451642464254 0 40 214
0.00785500019054696 -0.0009335821193998486 0.08341954852294499 0 110 144
0.007626983500614682 -0.0014768553002051385 0.08293653170950203 0 181 73
0.007303169752699521 -0.001909888109084882 0.08354597868184002 0 100 154
0.0070302638125414735 -0.0024015040913858937 0.08357487613043289 0 100 154
0.006748527885694085 -0.0028829587906869145 0.08370447020677353 0 85 169
0.006568520631603735 -0.003481479785721488 0.08267395672550545 0 232 22
0.006228674088578767 -0.0038960625363935225 0.08346624071195549 0 125 129
0.005977149513138725 -0.004412282781531475 0.08325130932646359 0 159 95
0.005713385629566596 -0.004914419167479707 0.08317595132130902 0 173 81
0.00544644957206295 -0.005412905111113881 0.08313676859351003 0 182 72
0.005164713551879269 -0.005894359703006304 0.08326636373425206 0 168 86
0.004837491209201715 -0.006323470003593392 0.0839146821126303 0 81 173
0.004555755212352107 -0.0068049246223379645 0.08404427698727197 0 66 188
0.0042546260338257764 -0.007264062151123015 0.08439503051875544 0 21 233
0.008079952402557418 -0.0017020318018004256 0.0834308097708793 0 122 132
0.0077862201486075 -0.0021696814888247686 0.08369720922723732 0 89 165
0.007510928299452515 -0.0026585518388408105 0.0837533154359968 0 84 170
0.007238576963549131 -0.003150806043030812 0.0837758882116152 0 85 169
0.0069448447329332865 -0.0036184557569073033 0.08404228740187289 0 51 203
0.006712669327783607 -0.004156943213370406 0.08360669632222646 0 116 138
0.006456240676822114 -0.004667519995955131 0.08344769071381718 0 141 113
0.006203867274472842 -0.00518276420497078 0.08324243635797496 0 174 80
0.0059315159385694574 -0.005675018409160782 0.08326500913359336 0 174 80
0.00566207058148916 -0.006170616726343503 0.08325444230457969 0 179 75
0.005368338327539242 -0.0066382664133678455 0.0835208417609377 0 146 108
0.005093046525052404 -0.007127136817088186 0.08357694743749651 0 141 113
0.004823601167972106 -0.007622735134270907 0.08356638060848284 0 146 108
0.0045512498320687215 -0.008114989338460908 0.08358895338410123 0 147 107
0.004272928706847229 -0.008600373688726345 0.08367960527171012 0 138 116
0.003947919601024048 -0.009032030915692206 0.08430268403246681 0 54 200
0.0036843984151485173 -0.009534446590847245 0.08422455831763505 0 69 185
0.0025729964422982576 -0.011478150540616024 0.08456569689845807 0 36 218
0.0023006451160432696 -0.011970404727396316 0.08458826967316571 0 36 218
0.0020341250883343744 -0.012469369406091772 0.0845443426417117 0 46 208
0.001777696161124065 -0.012979946687144032 0.08438533705937873 0 72 182
0.001479442907134385 -0.013442393743353261 0.0847032937234731 0 31 223
0.0011901939920298922 -0.013915202721823446 0.08491856545804986 0 4 250
0.0006445163243010343 -0.014898588942146386 0.08497483053822277 0 4 250
0.0003692244984801222 -0.015387459319014578 0.08503093648088192 0 0 254
-0.0003905752068751366 -0.01693010846003172 0.08444573024804918 0 92 162
-0.000634703141071725 -0.017454841305702733 0.0841464450780746 0 137 117
-0.0008982243969494746 -0.01795725690030132 0.08406832016154385 0 152 102
-0.0012092663798375473 -0.01840498707208947 0.08453211870723505 0 91 163
-0.001748053864057777 -0.01939630250036424 0.08450980782128617 0 101 153
0.007953787480788767 -0.002872094378149682 0.08436288413238419 0 9 245
0.00767505042571035 -0.003357000088850527 0.08445827925862358 0 0 255
0.007408114368206705 -0.0038554860324847007 0.08441909653082462 0 9 245
0.0071521059839156935 -0.004366547213653382 0.08425529528655945 0 35 219
0.0069178911140797324 -0.004902686947175378 0.08384296507783473 0 96 158
0.006636155117230124 -0.00538414156591995 0.0839725599524764 0 82 172
0.006405161489557792 -0.0059239889763459345 0.08352349195481143 0 148 106
0.006187217559059861 -0.006478853585632854 0.08292560600930314 0 235 19
0.00588608831053131 -0.006937991033861455 0.08327636033908761 0 189 65
0.005622324380291036 -0.0074401273661053886 0.08320100286613373 0 203 51
0.0053663160426681705 -0.00795118860097837 0.0830372010896679 0 230 24
0.005093410149178271 -0.00844280463698368 0.08306609800606009 0 229 25
0.004811674175662735 -0.0089242592825804 0.08319569261460141 0 215 39
0.004532937097250247 -0.009409164966429098 0.08329108800694114 0 205 49
0.004290432281193776 -0.009935765647618371 0.08297329289704294 0 253 1
0.003929220220610666 -0.010325761603543407 0.08400922793800561 0 112 142
0.003695005002442024 -0.010861901896645649 0.08359689802605924 0 173 81
0.0033980096650109357 -0.011325796525381533 0.0839005094867128 0 135 119
0.0031670160606726773 -0.011865643962659666 0.08345144122294748 0 201 53
0.00289411008349488 -0.012357259873846668 0.08348033920283028 0 200 54
0.0026303462065242864 -0.012859396247882994 0.08340498119705256 0 214 40
0.002360380856704202 -0.013354396221088182 0.08340034414963689 0 219 35
0.0020845690310593613 -0.013842668197805072 0.08346238013846047 0 214 40
0.0018028331042119735 -0.014324122897106094 0.08359197421480109 0 199 55
0.0015099493888358273 -0.014792748864703574 0.0838486977243176 0 167 87
0.0012629454367662947 -0.015314172075541808 0.0835822104861335 0 208 46
0.0010069371924797225 -0.015825233417823385 0.08341840764526627 0 234 20
0.0006797147097977298 -0.016254343557297577 0.0840667276202466 0 147 107
0.0004594666795639203 -0.016806556677935625 0.08349511748709909 0 231 23
0.00019570274932364465 -0.01730869301017956 0.08341976001414521 0 245 9
-8.303442242513833e-05 -0.017793598586619656 0.08351515647088632 0 235 19
-0.0003800297131880794 -0.01825749326905984 0.08381876739933919 0 196 58
-0.0006770249572828754 -0.01872138800520433 0.08412237779559138 0 158 96
-0.0009740202947139641 -0.01918528263394021 0.08442598925624495 0 119 135
-0.0012498321203588047 -0.0196735546106571 0.08448802524506852 0 114 140
-0.0015427159240687443 -0.020142180668688912 0.08474474902682098 0 82 172
-0.0018438453625939611 -0.020601318666619878 0.08509550258284684 0 36 218
0.007908561739152982 -0.00413529932764771 0.08437193303770281 0 25 229
0.007639116382072683 -0.0046308976448304305 0.08436136620868913 0 30 224
0.007399111418617248 -0.005160374312831057 0.08401506587320628 0 82 172
0.00714268250765687 -0.0056709515645616965 0.08385606028933941 0 108 146
0.006890309105307598 -0.0061861957735773465 0.08365080593349719 0 140 114
0.006637935656290181 -0.006701439928888697 0.08344555210985566 0 172 82
0.006393807722093593 -0.0072261727745597075 0.08314626693988107 0 217 37
0.006153802498639274 -0.007755649911706249 0.08279996662894064 16 238 0
0.005897373587678894 -0.008266227163436888 0.08264096104507376 45 209 0
0.00564500023199777 -0.008781471426156836 0.08243570615703084 81 173 0
0.0053814789294518725 -0.009283886967051128 0.0823575817727008 97 157 0
0.005106187173633182 -0.009772757424475769 0.08241368691705891 92 162 0
0.004827866095079836 -0.010258141828445505 0.0825043382724671 82 172 0
0.004555514759176451 -0.010750396032635506 0.08252691104808552 82 172 0
0.004288994683200374 -0.011249360867381498 0.08248298375728991 93 161 0
0.004022474532219578 -0.011748325423728116 0.08243905805696075 104 150 0
0.003744153453666232 -0.012233709827697852 0.08252970941236895 94 160 0
0.003445900185990876 -0.012696156839645222 0.0828476663416529 49 205 0
0.0031793800882797606 -0.01319512143778423 0.08280374010849993 59 195 0
0.002909934714949532 -0.01369071978428857 0.08279317328102016 65 189 0
0.0026346428657945476 -0.014179590134304611 0.08284927948977966 60 194 0
0.002356321740573055 -0.014664974484570052 0.08293993137738852 50 204 0
0.002086876448492479 -0.01516057268446629 0.08292936454223925 56 198 0
0.0018085553232709854 -0.01564595703473173 0.08302001642984813 46 208 0
0.0015332634741160008 -0.016134827384747773 0.08307612263860761 41 213 0
0.0012808901184348763 -0.01665007164746772 0.08287086775056471 77 177 0
0.0009826368411111237 -0.0171125186768248 0.08318882468075942 31 223 0
0.0007073450386242859 -0.017601389080545142 0.08324493035731821 27 227 0
0.00041809619352201153 -0.018074198139571774 0.08346020129359397 0 252 2
0.00011092608008802206 -0.018526383942228476 0.08387984527701653 0 197 57
-0.00017832271834610468 -0.01899919305495941 0.08409511568109158 0 171 83
-0.0004854928317800959 -0.01945137885761611 0.08451475966451415 0 116 138
-0.0007747416302142218 -0.019924187970347042 0.0847300300685892 0 90 164
-0.0010684739775004325 -0.020391837549962787 0.08499643058934861 0 56 198
-0.0013577230592675188 -0.020864647104987484 0.08521170128406641 0 30 224
0.008115592403605067 -0.004883125149982653 0.08458757591477621 0 8 246
0.007868588734868493 -0.005404547918527119 0.08432108838594934 0 49 205
0.0076170637827592 -0.005920768498550238 0.08410615835550157 0 82 172
0.007365538947320271 -0.006436989212834105 0.08389122699455208 0 116 138
0.0071095305630292606 -0.006948050394002786 0.08372742575028694 0 142 112
0.006895950197578403 -0.007507936462652234 0.08307977797606277 0 236 18
0.006629014140074757 -0.008006422406286408 0.08304059524826381 0 245 9
0.006420075341820504 -0.008571649850807364 0.08234001532582623 102 152 0
0.006114823289213393 -0.009026042900151836 0.08273778586097794 44 210 0
0.005921215583816078 -0.009608912905041149 0.08186237109397089 185 69 0
0.005674211678414693 -0.01013033616958368 0.08159588332358608 231 23 0
0.005361129924173307 -0.010575719033872336 0.08208294329694206 159 95 0
0.005091164543935007 -0.011070718924051606 0.08207830678019316 163 91 0
0.00481242735385465 -0.011555624671482481 0.08217370271086918 152 102 0
0.004539521460364749 -0.012047240707487793 0.08220259962726136 152 102 0
0.004269556033458303 -0.012542240543962763 0.08219796364271316 157 97 0
0.003918556419720828 -0.012943988647926542 0.08311743667404096 17 237 0
0.003702824892652162 -0.013501399205002946 0.08249432068990036 119 135 0
0.003429918982912332 -0.013993015270329878 0.08252321760782645 118 136 0
0.0031511818578316957 -0.014477920900474273 0.08261861353236688 107 147 0
0.002869445930984308 -0.014959375599775296 0.0827482076087075 91 163 0
0.0025965400558259823 -0.015450991464789825 0.08277710505116478 91 163 0
0.002329603998322336 -0.015949477408424 0.08273792232336581 101 153 0
0.002047868071474947 -0.016430932107725022 0.08286751639970645 84 170 0
0.0017720562458301073 -0.016919204084441912 0.08292955238853003 79 175 0
0.0014709270906378509 -0.01737834164007911 0.08328030565391313 28 226 0
0.0011891910704541686 -0.017859796231971533 0.08340990079465516 12 242 0
0.0008963073834145942 -0.018328422424264093 0.0836666232459059 0 233 21
0.0005951780882178974 -0.018787559818788394 0.08401737810789107 0 188 66
0.0002981827507868087 -0.019251454447524283 0.08432098956854464 0 149 105
5.2989704109407745e-06 -0.019720080532408243 0.08457771308419675 0 117 137
-0.0002999530121939502 -0.020174473662309164 0.08497548282104743 0 65 189
0.008601897529395969 -0.005146663974941481 0.08470168971980109 0 2 252
0.008345468878434476 -0.005657240757526205 0.0845426841113918 0 28 226
0.008081947599222653 -0.006159656325272646 0.08446455946096142 0 42 212
0.007849772194072973 -0.006698143781735749 0.08402896838131499 0 107 147
0.007593343236444447 -0.007208720979762089 0.0838699633296488 0 132 122
0.007401712020393603 -0.007793865469121486 0.0829720087991097 7 247 0
0.007183677320350458 -0.008348625623546905 0.08237515798393928 104 150 0
0.00693954938615387 -0.008873358469217916 0.0820758728139647 155 99 0
0.006687176030472746 -0.009388602731937864 0.08187061792592179 191 63 0
0.0064348025347871814 -0.009903846833544916 0.08166536463448096 227 27 0
0.006153309282302318 -0.010385580795200595 0.08179219126724474 211 43 0
0.005880958039735226 -0.010877835106799193 0.08181476297846177 211 43 0
0.0055994647405822155 -0.011359569014750572 0.08194159014342625 196 58 0
0.005324172873095657 -0.011848439535757392 0.08199769582612065 191 63 0
0.005048881117276966 -0.01233730999318203 0.08205380097047875 186 68 0
0.004770559992055473 -0.01282269434344747 0.08214445285808764 176 78 0
0.004467807541698909 -0.013279963831339496 0.08251371819128636 122 132 0
0.004204286385758985 -0.013782379521434778 0.08243559220973111 139 115 0
0.003922793070356045 -0.014264113458707775 0.08256241937622949 123 131 0
0.003644471991802699 -0.014749497862677513 0.08265307073163768 113 141 0
0.0033552231467004253 -0.015222306921704145 0.08286834166791342 83 171 0
0.002800595065129823 -0.016195393275083597 0.0830266767197091 67 187 0
0.00252227393990833 -0.016680777625349034 0.08311732860731796 56 198 0
0.002233025048137911 -0.017153586630671368 0.0833326000757944 27 227 0
0.001943776249703784 -0.017626395743402298 0.08354787047986945 0 253 1
0.001650043995753866 -0.01809404543042664 0.08381426993622748 0 219 35
0.0013607951973197393 -0.018566854543157568 0.08402954034030254 0 193 61
0.0007828662984864327 -0.019513127209206713 0.08445359575087044 0 141 113
0.0004628629347421557 -0.01995054489354111 0.08501958933534604 0 65 189
0.00015569282130816625 -0.020402730696197812 0.08543923331876861 0 10 244
0.008285452881093157 -0.00690342552577667 0.08472040018750832 0 20 234
0.008038448952357698 -0.00742484876346705 0.08445391268322386 0 61 193
0.007837109618436273 -0.00799882144288484 0.08366666893467554 0 174 80
0.007640903850647399 -0.008578701675746054 0.0828208823121621 45 209 0
0.007398398987922781 -0.00910530230323103 0.0825030877344646 99 155 0
0.007155894171866311 -0.009631902984420303 0.08218529262456639 152 102 0
0.006913389355809841 -0.010158503665609577 0.0818674975146682 206 48 0
0.00665738097151883 -0.010669564846778258 0.08170369627040304 236 18 0
0.006356251722990278 -0.01112870229500686 0.08205445060018753 185 69 0
0.006092487792750003 -0.011630838627250794 0.08197909312723364 201 53 0
0.0058107518475710405 -0.01211229349754259 0.0821086866775092 184 70 0
0.005521923575806282 -0.012585586539711563 0.08231916142118598 156 98 0
0.005249017635648234 -0.013077202522012575 0.08234805886977886 155 99 0
0.004947888350099934 -0.013536339899127166 0.08269881373085328 104 150 0
