ply
format ascii 1.0
element vertex 722
property float x
property float y
property float z
end_header
0.006273216842451333 -0.0030207008003783286 -0.00176723756252471
0.006542478271645907 -0.0025543263244947167 -0.0017379288422690903
0.0068117396847912496 -0.0020879518764091885 -0.0022627864546297008
0.007081001097936593 -0.0016215774283236603 -0.0016863468710012397
0.007350262446885012 -0.0011552030914304655 -0.0016570396914717845
0.007619523860030355 -0.0006888286433449373 -0.0015594850193263528
0.007888785273175698 -0.00022245419525940906 -0.0015301762990707329
0.00815804668632104 0.00024392025282611877 -0.001565207276302033
0.008427308099466383 0.000710294700911647 -0.001568258941258907
0.008696569512611725 0.0011766691489971753 -0.0016354823645507493
0.00896583092575707 0.0016430435970827034 -0.0016705123146312727
0.009235092338902412 0.0021094180451682316 -0.00160786690235013
0.009504353752047754 0.00257579249325376 -0.001424964217886763
0.009773615165193096 0.003042166941339288 -0.000934017988411107
0.01004287657833844 0.003508541389424817 -0.00033222164713947087
-0.00011690848619173532 -0.013011676883739524 -0.004287599535915925
0.00042161434009895026 -0.012078927987568468 -0.0043664354123110795
0.0006908757532442935 -0.011612553539482939 -0.004363383747354206
0.0009601371663896359 -0.011146179091397411 -0.004360331568821943
0.001229398579534979 -0.010679804643311882 -0.004293108659105489
0.001498659735892628 -0.010213430639995686 -0.004225885235813647
0.0017679211490379703 -0.009747056191910158 -0.004158662326097193
0.002037182562183313 -0.009280681743824631 -0.003935756741069052
0.002306443975328656 -0.008814307295739102 -0.00349057624158952
0.002575705388473999 -0.008347932847653575 -0.0034233533318730664
0.0028449668016193416 -0.007881558399568046 -0.0030643384567295346
0.0031142282147646845 -0.0074151839514825174 -0.0028860641136649137
0.0033834896279100273 -0.006948809503396989 -0.0025270482113706055
0.00365275104105537 -0.006482435055311461 -0.0025239965464137317
0.0039220124542007125 -0.006016060607225933 -0.0021649806441194235
0.004191273867346056 -0.005549686159140405 -0.002064756407105962
0.004460535280491398 -0.0050833117110548765 -0.001964531656517112
0.004729796757833664 -0.004616937151777015 -0.002062086328662544
0.004999058170979008 -0.004150562703691487 -0.002059034150130282
0.00526831958412435 -0.0036841882556059584 -0.002241936834593649
0.005537580982223539 -0.0032178138335811333 -0.002174713924877195
0.005806842394365805 -0.0027514393872329857 -0.001996439068237186
0.006076103823560379 -0.002285064911349374 -0.0017282874915058122
0.006345365236705721 -0.0018186904632638459 -0.0019111901759691792
0.006614626649851065 -0.0013523160151783175 -0.001940498382649411
0.006883887998799484 -0.0008859416782851226 -0.002038053054794843
0.0071531494119448265 -0.00041956723019959444 -0.0018597781981548336
0.00742241082509017 4.680721788593378e-05 -0.0018247472209235334
0.007691672238235512 0.0005131816659714616 -0.0017897167572676217
0.007960933651380855 0.0009795561140569897 -0.0018190249639478534
0.008230195064526198 0.001445930562142518 -0.001718800726934392
0.00849945647767154 0.0019123050102280463 -0.0020989245776850325
0.008768717890816883 0.0023786794583135745 -0.0018307724873782706
0.009037979303962227 0.0028450539063991026 -0.0017957415101469705
0.009307240717107569 0.003311428354484631 -0.0016174666535069613
0.009576502130252912 0.00377780280257016 -0.00048424047563151094
0.009845763543398254 0.004244177250655687 -0.00048118881067463676
0.010115025213331292 0.004710552143510548 -0.0003809635465103989
0.010384286626476634 0.005176926591596077 -2.194868340379043e-05
-0.0005832829342772635 -0.012742415470594182 -0.004086691925491923
-4.47601079865779e-05 -0.011809666574423125 -0.0045383393662600715
0.00022450130515876533 -0.011343292126337596 -0.004306096980673874
0.0004937627183041077 -0.010876917678252069 -0.004341127957905175
0.0007630241314494509 -0.01041054323016654 -0.004243573285759743
0.0010322852878070997 -0.009944169226850343 -0.004060669574145599
0.0013015467009524421 -0.009477794778764816 -0.004095700551376899
0.001570808114097785 -0.009011420330679289 -0.003863458165790702
0.0018400695272431278 -0.00854504588259376 -0.003866509317172188
0.0021093309403884706 -0.008078671434508232 -0.004044784173812197
0.0023785923535338135 -0.007612296986422703 -0.003495047942494856
0.0026478537666791563 -0.007145922538337175 -0.0027385067145704444
0.002917115179824499 -0.006679548090251647 -0.0023583828638198043
0.003186376592969842 -0.006213173642166118 -0.0023614350423520666
0.0034556380061151848 -0.00574679919408059 -0.0021785313307379228
0.0037248994192605276 -0.0052804247459950614 -0.0020809776857432676
0.00399416083240587 -0.004814050297909533 -0.0021160076358237912
0.004263422309748136 -0.004347675738631672 -0.0020533622235426484
0.0045326837228934795 -0.0038813012905461438 -0.0022762678085707887
0.004801945136038822 -0.0034149268424606156 -0.0023764920455842504
0.005071206534138011 -0.0029485524204357905 -0.0023795442241165126
0.005340467946280277 -0.002482177974087643 -0.0018885979946408568
0.005609729375474851 -0.002015803498204031 -0.0023337784941203886
0.005878990788620193 -0.001549429050118503 -0.002236224335550345
0.0061482522017655365 -0.0010830546020329746 -0.0022392765140826073
0.006417513550713956 -0.0006166802651397798 -0.002141721841937176
0.006686774963859298 -0.00015030581705425159 -0.002044167683367132
0.0069560363770046416 0.0003160686310312766 -0.0021443919203805936
0.007225297790149984 0.0007824430791168044 -0.0019121495347943968
0.007494559203295326 0.0012488175272023325 -0.0020904243914344057
0.00776382061644067 0.001715191975287861 -0.002061115671178786
0.008033082029586013 0.002181566423373389 -0.0019984707724730313
0.008302343442731355 0.0026479408714589173 -0.0019358253601918889
0.008571604855876698 0.0031143153195444455 -0.001906516639936269
0.00884086626902204 0.0035806897676299737 -0.0016245216386151036
0.009110127682167384 0.004047064215715502 -0.0016595521022710153
0.009379389095312727 0.00451343866380103 -0.0006712759012439804
0.009648650765245763 0.004979813556655891 -2.145950284649958e-05
0.009917912178391107 0.00544618800474142 -0.0004666402470768027
0.010187173591536449 0.0059125624528269475 -8.454233290302382e-06
-0.001318918795508134 -0.012939528505534365 -0.001904767402163951
-0.0007803959692174484 -0.012006779609363308 -0.0037448905566357608
-0.0005111345560721061 -0.011540405161277781 -0.004203076325671491
-0.00024187314292676285 -0.011074030713192252 -0.004300630997816922
2.738827021857951e-05 -0.010607656265106725 -0.004363276410098065
0.00029664968336392275 -0.010141281817021196 -0.0043925846167782966
0.0005659108397215716 -0.009674907813705001 -0.004325362220637231
0.000835172252866914 -0.009208533365619474 -0.004388007119342985
0.0011044336660122568 -0.008742158917533945 -0.003902511979038023
0.0013736950791575996 -0.008275784469448417 -0.004282634802637887
0.0016429564923029424 -0.007809410021362889 -0.0037971391487575364
0.001912217905448285 -0.007343035573277361 -0.0036969143981686868
0.002181479318593628 -0.006876661125191832 -0.0032517338986891545
0.002450740731738971 -0.006410286677106304 -0.002418822983383879
0.0027200021448843138 -0.005943912229020775 -0.001973642483904347
0.0029892635580296566 -0.005477537780935247 -0.0016599973721326126
0.0032585249711749994 -0.005011163332849719 -0.001437091787104472
0.0035277863843203422 -0.004544788884764191 -0.001402060809873172
0.0037970478616626085 -0.0040784143254863296 -0.00010220562691049043
0.004066309274807951 -0.003612039877400801 -0.0015500922390509792
0.004335570687953294 -0.0031456654293152727 -0.0019302160898016197
0.0046048320860524825 -0.0026792910072904476 -0.0023884018588373485
0.004874093498194749 -0.0022129165609423 -0.0024859565309827804
0.005143354927389323 -0.0017465420850586884 -0.0024829053796012945
0.005412616340534665 -0.0012801676369731602 -0.002415681442734064
0.005681877753680008 -0.0008137931888876318 -0.0023484585330176104
0.005951139102628428 -0.00034741885199443697 -0.0021701841899529895
0.00622040051577377 0.00011895559609109124 -0.002135153212721689
0.006489661928919113 0.0005853300441766194 -0.002132100520614039
0.006758923342064456 0.0010517044922621472 -0.002064878124472973
0.007028184755209798 0.0015180789403476753 -0.0020941863311532047
0.007297446168355141 0.0019844533884332037 -0.0020591558674972928
0.007566707581500484 0.002450827836518732 -0.0019919329577808387
0.007835968994645826 0.00291720228460426 -0.0019569019805495387
0.00810523040779117 0.0033835767326897883 -0.0020195473928306816
0.008374491820936513 0.0038499511807753165 -0.0019845164155993817
0.008643753234081855 0.0043163256288608455 -0.0018062415589593726
0.008913014647227198 0.004782700076946373 -0.0018688869712405153
0.009182276317160235 0.0052490749698012335 -0.0016007348809337534
0.009451537730305578 0.005715449417886763 -0.000767824479203866
-0.0017852932435936622 -0.012670267092389022 -0.002441656545144671
-0.0015160318304483199 -0.012203892644303495 -0.0017407617241105777
-0.0012467704173029766 -0.011737518196217966 -0.0037073661708945955
-0.0009775090041576342 -0.011271143748132439 -0.003975517234050581
-0.000708247591012291 -0.01080476930004691 -0.0042436693243573425
-0.0004389861778669487 -0.010338394851961382 -0.004310893261224573
-0.00016972476472160543 -0.009872020403875853 -0.004378115657365639
9.953639163604338e-05 -0.009405646400559659 -0.004413146634596938
0.00036879780478138577 -0.008939271952474131 -0.0044481776118282385
0.0006380592179267286 -0.008472897504388602 -0.004385532199547096
0.0009073206310720713 -0.008006523056303075 -0.004485756950135945
0.0011765820442174143 -0.007540148608217546 -0.00430285375209719
0.0014458434573627569 -0.007073774160132018 -0.004070610339360217
0.0017151048705080997 -0.006607399712046489 -0.003369715518326124
0.0019843662836534427 -0.006141025263960961 -0.0021353083124889356
0.0022536276967987856 -0.005674650815875432 -0.001677122029877818
0.0025228891099441284 -0.005208276367789904 -0.0015795678713077744
0.0027921505230894712 -0.004741901919704376 -0.001297572356411221
0.003061411936234814 -0.004275527471618848 -0.0009660650926367798
0.0033306734135770803 -0.0038091529123409863 -0.001529350469846456
0.003599934826722423 -0.003342778464255458 -0.0012971070571094828
0.003869196239867766 -0.00287640401616993 -0.0012344616448283399
0.004138457637966954 -0.002410029594145105 -0.001719958325859467
0.004407719050109221 -0.001943655147796957 -0.0020789732010029986
0.004676980479303794 -0.0014772806719133456 -0.002257248057643008
0.004946241892449137 -0.0010109062238278174 -0.0025254001479497698
0.00521550330559448 -0.000544531775742289 -0.0021938928841753287
0.0054847646545428995 -7.815743884909413e-05 -0.002507537482371675
0.005754026067688242 0.00038821700923643405 -0.002574760905663517
0.006023287480833585 0.0008545914573219622 -0.0023425190336527086
0.006292548893978928 0.00132096590540749 -0.0022798725942207894
0.00656181030712427 0.0017873403534930182 -0.0027250530937003212
0.006831071720269613 0.0022537148015785466 -0.00212325829315485
0.007100333133414956 0.0027200892496640748 -0.00215828927038615
0.007369594546560299 0.003186463697749603 -0.002060734598240718
0.007638855959705641 0.003652838145835131 -0.001963179926095286
0.007908117372850984 0.004119212593920659 -0.0015830560753446457
0.008177378785996328 0.004585587042006188 -0.0020282370883995663
0.00844664019914167 0.005051961490091715 -0.0020632680656308662
0.008715901869074706 0.005518336382946577 -0.00146147172435923
0.00898516328222005 0.005984710831032106 -0.001229229338773033
0.009254424695365393 0.006451085279117633 -0.0003307440907475279
-0.0019824065009185154 -0.011934631102764305 -0.001867711910752241
-0.0017131450877731719 -0.011468256654678776 -0.0026803838471580726
-0.0014438836746278286 -0.011001882206593249 -0.0035499958868571786
-0.0011746222614824856 -0.01053550775850772 -0.004664202313804848
-0.0009053608483371431 -0.010069133310422192 -0.004350557202033113
-0.0006360994351917999 -0.009602758862336663 -0.004448111874178545
-0.00036683827883415105 -0.009136384859020468 -0.0046310150722173
-9.757686568880867e-05 -0.008670010410934941 -0.004627963407260426
0.00017168454745653412 -0.008203635962849412 -0.004657272127516046
0.00044094596060187695 -0.007737261514763884 -0.004622241150284746
0.0007102073737472197 -0.007270887066678356 -0.004587210173053445
0.0009794687868925624 -0.0068045126185928275 -0.004228195297909914
0.0012487302000379053 -0.006338138170507299 -0.003627398887919166
0.0015179916131832472 -0.005871763722421771 -0.0015269150953554605
0.0017872530263285903 -0.005405389274336242 -0.0013225007921806107
0.002056514439473933 -0.004939014826250714 -0.0009634848898863026
0.0025950372657646188 -0.0040062659300796576 -0.00047630162728022195
0.002864298743106885 -0.0035398913708017963 -0.0004732499623233478
0.003133560156252228 -0.003073516922716268 -0.0002503446501321323
0.0034028215693975706 -0.00260714247463074 -0.0005323398921917608
0.0036720829674967595 -0.0021407680526059148 -0.0005616486124473808
0.003941344379639025 -0.001674393606257767 -0.0009843817588580718
0.004210605808833599 -0.0012080191303741555 -0.0013158885090571247
0.0044798672219789415 -0.0007416446822886273 -0.0019420314051832837
0.004749128635124285 -0.0002752702342030989 -0.0019070004279519836
0.005018389984072704 0.00019110410269009592 -0.002365186196987713
0.005287651397218047 0.0006574785507756241 -0.002362135045606227
0.00555691281036339 0.0011238529988611523 -0.0020484899338344925
0.005826174223508732 0.00159022744694668 -0.002111134832540247
0.006095435636654075 0.0020566018950322084 -0.0019328599759002379
0.006364697049799418 0.0025229763431177366 -0.001754585632835617
0.00663395846294476 0.002989350791203265 -0.0017195546556043168
0.006903219876090104 0.003455725239288793 -0.001652331745887863
0.007172481289235446 0.003922099687374321 -0.0015851093497467972
0.007441742702380789 0.004388474135459849 -0.0015178854128795668
0.007711004115526132 0.004854848583545378 -0.0017007880973429338
0.007980265528671475 0.005321223031630905 -0.0016005638603294725
0.00824952719860451 0.005787597924485767 -0.001698118018899516
0.008518788611749855 0.006253972372571296 -0.0006696437586601795
-0.002718042362149385 -0.01213174413770449 -0.0024588561848965583
-0.002448780949004043 -0.011665369689618963 -0.0018824166012680976
-0.0021795195358587 -0.011198995241533434 -0.0036644446213984997
-0.0019102581227133572 -0.010732620793447906 -0.004526906150967252
-0.0016409967095680142 -0.010266246345362377 -0.004005554717782101
-0.0013717352964226718 -0.00979987189727685 -0.004319200343129224
-0.0011024738832773285 -0.009333497449191321 -0.004354230293209748
-0.0008332127269196797 -0.008867123445875124 -0.0045771353646625
-0.0005639513137743373 -0.008400748997789597 -0.0046121663418938
-0.0002946899006289945 -0.00793437454970407 -0.00471239109248265
-2.5428487483651693e-05 -0.0074680001016185415 -0.0046830823722270295
0.0002438329256616911 -0.007001625653533013 -0.00471811334945833
0.0005130943388070339 -0.006535251205447485 -0.0046888046292027094
0.0007823557519523767 -0.006068876757361957 -0.004591249957057278
0.0010516171650977195 -0.005602502309276429 -0.0041330641880215485
0.001320878578243062 -0.0051361278611909 -0.0014693771903102843
0.001590139991388405 -0.0046697534131053715 -0.0005997651506111783
0.0018594014045337478 -0.004203378965019843 -2.33260925950288e-05
0.004282754187038757 -6.008821057756303e-06 -0.0010857851649629137
0.004552015535987176 0.0004603655158354385 -0.0008037901636417483
0.0048212769491325184 0.0009267399639209667 -0.0016367005653716358
0.005090538362277862 0.0013931144120064949 -0.0017039234750880897
0.005359799775423204 0.0018594888600920226 -0.00167461475483247
0.0056290611885685465 0.002325863308177551 -0.00170964573206377
0.00589832260171389 0.002792237756263079 -0.001612091059918338
0.006167584014859232 0.003258612204348607 -0.0016471220371496382
0.006436845428004575 0.0037249866524341354 -0.0015495678785795947
0.006706106841149918 0.004191361100519664 -0.0012180606148051534
0.006975368254295261 0.004657735548605192 -0.0012852845516723838
0.0072446296674406035 0.005124109996690721 -0.0010032890367758303
0.007513891080585946 0.0055904844447762485 -0.0009406425973439111
0.007783152750518983 0.006056859337631109 -0.0009436952894515617
0.008052414163664326 0.006523233785716638 -0.00045274854640051744
-0.0029151553970895713 -0.01139610827647362 -0.0019245251609246218
-0.002645893983944228 -0.010929733828388091 -0.0027090505981784024
-0.0023766325707988856 -0.010463359380302564 -0.0037913141767042103
-0.0021073711576535424 -0.009996984932217035 -0.004023556562290408
-0.0018381097445082 -0.009530610484131508 -0.0043055520771869615
-0.0015688483313628567 -0.009064236036045979 -0.004637058827386014
-0.0012995871750052079 -0.008597862032729782 -0.004819961511849382
-0.0010303257618598655 -0.008131487584644255 -0.004784930534618081
-0.0007610643487145226 -0.0076651131365587264 -0.004814239254873701
-0.0004918029355691799 -0.007198738688473198 -0.004911793927019133
-0.00022254152242383708 -0.00673236424038767 -0.004643641836712371
4.671989072150572e-05 -0.006265989792302142 -0.004640591198906274
0.0003159813038668485 -0.005799615344216614 -0.00482349388336964
0.0005852427170121913 -0.0053332408961310855 -0.0046452185131542435
0.0008545041301575343 -0.004866866448045557 -0.0038425700276005334
0.005162686740483018 0.0025951247213228936 -0.0003765206058268048
0.005431948153628362 0.003061499169408422 -0.0003414906557462813
0.005701209566773704 0.00352787361749395 -0.0004390453278917131
0.005970470979919047 0.003994248065579478 -8.002944164663589e-05
0.00623973239306439 0.004460622513665006 -1.2806527917874215e-05
-0.003650791258320442 -0.011593221311413804 -0.0016226291133094694
-0.0033815298451750995 -0.011126846863328276 -0.0021859144905191454
-0.0031122684320297562 -0.010660472415242747 -0.003240790120741321
-0.002843007018884414 -0.01019409796715722 -0.003685970620220853
-0.0025737456057390706 -0.00972772351907169 -0.0041311511197003855
-0.002304484192593728 -0.009261349070986163 -0.004309425976340394
-0.002035222779448385 -0.008794974622900634 -0.004487700832980404
-0.001765961623090736 -0.00832860061958444 -0.004665975176045025
-0.0014967002099453936 -0.007862226171498912 -0.004733198085761479
-0.0012274387968000508 -0.007395851723413384 -0.004768229062992779
-0.0009581773836547081 -0.006929477275327856 -0.004771280727949653
-0.0006889159705093653 -0.006463102827242328 -0.0044892852130530994
-0.00041965455736402244 -0.0059967283791567995 -0.004802930324824834
-0.00015039314421867966 -0.005530353931071271 -0.005161945199968366
0.00011886826892666314 -0.005063979482985743 -0.0045855061299152925
0.00038812968207200616 -0.004597605034900214 -0.004620537107146593
0.000657391095217349 -0.004131230586814686 -0.0045578916948654504
0.0009266525083626917 -0.003664856138729158 -0.0038569958466805805
-0.0038479041820682945 -0.010857585514379858 -0.001544630364797133
-0.003578642768922951 -0.010391211066294329 -0.0026588383324709667
-0.0033093813557776085 -0.009924836618208801 -0.004073341019699446
-0.003040119942632265 -0.009458462170123272 -0.003895066163059437
-0.002770858529486923 -0.008992087722037745 -0.00431779879589474
-0.0025015971163415795 -0.008525713273952216 -0.004500701993933496
-0.0022323359599839307 -0.008059339270636021 -0.004732945406670469
-0.0019630745468385887 -0.007592964822550493 -0.004795590305376223
-0.0016938131336932457 -0.007126590374464965 -0.004824897998481067
-0.0014245517205479028 -0.006660215926379436 -0.004821846333524193
-0.00115529030740256 -0.006193841478293908 -0.004721621069359955
-0.0008860288942572173 -0.00572746703020838 -0.004621396832346494
-0.0006167674811118746 -0.005261092582122852 -0.004586365855115193
-0.00034750606796653174 -0.004794718134037324 -0.00455133590503467
-7.824465482118869e-05 -0.0043283436859517955 -0.004833330906355835
0.0001910167583241541 -0.003861969237866267 -0.004766106969488605
0.0004602781714694969 -0.0033955947897807387 -0.004026385849104177
-0.004583540043299165 -0.011054698549320043 -0.0012123758488328145
-0.004314278630153823 -0.010588324101234515 -0.0014805269119887998
-0.0040450172170084795 -0.010121949653148986 -0.002482346096003511
-0.003775755803863137 -0.009655575205063459 -0.00348416579359361
-0.003506494390717794 -0.00918920075697793 -0.0035843900306070714
-0.0032372329775724514 -0.008722826308892402 -0.004387039029736169
-0.0029679715644271077 -0.008256451860806873 -0.004487263780325018
-0.002698710408069459 -0.007790077857490678 -0.004665538636965028
-0.002429448994924117 -0.00732370340940515 -0.004700569614196327
-0.002160187581778774 -0.006857328961319622 -0.005440290734580755
-0.001890926168633431 -0.006390954513234094 -0.004739394886395886
-0.0016216647554880882 -0.005924580065148566 -0.004774425863627185
-0.0013524033423427456 -0.005458205617063038 -0.005042577953933947
-0.0010831419291974028 -0.0049918311689775095 -0.0047110701765841175
-0.0008138805160520599 -0.004525456720891981 -0.004778293086300572
-0.0005446191029067169 -0.004059082272806452 -0.004748984366044952
-0.0002753576897613741 -0.003592707824720924 -0.004516742494034143
-6.096276616031285e-06 -0.003126333376635396 -0.004739647565486896
0.0002631651365293115 -0.0026599589285498677 -0.004642092893341464
0.0005324266138715776 -0.0021935843692720064 -0.004360097892020298
-0.005049914491384693 -0.010785437136174698 -0.0007751146818398188
-0.004511391665094008 -0.009852688240003642 -0.002178295086059337
-0.004242130251948665 -0.009386313791918115 -0.002990967022465169
-0.003972868838803322 -0.008919939343832586 -0.0038319878067260152
-0.0037036074256579796 -0.008453564895747058 -0.004014890491189382
-0.0034343460125126363 -0.007987190447661531 -0.004437624664750849
-0.0031650848561549875 -0.0075208164443453344 -0.004214719079722709
-0.002895823443009645 -0.007054441996259807 -0.004791158149775781
-0.0026265620298643023 -0.006588067548174279 -0.004888712821921213
-0.0023573006167189594 -0.006121693100088751 -0.004885660129813563
-0.0020880392035736166 -0.005655318652003223 -0.004818438247247886
-0.0018187777904282738 -0.005188944203917694 -0.004815385555140235
-0.001549516377282931 -0.004722569755832166 -0.005599912019544792
-0.0012802549641375881 -0.004256195307746638 -0.004962499225099271
-0.0010109935509922453 -0.0037898208596611094 -0.004895275288232041
-0.0007417321378469023 -0.003323446411575581 -0.00471700094516742
-0.00047247072470155957 -0.002857071963490053 -0.004814555617312852
-0.0002032093115562168 -0.002390697515404525 -0.004843863310417695
6.605216578604941e-05 -0.0019243229561266635 -0.004398682810938163
0.0003353135789313922 -0.0014579485080411353 -0.0036270758489999684
-0.005247027554122962 -0.010049801258894597 -0.001770279983124597
-0.004977766140977619 -0.00958342681080907 -0.0018053099332051206
-0.004708504727832277 -0.009117052362723541 -0.0026966739448974018
-0.0044392433146869335 -0.008650677914638014 -0.0034035996817155024
-0.004169981901541591 -0.008184303466552486 -0.003928456780500724
-0.003900720488396248 -0.007717929018466956 -0.0043736372799802565
-0.003631459332038599 -0.007251555015150761 -0.004596542865008397
-0.0033621979188932566 -0.006785180567065233 -0.004696767102021859
-0.0030929365057479137 -0.006318806118979705 -0.00479699133903532
-0.002823675092602571 -0.005852431670894177 -0.00483202231626662
-0.002554413679457228 -0.005386057222808649 -0.004899245225983074
-0.0022851522663118852 -0.004919682774723121 -0.005212890851330197
-0.0020158908531665424 -0.004453308326637592 -0.004832767000579556
-0.0017466294400211996 -0.003986933878552064 -0.004206624104453397
-0.0014773680268758567 -0.003520559430466536 -0.005069084606871374
-0.001208106613730514 -0.003054184982381008 -0.004886181922408007
-0.000938845200585171 -0.0025878105342954797 -0.005109086993860759
-0.0006695837874398283 -0.0021214360862099515 -0.004650901738400418
-0.00040032231009756193 -0.00165506152693209 -0.004653952376206515
-0.00013106089695221916 -0.0011886870788465618 -0.0045913074775007605
0.00013820051619312364 -0.0007223126307610336 -0.004309311962604207
-0.005444140578638866 -0.009314165403682188 -0.0016039282926977802
-0.005174879165493524 -0.00884779095559666 -0.0023884547571023373
-0.00490561775234818 -0.008381416507511131 -0.003089350091711819
-0.004636356339202838 -0.007915042059425604 -0.0036911459194080664
-0.004367094926057495 -0.007448667611340076 -0.004292941747104315
-0.004097833769699846 -0.00698229360802388 -0.00447584494514307
-0.0038285723565545035 -0.006515919159938353 -0.004898577577978372
-0.0035593109434091607 -0.0060495447118528245 -0.004798353340964911
-0.003290049530263818 -0.005583170263767296 -0.004895908013110343
-0.003020788117118475 -0.005116795815681768 -0.004925215706215186
-0.002751526703973132 -0.00465042136759624 -0.0049878616320717176
-0.0024822652908277894 -0.004184046919510712 -0.005017170352327337
-0.0022130038776824465 -0.003717672471425183 -0.0050141176602196864
-0.0019437424645371035 -0.0032512980233396545 -0.005011064968112036
-0.0016744810513917609 -0.0027849235752541264 -0.004943843085546358
-0.001405219638246418 -0.002318549127168598 -0.004876620175829904
-0.0011359582251010752 -0.0018521746790830702 -0.004841589198598604
-0.0008666967477588089 -0.0013858001198052087 -0.004663313828383207
-0.0005974353346134661 -0.0009194256717196806 -0.004994821605733037
-0.0003281739214681234 -0.00045305122363415237 -0.00401997437395749
-5.8912523368934557e-05 1.3323198390672777e-05 -0.0036609594988139585
-0.005910515009350592 -0.009044904000567615 -0.002126870782435674
-0.00564125359620525 -0.008578529552482088 -0.0021940931785767396
-0.0053719921830599066 -0.008112155104396558 -0.003141584303722724
-0.005102730769914564 -0.007645780656311031 -0.003666441916083334
-0.004833469356769221 -0.007179406208225502 -0.004438047850870753
-0.004564208200411572 -0.006713032204909306 -0.004408740671341297
-0.00429494678726623 -0.006246657756823779 -0.00489423581164626
-0.004025685374120886 -0.005780283308738251 -0.004897288503753911
-0.003756423960975544 -0.005313908860652723 -0.004900339141560008
-0.003487162547830201 -0.0048475344125671945 -0.004871031448455165
-0.0032179011346848583 -0.004381159964481666 -0.004971256712619402
-0.0029486397215395155 -0.003914785516396138 -0.005038479622335857
-0.0026793783083941727 -0.00344841106831061 -0.004940924950190425
-0.00241011689524883 -0.0029820366202250813 -0.005119199293255046
-0.002140855482103487 -0.002515662172139553 -0.005219424557419284
-0.0018715940689581442 -0.002049287724054025 -0.004839301733819419
-0.0016023326558128011 -0.0015829132759684968 -0.00493952597083288
-0.0013330711784705351 -0.0011165387166906353 -0.004841971298687449
-0.0010638097653251923 -0.0006501642686051071 -0.004659068614224082
-0.0007945483521798496 -0.00018378982051957886 -0.003930389878262029
-0.0005252869540806606 0.00028258460150524617 -0.004531186801828166
-0.00025602554193839477 0.0007489590478533941 -0.004108452628266699
1.3235887256178846e-05 0.0012153335237370057 -0.003379775433030811
-0.006107628044290778 -0.008309268139336743 -0.0020279042915479924
-0.005838366631145435 -0.007842893691251216 -0.002604343361601065
-0.005569105218000092 -0.007376519243165688 -0.003333021583987729
-0.005299843804854749 -0.006910144795080159 -0.003909460654040802
-0.0050305826484971 -0.006443770791763964 -0.00445919791250892
-0.004761321235351758 -0.005977396343678436 -0.004642101110547675
-0.004492059822206415 -0.005511021895592908 -0.004825003795011043
-0.004222798409061072 -0.0050446474475073794 -0.004887648693716797
-0.003953536995915729 -0.004578272999421851 -0.004985203365862229
-0.0036842755827703865 -0.004111898551336323 -0.005082758038007661
-0.0034150141696250437 -0.0036455241032507953 -0.0050155341011404305
-0.003145752756479701 -0.003179149655165267 -0.005395657951891071
-0.002876491343334358 -0.0027127752070797385 -0.005036643076747539
-0.002607229930189015 -0.0022464007589942103 -0.005065951797003159
-0.0023379685170436724 -0.0017800263109086821 -0.005128596695708913
-0.0020687071038983295 -0.001313651862823154 -0.004905691624256161
-0.001799445626556063 -0.0008472773035452925 -0.004870660647024861
-0.0015301842134107203 -0.00038090285545976435 -0.004602509583868875
-0.0012609228002653774 8.547159262576386e-05 -0.004599457405336614
-0.0009916614021661886 0.0005518460146505889 -0.0044992326547477635
-0.0007223999900239228 0.0010182204609987368 -0.004432008717880533
-0.00045313856082934933 0.0014845949368823485 -0.003907151619095311
-0.006843263905521649 -0.008506381174276928 -0.0006040904825308683
-0.006574002492376306 -0.008040006726191401 -0.0009631063848251764
-0.006304741079230963 -0.007573632278105873 -0.0024102211092063832
-0.0060354796660856205 -0.0071072578300203455 -0.0034386948558703316
-0.005766218252940277 -0.0066408833819348164 -0.004076107650315852
-0.005496957096582628 -0.006174509378618621 -0.004521288663370772
-0.005227695683437286 -0.005708134930533093 -0.004458643251089629
-0.004958434270291943 -0.005241760482447565 -0.004817657612657773
-0.0046891728571466 -0.004775386034362037 -0.005176672487801305
-0.004419911444001257 -0.004309011586276509 -0.0049444306157904955
-0.004150650030855915 -0.0038426371381909807 -0.005044654852803957
-0.003881388617710572 -0.0033762626901054525 -0.004982009954098202
-0.003612127204565229 -0.0029098882420199243 -0.005250162044404964
-0.003342865791419886 -0.0024435137939343957 -0.005152607372259532
-0.0030736043782745434 -0.0019771393458488675 -0.005155660064367183
-0.0028043429651292005 -0.0015107648977633393 -0.005158710702173281
-0.0025350815519838577 -0.0010443904496778111 -0.004975808017709914
-0.0022658200746415915 -0.0005780158903999497 -0.004792905333246547
-0.0019965586614962487 -0.0001116414423144215 -0.004827936310477847
-0.0017272972483509056 0.0003547330057711067 -0.004730381638332415
-0.0014580358502517168 0.0008211074277959318 -0.004547478953869048
-0.001188774438109451 0.0012874818741440796 -0.004582508903949571
-0.0009195130089148776 0.0017538563500276913 -0.004202385053198931
-0.0006502515957695347 0.0022202307981132197 -0.004104831408204276
-0.0003809901826241918 0.002686605246198748 -0.003613884151577843
-0.006771115638508824 -0.007304370800763607 -0.0019032153773407149
-0.006501854225363482 -0.006837996352678079 -0.003216366016003176
-0.006232592812218139 -0.00637162190459255 -0.004029037952409007
-0.00596333165586049 -0.0059052479012763545 -0.004261279824419816
-0.005694070242715147 -0.005438873453190827 -0.004962175672604686
-0.005424808829569805 -0.004972499005105299 -0.004603160283885766
-0.005155547416424462 -0.004506124557019771 -0.0049832836210610175
-0.004886286003279119 -0.004039750108934243 -0.0050459305740683255
-0.004617024590133776 -0.0035733756608487145 -0.005143484219062981
-0.004347763176988434 -0.0031070012127631863 -0.005108454268982457
-0.00407850176384309 -0.002640626764677658 -0.005206007913977112
-0.003809240350697748 -0.0021742523165921295 -0.005235315607081956
-0.003539978937552405 -0.001707877868506601 -0.005168092697365502
-0.0032707175244070623 -0.0012415034204210729 -0.004899941634209516
-0.0030014561112617195 -0.0007751289723355447 -0.005082844318672884
-0.0027321946339194532 -0.0003087544130576834 -0.0048146932555168985
-0.0024629332207741104 0.00015762003502784483 -0.004912245873360777
-0.0021936718076287676 0.000623994483113373 -0.004733971530296156
-0.0019244104095295785 0.001090368905138198 -0.004763280250551776
-0.0016551489973873127 0.001556743351486346 -0.004449634625204653
-0.001385887568192739 0.0020231178273699578 -0.004349410388191192
-0.0011166261550473963 0.002489492275455486 -0.004282187478474738
-0.0008473647419020533 0.002955866723541014 -0.003837006978995206
-0.0005781033929536341 0.003422241060434209 -0.003004095036539154
-0.007237490086594352 -0.007035109387618263 -0.002783266350381023
-0.00696822867344901 -0.006568734939532736 -0.0028504902872482536
-0.006698967260303667 -0.006102360491447207 -0.0038789630067614256
-0.006429706103946018 -0.005635986488131011 -0.004192608632108548
-0.0061604446908006755 -0.005169612040045484 -0.0047174662444691585
-0.005891183277655333 -0.004703237591959956 -0.0048176915086333965
-0.00562192186450999 -0.0042368631438744276 -0.00482074317359027
-0.0053526604513646475 -0.0037704886957889 -0.004920967410603732
-0.005083399038219304 -0.0033041142477033716 -0.00502119267476797
-0.004814137625073961 -0.0028377397996178434 -0.005334837272964316
-0.0045448762119286185 -0.0023713653515323153 -0.00533788893792119
-0.004275614798783276 -0.0019049909034467864 -0.0049151568186612754
-0.004006353385637933 -0.0014386164553612582 -0.005274171693804807
-0.00373709197249259 -0.0009722420072757302 -0.005176617021659375
-0.003467830559347247 -0.0005058675591902019 -0.005243840958526606
-0.003198569082004981 -3.9492999912340536e-05 -0.004821106784965138
-0.002929307668859638 0.00042688144817318763 -0.004999381128029759
-0.0026600462557142953 0.0008932558962587158 -0.004767139256018951
-0.002390784857615106 0.0013596303182835407 -0.005474064479261663
-0.0021215234454728406 0.001826004764631689 -0.00466139305643122
-0.001852262016278267 0.0022923792405153006 -0.0041116557979631015
-0.0015830006031329242 0.0027587536886008288 -0.004470670673106633
-0.0013137391899875814 0.003225128136686357 -0.00418867515821008
-0.0010444778410391622 0.003691502473579552 -0.004005772473746712
-0.0007752164278938193 0.00415787692166508 -0.003583039327336022
-0.007434603121534538 -0.006299473526387394 -0.0026335334459420038
-0.007165341708389195 -0.005833099078301865 -0.003390075187441803
-0.006896080552031546 -0.005366725074985669 -0.0039114266206269534
-0.006626819138886204 -0.0049003506269001415 -0.004640104329438229
-0.006357557725740861 -0.004433976178814613 -0.004669412022543073
-0.006088296312595518 -0.003967601730729085 -0.004901654921704658
-0.005819034899450176 -0.003501227282643557 -0.004723379551489261
-0.005549773486304832 -0.003034852834558029 -0.00505488732883909
-0.005280512073159489 -0.0025684783864725006 -0.005336882330160255
-0.005011250660014147 -0.0021021039383869724 -0.005269659420443802
-0.004741989246868804 -0.0016357294903014436 -0.00516943518343034
-0.004472727833723461 -0.0011693550422159154 -0.005232080082136095
-0.004203466420578119 -0.0007029805941303873 -0.0050091750106833425
-0.003934205007432775 -0.00023660614604485909 -0.005106729682828774
-0.003664943530090509 0.0002297684132330023 -0.004928455339764153
-0.0033956821169451664 0.0006961428613185305 -0.004957763032868997
-0.0031264207037998235 0.0011625173094040586 -0.00464411843467265
-0.0028571593057006347 0.0016288917314288838 -0.004673426127777494
-0.002587897893558369 0.0020952661777770315 -0.00463839617769697
-0.002318636464363795 0.0025616406536606434 -0.004571172754405128
-0.002049375051218452 0.0030280151017461716 -0.00447094749024089
-0.0017801136380731096 0.0034943895498317 -0.004292672633600881
-0.0015108522891246904 0.003960763886724895 -0.00419244839658742
-0.0012415908759793475 0.004427138334810423 -0.003924296306280658
-0.0009723294628340047 0.004893512782895951 -0.0038240715556918086
-0.0007030680496886621 0.0053598872309814785 -0.002991161153961921
-0.007900977569620066 -0.00603021211324205 -0.0025273214334771464
-0.007631716156474723 -0.005563837665156521 -0.003267044094587738
-0.007362455000117074 -0.005097463661840326 -0.0037122245940672703
-0.007093193586971732 -0.004631089213754798 -0.004419150330885371
-0.0068239321738263895 -0.00416471476566927 -0.004732795442657106
-0.006554670760681046 -0.0036983403175837423 -0.00491106875857095
-0.006285409347535704 -0.003231965869498214 -0.0049460997358022505
-0.0060161479343903606 -0.002765591421412686 -0.0050463260271172644
-0.005746886521245018 -0.0022992169733271578 -0.005113547909682942
-0.005477625108099675 -0.0018328425252416294 -0.005148578886914243
-0.0052083636949543325 -0.0013664680771561008 -0.005215801796630696
-0.004939102281808989 -0.0009000936290705729 -0.0053160260336441575
-0.004669840868663647 -0.00043371918098504444 -0.005253381134938403
-0.004400579455518304 3.265526710048375e-05 -0.005256433827046054
-0.004131317978176037 0.0004990298263783451 -0.0050241909278844685
-0.0038620565650306945 0.0009654042744638733 -0.004994882207628849
-0.0035927951518853517 0.0014317787225494015 -0.004897328562634193
-0.003323533753786163 0.0018981531445742266 -0.004997552799647655
-0.003054272341643897 0.0023645275909223743 -0.0046660460494486015
-0.0027850109124493232 0.0028309020668059862 -0.004483142851409846
-0.0025157494993039804 0.0032972765148915144 -0.004583367088423308
-0.0022464880861586376 0.0037636509629770426 -0.004485812929853264
-0.0019772267372102185 0.004230025299870237 -0.004388259284858609
-0.0017079653240648757 0.0046963997479557654 -0.004106264283537444
-0.0014387039109195329 0.005162774196041294 -0.004076955563281823
-0.0011694424977741903 0.005629148644126822 -0.003450812667155664
-0.0009001810846288474 0.00609552309221235 -0.003485843644386964
-0.008098090382175585 -0.005294576380405026 -0.002806601675296118
-0.007828829225817936 -0.00482820237708883 -0.0034327440578468885
-0.007559567812672593 -0.0043618279290033035 -0.003954094463881263
-0.0072903063995272506 -0.0038954534809177753 -0.0044450412069323075
-0.007021044986381907 -0.003429079032832247 -0.004825165057682948
-0.006751783573236565 -0.002962704584746719 -0.0048878099563887025
-0.006482522160091222 -0.0024963301366611908 -0.004985364628534134
-0.006213260746945879 -0.0020299556885756626 -0.004950334678453611
-0.005943999333800536 -0.0015635812404901342 -0.005012980604310142
-0.005674737920655194 -0.0010972067924046056 -0.005195883288773509
-0.00540547650750985 -0.0006308323443190775 -0.005017607918558112
-0.005136215094364508 -0.00016445789623354925 -0.005115162590703544
-0.004866953681219165 0.00030191655185197894 -0.004936888247638923
-0.0045976922038768984 0.0007682911111298403 -0.004901857270407622
-0.004328430790731556 0.0012346655592153685 -0.00467895219895487
-0.004059169377586213 0.0017010400073008967 -0.0044560476410775065
-0.003789907979487024 0.002167414429325722 -0.00473804315597406
-0.003520646567344758 0.0026337888756738695 -0.004734990463866409
-0.0032513851381501843 0.0031001633515574814 -0.004667767554149955
-0.0029821237250048415 0.0035665377996430096 -0.004567542289985718
-0.0027128623118594986 0.004032912247728538 -0.004467317539396868
-0.0024436009629110796 0.004499286584621733 -0.004400095143255802
-0.002174339549765737 0.004965661032707261 -0.004221820286615793
-0.001905078136620394 0.005432035480792789 -0.0041545963497485626
-0.0016358167234750514 0.005898409928878317 -0.004054372112735101
-0.0013665553103297085 0.006364784376963845 -0.0038760972560950915
-0.0010972938971843666 0.006831158825049374 -0.0034309167566155593
-0.008564464830261114 -0.005025314967259683 -0.0031868570013461454
-0.008295203673903465 -0.004558940963943488 -0.0032218879785774457
-0.008025942260758121 -0.00409256651585796 -0.004084348480995422
-0.007756680847612779 -0.0036261920677724325 -0.004397993592767157
-0.007487419434467436 -0.0031598176196869043 -0.004843174092246689
-0.007218158021322093 -0.002693443171601376 -0.0049103980291139195
-0.006948896608176751 -0.002227068723515848 -0.004977620938830373
-0.006679635195031407 -0.0017606942754303195 -0.005077845175843835
-0.006410373781886065 -0.0012943198273447914 -0.005112876153075135
-0.006141112368740722 -0.0008279453792592628 -0.005180099062791588
-0.005871850955595379 -0.0003615709311737346 -0.005150791369686746
-0.005602589542450036 0.00010480351691179358 -0.005121482649431125
-0.005333328129304694 0.0005711779649973218 -0.005299758019646523
-0.0050640666519624275 0.0010375525242751831 -0.005017761991174582
-0.004794805238817084 0.0015039269723607113 -0.004920208346179926
-0.004525543825671742 0.0019703014204462397 -0.004857562420323395
-0.004256282427572553 0.002436675842471065 -0.004924785330039849
-0.003987021015430287 0.0029030502888192124 -0.004827230657894417
-0.003717759586235713 0.0033694247647028243 -0.004830283350002068
-0.00344849817309037 0.0038357992127883525 -0.004732728677856636
-0.0031792367599450273 0.004302173660873881 -0.004670083779150881
-0.0029099754109966082 0.004768547997767075 -0.004437841393564684
-0.0026407139978512663 0.005234922445852604 -0.0030233387063362043
-0.0023714525847059226 0.005701296893938132 -0.004269470838286728
-0.00210219117156058 0.00616767134202366 -0.004240162118031108
-0.0018329297584152371 0.006634045790109188 -0.004142607959461065
-0.0015636683452698943 0.007100420238194716 -0.0037624841087104234
-0.0012944069321245526 0.007566794686280244 -0.0029779586714566426
-0.008761578121988993 -0.004289679550798144 -0.002886542252351359
-0.00849231670884365 -0.003823305102712618 -0.0036152204747380234
-0.008223055295698308 -0.0033569306546270897 -0.00421701681600966
-0.007953793882552964 -0.0028905562065415615 -0.004766753047327001
-0.007684532469407621 -0.0024241817584560333 -0.004864306692321656
-0.007415271056262279 -0.001957807310370505 -0.004764082455308195
-0.007146009643116936 -0.0014914328622849767 -0.0051442063060588355
-0.006876748229971593 -0.0010250584141994485 -0.005109175328827535
-0.00660748681682625 -0.00055868396611392 -0.005041951391960305
-0.0063382254036809076 -9.230951802839179e-05 -0.005038900754154208
-0.006068963990535564 0.0003740649300571364 -0.0051364554262996395
-0.005799702577390222 0.0008404393781426647 -0.004535658502733503
-0.005530441100047956 0.001306813937420526 -0.004958391649144194
-0.005261179686902612 0.0017731883855060541 -0.00492336169906367
-0.00499191827375727 0.0022395628335915825 -0.004920309006956019
-0.004722656875658081 0.0027059372556164077 -0.004853086097239566
-0.004453395463515815 0.003172311701964555 -0.004674811754174945
-0.004184134034321241 0.003638686177848167 -0.004737456652880699
-0.003914872621175899 0.004105060625933695 -0.003874996664038111
-0.0036456112080305554 0.0045714350740192235 -0.004575891485072204
-0.0033763498590821364 0.0050378094109124185 -0.004475667248058743
-0.0031070884459367936 0.005504183858997947 -0.004472614555951092
-0.0028378270327914508 0.005970558307083475 -0.00402743405647156
-0.0025685656196461084 0.006436932755169002 -0.004309429057792725
-0.0022993042065007656 0.00690330720325453 -0.004041277481061352
-0.0020300427933554236 0.0073696816513400595 -0.0034779931310024515
-0.0017607813802100808 0.007836056099425587 -0.002248195264274645
-0.009227952570074522 -0.004020418137652802 -0.0026023871529472905
-0.008958691156929178 -0.003554043689567275 -0.0037095740314886058
-0.008689429743783835 -0.003087669241481747 -0.0042728583815475054
-0.008420168330638493 -0.0026212947933962187 -0.004758354035427856
-0.00815090691749315 -0.0021549203453106905 -0.0048585782724413175
-0.007881645504347806 -0.001688545897225162 -0.0049588035366055555
-0.007612384091202464 -0.0012221714491396339 -0.005026026446322009
-0.007343122678057121 -0.0007557970010541057 -0.004928471774176577
-0.007073861264911778 -0.00028942255296857713 -0.004899163053920958
-0.006804599851766436 0.00017695189511695105 -0.0050774384241363555
-0.0065353384386210925 0.0006433263432024792 -0.005048130731031512
-0.00626607702547575 0.0011097007912880075 -0.005051182395988386
-0.005996815548133484 0.0015760753505658688 -0.00505423406094526
-0.005727554134988141 0.002042449798651397 -0.005057285725902134
-0.005458292721842798 0.0025088242467369254 -0.004959731053756702
-0.005189031323743609 0.0029751986687617505 -0.004930423360651859
-0.004919769911601344 0.0034415731151098985 -0.0035159211869987676
-0.004650508482406769 0.0039079475909935095 -0.00478509385159154
-0.004381247069261427 0.004374322039079038 -0.00482012482882284
-0.004111985656116084 0.004840696487164567 -0.004722570156677408
-0.0038427243071676646 0.005307070824057761 -0.004539666958638653
-0.003573462894022322 0.005773445272143289 -0.004442112800068609
-0.003304201480876979 0.006239819720228817 -0.00441280407981299
-0.0030349400677316366 0.0067061941683143455 -0.004383495359557369
-0.0027656786545862937 0.007172568616399874 -0.003833759641815416
-0.0024964172414409518 0.007638943064485402 -0.003502252378040975
-0.002227155828295609 0.008105317512570931 -0.0028013565298561052
-0.001957894415150266 0.008571691960656458 -0.0028363875070874056
-0.0016886330020049233 0.009038066408741987 -0.0009325455677730477
-0.009425065605014707 -0.0032847822764219318 -0.0024991728800235428
-0.009155804191869364 -0.002818407828336404 -0.0037445531376056945
-0.00888654277872402 -0.002352033380250876 -0.004320992721234155
-0.008617281365578678 -0.0018856589321653474 -0.004779179517420661
-0.008348019952433335 -0.0014192844840798192 -0.004808487210525504
-0.008078758539287993 -0.000952910035994291 -0.004773457260444981
-0.00780949712614265 -0.00048653558790876287 -0.005153581111195621
-0.007540235712997306 -2.016113982323432e-05 -0.0042911195816268686
-0.007270974299851964 0.0004462133082622939 -0.004474023293241012
-0.007001712886706621 0.000912587756347822 -0.004896756439651703
-0.006732451473561278 0.0013789622044333503 -0.0049943111117971345
-0.006463189996219012 0.0018453367637112116 -0.004991258419689484
-0.006193928583073669 0.00231171121179674 -0.005020567139945104
-0.005924667169928326 0.002778085659882268 -0.0048422917697297065
-0.0056554057718291376 0.0032444600819070933 -0.004775069887164029
-0.005386144359686871 0.003710834528255241 -0.005007311759174838
-0.0051168829304922975 0.004177209004138853 -0.004940088849458384
-0.004847621517346955 0.004643583452224381 -0.004761814506393763
-0.004578360104201612 0.005109957900309909 -0.004276317825362636
-0.004309098755253192 0.005576332237203104 -0.003962672200015513
-0.00403983734210785 0.006042706685288632 -0.0042446687420628435
-0.003770575928962507 0.006509081133374161 -0.004066393885422834
-0.0035013145158171648 0.006975455581459688 -0.003888119028782825
-0.003232053102671823 0.007441830029545217 -0.0034429385293032926
-0.00296279168952648 0.007908204477630744 -0.0026713310537897095
-0.002693530276381137 0.008374578925716273 -0.0012834403024532444
-0.0024242688632357943 0.0088409533738018 -0.00013502771639700635
-0.009622178639954893 -0.0025491464151910607 -0.003466123890205023
-0.009352917226809549 -0.002082771967105533 -0.003911304903259943
-0.009083655813664207 -0.0016163975190200046 -0.004713952361662876
-0.008814394400518863 -0.0011500230709344764 -0.004892227731878274
-0.00854513298737352 -0.0006836486228489482 -0.004794674086883618
-0.008275871574228178 -0.00021727417476342006 -0.004697119414738187
-0.008006610161082835 0.00024910027332210853 -0.004599564742592755
-0.007737348747937492 0.0007154747214076367 -0.004666787652309209
-0.007468087334792149 0.001181849169493165 -0.004701818629540509
-0.0071988259216468065 0.0016482236175786931 -0.004672509909284889
-0.00692956444430454 0.0021145981768565547 -0.004675562601392539
-0.006660303031159197 0.002580972624942083 -0.004742785511108993
-0.006391041618013855 0.003047347073027611 -0.004745837176065868
-0.006121780219914666 0.003513721495052436 -0.004846061413079329
-0.0058525188077723994 0.003980095941400584 -0.004613819541068521
-0.005583257378577826 0.004446470417284195 -0.004430916856605153
-0.005313995965432483 0.004912844865369723 -0.004099409592830712
-0.00504473455228714 0.005379219313455252 -0.0038671661800937385
-0.0047754732033387206 0.005845593650348447 -0.003870218872201389
-0.004506211790193378 0.006311968098433975 -0.00397044310921485
-0.004236950377048036 0.006778342546519504 -0.003269547261029981
-0.003967688963902693 0.007244716994605031 -0.0029875517461334274
-0.003698427550757351 0.007711091442690559 -0.0025648191132981247
-0.0034291661376120073 0.008177465890776087 -0.0037240969163170284
-0.0031599047244666653 0.008643840338861616 -0.000869109762969416
-0.009819291674895078 -0.0018135105539601895 -0.0035097423615029493
-0.009550030261749734 -0.0013471361058746618 -0.0036926450459663167
