ply
format ascii 1.0
element vertex 720
property float x
property float y
property float z
end_header
0.011726264730834376 -0.002467621016916011 -4.092822914121172e-05
0.012015654128660003 -0.001966383876710263 0.0013560944394080275
0.006016020067179005 -0.011200497582696832 0.0014123122112077227
0.006594798724838672 -0.010198023541293774 0.00033366207207182445
0.0068841880536685066 -0.009696786520592244 0.0011467570649522309
0.007173577382498341 -0.009195549499890715 0.00021982563789975243
0.007462966711328175 -0.008694312479189186 0.000810657032574817
0.007752356040158008 -0.008193075458487657 0.0014836050117212852
0.008041745093004673 -0.007691838915803001 0.0009195125224884654
0.008331134421834507 -0.007190601895101471 0.000916232738492061
0.00862052375066434 -0.006689364874399941 0.0009129524025293158
0.008909913079494174 -0.006188127853698412 -0.00039742231387459166
0.009199302408324008 -0.005686890832996882 0.00016290024525128738
0.009488691737153842 -0.0051856538122953535 -0.0005221606352417131
0.009778081065983676 -0.004684416791593824 -0.0002725564882827699
0.01006747039481351 -0.004183179770892294 -0.0005121242312688721
0.010356859723643344 -0.003681942750190765 -0.0005154051191979578
0.010646249052473179 -0.0031807057294892353 -0.0004480768169264309
0.010935638381303013 -0.002679468708787706 -0.0004857253370924948
0.011225027710132845 -0.0021782316880861767 -7.718634609506724e-05
0.011514417107958473 -0.0016769945478804288 0.0014429110172704414
0.005804172853324182 -0.01040987150914864 0.0010495292979716445
0.006093562182154016 -0.00990863448844711 0.0009446821876241168
0.00638295151098385 -0.00940739746774558 0.00032515295896368395
0.0066723408398136844 -0.00890616044704405 0.00036280147912974786
0.006961730168643519 -0.008404923426342522 -4.573751186767965e-05
0.007251119497473352 -0.007903686405640993 -8.08788776893435e-06
0.007540508550320016 -0.007402449862956337 0.00018351287627816818
0.00782989787914985 -0.006901212842254807 0.000423081171230611
0.008119287207979683 -0.006399975821553277 0.00017347812820434926
0.008408676536809517 -0.005898738800851748 -0.0006096704828280388
0.008698065865639351 -0.005397501780150219 -0.0006063912507979751
0.008987455194469186 -0.00489626475944869 -0.0007112372572128214
0.00927684452329902 -0.00439502773874716 -0.0007079574732164171
0.009566233852128854 -0.0038937907180456306 -0.0007394570883471485
0.009855623180958688 -0.0033925536973441013 -0.0007361767523844034
0.010145012509788522 -0.0028913166766425715 -0.0006639287741182699
0.010434401838618356 -0.002390079655941042 -0.00047232745810482673
0.010723791167448189 -0.001888842635239513 -0.00036461012278568957
0.011013180565273816 -0.001387605495033765 0.0005305628169222718
0.004724157174962987 -0.011122956221721865 0.0015876128572477873
0.005302935832622655 -0.010120482180318807 0.0017918533745136147
0.005592325161452489 -0.009619245159617276 0.0004278065550732933
0.005881714490282323 -0.009118008138915747 -5.0652772131560785e-05
0.006171103819112157 -0.008616771118214218 -5.3933108094305886e-05
0.0064604931479419914 -0.008115534097512688 -0.00012618108636043942
0.006749882476771825 -0.00761429707681116 -0.00023389731774689517
0.0070392715296184885 -0.0071130605341265035 1.5705725279366617e-05
0.007328660858448323 -0.006611823513424974 -2.1943898819378687e-05
0.007618050187278157 -0.006110586492723444 -0.0006273350616292726
0.00790743951610799 -0.005609349472021915 -0.0007350512930157282
0.008196828844937824 -0.005108112451320385 -0.0008427680763685247
0.008486218173767658 -0.004606875430618856 -0.0009150171585673397
0.008775607502597493 -0.004105638409917327 -0.0008101700482198119
0.009064996831427327 -0.0036044013892157973 -0.000813450384182557
0.009354386160257161 -0.003103164368514268 -0.0007819513210181662
0.009643775489086995 -0.0026019273478127382 -0.0007504517058874346
0.00993316481791683 -0.002100690327111209 -0.0005538766211779968
0.010222554146746662 -0.0015994533064096798 -9.954208682586027e-05
0.01051194354457229 -0.0010982161662039316 0.0005232122811632483
0.004512309483091291 -0.010332329872190502 0.0012925026732798293
0.004801698811921124 -0.009831092851488973 0.0007321801141539502
0.005091088140750958 -0.009329855830787442 -0.00023346899186651662
0.0053804774695807925 -0.008828618810085913 -0.00016122156556672376
0.005669866798410627 -0.008327381789384384 -0.0004108240566266449
0.005959256127240461 -0.007826144768682854 -0.0004423236717573764
0.006248645456070294 -0.007324907747981326 -0.0004390433357946313
0.006538034508916958 -0.006823671205296669 -0.0004357641037645676
0.006827423837746792 -0.0063224341845951396 -0.0001961958088121247
0.007116813166576626 -0.00582119716389361 -0.0008157250374725575
0.00740620249540646 -0.005319960143192081 -0.0008830533397440845
0.007695591824236294 -0.004818723122490551 -0.0014106989395345315
0.007984981153066128 -0.004317486101789022 -0.0010248468690723133
0.008274370481895962 -0.0038162490810874925 -0.0010921751713438403
0.008563759810725796 -0.003315012060385963 -0.0004464678350433078
0.00885314913955563 -0.002813775039684434 -0.0008027560363316087
0.009142538468385464 -0.002312538018982904 -0.0007994762523352043
0.009431927797215299 -0.0018113009982813747 -0.00072722772210273
0.009721317126045131 -0.0013100639775798456 0.00032049160321652204
0.0037216831335599287 -0.010544177564062198 0.001110417808946293
0.004011072462389763 -0.010042940543360667 0.001215264919293821
0.004300461791219596 -0.009541703522659139 0.00013855687372765473
0.00458985112004943 -0.00904046650195761 0.0005470958647250823
0.0048792404488792645 -0.008539229481256079 -0.0004108985720826386
0.005168629777709099 -0.00803799246055455 -0.00044854819618138397
0.005458019106538933 -0.007536755439853021 -0.000736744725748978
0.005747408435368766 -0.007035518419151492 -0.0006318981673677908
0.00603679748821543 -0.006534281876466836 -0.0006695477914665361
0.006326186817045264 -0.006033044855765306 -0.0006380481763358047
0.006615576145875098 -0.0055318078350637765 -0.001116506951574318
0.006904965474704932 -0.005030570814362248 -0.0010850078884099273
0.007194354803534766 -0.004529333793660718 -0.0011572564186424015
0.0074837441323646 -0.004028096772959189 -0.0009076522716834583
0.007773133461194434 -0.003526859752257659 -0.0010153701589689361
0.008062522790024267 -0.00302562273155613 -0.0012069714749823792
0.008351912118854101 -0.0025243857108546005 -0.0008506832736940783
0.008641301447683936 -0.0020231486901530708 -0.00039634929130828256
0.00893069077651377 -0.0015219116694515414 -0.0007822024657031821
0.009220080105343604 -0.0010206746487500123 -0.00022187825067828106
0.00950946950316923 -0.0005194375085442643 0.000907274876748936
0.003220446112858399 -0.010254788235232364 0.0017047552938174466
0.003509835441688233 -0.009753551214530833 0.0009514653019849065
0.003799224770518067 -0.009252314193829304 0.00025307443436414323
0.0040886140993479005 -0.008751077173127775 0.0002215748192334117
0.004378003428177735 -0.008249840152426245 -0.00042520719553245214
0.004667392757007569 -0.007748603131724717 -0.00062178228024189
0.004956782085837403 -0.007247366111023187 -0.0006185013923128042
0.005246171414667236 -0.006746129090321658 -0.0008150770289885828
0.0055355604675139 -0.006244892547637002 -0.0010646811759475261
0.005824949796343734 -0.005743655526935472 -0.0011320089262527122
0.0061143391251735684 -0.005242418506233942 -0.0011635085413834439
0.006403728454003403 -0.0047411814855324134 -0.0012308368436549709
0.006693117782833236 -0.004239944464830884 -0.001158587761456156
0.00698250711166307 -0.0037387074441293544 -0.0012259160637276827
0.007271896440492904 -0.003237470423427825 -0.0010343147477142396
0.007561285769322738 -0.0027362334027262957 -0.001065814362844971
0.007850675098152573 -0.0022349963820247664 -0.0008262460678925281
0.008140064426982407 -0.0017337593613232366 -0.0006346447518790849
0.00842945375581224 -0.0012325223406217073 -0.0005269285204926291
0.008718843084642073 -0.000731285319920178 0.00011877881580790328
0.009008232482467701 -0.0002300481797144301 0.0010139517555158646
0.0024298197633270354 -0.010466635927104059 0.001007366245105043
0.002719209092156869 -0.00996539890640253 0.0013104415793523875
0.0030085984209867033 -0.009464161885701 0.000515424036096054
0.003297987749816537 -0.008962924864999472 0.00012957086170115446
0.003587377078646371 -0.008461687844297941 -0.0002075188463251239
0.0038767664074762054 -0.007960450823596412 -0.0005933720207200236
0.004166155736306039 -0.007459213802894883 -0.000596651804716428
0.004455545065135873 -0.006957976782193353 -0.0008848488862503626
0.0047449343939657065 -0.006456739761491824 -0.0009224979583827672
0.00503432344681237 -0.005955503218807168 -0.0010302147417355636
0.0053237127756422045 -0.005454266198105638 -0.0011024638239343785
0.005613102104472039 -0.004953029177404109 -0.0014883158943965968
0.005902491433301873 -0.004451792156702579 -0.0011320276931082959
0.006191880762131706 -0.00395055513600105 -0.0016961190784084343
0.00648127009096154 -0.0034493181152995206 -0.0012417861999553198
0.0067706594197913745 -0.0029480810945979913 -0.0010452094593468599
0.007060048748621209 -0.002446844073896462 -0.0010484903472759456
0.007349438077451042 -0.0019456070531949326 -0.0009811620450044186
0.007638827406280876 -0.0014443700324934029 -0.0006780867107570742
0.00792821673511071 -0.0009431330117918737 -0.00037501192847607046
0.008217606063940544 -0.0004418959910903443 0.00032337949111103345
0.00850699546176617 5.9341149115403605e-05 0.00043927310383487246
0.008796384790596004 0.0005605781698169325 0.0012224217148672605
0.0019285827426255057 -0.010177246598274224 0.000927383562506763
0.0022179720714553394 -0.009676009577572696 0.0012644749264320635
0.0025073614002851735 -0.009174772556871167 0.0005915263953192545
0.0027967507291150073 -0.008673535536169638 -0.00010686502426784938
0.0030861400579448414 -0.008172298515468107 -3.461704600171583e-05
0.0033755293867746756 -0.007671061494766577 -0.0007075650251481839
0.0036649187156045093 -0.0071698244740650485 -0.0007748933274197109
0.0039543080444343435 -0.006668587453363519 -0.0008422216296912378
0.004243697373264177 -0.00616735043266199 -0.0010387967144006758
0.004533086426110841 -0.0056661138899773335 -0.0011436438247482035
0.004822475754940675 -0.005164876869275804 -0.001105994200649458
0.005111865083770509 -0.004663639848574275 -0.001302569285358896
0.005401254412600343 -0.004162402827872745 -0.0012992900533288323
0.005690643741430176 -0.003661165807171216 -0.0011915721660433545
0.0059800330702600105 -0.0031599287864696865 -0.000999971401996252
0.006269422399089845 -0.002658691765768157 -0.0008922546186434556
0.006558811727919679 -0.002157454745066628 -0.0007845383872569998
0.006848201056749512 -0.0016562177243650985 -0.001034140878316921
0.007137590385579346 -0.0011549807036635687 4.256661528290447e-05
0.0074269797144091805 -0.0006537436829620395 4.584584731296819e-05
0.007716369043239015 -0.0001525066622605102 0.0006915531836135006
0.0011379563930941426 -0.010389094290145921 0.0011662536200382275
0.0014273457219239768 -0.00988785726944439 0.0009746528559911251
0.0017167350507538105 -0.009386620248742861 0.00045286417104178336
0.0020061243795836447 -0.008885383228041333 0.00038061619277564984
0.0022955137084134784 -0.008384146207339804 -0.0003044446877173506
0.0025849030372433125 -0.007882909186638273 -0.0004960460037307939
0.0028742923660731467 -0.007381672165936744 -0.000687647319744237
0.0031636816949029804 -0.006880435145235215 -0.0007252969438429823
0.003453071023732814 -0.006379198124533685 -0.0009168977078900849
0.0037424603525626483 -0.0058779611038321565 -0.0010246144912428815
0.004031849405409312 -0.0053767245611475 -0.0015464031761922232
0.004321238734239146 -0.0048754875404459705 -0.000986079513133663
0.00461062806306898 -0.004374250519744441 -0.0010583269394334556
0.004900017391898814 -0.003873013499042912 -0.0013465240209673904
0.0051894067207286475 -0.003371776478341382 -0.0011499489362579525
0.005478796049558482 -0.0028705394576398527 -0.0011875985603566979
0.005768185378388316 -0.0023693024369383234 -0.0011560989452259662
0.00605757470721815 -0.001868065416236794 -0.00115937817725603
0.006346964036047983 -0.0013668283955352648 -0.0007508391862586024
0.006636353364877817 -0.0008655913748337351 9.233134859354474e-05
0.006925742693707652 -0.00036435435413220577 0.0003954061308745485
0.007215132022537486 0.00013688266656932354 -0.0002896547496184519
0.0075045214203631125 0.0006381198067750715 0.0002027820212317991
0.000926108701222447 -0.009598467940614556 0.0007983846129558235
0.0012154980300522807 -0.009097230919913027 0.0004420964116675226
0.0015048873588821149 -0.008595993899211498 0.0005143454938663375
0.0017942766877119486 -0.00809475687850997 -0.00023894449796620264
0.0020836660165417828 -0.00759351985780844 -0.0004355195826756405
0.002373055345371617 -0.00709228283710691 -0.0007918077839639415
0.0026624446742014507 -0.006591045816405381 -0.0008966543423451285
0.0029518340030312844 -0.006089808795703851 -0.0010932299790209071
0.0032412233318611186 -0.005588571775002322 -0.0008050328974869723
0.003530612384707782 -0.005087335232317666 -0.0011613205468089325
0.003820001713537616 -0.004586098211616136 -0.0011928201619396642
0.00410939104236745 -0.004084861190914607 -0.001389395246649102
0.004398780371197284 -0.0035836241702130777 -0.0014208948617798335
0.004688169700027118 -0.003082387149511548 -0.0009424360865413202
0.004977559028856952 -0.0025811501288100186 -0.001139011171250758
0.005266948357686786 -0.0020799131081084892 -0.0010312949398643024
0.00555633768651662 -0.00157867608740696 -0.0008396936238508591
0.0058457270153464535 -0.0010774390667054306 -0.00031790604283419866
0.006135116344176288 -0.0005762020460039009 1.9185321091101793e-05
0.006424505673006122 -7.496502530237159e-05 0.00100761849372274
0.006713895001835956 0.0004262719953991577 0.0016926796501989109
0.0001354823516910831 -0.009810315632486253 0.000740211224411049
0.00042487168052091724 -0.009309078611784722 0.0007717097356090992
0.000714261009350751 -0.008807841591083193 0.0004835137580078458
0.0010036503381805851 -0.008306604570381664 5.0549827693324845e-06
0.0012930396670104189 -0.007805367549680135 -0.00033203638115596797
0.0015824289958402528 -0.0073041305289786055 -0.0006202334626899026
0.001871818324670087 -0.006802893508277076 -0.0007279496940763584
0.002161207653499921 -0.006301656487575547 -0.0008356675813618362
0.0024505969823297546 -0.005800419466874017 -0.000943383812748292
0.002739986311159589 -0.005299182446172488 -0.0010156317910144255
0.003029375364006252 -0.004797945903487832 -0.0010878808732132405
0.0033187646928360863 -0.004296708882786302 -0.0011955971045996962
0.0036081540216659205 -0.0037954718620847724 -0.0011282688023281692
0.0038975433504957542 -0.0032942348413832435 -0.0006006232025377223
0.004186932679325588 -0.0027929978206817137 -0.0012463305388382548
0.004476322008155422 -0.0022917607999801844 -0.001214830923707523
0.004765711336985256 -0.001790523779278655 -0.001147503173402337
0.00505510066581509 -0.0012892867585771258 -0.00108017487113081
0.005344489994644924 -0.0007880497378755964 -0.0010486752560000783
0.005633879323474758 -0.0002868127171740667 0.000148821239799202
0.005923268652304592 0.00021442430352746256 0.001346318839531164
0.006212657981134426 0.0007156613242289919 0.0012740708612650304
-7.636534018061209e-05 -0.009019689282954888 0.0007816771437893533
0.0002130239886492216 -0.008518452262253359 0.0003731381527919258
0.0005024133174790557 -0.00801721524155183 1.6850503469965564e-05
0.0007918026463088894 -0.007515978220850301 -5.047779880156139e-05
0.0010811919751387235 -0.007014741200148771 -0.00045901678979898893
0.0013705813039685576 -0.006513504179447242 -0.0008153049910872899
0.0016599706327983914 -0.006012267158745713 -0.0006237036750738466
0.0019493599616282255 -0.005511030138044183 -0.0008202787597832845
0.0022387492904580595 -0.005009793117342654 -0.001016854396459063
0.002528138343304723 -0.004508556574657998 -0.001213429481168501
0.002817527672134557 -0.004007319553956468 -0.0012807577834400277
0.003106917000964391 -0.0035060825332549382 -0.0010891564674265846
0.003396306329794225 -0.0030048455125534093 -0.0012857315521360225
0.003685695658624059 -0.0025036084918518796 -0.001213483573869889
0.003975084987453893 -0.0020023714711503503 -0.0014100592105456675
0.0042644743162837265 -0.001501134450448821 -0.0007643513222787944
0.004553863645113561 -0.0009998974297472916 -0.0004761558966438818
0.004843252973943395 -0.0004986604090457623 -0.00018795881510994705
0.005132642302773229 2.5766116557674267e-06 0.0006746900599389545
0.005422031631603063 0.0005038136323572967 -0.00010845855109343357
-0.0005776023608821414 -0.008730299954125055 0.0007518610259977387
-0.00028821303205230775 -0.008229062933423527 0.00023007344498107842
1.1762967775264049e-06 -0.007727825912721996 -5.812363655285628e-05
0.0002905656256073601 -0.007226588892020467 -0.00039521334457913465
0.0005799549544371942 -0.006725351871318937 -0.0005029312318646126
0.0008693442832670284 -0.0062241148506174074 -0.0005751786581644053
0.001158733612096862 -0.0057228778299158786 -0.0008147469531168482
0.0014481229409266962 -0.005221640809214349 -0.0008869949313829818
0.0017375122697565301 -0.00472040378851282 -0.001126562674369084
0.0020269013226031935 -0.004219167245828164 -0.001095063611204693
0.0023162906514330277 -0.003717930225126634 -0.0011673121414371673
0.002605679980262862 -0.0032166932044251045 -0.0011705919254335717
0.0028950693090926956 -0.0027154561837235756 -0.001278309260752709
0.0031844586379225297 -0.002214219163022046 -0.0010817330721105897
0.0034738479667523635 -0.0017129821423205165 -0.0011894504074297268
0.0037632372955821976 -0.0012117451216189872 -0.0009928742187876075
0.004052626624412032 -0.0007105081009174579 -0.0007432711757613457
0.004342015953241865 -0.0002092710802159285 -0.00028893829730823123
0.004631405282071699 0.00029196594048560117 0.0007732143958538311
-0.0010788393815836708 -0.008440910625295221 0.0015770697481741884
-0.000789450052753837 -0.007939673604593692 0.0003795729763917376
-0.000500060723924003 -0.007438436583892163 -2.8966014605689945e-05
-0.00021067139509416922 -0.006937199563190633 -0.00027857016156463316
7.87179337356649e-05 -0.006435962542489104 -0.000475145246274071
0.000368107262565499 -0.005934725521787574 -0.0006717203309835088
0.0006574965913953327 -0.005433488501086045 -0.0008682954156929467
0.0009468859202251669 -0.0049322514803845155 -0.0009731425260404744
0.0012362752490550008 -0.004431014459682986 -0.001077989636388002
0.0015256643019016644 -0.0039297779169983294 -0.001109488699552393
0.0018150536307314986 -0.0034285408962968 -0.0013590917425786548
0.0021044429595613325 -0.002927303875595271 -0.0013214421184799094
0.0023938322883911662 -0.0024260668548937415 -0.0012137258870934537
0.0026832216172210004 -0.0019248298341922121 -0.0011760762629947086
0.002972610946050834 -0.0014235928134906826 -0.0008878802853934551
0.0032620002748806683 -0.0009223557927891533 -0.0005996832038595205
0.003551389603710502 -0.00042111877208762387 0.00035831123294820043
0.003840778932540336 8.011824861390542e-05 0.0006954020449071603
-0.0018694657311150342 -0.008652758317166916 0.0013311339695154982
-0.0015800764022852 -0.008151521296465387 0.0011395329294852255
-0.0012906870734553664 -0.007650284275763858 0.0003797628528129363
-0.0010012977446255322 -0.007149047255062328 -0.0001843285324872021
-0.0007119084157956986 -0.0066478102343607995 -0.00037592984850064534
-0.0004225190869658644 -0.00614657321365927 -0.00048364718381978245
-0.0001331297581360303 -0.00564533619295774 -0.0006752484998332257
0.0001562595706938034 -0.005144099172256211 -0.0010611005702954438
0.00044564889952363753 -0.004642862151554681 -0.0009562534599479161
0.0007350382283534715 -0.0041416251308531524 -0.0008889257096427299
0.001024427281200135 -0.0036403885881684957 -0.001128493452628832
0.0013138166100299692 -0.003139151567466966 -0.001166141972794896
0.001603205938859803 -0.0026379145467654366 -0.0012738598600803737
0.001892595267689637 -0.0021366775260639077 -0.0010772842234045951
0.002181984596519471 -0.0016354405053623782 -0.001114932743570659
0.002471373925349305 -0.0011342034846608486 -0.0010476044412991322
0.002760763254179139 -0.0006329664639593193 -0.0008510293565896943
0.0030501525830089727 -0.00013172944325778993 -0.0004424903655922668
0.003339541911838807 0.00036950757744373935 0.0005231587404282
0.003628931240668641 0.0008707445981452692 0.0017902154143976043
-0.0020813134827388385 -0.007862131933137657 0.0012373093510084615
-0.001791924153909005 -0.007360894912436127 0.0005905278882089382
-0.0015025348250791708 -0.0068596578917345975 6.288173645215066e-05
-0.001213145496249337 -0.006358420871033069 -0.0002934064648361503
-0.000923756167419503 -0.005857183850331539 -0.0004899815495455882
-0.0006343668385896689 -0.005355946829630009 -0.00041773357127945456
-0.00034497750975983526 -0.00485470980892848 -0.0008720670016989098
-5.55881809300011e-05 -0.0043534727882269504 -0.001068643190341029
0.00023380114789983282 -0.0038522357675254216 -0.0008290754473549268
0.0005231902007464963 -0.0033509992248407653 -0.0013567210471453737
0.0008125795295763305 -0.0028497622041392355 -0.0013882206622761054
0.0011019688584061643 -0.002348525183437706 -0.0008664319773267635
0.0013913581872359983 -0.001847288162736177 -0.0010630081659688828
0.0016807475160658322 -0.0013460511420346477 -0.0007748110844349481
0.0019701368448956664 -0.0008448141213331183 -0.000771530748472203
0.0022595261737255 -0.00034357710063158886 -0.0005319624535197601
0.0025489155025553343 0.00015765992006994053 0.00036320993422186054
0.002838304831385168 0.0006588969407714698 0.0014399177038048562
-0.0028719398023941477 -0.0080739796422583 0.0012566673625429446
-0.0025825504735643135 -0.007572742621556771 0.0014532424472523825
-0.0022931611447344798 -0.007071505600855242 0.00029133729306739893
-0.0020037718159046456 -0.006570268580153712 -0.00027275409223273946
-0.0017143824870748119 -0.006069031559452183 -0.0002760349801618253
-0.001424993158244978 -0.0055677945387506535 -0.0004676362961752685
-0.0011356038294151438 -0.005066557518049124 -0.000659237060222371
-0.00084621450058531 -0.004565320497347595 -0.0006625168442187754
-0.0005568251717554757 -0.004064083476646065 -0.0014222863689247237
-0.0002674358429256418 -0.003562846455944536 -0.0008946402171679361
2.1953209921021804e-05 -0.00306160991325988 -0.0008979211050970219
0.00031134253875085593 -0.00256037289255835 -0.0012350119170559818
0.0006007318675806899 -0.002059135871856821 -0.001038436832346544
0.0008901211964105237 -0.0015578988511552915 -0.0014242889028087621
0.0011795105252403577 -0.0010566618304537622 -0.0010157499118113344
0.0014688998540701916 -0.0005554248097522327 -0.000984250296680603
0.0017582891829000255 -5.418778905070319e-05 -0.00042392663362204256
0.0020476785117298593 0.0004470492316508262 0.0004799624065718195
0.002337067840559693 0.0009482862523523556 0.0014145788609857821
0.002626457169389527 0.0014495232730538854 0.0014819068872741386
-0.0030837874980003495 -0.0072833532905708185 0.0011200639727162625
-0.0027943981691705157 -0.00678211626986929 0.0005924178209594748
-0.0025050088403406816 -0.00628087924916776 -0.0002507527138926723
-0.002215619511510848 -0.005779642228466231 -0.0002474734818626086
-0.001926230182681014 -0.005278405207764701 -0.00027897254502699944
-0.0016368408538511797 -0.004777168187063171 -0.0003838196553745272
-0.0013474515250213458 -0.0042759311663616425 -0.0008381525338276416
-0.0010580621961915118 -0.0037746941456601128 -0.001141227868074986
-0.0007686728673616778 -0.0032734571249585834 -0.0011035782439762407
-0.00047928381451501425 -0.0027722205822739276 -0.0010659286198774953
-0.00018989448568518014 -0.002270983561572398 -0.0008743278558303929
9.949484314465378e-05 -0.0017697465408708685 -0.0011239314508229954
0.0003888841719744877 -0.0012685095201693392 -0.0008357343692890607
0.0006782735008043217 -0.0007672724994678097 -0.0007980852971566561
0.0009676628296341555 -0.0002660354787662803 -0.00031962596995180207
0.0012570521584639894 0.00023520154193524919 0.0004753910213381908
0.0015464414872938233 0.0007364385626367786 0.0014638236420034885
0.001835830816123657 0.001237675583338308 0.001849676816398388
-0.003874413873673261 -0.007495200967349684 0.0009462586034931379
-0.003585024544843427 -0.006993963946648155 0.0008385423721066822
-0.0032956352160135927 -0.006492726925946626 0.00019283503580614983
-0.003006245887183759 -0.005991489905245096 -0.0001442563281191506
-0.0027168565583539253 -0.005490252884543567 -0.0002165037544189435
-0.002427467229524091 -0.004989015863842037 -0.0003242205377717399
-0.002138077900694257 -0.0044877788431405075 -0.0005158218537851833
-0.001848688571864423 -0.003986541822438979 -0.0008040189353191179
-0.0015592992430345889 -0.0034853048017374493 -0.0010435866783052201
-0.001269909914204755 -0.00298406778103592 -0.0010120870631744885
-0.0009805208613580915 -0.0024828312383512637 -0.0009805880000100977
-0.0006911315325282573 -0.001981594217649734 -0.0010182376241088431
-0.0004017422036984234 -0.0014803571969482048 -0.0009867380089781115
-0.00011235287486858949 -0.0009791201762466754 -0.00095523839384738
0.0004664257827910784 2.335386515638334e-05 -0.0006203896691643197
0.0007558151116209122 0.0005245908858579128 0.00040880732166026013
0.001045204440450746 0.0010258279065594423 0.0013744567036638974
0.00133459376928058 0.0015270649272609714 0.0010373656157217671
-0.004086261505792847 -0.006704574652316217 0.000813498555296709
-0.0037968721769630134 -0.006203337631614688 0.00045721035400840803
-0.003507482848133179 -0.0057021006109131585 -0.00032593825702398
-0.0032180935193033455 -0.00520086359021163 0.00023815312827615834
-0.0029287041904735114 -0.0046996265695101 -0.00025428309060775194
-0.0026393148616436772 -0.00419838954880857 -1.4715347621649816e-05
-0.0023499255328138435 -0.003697152528107041 -0.0006614968104211729
-0.0020605362039840093 -0.003195915507405512 -0.0009110998534474348
-0.0017711468751541754 -0.0026946784867039825 -0.0008734513332813708
-0.0014817578223075118 -0.0021934419440193262 -0.0008012022510825559
-0.0011923684934776776 -0.0016922049233177965 -0.000728954824782763
-0.0009029791646478437 -0.0011909679026162671 -0.0007604527840144725
-0.0006135898358180099 -0.0006897308819147378 -0.00037460071355225423
-0.00032420050698817585 -0.00018849386121320839 -0.0002668844821657985
-3.481117815834198e-05 0.0003127431594883211 0.00037882285413473393
0.00025457815067149187 0.0008139801801898505 0.0013672565787327129
0.0005439674795013258 0.00131521720089138 0.0018457156299543965
-0.004876887855324211 -0.006916422344187913 0.0009315034392737029
-0.0045874985264943765 -0.006415185323486383 0.0005944126273147431
-0.004298109197664542 -0.005913948302784854 0.00020856055685252492
-0.004008719868834708 -0.005412711282083324 -0.00012853080707277554
-0.003719330540004875 -0.004911474261381795 -0.00016618043117152083
-0.0034299412111750407 -0.004410237240680266 -0.0002384278574713137
-0.0031405518823452066 -0.003909000219978736 -0.0005266249390052484
-0.002851162553515373 -0.0034077631992772074 -0.0006343428262907262
-0.0025617732246855387 -0.0029065261785756777 -0.000437766637648607
-0.0022723838958557045 -0.0024052891578741483 -0.0008236198120435066
-0.001982994843009041 -0.001904052615189492 -0.000792120196912775
-0.001693605514179207 -0.0014028155944879625 -0.00043583199562447416
-0.001404216185349373 -0.0009015785737864332 -0.0008216840660866924
-0.001114826856519539 -0.00040034155308490385 -0.0005186092838056885
-0.0008254375276897052 0.0001008954676166256 0.00010092049682108495
4.2730458799796405e-05 0.001604606529721214 0.0018035412617778113
-0.005088735547195905 -0.006125795994656549 0.0007319698149781444
-0.004799346218366072 -0.00562455897395502 0.00032343027201437623
-0.004509956889536238 -0.00512332195325349 -3.2857377307583994e-05
-0.004220567560706405 -0.004622084932551961 -0.00022943411791604394
-0.0039311782318765705 -0.0041208479118504315 -3.7832801902600705e-05
-0.003641788903046736 -0.003619610891148902 -0.0005302690207865111
-0.003352399574216902 -0.0031183738704473733 -0.0006351161311340389
-0.0030630102453870684 -0.0026171368497458435 -0.0005628670489352239
-0.0027736209165572343 -0.002115899829044314 -0.0005943666640659554
-0.002484231863710571 -0.0016146632863596581 -0.0006616949663374824
-0.0021948425348807367 -0.0011134262656581284 -0.0002758428958752641
-0.0019054532060509028 -0.0006121892449565991 -0.00030734085510697353
-0.0016160638772210688 -0.0001109522242550698 -0.00023509342880718065
-0.001326674548391235 0.0003902847964464596 0.00015075864165503753
-0.0007478958907315671 0.0013927588378495185 0.0018642122980142264
-0.005879361896727269 -0.006337643686528244 0.0008756433416627773
-0.005589972567897435 -0.005836406665826715 0.0006840431295820154
-0.005300583239067602 -0.005335169645125186 0.00020558325041082073
-0.005011193910237768 -0.004833932624423657 1.3983038330058877e-05
-0.0047218045814079335 -0.004332695603722127 -0.00046447684084113583
-0.004432415252578099 -0.0038314585830205978 -0.00021487324584853337
-0.004143025923748265 -0.003330221562319068 -0.0004064740098956359
-0.003853636594918432 -0.002828984541617539 -0.0005141907932484323
-0.0035642472660885978 -0.0023277475209160093 -0.0004826922820503822
-0.003274857937258764 -0.0018265105002144802 -0.00028611609340826295
-0.0029854688844121 -0.001325273957529824 -0.0006232069053672227
-0.002696079555582266 -0.0008240369368282944 -0.0005183603469860357
-0.0024066902267524323 -0.0003227999161267651 -0.0002152850127386912
-0.002117300897922598 0.00017843710457476425 -0.00018378705350698176
-0.0018279115690927644 0.0006796741252762937 0.0002705474808451548
-0.0015385222402629305 0.0011809111459778231 0.0011439685309990427
-0.0012491329114330963 0.0016821481666793525 0.0012112968332705697
-0.006091209588598965 -0.005547017336996881 0.0007619940240802005
-0.005801820259769132 -0.0050457803162953525 0.00040570637475824026
-0.0055124309309392975 -0.004544543295593823 4.941817346993934e-05
-0.005223041602109463 -0.004043306274892294 0.00033761415107119263
-0.004933652273279629 -0.003542069254190764 3.453881682384819e-05
-0.004644262944449795 -0.0030408322334892343 -3.278948544767876e-05
-0.004354873615619962 -0.0025395952127877054 -0.00044132847644510635
-0.0040654842867901275 -0.0020383581920861756 -0.0005086562267502926
-0.0037760949579602934 -0.0015371211713846463 -0.00043640769651781834
-0.00348670590511363 -0.00103588462869999 -0.0007394824787988221
-0.003197316576283796 -0.0005346476079984605 -0.00026102370356030874
-0.0029079272474539617 -3.3410587296931106e-05 -0.0002925233186910403
-0.002618537918624128 0.0004678264334045982 0.00018593600851381378
-0.0023291485897942938 0.0009690634541061276 0.0009809529998038068
-0.006881835938130328 -0.005758865028868577 0.0010391423953724612
-0.006592446609300494 -0.005257628008167047 0.0007020515834135014
-0.0063030572804706605 -0.004756390987465518 0.0003161995129512832
-0.006013667951640826 -0.0042551539667639885 0.00020848162566580535
-0.005724278622810993 -0.0037539169460624596 1.6880309652362126e-05
-0.005434889293981159 -0.00325267992536093 -0.00017472100636108112
-0.005145499965151325 -0.0027514429046594 -0.00028243723774753685
-0.004856110636321491 -0.0022502058839578712 -0.0004740385537609801
-0.004566721307491656 -0.0017489688632563417 -0.0006656398697744233
-0.004277331978661823 -0.0012477318425548123 -0.0009538369513083579
-0.003987942925815159 -0.0007464952998701562 -0.0006507616170610135
-0.003698553596985325 -0.00024525827916862646 -0.0005834333147894865
-0.003409164268155491 0.0002559787415329028 -0.00028035742857580143
-0.0031197749393256573 0.0007572157622344321 0.0001281804584889447
-0.002830385610495823 0.0012584527829359615 0.0006885046735138459
-0.0025409962816659894 0.001759689803637491 0.0015316760363155038
-0.00680429430117219 -0.004467001658635684 9.904712306076879e-05
-0.006514904972342356 -0.003965764637934154 0.0002067639064135652
-0.006225515643512522 -0.0034645276172326255 1.0188821704127346e-05
-0.005936126314682688 -0.002963290596531096 -5.7139480567399605e-05
-0.005646736985852854 -0.0024620535758295664 -0.00016198659091492737
-0.00535734765702302 -0.0019608165551280375 -0.0004650613731959311
-0.005067958328193186 -0.0014595795344265077 -0.0007146644162221929
-0.004778568999363352 -0.0009583425137249784 -0.0007461640313529244
-0.004489179946516688 -0.0004571059710403222 -0.0007085144072541791
-0.004199790617686854 4.413104966120748e-05 -0.00010312379641062597
-0.003910401288857021 0.0005453680703627368 8.847751960281726e-05
-0.0036210119600271866 0.001046605091064266 0.00047432959006503547
-0.0033316226311973524 0.0015478421117657954 0.001269347133321369
-0.0075949206507035525 -0.00467884935050738 0.0007023303264155517
-0.007305531321873719 -0.004177612329805851 0.0003652389624902513
-0.007016141993043885 -0.003676375309104321 0.0001736381984431488
-0.006726752664214051 -0.0031751382884027918 0.00013598967827708488
-0.006437363335384217 -0.0026739012677012624 9.834005417833956e-05
-0.0061479740065543825 -0.0021726642469997327 -0.00028751312021656005
-0.005858584677724549 -0.0016714272262982038 -0.00039522990356935647
-0.005569195348894715 -0.001170190205596674 -0.0007323207155283162
-0.005279806020064881 -0.0006689531848951447 -0.0007008211003975847
-0.004990416967218217 -0.00016771664221048847 -0.0005042460156881468
-0.004701027638388383 0.0003335203784910412 -9.570702469071927e-05
-0.00441163830955855 0.0008347573991925705 -6.420740955998776e-05
-0.0041222489807287155 0.0013359944198940998 0.0005266234331487361
-0.0038328596518988813 0.0018372314405956291 0.0008296987673960806
-0.0035434703230690476 0.0023384684612971587 0.0016427934842933169
-0.007806768342575248 -0.0038882230009760167 0.0007437592640490296
-0.007517379013745414 -0.0033869859802744874 0.00018343670492315054
-0.007227989684915581 -0.002885748959572958 0.0005692887753853688
-0.0069386003560857465 -0.0023845119388714287 0.0005019604731138419
-0.006649211027255912 -0.001883274918169899 0.00025235743008758
-0.006359821698426078 -0.00138203789746837 -0.0003079662329709804
-0.006070432369596244 -0.0008808008767668403 -0.0003394652961353712
-0.005781043040766411 -0.00037956385606531095 -5.1268214601436486e-05
-0.005491653987919747 0.00012167268661934525 2.097921169835638e-05
-0.005202264659089913 0.0006229097073208749 0.0002125805277117996
-0.0049128753302600785 0.0011241467280224042 0.00010773341736427185
-0.004623486001430244 0.0016253837487239335 0.000753441305631145
-0.004334096672600411 0.002126620769425463 0.0004503659713838005
-0.008308005363276779 -0.0035988336721461825 0.0009140138338024687
-0.008018616034446945 -0.003097596651444653 0.00043555505856395535
-0.00772922670561711 -0.002596359630743124 0.0004670530177956648
-0.007439837376787276 -0.0020951226100415945 0.0005343824239998731
-0.007150448047957442 -0.0015938855893400648 0.0004967327999011278
-0.006861058719127608 -0.0010926485686385359 0.00030513203585402527
-0.006571669390297774 -0.0005914115479370061 0.0003018511479249395
-0.0062822800614679404 -9.017452723547682e-05 0.00029857191589487575
-0.005992891008621277 0.00041106201544917944 0.00026092229179613046
-0.0057035016797914425 0.000912299036150709 0.00022327266769738517
-0.005414112350961608 0.0014135360568522384 0.0002906009699689121
-0.005124723022131774 0.0019147730775537677 0.00025295134587016683
-0.004835333693301941 0.0024160100982552972 0.001006241337702707
-0.004545944364472107 0.0029172471189568266 0.001597072180411431
-0.008519853055148473 -0.0028082073226148195 0.0010720947859118994
-0.00823046372631864 -0.00230697030191329 0.0005444486341551116
-0.007941074397488805 -0.0018057332812117606 0.0011498397969650054
-0.007651685068658971 -0.001304496260510231 0.0011531201329277505
-0.007362295739829137 -0.000803259239808702 0.001260836916280547
-0.007072906410999303 -0.0003020222191071724 0.00016536035923175898
-0.006783517082169469 0.0001992148015943569 0.0009603790064207739
-0.0064941280293228055 0.0007004513442790131 0.0007107748594618308
-0.006204738700492971 0.0012016883649805428 0.000605927749114303
-0.005915349371663137 0.001702925385682072 0.0005385994468427761
-0.005625960042833303 0.002204162406383601 0.0006463173341282538
-0.00533657071400347 0.002705399427085131 0.001292023566496105
-0.005047181385173636 0.0032066364477866603 0.0013997411777984124
-0.004757792056343801 0.0037078734684881896 0.0017368311618078613
-0.008731700747020168 -0.002017580973083456 0.0009844579860672138
-0.008442311418190334 -0.0015163439523819264 0.0012340610290934755
-0.0081529220893605 -0.0010151069316803969 0.001265560644224207
-0.007863532760530667 -0.0005138699109788679 0.0012622814121941433
-0.007574143431700832 -1.263289027733823e-05 0.0015118841792372347
-0.007284754102870999 0.0004886041304241911 0.001033425128015551
-0.006995365050024335 0.0009898406731088474 0.0008418238120021079
-0.006705975721194501 0.001491077693810377 0.0006022560690160057
-0.006416586392364667 0.0019923147145119065 0.000598976836985942
-0.006127197063534833 0.0024935517352134354 0.0005613272128871967
-0.0058378077347049995 0.002994788755914965 0.0008109302559134586
-0.005548418405875165 0.0034960257766164945 0.0008424293190778493
-0.005259029077045331 0.003997262797318024 0.000804779694979104
-0.004969639748215497 0.0044984998180195536 0.0008015004629490403
-0.004680250419385664 0.0049997368387210825 0.0008688287652205673
-0.00439086109055583 0.005500973859422612 0.001488357993881
-0.004101471761725995 0.006002210880124141 0.0013806403825786925
-0.002943914377410867 0.008007159082434477 0.0016276872694811998
-0.002654525058822596 0.008508396085397099 0.001624408037451136
-0.002365135737000147 0.009009633093961482 0.0015521592312354915
-0.002075746390921365 0.009510870144539066 0.0013605579152220484
-0.0017863570620915313 0.010012107165240595 0.0016636329734862224
-0.0014969677332616967 0.010513344185942125 0.0018602094381115122
-0.000918189144597821 0.011515818107840966 0.001865183482790677
-0.0006287998157679869 0.012017055128542497 0.0018966828219382382
0.00023936817072151462 0.013520766190647083 0.0012096712923972248
0.0005287574995513488 0.014022003211348612 0.0008725804804382652
0.0008181468283811828 0.014523240232050143 0.0007648636970854687
0.0011075361572110162 0.01502447725275167 0.0012191971275049237
0.0016863148148706843 0.01602695129415473 0.0011426769297618177
-0.00865415911006203 -0.0007257176028505626 0.0018251424645208745
-0.008364769781232196 -0.00022448058214903375 0.0018973901668038378
-0.008075380452402362 0.00027675643855249593 0.0018300618645323108
-0.007785991123572529 0.0007779934592540253 0.001633486779822873
-0.007496602070725865 0.0012792300019386815 0.0011791525214539067
-0.007207212741896031 0.001780467022640211 0.0012868701327562143
-0.006917823413066197 0.0022817040433417406 0.0007944336378891335
-0.0066284340842363626 0.0027829410640432695 0.0001476521750896104
-0.006339044755406529 0.0032841780847447993 0.00048474298704857013
-0.006049655426576695 0.0037854151054463286 0.00037989642866738307
-0.005760266097746861 0.004286652126147858 0.00018332079199160451
-0.005470876768917027 0.004787889146849388 0.00018660057598800893
-0.0051814874400871935 0.005289126167550917 0.00029431791130714606
-0.004892098111257359 0.005790363188252446 0.00036656588957327963
-0.004602708782427525 0.006291600208953975 1.0277688284978672e-05
-0.004313319453597691 0.006792837229655505 0.00105799646163789
-0.004023930055772064 0.007294074369861253 0.0006036624792520942
-0.003734540726942231 0.007795311390562782 0.000891859560786029
-0.003445151398112397 0.008296548411264312 0.00039942278993577795
-0.003155762079524126 0.008797785414226933 0.00040270367786486377
-0.002866372757701677 0.009299022422791316 0.000297856567517336
-0.0025769834116228948 0.0098002594733689 0.00026635695238660446
-0.002287594082793061 0.010301496494070429 0.0003040065764853498
-0.0019982047539632264 0.01080273351477196 0.0004117233598381462
-0.0017088154941291857 0.01130397041596927 0.0006512911028242484
-0.0014194261652993507 0.0118052074366708 0.0003482163205432446
-0.0011300368364695168 0.01230644445737233 0.00015163957993478465
-0.0008406475076396834 0.012807681478073858 0.0007973474682016578
-0.0005512581788098493 0.013308918498775388 0.00017781768757488424
-0.00026186884998001514 0.013810155519476917 7.297112919369718e-05
2.752047884981898e-05 0.014311392540178446 0.00014522021139251213
0.0003169098076796531 0.014812629560879977 0.00043341674096010615
0.0006062991365094864 0.015313866581581504 0.0007216127185613595
0.0008956884653393205 0.015815103602283033 0.0010098098000952942
0.0011850777941691546 0.016316340622984565 0.0010474594241940394
0.0014744671229989887 0.016817577643686094 0.001287027443163312
0.0017638567278119932 0.017318815142404496 0.0016241174271727607
-0.008576617473103891 0.0005661457673823297 0.00170852080819366
-0.008287228144274057 0.001067382788083859 0.0016708711840949146
-0.007997839091427393 0.0015686193307685153 0.0012850191136326964
-0.00770844976259756 0.002069856351470045 0.0010934177976192532
-0.007419060433767726 0.0025710933721715744 0.0008538500546331509
-0.0071296711049378915 0.0030723303928731033 0.0006142828636133895
-0.006840281776108058 0.003573567413574633 0.0002771920516544298
-0.006550892447278224 0.004074804434276162 -0.00010866001880778841
-0.00626150311844839 0.004576041454977691 -0.00030026133482123163
-0.005972113789618556 0.005077278475679221 -0.0005398296297736745
-0.005682724460788722 0.005578515496380751 -0.0006475458611601303
-0.005393335131958888 0.00607975251708228 -0.0006160473499620801
-0.005103945803129054 0.0065809895377838094 -0.0005487195996568938
-0.00481455647429922 0.007082226558485338 -0.0005519988316869576
-0.004525167076473593 0.007583463698691086 -0.0006242479138857726
-0.00423577774764376 0.008084700719392615 -0.0006964953401855654
-0.003946388418813926 0.008585937740094146 -0.0006291675898803792
-0.003656999100225655 0.009087174743056767 -0.00032609225563303465
-0.0033676097784032057 0.009588411751621149 -0.00039834023389916817
-0.0030782204323244237 0.010089648802198734 -0.00043598985799791346
-0.00278883110349459 0.010590885822900263 -0.00040449024286718196
-0.0024994417746647553 0.011092122843601792 -0.000337161940595655
-0.0022100525148307146 0.011593359744799104 -0.0003748115646944003
-0.0019206631860008796 0.012094596765500634 -0.00030748326242287336
-0.0016312738571710457 0.012595833786202163 -0.00027598364729214186
-0.0013418845283412124 0.013097070806903692 -0.0005155519422445847
-0.0010524951995113782 0.013598307827605221 -0.00021247660799724024
-0.000763105870681544 0.014099544848306752 -0.00018097754483284943
-0.00047371654185170993 0.01460078186900828 1.5598091842929135e-05
-0.0001843272130218758 0.015102018889709811 0.0004241370828403567
0.00010506211580795747 0.015603255910411338 0.0006207121675497945
0.00039445144463779163 0.01610449293111287 0.0010292511585472221
0.0006838407734676257 0.016605729951814398 0.00122582624325666
0.0009732301022974598 0.017106966972515927 0.0014754303902156031
0.0012626197071104643 0.01760820447123433 0.0016720057509082115
-0.00878846564299246 0.001356772392896863 0.0018328561941320745
-0.008499076590145796 0.0018580089355815193 0.0015297811358679003
-0.008209687261315962 0.002359245956283049 0.0012801783688248089
-0.007920297932486128 0.0028604829769845784 0.0010305742218658658
-0.007630908603656294 0.0033617199976861073 0.000833999137156428
-0.0073415192748264605 0.003862957018387637 0.00013560771756932405
-0.007052129945996626 0.004364194039089166 6.827941529779709e-05
-0.006762740617166792 0.004865431059790696 -0.0006850100245684023
-0.006473351288336958 0.0053666680804922255 -0.0002991568501735028
-0.006183961959507125 0.005867905101193754 -0.0012337744085201467
-0.005894572630677291 0.006369142121895284 -0.0015368497427674912
-0.0056051833018474564 0.006870379142596813 -0.001058390967528978
-0.005315793973017622 0.007371616163298343 -0.0010898900306933687
-0.0050264045751919955 0.00787285330350409 -0.0010176415004608944
-0.004737015246362162 0.00837409032420562 -0.00101436171646449
-0.004447625917532328 0.008875327344907149 -0.0010458602276625403
-0.004158236598944057 0.009376564347869772 -0.00011892880061006172
-0.003868847277121608 0.009877801356434153 -0.0007918773317228705
-0.003579457931042826 0.010379038407011737 -0.0007885975477264661
-0.0032900686022129923 0.010880275427713266 -0.0007163490174939918
-0.0030006792733831577 0.011381512448414796 -0.0006086322341411955
-0.002711290013549117 0.011882749349612106 -0.0006053518981784503
-0.002421900684719282 0.012383986370313639 -0.0006726802004499773
-0.002132511355889448 0.012885223391015168 -0.0005649634170971808
-0.0018431220270596147 0.013386460411716697 -0.0005273137929984355
-0.0015537326982297806 0.013887697432418225 -0.00019022408497215723
-0.0012643433693999464 0.014388934453119756 -8.250619768667943e-05
-0.0009749540405701123 0.014890171473821285 0.00015706044136674138
-0.0006855647117402782 0.015391408494522814 0.0004941518052920419
-0.0003961753829104449 0.015892645515224343 0.0007823488868259766
-0.00010678605408061078 0.01639388253592587 0.0010219166298120787
0.00018260327474922336 0.0168951195566274 0.0014077689762574672
-0.009289702663693989 0.0016461617217266972 0.001878582189727856
-0.009000313610847325 0.0021473982644113535 0.0016869808737144127
-0.008710924282017491 0.0026486352851128833 0.0015792643663447867
-0.008421534953187659 0.0031498723058144126 0.001100805315123103
-0.008132145624357824 0.0036511093265159415 0.0009092045510760005
-0.00784275629552799 0.004152346347217471 -4.878988573172042e-05
-0.007553366966698156 0.004653583367919 -0.0006944977739985935
-0.007263977637868322 0.00515482038862053 -0.0010315885859575533
-0.006974588309038488 0.00565605740932206 -0.001271156880909996
-0.0066851989802086545 0.006157294430023589 -0.001510723519963417
-0.00639580965137882 0.006658531450725118 -0.0014058769615822298
-0.006106420322548986 0.007159768471426647 -0.001409157297544975
-0.005817030993719152 0.007661005492128177 -0.0013043101871974471
-0.005527641595893525 0.008162242632333925 -0.0012728111240330564
-0.005238252267063692 0.008663479653035454 -0.0012413126128350063
-0.004948862938233858 0.009164716673736983 -0.0011739843105634793
-0.0046594736196455865 0.009665953676699606 -0.000817695005342497
-0.0043700842978231375 0.010167190685263987 -0.0009254128926279748
-0.004080694951744355 0.010668427735841571 -0.0008205657822804471
-0.003791305622914522 0.0111696647565431 -0.0007532380319752608
-0.0035019162940846875 0.01167090177724463 -0.0005566623952994823
-0.0029231377054208117 0.012673375699143473 -0.00044582755408810476
-0.0026337483765909776 0.013174612719845002 -0.0003784992518165778
-0.0023443590477611443 0.01367584974054653 -0.00018192306317445857
-0.00205496971893131 0.01417708676124806 1.465202153497929e-05
-0.0017655803901014762 0.01467832378194959 0.0002642550645612411
-0.001476191061271642 0.015179560802651119 0.00046083014927067895
-0.0008974124036119747 0.016182034844054175 0.0008472540568618562
-0.0006080230747821405 0.016683271864755708 0.001407577995903587
-0.0003186337459523064 0.017184508885457236 0.0018161169869010145
-0.008922771973889188 0.0034392616346442468 0.0017452905979453387
-0.008633382645059353 0.003940498655345776 0.0014422155396811645
-0.00834399331622952 0.004441735676047305 0.0005990436249131655
-0.008054603987399685 0.004942972696748834 -0.0003048454152806964
-0.007765214658569851 0.005444209717450364 -0.0006611330646026567
-0.007475825329740017 0.005945446738151894 -0.0010174212658909576
-0.007186436000910183 0.006446683758853423 -0.0013737094671792585
-0.006897046672080349 0.0069479207795549525 -0.0015702845518886963
-0.006607657343250515 0.007449157800256481 -0.0012331937399297367
-0.006318268014420681 0.007950394820958011 -0.0013380402983109237
