ply
format ascii 1.0
element vertex 724
property float x
property float y
property float z
end_header
0.006943115549200421 0.004290264478605461 -0.001565207276302033
0.006943115549200421 0.004828787304896147 -0.001568258941258907
0.006943115549200421 0.005367310131186832 -0.0016354823645507493
0.006943115549200421 0.005905832957477518 -0.0016705123146312727
0.006943115549200421 0.006444355783768204 -0.00160786690235013
0.006943115549200421 0.006982878610058889 -0.001424964217886763
0.006943115549200421 0.007521401436349575 -0.000934017988411107
0.006943115549200421 0.008059924262640262 -0.00033222164713947087
0.006404592722909736 -0.011326896970249035 -0.004287599535915925
0.006404592722909736 -0.010249851317667664 -0.0043664354123110795
0.006404592722909736 -0.009711328491376977 -0.004363383747354206
0.006404592722909736 -0.009172805665086292 -0.004360331568821943
0.006404592722909736 -0.008634282838795606 -0.004293108659105489
0.006404592722909736 -0.008095760526080308 -0.004225885235813647
0.006404592722909736 -0.0075572376997896235 -0.004158662326097193
0.006404592722909736 -0.007018714873498938 -0.003935756741069052
0.006404592722909735 -0.006480192047208252 -0.00349057624158952
0.006404592722909735 -0.0059416692209175665 -0.0034233533318730664
0.006404592722909735 -0.005403146394626881 -0.0030643384567295346
0.006404592722909735 -0.004864623568336195 -0.0028860641136649137
0.006404592722909735 -0.0043261007420455095 -0.0025270482113706055
0.006404592722909735 -0.0037875779157548234 -0.0025239965464137317
0.006404592722909735 -0.0032490550894641377 -0.0021649806441194235
0.006404592722909735 -0.002710532263173452 -0.002064756407105962
0.006404592722909735 -0.0021720094368827664 -0.001964531656517112
0.006404592722909735 -0.0016334864821982338 -0.002062086328662544
0.006404592722909735 -0.0010949636559075481 -0.002059034150130282
0.006404592722909735 -0.0005564408296168625 -0.002241936834593649
0.006404592722909735 -1.79180334184847e-05 -0.002174713924877195
0.006404592722909735 0.000520604790866047 -0.001996439068237186
0.006404592722909735 0.0010591276492551945 -0.0017282874915058122
0.006404592722909735 0.0015976504755458802 -0.0019111901759691792
0.006404592722909735 0.002136173301836566 -0.001940498382649411
0.006404592722909735 0.0026746959997334045 -0.002038053054794843
0.006404592722909735 0.00321321882602409 -0.0018597781981548336
0.006404592722909735 0.003751741652314776 -0.0018247472209235334
0.006404592722909735 0.004290264478605461 -0.0017897167572676217
0.006404592722909735 0.004828787304896147 -0.0018190249639478534
0.006404592722909735 0.005367310131186832 -0.001718800726934392
0.006404592722909735 0.005905832957477518 -0.0020989245776850325
0.006404592722909735 0.006444355783768204 -0.0018307724873782706
0.006404592722909735 0.006982878610058889 -0.0017957415101469705
0.006404592722909735 0.007521401436349575 -0.0016174666535069613
0.006404592722909735 0.008059924262640262 -0.00048424047563151094
0.006404592722909735 0.008598447088930946 -0.00048118881067463676
0.006404592722909735 0.00913697042879702 -0.0003809635465103989
0.006404592722909735 0.009675493255087706 -2.194868340379043e-05
0.0058660698966190505 -0.011326896970249035 -0.004086691925491923
0.0058660698966190505 -0.010249851317667664 -0.0045383393662600715
0.0058660698966190505 -0.009711328491376977 -0.004306096980673874
0.0058660698966190505 -0.009172805665086292 -0.004341127957905175
0.0058660698966190505 -0.008634282838795606 -0.004243573285759743
0.0058660698966190505 -0.008095760526080308 -0.004060669574145599
0.0058660698966190505 -0.0075572376997896235 -0.004095700551376899
0.0058660698966190505 -0.007018714873498938 -0.003863458165790702
0.0058660698966190505 -0.006480192047208252 -0.003866509317172188
0.0058660698966190505 -0.0059416692209175665 -0.004044784173812197
0.00586606989661905 -0.005403146394626881 -0.003495047942494856
0.00586606989661905 -0.004864623568336195 -0.0027385067145704444
0.00586606989661905 -0.0043261007420455095 -0.0023583828638198043
0.00586606989661905 -0.0037875779157548234 -0.0023614350423520666
0.00586606989661905 -0.0032490550894641377 -0.0021785313307379228
0.00586606989661905 -0.002710532263173452 -0.0020809776857432676
0.00586606989661905 -0.0021720094368827664 -0.0021160076358237912
0.00586606989661905 -0.0016334864821982338 -0.0020533622235426484
0.00586606989661905 -0.0010949636559075481 -0.0022762678085707887
0.00586606989661905 -0.0005564408296168625 -0.0023764920455842504
0.00586606989661905 -1.79180334184847e-05 -0.0023795442241165126
0.00586606989661905 0.000520604790866047 -0.0018885979946408568
0.00586606989661905 0.0010591276492551945 -0.0023337784941203886
0.00586606989661905 0.0015976504755458802 -0.002236224335550345
0.00586606989661905 0.002136173301836566 -0.0022392765140826073
0.00586606989661905 0.0026746959997334045 -0.002141721841937176
0.00586606989661905 0.00321321882602409 -0.002044167683367132
0.00586606989661905 0.003751741652314776 -0.0021443919203805936
0.00586606989661905 0.004290264478605461 -0.0019121495347943968
0.00586606989661905 0.004828787304896147 -0.0020904243914344057
0.00586606989661905 0.005367310131186832 -0.002061115671178786
0.00586606989661905 0.005905832957477518 -0.0019984707724730313
0.00586606989661905 0.006444355783768204 -0.0019358253601918889
0.00586606989661905 0.006982878610058889 -0.001906516639936269
0.00586606989661905 0.007521401436349575 -0.0016245216386151036
0.00586606989661905 0.008059924262640262 -0.0016595521022710153
0.00586606989661905 0.008598447088930946 -0.0006712759012439804
0.00586606989661905 0.00913697042879702 -2.145950284649958e-05
0.00586606989661905 0.009675493255087706 -0.0004666402470768027
0.00586606989661905 0.010214016081378391 -8.454233290302382e-06
0.005327547070328364 -0.01186541979653972 -0.001904767402163951
0.005327547070328365 -0.010788374143958349 -0.0037448905566357608
0.005327547070328365 -0.010249851317667664 -0.004203076325671491
0.005327547070328365 -0.009711328491376977 -0.004300630997816922
0.005327547070328365 -0.009172805665086292 -0.004363276410098065
0.005327547070328365 -0.008634282838795606 -0.0043925846167782966
0.005327547070328365 -0.008095760526080308 -0.004325362220637231
0.005327547070328365 -0.0075572376997896235 -0.004388007119342985
0.005327547070328365 -0.007018714873498938 -0.003902511979038023
0.005327547070328365 -0.006480192047208252 -0.004282634802637887
0.005327547070328365 -0.0059416692209175665 -0.0037971391487575364
0.005327547070328365 -0.005403146394626881 -0.0036969143981686868
0.005327547070328364 -0.004864623568336195 -0.0032517338986891545
0.005327547070328364 -0.0043261007420455095 -0.002418822983383879
0.005327547070328364 -0.0037875779157548234 -0.001973642483904347
0.005327547070328364 -0.0032490550894641377 -0.0016599973721326126
0.005327547070328364 -0.002710532263173452 -0.001437091787104472
0.005327547070328364 -0.0021720094368827664 -0.001402060809873172
0.005327547070328364 -0.0016334864821982338 -0.00010220562691049043
0.005327547070328364 -0.0010949636559075481 -0.0015500922390509792
0.005327547070328364 -0.0005564408296168625 -0.0019302160898016197
0.005327547070328364 -1.79180334184847e-05 -0.0023884018588373485
0.005327547070328364 0.000520604790866047 -0.0024859565309827804
0.005327547070328364 0.0010591276492551945 -0.0024829053796012945
0.005327547070328364 0.0015976504755458802 -0.002415681442734064
0.005327547070328364 0.002136173301836566 -0.0023484585330176104
0.005327547070328364 0.0026746959997334045 -0.0021701841899529895
0.005327547070328364 0.00321321882602409 -0.002135153212721689
0.005327547070328364 0.003751741652314776 -0.002132100520614039
0.005327547070328364 0.004290264478605461 -0.002064878124472973
0.005327547070328364 0.004828787304896147 -0.0020941863311532047
0.005327547070328364 0.005367310131186832 -0.0020591558674972928
0.005327547070328364 0.005905832957477518 -0.0019919329577808387
0.005327547070328364 0.006444355783768204 -0.0019569019805495387
0.005327547070328364 0.006982878610058889 -0.0020195473928306816
0.005327547070328364 0.007521401436349575 -0.0019845164155993817
0.005327547070328364 0.008059924262640262 -0.0018062415589593726
0.005327547070328364 0.008598447088930946 -0.0018688869712405153
0.005327547070328364 0.00913697042879702 -0.0016007348809337534
0.005327547070328364 0.009675493255087706 -0.000767824479203866
0.004789024244037678 -0.01186541979653972 -0.002441656545144671
0.004789024244037678 -0.011326896970249035 -0.0017407617241105777
0.004789024244037679 -0.010788374143958349 -0.0037073661708945955
0.004789024244037679 -0.010249851317667664 -0.003975517234050581
0.004789024244037679 -0.009711328491376977 -0.0042436693243573425
0.004789024244037679 -0.009172805665086292 -0.004310893261224573
0.004789024244037679 -0.008634282838795606 -0.004378115657365639
0.004789024244037679 -0.008095760526080308 -0.004413146634596938
0.004789024244037679 -0.0075572376997896235 -0.0044481776118282385
0.004789024244037679 -0.007018714873498938 -0.004385532199547096
0.004789024244037679 -0.006480192047208252 -0.004485756950135945
0.004789024244037679 -0.0059416692209175665 -0.00430285375209719
0.004789024244037679 -0.005403146394626881 -0.004070610339360217
0.004789024244037678 -0.004864623568336195 -0.003369715518326124
0.004789024244037678 -0.0043261007420455095 -0.0021353083124889356
0.004789024244037678 -0.0037875779157548234 -0.001677122029877818
0.004789024244037678 -0.0032490550894641377 -0.0015795678713077744
0.004789024244037678 -0.002710532263173452 -0.001297572356411221
0.004789024244037678 -0.0021720094368827664 -0.0009660650926367798
0.004789024244037678 -0.0016334864821982338 -0.001529350469846456
0.004789024244037678 -0.0010949636559075481 -0.0012971070571094828
0.004789024244037678 -0.0005564408296168625 -0.0012344616448283399
0.004789024244037678 -1.79180334184847e-05 -0.001719958325859467
0.004789024244037678 0.000520604790866047 -0.0020789732010029986
0.004789024244037678 0.0010591276492551945 -0.002257248057643008
0.004789024244037678 0.0015976504755458802 -0.0025254001479497698
0.004789024244037678 0.002136173301836566 -0.0021938928841753287
0.004789024244037678 0.0026746959997334045 -0.002507537482371675
0.004789024244037678 0.00321321882602409 -0.002574760905663517
0.004789024244037678 0.003751741652314776 -0.0023425190336527086
0.004789024244037678 0.004290264478605461 -0.0022798725942207894
0.004789024244037678 0.004828787304896147 -0.0027250530937003212
0.004789024244037678 0.005367310131186832 -0.00212325829315485
0.004789024244037678 0.005905832957477518 -0.00215828927038615
0.004789024244037678 0.006444355783768204 -0.002060734598240718
0.004789024244037678 0.006982878610058889 -0.001963179926095286
0.004789024244037678 0.007521401436349575 -0.0015830560753446457
0.004789024244037678 0.008059924262640262 -0.0020282370883995663
0.004789024244037678 0.008598447088930946 -0.0020632680656308662
0.004789024244037678 0.00913697042879702 -0.00146147172435923
0.004789024244037678 0.009675493255087706 -0.001229229338773033
0.004789024244037678 0.010214016081378391 -0.0003307440907475279
0.004250501160959298 -0.011326896970249035 -0.001867711910752241
0.004250501160959298 -0.010788374143958349 -0.0026803838471580726
0.004250501160959299 -0.010249851317667664 -0.0035499958868571786
0.004250501160959299 -0.009711328491376977 -0.004664202313804848
0.004250501160959299 -0.009172805665086292 -0.004350557202033113
0.004250501160959299 -0.008634282838795606 -0.004448111874178545
0.004250501160959299 -0.008095760526080308 -0.0046310150722173
0.004250501160959299 -0.0075572376997896235 -0.004627963407260426
0.004250501160959299 -0.007018714873498938 -0.004657272127516046
0.004250501160959299 -0.006480192047208252 -0.004622241150284746
0.004250501160959299 -0.0059416692209175665 -0.004587210173053445
0.004250501160959299 -0.005403146394626881 -0.004228195297909914
0.004250501160959299 -0.004864623568336195 -0.003627398887919166
0.004250501160959298 -0.0043261007420455095 -0.0015269150953554605
0.004250501160959298 -0.0037875779157548234 -0.0013225007921806107
0.004250501160959298 -0.0032490550894641377 -0.0009634848898863026
0.004250501160959298 -0.0021720094368827664 -0.00047630162728022195
0.004250501160959298 -0.0016334864821982338 -0.0004732499623233478
0.004250501160959298 -0.0010949636559075481 -0.0002503446501321323
0.004250501160959298 -0.0005564408296168625 -0.0005323398921917608
0.004250501160959298 -1.79180334184847e-05 -0.0005616486124473808
0.004250501160959298 0.000520604790866047 -0.0009843817588580718
0.004250501160959298 0.0010591276492551945 -0.0013158885090571247
0.004250501160959298 0.0015976504755458802 -0.0019420314051832837
0.004250501160959298 0.002136173301836566 -0.0019070004279519836
0.004250501160959298 0.0026746959997334045 -0.002365186196987713
0.004250501160959298 0.00321321882602409 -0.002362135045606227
0.004250501160959298 0.003751741652314776 -0.0020484899338344925
0.004250501160959298 0.004290264478605461 -0.002111134832540247
0.004250501160959298 0.004828787304896147 -0.0019328599759002379
0.004250501160959298 0.005367310131186832 -0.001754585632835617
0.004250501160959298 0.005905832957477518 -0.0017195546556043168
0.004250501160959298 0.006444355783768204 -0.001652331745887863
0.004250501160959298 0.006982878610058889 -0.0015851093497467972
0.004250501160959298 0.007521401436349575 -0.0015178854128795668
0.004250501160959298 0.008059924262640262 -0.0017007880973429338
0.004250501160959298 0.008598447088930946 -0.0016005638603294725
0.004250501160959298 0.00913697042879702 -0.001698118018899516
0.004250501160959298 0.009675493255087706 -0.0006696437586601795
0.003711978334668613 -0.01186541979653972 -0.0024588561848965583
0.003711978334668613 -0.011326896970249035 -0.0018824166012680976
0.003711978334668613 -0.010788374143958349 -0.0036644446213984997
0.003711978334668613 -0.010249851317667664 -0.004526906150967252
0.003711978334668613 -0.009711328491376977 -0.004005554717782101
0.003711978334668613 -0.009172805665086292 -0.004319200343129224
0.003711978334668613 -0.008634282838795606 -0.004354230293209748
0.003711978334668613 -0.008095760526080308 -0.0045771353646625
0.003711978334668613 -0.0075572376997896235 -0.0046121663418938
0.003711978334668613 -0.007018714873498938 -0.00471239109248265
0.003711978334668613 -0.006480192047208252 -0.0046830823722270295
0.003711978334668613 -0.0059416692209175665 -0.00471811334945833
0.003711978334668613 -0.005403146394626881 -0.0046888046292027094
0.003711978334668613 -0.004864623568336195 -0.004591249957057278
0.003711978334668613 -0.0043261007420455095 -0.0041330641880215485
0.0037119783346686126 -0.0037875779157548234 -0.0014693771903102843
0.0037119783346686126 -0.0032490550894641377 -0.0005997651506111783
0.0037119783346686126 -0.002710532263173452 -2.33260925950288e-05
0.0037119783346686126 0.002136173301836566 -0.0010857851649629137
0.0037119783346686126 0.0026746959997334045 -0.0008037901636417483
0.0037119783346686126 0.00321321882602409 -0.0016367005653716358
0.0037119783346686126 0.003751741652314776 -0.0017039234750880897
0.0037119783346686126 0.004290264478605461 -0.00167461475483247
0.0037119783346686126 0.004828787304896147 -0.00170964573206377
0.0037119783346686126 0.005367310131186832 -0.001612091059918338
0.0037119783346686126 0.005905832957477518 -0.0016471220371496382
0.0037119783346686126 0.006444355783768204 -0.0015495678785795947
0.0037119783346686126 0.006982878610058889 -0.0012180606148051534
0.0037119783346686126 0.007521401436349575 -0.0012852845516723838
0.0037119783346686126 0.008059924262640262 -0.0010032890367758303
0.0037119783346686126 0.008598447088930946 -0.0009406425973439111
0.0037119783346686126 0.00913697042879702 -0.0009436952894515617
0.0037119783346686126 0.009675493255087706 -0.00045274854640051744
0.0031734555083779274 -0.011326896970249035 -0.0019245251609246218
0.0031734555083779274 -0.010788374143958349 -0.0027090505981784024
0.0031734555083779274 -0.010249851317667664 -0.0037913141767042103
0.0031734555083779274 -0.009711328491376977 -0.004023556562290408
0.0031734555083779274 -0.009172805665086292 -0.0043055520771869615
0.0031734555083779274 -0.008634282838795606 -0.004637058827386014
0.0031734555083779274 -0.008095760526080308 -0.004819961511849382
0.0031734555083779274 -0.0075572376997896235 -0.004784930534618081
0.0031734555083779274 -0.007018714873498938 -0.004814239254873701
0.0031734555083779274 -0.006480192047208252 -0.004911793927019133
0.0031734555083779274 -0.0059416692209175665 -0.004643641836712371
0.0031734555083779274 -0.005403146394626881 -0.004640591198906274
0.0031734555083779274 -0.004864623568336195 -0.00482349388336964
0.0031734555083779274 -0.0043261007420455095 -0.0046452185131542435
0.0031734555083779274 -0.0037875779157548234 -0.0038425700276005334
0.003173455508377927 0.004828787304896147 -0.0003765206058268048
0.003173455508377927 0.005367310131186832 -0.0003414906557462813
0.003173455508377927 0.005905832957477518 -0.0004390453278917131
0.003173455508377927 0.006444355783768204 -8.002944164663589e-05
0.003173455508377927 0.006982878610058889 -1.2806527917874215e-05
0.0026349326820872413 -0.01186541979653972 -0.0016226291133094694
0.0026349326820872417 -0.011326896970249035 -0.0021859144905191454
0.0026349326820872417 -0.010788374143958349 -0.003240790120741321
0.0026349326820872417 -0.010249851317667664 -0.003685970620220853
0.0026349326820872417 -0.009711328491376977 -0.0041311511197003855
0.0026349326820872417 -0.009172805665086292 -0.004309425976340394
0.0026349326820872417 -0.008634282838795606 -0.004487700832980404
0.0026349326820872417 -0.008095760526080308 -0.004665975176045025
0.0026349326820872417 -0.0075572376997896235 -0.004733198085761479
0.0026349326820872417 -0.007018714873498938 -0.004768229062992779
0.0026349326820872417 -0.006480192047208252 -0.004771280727949653
0.0026349326820872417 -0.0059416692209175665 -0.0044892852130530994
0.0026349326820872417 -0.005403146394626881 -0.004802930324824834
0.0026349326820872417 -0.004864623568336195 -0.005161945199968366
0.0026349326820872417 -0.0043261007420455095 -0.0045855061299152925
0.0026349326820872417 -0.0037875779157548234 -0.004620537107146593
0.0026349326820872417 -0.0032490550894641377 -0.0045578916948654504
0.0026349326820872417 -0.002710532263173452 -0.0038569958466805805
0.002096409984190403 -0.011326896970249035 -0.001544630364797133
0.0020964099841904033 -0.010788374143958349 -0.0026588383324709667
0.0020964099841904033 -0.010249851317667664 -0.004073341019699446
0.0020964099841904033 -0.009711328491376977 -0.003895066163059437
0.0020964099841904033 -0.009172805665086292 -0.00431779879589474
0.0020964099841904033 -0.008634282838795606 -0.004500701993933496
0.0020964099841904033 -0.008095760526080308 -0.004732945406670469
0.0020964099841904033 -0.0075572376997896235 -0.004795590305376223
0.0020964099841904033 -0.007018714873498938 -0.004824897998481067
0.0020964099841904033 -0.006480192047208252 -0.004821846333524193
0.0020964099841904033 -0.0059416692209175665 -0.004721621069359955
0.0020964099841904033 -0.005403146394626881 -0.004621396832346494
0.0020964099841904033 -0.004864623568336195 -0.004586365855115193
0.0020964099841904033 -0.0043261007420455095 -0.00455133590503467
0.0020964099841904033 -0.0037875779157548234 -0.004833330906355835
0.0020964099841904033 -0.0032490550894641377 -0.004766106969488605
0.0020964099841904033 -0.002710532263173452 -0.004026385849104177
0.0015578871578997172 -0.01186541979653972 -0.0012123758488328145
0.0015578871578997172 -0.011326896970249035 -0.0014805269119887998
0.0015578871578997172 -0.010788374143958349 -0.002482346096003511
0.0015578871578997174 -0.010249851317667664 -0.00348416579359361
0.0015578871578997174 -0.009711328491376977 -0.0035843900306070714
0.0015578871578997174 -0.009172805665086292 -0.004387039029736169
0.0015578871578997176 -0.008634282838795606 -0.004487263780325018
0.0015578871578997176 -0.008095760526080308 -0.004665538636965028
0.0015578871578997176 -0.0075572376997896235 -0.004700569614196327
0.0015578871578997176 -0.007018714873498938 -0.005440290734580755
0.0015578871578997176 -0.006480192047208252 -0.004739394886395886
0.0015578871578997176 -0.0059416692209175665 -0.004774425863627185
0.0015578871578997176 -0.005403146394626881 -0.005042577953933947
0.0015578871578997176 -0.004864623568336195 -0.0047110701765841175
0.0015578871578997176 -0.0043261007420455095 -0.004778293086300572
0.0015578871578997176 -0.0037875779157548234 -0.004748984366044952
0.0015578871578997176 -0.0032490550894641377 -0.004516742494034143
0.0015578871578997176 -0.002710532263173452 -0.004739647565486896
0.0015578871578997176 -0.0021720094368827664 -0.004642092893341464
0.0015578871578997174 -0.0016334864821982338 -0.004360097892020298
0.0010193643316090313 -0.01186541979653972 -0.0007751146818398188
0.0010193643316090315 -0.010788374143958349 -0.002178295086059337
0.0010193643316090317 -0.010249851317667664 -0.002990967022465169
0.0010193643316090317 -0.009711328491376977 -0.0038319878067260152
0.0010193643316090317 -0.009172805665086292 -0.004014890491189382
0.001019364331609032 -0.008634282838795606 -0.004437624664750849
0.0010193643316090317 -0.008095760526080308 -0.004214719079722709
0.001019364331609032 -0.0075572376997896235 -0.004791158149775781
0.001019364331609032 -0.007018714873498938 -0.004888712821921213
0.001019364331609032 -0.006480192047208252 -0.004885660129813563
0.001019364331609032 -0.0059416692209175665 -0.004818438247247886
0.001019364331609032 -0.005403146394626881 -0.004815385555140235
0.001019364331609032 -0.004864623568336195 -0.005599912019544792
0.001019364331609032 -0.0043261007420455095 -0.004962499225099271
0.001019364331609032 -0.0037875779157548234 -0.004895275288232041
0.001019364331609032 -0.0032490550894641377 -0.00471700094516742
0.001019364331609032 -0.002710532263173452 -0.004814555617312852
0.001019364331609032 -0.0021720094368827664 -0.004843863310417695
0.0010193643316090317 -0.0016334864821982338 -0.004398682810938163
0.0010193643316090317 -0.0010949636559075481 -0.0036270758489999684
0.00048084147321988415 -0.011326896970249035 -0.001770279983124597
0.00048084147321988415 -0.010788374143958349 -0.0018053099332051206
0.00048084147321988426 -0.010249851317667664 -0.0026966739448974018
0.00048084147321988437 -0.009711328491376977 -0.0034035996817155024
0.0004808414732198844 -0.009172805665086292 -0.003928456780500724
0.0004808414732198845 -0.008634282838795606 -0.0043736372799802565
0.0004808414732198845 -0.008095760526080308 -0.004596542865008397
0.00048084147321988453 -0.0075572376997896235 -0.004696767102021859
0.00048084147321988453 -0.007018714873498938 -0.00479699133903532
0.00048084147321988453 -0.006480192047208252 -0.00483202231626662
0.00048084147321988453 -0.0059416692209175665 -0.004899245225983074
0.0004808414732198846 -0.005403146394626881 -0.005212890851330197
0.00048084147321988453 -0.004864623568336195 -0.004832767000579556
0.0004808414732198845 -0.0043261007420455095 -0.004206624104453397
0.00048084147321988453 -0.0037875779157548234 -0.005069084606871374
0.00048084147321988453 -0.0032490550894641377 -0.004886181922408007
0.0004808414732198846 -0.002710532263173452 -0.005109086993860759
0.00048084147321988453 -0.0021720094368827664 -0.004650901738400418
0.00048084147321988453 -0.0016334864821982338 -0.004653952376206515
0.0004808414732198845 -0.0010949636559075481 -0.0045913074775007605
0.0004808414732198845 -0.0005564408296168625 -0.004309311962604207
-5.768134103387837e-05 -0.010788374143958349 -0.0016039282926977802
-5.7681341033878274e-05 -0.010249851317667664 -0.0023884547571023373
-5.7681341033878186e-05 -0.009711328491376977 -0.003089350091711819
-5.768134103387811e-05 -0.009172805665086292 -0.0036911459194080664
-5.7681341033878036e-05 -0.008634282838795606 -0.004292941747104315
-5.7681341033878016e-05 -0.008095760526080308 -0.00447584494514307
-5.768134103387796e-05 -0.0075572376997896235 -0.004898577577978372
-5.7681341033877975e-05 -0.007018714873498938 -0.004798353340964911
-5.768134103387797e-05 -0.006480192047208252 -0.004895908013110343
-5.768134103387796e-05 -0.0059416692209175665 -0.004925215706215186
-5.7681341033877955e-05 -0.005403146394626881 -0.0049878616320717176
-5.768134103387795e-05 -0.004864623568336195 -0.005017170352327337
-5.768134103387795e-05 -0.0043261007420455095 -0.0050141176602196864
-5.768134103387795e-05 -0.0037875779157548234 -0.005011064968112036
-5.768134103387796e-05 -0.0032490550894641377 -0.004943843085546358
-5.768134103387797e-05 -0.002710532263173452 -0.004876620175829904
-5.768134103387797e-05 -0.0021720094368827664 -0.004841589198598604
-5.7681341033877996e-05 -0.0016334864821982338 -0.004663313828383207
-5.7681341033877955e-05 -0.0010949636559075481 -0.004994821605733037
-5.768134103387807e-05 -0.0005564408296168625 -0.00401997437395749
-5.768134103387812e-05 -1.79180334184847e-05 -0.0036609594988139585
-0.0005962041472630254 -0.010788374143958349 -0.002126870782435674
-0.0005962041472630254 -0.010249851317667664 -0.0021940931785767396
-0.0005962041472630252 -0.009711328491376977 -0.003141584303722724
-0.0005962041472630252 -0.009172805665086292 -0.003666441916083334
-0.000596204147263025 -0.008634282838795606 -0.004438047850870753
-0.000596204147263025 -0.008095760526080308 -0.004408740671341297
-0.0005962041472630249 -0.0075572376997896235 -0.00489423581164626
-0.0005962041472630249 -0.007018714873498938 -0.004897288503753911
-0.0005962041472630249 -0.006480192047208252 -0.004900339141560008
-0.0005962041472630249 -0.0059416692209175665 -0.004871031448455165
-0.0005962041472630249 -0.005403146394626881 -0.004971256712619402
-0.0005962041472630249 -0.004864623568336195 -0.005038479622335857
-0.0005962041472630249 -0.0043261007420455095 -0.004940924950190425
-0.0005962041472630249 -0.0037875779157548234 -0.005119199293255046
-0.0005962041472630249 -0.0032490550894641377 -0.005219424557419284
-0.000596204147263025 -0.002710532263173452 -0.004839301733819419
-0.0005962041472630249 -0.0021720094368827664 -0.00493952597083288
-0.000596204147263025 -0.0016334864821982338 -0.004841971298687449
-0.000596204147263025 -0.0010949636559075481 -0.004659068614224082
-0.0005962041472630252 -0.0005564408296168625 -0.003930389878262029
-0.000596204147263025 -1.79180334184847e-05 -0.004531186801828166
-0.000596204147263025 0.000520604790866047 -0.004108452628266699
-0.0005962041472630252 0.0010591276492551945 -0.003379775433030811
-0.0011347269735537111 -0.010249851317667664 -0.0020279042915479924
-0.0011347269735537111 -0.009711328491376977 -0.002604343361601065
-0.001134726973553711 -0.009172805665086292 -0.003333021583987729
-0.001134726973553711 -0.008634282838795606 -0.003909460654040802
-0.0011347269735537107 -0.008095760526080308 -0.00445919791250892
-0.0011347269735537107 -0.0075572376997896235 -0.004642101110547675
-0.0011347269735537107 -0.007018714873498938 -0.004825003795011043
-0.0011347269735537107 -0.006480192047208252 -0.004887648693716797
-0.0011347269735537107 -0.0059416692209175665 -0.004985203365862229
-0.0011347269735537107 -0.005403146394626881 -0.005082758038007661
-0.0011347269735537107 -0.004864623568336195 -0.0050155341011404305
-0.0011347269735537107 -0.0043261007420455095 -0.005395657951891071
-0.0011347269735537107 -0.0037875779157548234 -0.005036643076747539
-0.0011347269735537107 -0.0032490550894641377 -0.005065951797003159
-0.0011347269735537107 -0.002710532263173452 -0.005128596695708913
-0.0011347269735537107 -0.0021720094368827664 -0.004905691624256161
-0.0011347269735537107 -0.0016334864821982338 -0.004870660647024861
-0.0011347269735537107 -0.0010949636559075481 -0.004602509583868875
-0.0011347269735537107 -0.0005564408296168625 -0.004599457405336614
-0.0011347269735537107 -1.79180334184847e-05 -0.0044992326547477635
-0.0011347269735537107 0.000520604790866047 -0.004432008717880533
-0.001134726973553711 0.0010591276492551945 -0.003907151619095311
-0.001673249799844397 -0.010788374143958349 -0.0006040904825308683
-0.0016732497998443968 -0.010249851317667664 -0.0009631063848251764
-0.0016732497998443968 -0.009711328491376977 -0.0024102211092063832
-0.0016732497998443966 -0.009172805665086292 -0.0034386948558703316
-0.0016732497998443966 -0.008634282838795606 -0.004076107650315852
-0.0016732497998443964 -0.008095760526080308 -0.004521288663370772
-0.0016732497998443964 -0.0075572376997896235 -0.004458643251089629
-0.0016732497998443964 -0.007018714873498938 -0.004817657612657773
-0.0016732497998443964 -0.006480192047208252 -0.005176672487801305
-0.0016732497998443964 -0.0059416692209175665 -0.0049444306157904955
-0.0016732497998443964 -0.005403146394626881 -0.005044654852803957
-0.0016732497998443964 -0.004864623568336195 -0.004982009954098202
-0.0016732497998443964 -0.0043261007420455095 -0.005250162044404964
-0.0016732497998443964 -0.0037875779157548234 -0.005152607372259532
-0.0016732497998443964 -0.0032490550894641377 -0.005155660064367183
-0.0016732497998443964 -0.002710532263173452 -0.005158710702173281
-0.0016732497998443964 -0.0021720094368827664 -0.004975808017709914
-0.0016732497998443964 -0.0016334864821982338 -0.004792905333246547
-0.0016732497998443964 -0.0010949636559075481 -0.004827936310477847
-0.0016732497998443964 -0.0005564408296168625 -0.004730381638332415
-0.0016732497998443964 -1.79180334184847e-05 -0.004547478953869048
-0.0016732497998443964 0.000520604790866047 -0.004582508903949571
-0.0016732497998443966 0.0010591276492551945 -0.004202385053198931
-0.0016732497998443966 0.0015976504755458802 -0.004104831408204276
-0.0016732497998443966 0.002136173301836566 -0.003613884151577843
-0.0022117727545289292 -0.009711328491376977 -0.0019032153773407149
-0.0022117727545289292 -0.009172805665086292 -0.003216366016003176
-0.0022117727545289292 -0.008634282838795606 -0.004029037952409007
-0.0022117727545289292 -0.008095760526080308 -0.004261279824419816
-0.0022117727545289292 -0.0075572376997896235 -0.004962175672604686
-0.0022117727545289292 -0.007018714873498938 -0.004603160283885766
-0.0022117727545289292 -0.006480192047208252 -0.0049832836210610175
-0.0022117727545289292 -0.0059416692209175665 -0.0050459305740683255
-0.0022117727545289292 -0.005403146394626881 -0.005143484219062981
-0.0022117727545289292 -0.004864623568336195 -0.005108454268982457
-0.0022117727545289292 -0.0043261007420455095 -0.005206007913977112
-0.0022117727545289292 -0.0037875779157548234 -0.005235315607081956
-0.0022117727545289292 -0.0032490550894641377 -0.005168092697365502
-0.0022117727545289292 -0.002710532263173452 -0.004899941634209516
-0.0022117727545289292 -0.0021720094368827664 -0.005082844318672884
-0.0022117727545289292 -0.0016334864821982338 -0.0048146932555168985
-0.0022117727545289292 -0.0010949636559075481 -0.004912245873360777
-0.0022117727545289292 -0.0005564408296168625 -0.004733971530296156
-0.0022117727545289292 -1.79180334184847e-05 -0.004763280250551776
-0.0022117727545289292 0.000520604790866047 -0.004449634625204653
-0.0022117727545289292 0.0010591276492551945 -0.004349410388191192
-0.0022117727545289292 0.0015976504755458802 -0.004282187478474738
-0.0022117727545289292 0.002136173301836566 -0.003837006978995206
-0.0022117727545289292 0.0026746959997334045 -0.003004095036539154
-0.002750295580819615 -0.009711328491376977 -0.002783266350381023
-0.002750295580819615 -0.009172805665086292 -0.0028504902872482536
-0.002750295580819615 -0.008634282838795606 -0.0038789630067614256
-0.002750295580819615 -0.008095760526080308 -0.004192608632108548
-0.002750295580819615 -0.0075572376997896235 -0.0047174662444691585
-0.002750295580819615 -0.007018714873498938 -0.0048176915086333965
-0.002750295580819615 -0.006480192047208252 -0.00482074317359027
-0.002750295580819615 -0.0059416692209175665 -0.004920967410603732
-0.002750295580819615 -0.005403146394626881 -0.00502119267476797
-0.0027502955808196144 -0.004864623568336195 -0.005334837272964316
-0.0027502955808196144 -0.0043261007420455095 -0.00533788893792119
-0.002750295580819615 -0.0037875779157548234 -0.0049151568186612754
-0.002750295580819615 -0.0032490550894641377 -0.005274171693804807
-0.002750295580819615 -0.002710532263173452 -0.005176617021659375
-0.002750295580819615 -0.0021720094368827664 -0.005243840958526606
-0.002750295580819615 -0.0016334864821982338 -0.004821106784965138
-0.002750295580819615 -0.0010949636559075481 -0.004999381128029759
-0.002750295580819615 -0.0005564408296168625 -0.004767139256018951
-0.0027502955808196144 -1.79180334184847e-05 -0.005474064479261663
-0.002750295580819615 0.000520604790866047 -0.00466139305643122
-0.002750295580819615 0.0010591276492551945 -0.0041116557979631015
-0.002750295580819615 0.0015976504755458802 -0.004470670673106633
-0.002750295580819615 0.002136173301836566 -0.00418867515821008
-0.002750295580819615 0.0026746959997334045 -0.004005772473746712
-0.002750295580819615 0.00321321882602409 -0.003583039327336022
-0.0032888184071103005 -0.009172805665086292 -0.0026335334459420038
-0.0032888184071103005 -0.008634282838795606 -0.003390075187441803
-0.0032888184071103005 -0.008095760526080308 -0.0039114266206269534
-0.0032888184071103005 -0.0075572376997896235 -0.004640104329438229
-0.0032888184071103005 -0.007018714873498938 -0.004669412022543073
-0.0032888184071103005 -0.006480192047208252 -0.004901654921704658
-0.0032888184071103005 -0.0059416692209175665 -0.004723379551489261
-0.0032888184071103005 -0.005403146394626881 -0.00505488732883909
-0.0032888184071103 -0.004864623568336195 -0.005336882330160255
-0.0032888184071103005 -0.0043261007420455095 -0.005269659420443802
-0.0032888184071103005 -0.0037875779157548234 -0.00516943518343034
-0.0032888184071103005 -0.0032490550894641377 -0.005232080082136095
-0.0032888184071103005 -0.002710532263173452 -0.0050091750106833425
-0.0032888184071103005 -0.0021720094368827664 -0.005106729682828774
-0.0032888184071103005 -0.0016334864821982338 -0.004928455339764153
-0.0032888184071103005 -0.0010949636559075481 -0.004957763032868997
-0.0032888184071103005 -0.0005564408296168625 -0.00464411843467265
-0.0032888184071103005 -1.79180334184847e-05 -0.004673426127777494
-0.0032888184071103005 0.000520604790866047 -0.00463839617769697
-0.0032888184071103005 0.0010591276492551945 -0.004571172754405128
-0.0032888184071103005 0.0015976504755458802 -0.00447094749024089
-0.0032888184071103005 0.002136173301836566 -0.004292672633600881
-0.0032888184071103005 0.0026746959997334045 -0.00419244839658742
-0.0032888184071103005 0.00321321882602409 -0.003924296306280658
-0.0032888184071103005 0.003751741652314776 -0.0038240715556918086
-0.0032888184071103005 0.004290264478605461 -0.002991161153961921
-0.003827341233400986 -0.009172805665086292 -0.0025273214334771464
-0.003827341233400986 -0.008634282838795606 -0.003267044094587738
-0.003827341233400986 -0.008095760526080308 -0.0037122245940672703
-0.003827341233400986 -0.0075572376997896235 -0.004419150330885371
-0.003827341233400986 -0.007018714873498938 -0.004732795442657106
-0.003827341233400986 -0.006480192047208252 -0.00491106875857095
-0.003827341233400986 -0.0059416692209175665 -0.0049460997358022505
-0.003827341233400986 -0.005403146394626881 -0.0050463260271172644
-0.003827341233400986 -0.004864623568336195 -0.005113547909682942
-0.003827341233400986 -0.0043261007420455095 -0.005148578886914243
-0.003827341233400986 -0.0037875779157548234 -0.005215801796630696
-0.0038273412334009858 -0.0032490550894641377 -0.0053160260336441575
-0.003827341233400986 -0.002710532263173452 -0.005253381134938403
-0.003827341233400986 -0.0021720094368827664 -0.005256433827046054
-0.003827341233400986 -0.0016334864821982338 -0.0050241909278844685
-0.003827341233400986 -0.0010949636559075481 -0.004994882207628849
-0.003827341233400986 -0.0005564408296168625 -0.004897328562634193
-0.003827341233400986 -1.79180334184847e-05 -0.004997552799647655
-0.003827341233400986 0.000520604790866047 -0.0046660460494486015
-0.003827341233400986 0.0010591276492551945 -0.004483142851409846
-0.003827341233400986 0.0015976504755458802 -0.004583367088423308
-0.003827341233400986 0.002136173301836566 -0.004485812929853264
-0.003827341233400986 0.0026746959997334045 -0.004388259284858609
-0.003827341233400986 0.00321321882602409 -0.004106264283537444
-0.003827341233400986 0.003751741652314776 -0.004076955563281823
-0.003827341233400986 0.004290264478605461 -0.003450812667155664
-0.003827341233400986 0.004828787304896147 -0.003485843644386964
-0.004365863802903978 -0.008634282838795606 -0.002806601675296118
-0.004365863802903978 -0.008095760526080308 -0.0034327440578468885
-0.004365863802903977 -0.0075572376997896235 -0.003954094463881263
-0.004365863802903977 -0.007018714873498938 -0.0044450412069323075
-0.004365863802903977 -0.006480192047208252 -0.004825165057682948
-0.004365863802903977 -0.0059416692209175665 -0.0048878099563887025
-0.004365863802903977 -0.005403146394626881 -0.004985364628534134
-0.004365863802903977 -0.004864623568336195 -0.004950334678453611
-0.004365863802903977 -0.0043261007420455095 -0.005012980604310142
-0.004365863802903977 -0.0037875779157548234 -0.005195883288773509
-0.004365863802903977 -0.0032490550894641377 -0.005017607918558112
-0.004365863802903977 -0.002710532263173452 -0.005115162590703544
-0.004365863802903977 -0.0021720094368827664 -0.004936888247638923
-0.004365863802903977 -0.0016334864821982338 -0.004901857270407622
-0.004365863802903977 -0.0010949636559075481 -0.00467895219895487
-0.004365863802903977 -0.0005564408296168625 -0.0044560476410775065
-0.004365863802903977 -1.79180334184847e-05 -0.00473804315597406
-0.004365863802903977 0.000520604790866047 -0.004734990463866409
-0.004365863802903977 0.0010591276492551945 -0.004667767554149955
-0.004365863802903977 0.0015976504755458802 -0.004567542289985718
-0.004365863802903977 0.002136173301836566 -0.004467317539396868
-0.004365863802903977 0.0026746959997334045 -0.004400095143255802
-0.004365863802903977 0.00321321882602409 -0.004221820286615793
-0.004365863802903977 0.003751741652314776 -0.0041545963497485626
-0.004365863802903977 0.004290264478605461 -0.004054372112735101
-0.004365863802903977 0.004828787304896147 -0.0038760972560950915
-0.004365863802903978 0.005367310131186832 -0.0034309167566155593
-0.0049043866291946635 -0.008634282838795606 -0.0031868570013461454
-0.0049043866291946635 -0.008095760526080308 -0.0032218879785774457
-0.004904386629194663 -0.0075572376997896235 -0.004084348480995422
-0.004904386629194663 -0.007018714873498938 -0.004397993592767157
-0.004904386629194663 -0.006480192047208252 -0.004843174092246689
-0.004904386629194663 -0.0059416692209175665 -0.0049103980291139195
-0.004904386629194663 -0.005403146394626881 -0.004977620938830373
-0.004904386629194663 -0.004864623568336195 -0.005077845175843835
-0.004904386629194663 -0.0043261007420455095 -0.005112876153075135
-0.004904386629194663 -0.0037875779157548234 -0.005180099062791588
-0.004904386629194663 -0.0032490550894641377 -0.005150791369686746
-0.004904386629194663 -0.002710532263173452 -0.005121482649431125
-0.004904386629194663 -0.0021720094368827664 -0.005299758019646523
-0.004904386629194663 -0.0016334864821982338 -0.005017761991174582
-0.004904386629194663 -0.0010949636559075481 -0.004920208346179926
-0.004904386629194663 -0.0005564408296168625 -0.004857562420323395
-0.004904386629194663 -1.79180334184847e-05 -0.004924785330039849
-0.004904386629194663 0.000520604790866047 -0.004827230657894417
-0.004904386629194663 0.0010591276492551945 -0.004830283350002068
-0.004904386629194663 0.0015976504755458802 -0.004732728677856636
-0.004904386629194663 0.002136173301836566 -0.004670083779150881
-0.004904386629194663 0.0026746959997334045 -0.004437841393564684
-0.0049043866291946635 0.00321321882602409 -0.0030233387063362043
-0.004904386629194663 0.003751741652314776 -0.004269470838286728
-0.004904386629194663 0.004290264478605461 -0.004240162118031108
-0.004904386629194663 0.004828787304896147 -0.004142607959461065
-0.004904386629194663 0.005367310131186832 -0.0037624841087104234
-0.0049043866291946635 0.005905832957477518 -0.0029779586714566426
-0.005442909455485349 -0.008095760526080308 -0.002886542252351359
-0.005442909455485348 -0.0075572376997896235 -0.0036152204747380234
-0.005442909455485348 -0.007018714873498938 -0.00421701681600966
-0.005442909455485348 -0.006480192047208252 -0.004766753047327001
-0.005442909455485348 -0.0059416692209175665 -0.004864306692321656
-0.005442909455485348 -0.005403146394626881 -0.004764082455308195
-0.005442909455485348 -0.004864623568336195 -0.0051442063060588355
-0.005442909455485348 -0.0043261007420455095 -0.005109175328827535
-0.005442909455485348 -0.0037875779157548234 -0.005041951391960305
-0.005442909455485348 -0.0032490550894641377 -0.005038900754154208
-0.005442909455485348 -0.002710532263173452 -0.0051364554262996395
-0.005442909455485348 -0.0021720094368827664 -0.004535658502733503
-0.005442909455485348 -0.0016334864821982338 -0.004958391649144194
-0.005442909455485348 -0.0010949636559075481 -0.00492336169906367
-0.005442909455485348 -0.0005564408296168625 -0.004920309006956019
-0.005442909455485348 -1.79180334184847e-05 -0.004853086097239566
-0.005442909455485348 0.000520604790866047 -0.004674811754174945
-0.005442909455485348 0.0010591276492551945 -0.004737456652880699
-0.005442909455485348 0.0015976504755458802 -0.003874996664038111
-0.005442909455485348 0.002136173301836566 -0.004575891485072204
-0.005442909455485348 0.0026746959997334045 -0.004475667248058743
-0.005442909455485348 0.00321321882602409 -0.004472614555951092
-0.005442909455485348 0.003751741652314776 -0.00402743405647156
-0.005442909455485348 0.004290264478605461 -0.004309429057792725
-0.005442909455485348 0.004828787304896147 -0.004041277481061352
-0.005442909455485349 0.005367310131186832 -0.0034779931310024515
-0.005442909455485349 0.005905832957477518 -0.002248195264274645
-0.005981432281776035 -0.008095760526080308 -0.0026023871529472905
-0.005981432281776034 -0.0075572376997896235 -0.0037095740314886058
-0.005981432281776034 -0.007018714873498938 -0.0042728583815475054
-0.005981432281776034 -0.006480192047208252 -0.004758354035427856
-0.005981432281776034 -0.0059416692209175665 -0.0048585782724413175
-0.005981432281776034 -0.005403146394626881 -0.0049588035366055555
-0.005981432281776034 -0.004864623568336195 -0.005026026446322009
-0.005981432281776034 -0.0043261007420455095 -0.004928471774176577
-0.005981432281776034 -0.0037875779157548234 -0.004899163053920958
-0.005981432281776034 -0.0032490550894641377 -0.0050774384241363555
-0.005981432281776034 -0.002710532263173452 -0.005048130731031512
-0.005981432281776034 -0.0021720094368827664 -0.005051182395988386
-0.005981432281776034 -0.0016334864821982338 -0.00505423406094526
-0.005981432281776034 -0.0010949636559075481 -0.005057285725902134
-0.005981432281776034 -0.0005564408296168625 -0.004959731053756702
-0.005981432281776034 -1.79180334184847e-05 -0.004930423360651859
-0.005981432281776035 0.000520604790866047 -0.0035159211869987676
-0.005981432281776034 0.0010591276492551945 -0.00478509385159154
-0.005981432281776034 0.0015976504755458802 -0.00482012482882284
-0.005981432281776034 0.002136173301836566 -0.004722570156677408
-0.005981432281776034 0.0026746959997334045 -0.004539666958638653
-0.005981432281776034 0.00321321882602409 -0.004442112800068609
-0.005981432281776034 0.003751741652314776 -0.00441280407981299
-0.005981432281776034 0.004290264478605461 -0.004383495359557369
-0.005981432281776034 0.004828787304896147 -0.003833759641815416
-0.005981432281776035 0.005367310131186832 -0.003502252378040975
-0.005981432281776035 0.005905832957477518 -0.0028013565298561052
-0.005981432281776035 0.006444355783768204 -0.0028363875070874056
-0.005981432281776035 0.006982878610058889 -0.0009325455677730477
-0.0065199551080667205 -0.0075572376997896235 -0.0024991728800235428
-0.00651995510806672 -0.007018714873498938 -0.0037445531376056945
-0.00651995510806672 -0.006480192047208252 -0.004320992721234155
-0.00651995510806672 -0.0059416692209175665 -0.004779179517420661
-0.00651995510806672 -0.005403146394626881 -0.004808487210525504
-0.00651995510806672 -0.004864623568336195 -0.004773457260444981
-0.00651995510806672 -0.0043261007420455095 -0.005153581111195621
-0.00651995510806672 -0.0037875779157548234 -0.0042911195816268686
-0.00651995510806672 -0.0032490550894641377 -0.004474023293241012
-0.00651995510806672 -0.002710532263173452 -0.004896756439651703
-0.00651995510806672 -0.0021720094368827664 -0.0049943111117971345
-0.00651995510806672 -0.0016334864821982338 -0.004991258419689484
-0.00651995510806672 -0.0010949636559075481 -0.005020567139945104
-0.00651995510806672 -0.0005564408296168625 -0.0048422917697297065
-0.00651995510806672 -1.79180334184847e-05 -0.004775069887164029
-0.00651995510806672 0.000520604790866047 -0.005007311759174838
-0.00651995510806672 0.0010591276492551945 -0.004940088849458384
-0.00651995510806672 0.0015976504755458802 -0.004761814506393763
-0.00651995510806672 0.002136173301836566 -0.004276317825362636
-0.00651995510806672 0.0026746959997334045 -0.003962672200015513
-0.00651995510806672 0.00321321882602409 -0.0042446687420628435
-0.00651995510806672 0.003751741652314776 -0.004066393885422834
-0.00651995510806672 0.004290264478605461 -0.003888119028782825
-0.0065199551080667205 0.004828787304896147 -0.0034429385293032926
-0.0065199551080667205 0.005367310131186832 -0.0026713310537897095
-0.0065199551080667205 0.005905832957477518 -0.0012834403024532444
-0.0065199551080667205 0.006444355783768204 -0.00013502771639700635
-0.007058477934357406 -0.007018714873498938 -0.003466123890205023
-0.007058477934357405 -0.006480192047208252 -0.003911304903259943
-0.007058477934357405 -0.0059416692209175665 -0.004713952361662876
-0.007058477934357405 -0.005403146394626881 -0.004892227731878274
-0.007058477934357405 -0.004864623568336195 -0.004794674086883618
-0.007058477934357405 -0.0043261007420455095 -0.004697119414738187
-0.007058477934357405 -0.0037875779157548234 -0.004599564742592755
-0.007058477934357405 -0.0032490550894641377 -0.004666787652309209
-0.007058477934357405 -0.002710532263173452 -0.004701818629540509
-0.007058477934357405 -0.0021720094368827664 -0.004672509909284889
-0.007058477934357405 -0.0016334864821982338 -0.004675562601392539
-0.007058477934357405 -0.0010949636559075481 -0.004742785511108993
-0.007058477934357405 -0.0005564408296168625 -0.004745837176065868
-0.007058477934357405 -1.79180334184847e-05 -0.004846061413079329
-0.007058477934357405 0.000520604790866047 -0.004613819541068521
-0.007058477934357405 0.0010591276492551945 -0.004430916856605153
-0.007058477934357405 0.0015976504755458802 -0.004099409592830712
-0.007058477934357405 0.002136173301836566 -0.0038671661800937385
-0.007058477934357405 0.0026746959997334045 -0.003870218872201389
-0.007058477934357405 0.00321321882602409 -0.00397044310921485
-0.007058477934357406 0.003751741652314776 -0.003269547261029981
-0.007058477934357406 0.004290264478605461 -0.0029875517461334274
-0.007058477934357406 0.004828787304896147 -0.0025648191132981247
-0.007058477934357405 0.005367310131186832 -0.0037240969163170284
-0.007058477934357406 0.005905832957477518 -0.000869109762969416
-0.007597000760648092 -0.006480192047208252 -0.0035097423615029493
-0.007597000760648091 -0.0059416692209175665 -0.0036926450459663167
-0.007597000760648091 -0.005403146394626881 -0.0041835917890173605
-0.007597000760648091 -0.004864623568336195 -0.004641778585203866
-0.007597000760648091 -0.0043261007420455095 -0.00415628190417274
-0.007597000760648091 -0.0037875779157548234 -0.004121250926941439
-0.007597000760648091 -0.0032490550894641377 -0.004642602360126591
-0.007597000760648091 -0.002710532263173452 -0.004079318523643079
-0.007597000760648091 -0.0021720094368827664 -0.00390104366700307
-0.007597000760648091 -0.0016334864821982338 -0.003963689079284212
-0.007597000760648091 -0.0010949636559075481 -0.0036955369889774504
