ply
format ascii 1.0
element vertex 722
property float x
property float y
property float z
end_header
0.007598510943353176 -0.009306767955422401 -0.003302132012322544
0.007598510943353176 -0.008760289289057255 -0.0032990346662700168
0.007598510943353176 -0.008213811554014683 -0.0032959384843707076
0.007598510943353176 -0.0076673333533108234 -0.003069739788770675
0.007598510943353177 -0.007120855152606964 -0.003654694650322198
0.007598510943353177 -0.0065743764862418175 -0.0037182655651122323
0.007598510943353177 -0.006027898285537958 -0.004216464236378669
0.007598510943353177 -0.005481420084834099 -0.0038521457463502875
0.007598510943353177 -0.004934941418468952 -0.0039157168939709655
0.007598510943353176 -0.004388463217765093 -0.0033060447312891475
0.007598510943353177 -0.00384198478423059 -0.00364244938828051
0.007598510943353177 -0.003295506350696087 -0.0036393527407199136
0.007598510943353177 -0.002749027917161584 -0.0035711361560970536
0.007598510943353176 -0.002202549483627081 -0.002581887645646929
0.0070520322769880295 -0.012585638090968132 -0.001836045295931398
0.0070520322769880295 -0.01203916035592556 -0.001737049431540071
0.0070520322769880295 -0.011492681689560413 -0.0027536689303815356
0.0070520322769880295 -0.010946203023195267 -0.002367929555475711
0.0070520322769880295 -0.010399725288152695 -0.0032724605407565823
0.0070520322769880295 -0.009853246621787548 -0.003308009123429655
0.00705203227698803 -0.009306767955422401 -0.003580122021958231
0.0070520322769880295 -0.008760289289057255 -0.0034811266232281915
0.0070520322769880295 -0.008213811554014683 -0.0035166752059012643
0.0070520322769880295 -0.0076673333533108234 -0.003486933419480919
0.00705203227698803 -0.007120855152606964 -0.00393869075924158
0.00705203227698803 -0.0065743764862418175 -0.003908949438482522
0.00705203227698803 -0.006027898285537958 -0.003977166023105382
0.00705203227698803 -0.005481420084834099 -0.003741491585969924
0.00705203227698803 -0.004934941418468952 -0.0038431980647146693
0.00705203227698803 -0.004388463217765093 -0.004024106543511151
0.00705203227698803 -0.00384198478423059 -0.003687701886519789
0.0070520322769880295 -0.003295506350696087 -0.0032587232999503604
0.00705203227698803 -0.002749027917161584 -0.00362304295413196
0.0070520322769880295 -0.002202549483627081 -0.0030939891003072253
0.0070520322769880295 -0.001656071050092578 -0.0020278512965887776
0.00650555407628417 -0.012585638090968132 -0.0012748762965202323
0.00650555407628417 -0.01203916035592556 -0.001986126881092786
0.00650555407628417 -0.011492681689560413 -0.0026455423794686786
0.00650555407628417 -0.010946203023195267 -0.00267528393305838
0.00650555407628417 -0.010399725288152695 -0.003285970771685242
0.00650555407628417 -0.009853246621787548 -0.0034715754445642224
0.00650555407628417 -0.009306767955422401 -0.0034684776328504077
0.006505554076284171 -0.008760289289057255 -0.0036540827713906756
0.006505554076284171 -0.008213811554014683 -0.0038897572085261336
0.006505554076284171 -0.0076673333533108234 -0.003953327424824237
0.006505554076284171 -0.007120855152606964 -0.003983069211244582
0.006505554076284171 -0.0065743764862418175 -0.004046639893203973
0.006505554076284171 -0.006027898285537958 -0.003978422842919826
0.006505554076284171 -0.005481420084834099 -0.004041993990540504
0.006505554076284171 -0.004934941418468952 -0.003861085278913378
0.006505554076284171 -0.004388463217765093 -0.003890827065333723
0.006505554076284171 -0.00384198478423059 -0.003664628602564334
0.00650555407628417 -0.003295506350696087 -0.0034837198909372083
0.00650555407628417 -0.002749027917161584 -0.0033820150420069686
0.00650555407628417 -0.002202549483627081 -0.0027723431121557942
0.00650555407628417 -0.001656071050092578 -0.0019271277124062172
0.005959075875580311 -0.013132116757333279 -0.0019333458039909595
0.005959075875580311 -0.012585638090968132 -0.0016471843700855964
0.005959075875580311 -0.01203916035592556 -0.0023978338576853267
0.005959075875580311 -0.011492681689560413 -0.0027621535118669263
0.005959075875580311 -0.010946203023195267 -0.003080430906265973
0.005959075875580311 -0.010399725288152695 -0.003444750560447573
0.005959075875580311 -0.009853246621787548 -0.003447847440838813
0.005959075875580312 -0.009306767955422401 -0.003719960805028676
0.005959075875580312 -0.008760289289057255 -0.003755508689209818
0.005959075875580312 -0.008213811554014683 -0.0038572142366319886
0.005959075875580312 -0.0076673333533108234 -0.003925431054085492
0.005959075875580312 -0.007120855152606964 -0.004289749544113874
0.005959075875580312 -0.0065743764862418175 -0.003953345119953155
0.005959075875580312 -0.006027898285537958 -0.0044859559275209895
0.005959075875580312 -0.005481420084834099 -0.004056978505104779
0.005959075875580312 -0.004934941418468952 -0.0038713719695806495
0.005959075875580312 -0.004388463217765093 -0.003874469781294464
0.005959075875580312 -0.00384198478423059 -0.00381089886650443
0.005959075875580311 -0.003295506350696087 -0.0035247376654297105
0.005959075875580311 -0.002749027917161584 -0.0032385766971856347
0.005959075875580311 -0.002202549483627081 -0.0025791607331484548
0.005959075875580311 -0.001656071050092578 -0.002469734987244009
0.005959075875580311 -0.001109592616558075 -0.001730291987769305
0.005412597209215164 -0.013132116757333279 -0.002008864888921379
0.005412597209215164 -0.012585638090968132 -0.001690585748292505
0.005412597209215164 -0.01203916035592556 -0.002325978595763444
0.005412597209215164 -0.011492681689560413 -0.0029853943269699803
0.005412597209215164 -0.010946203023195267 -0.0029171784408390513
0.005412597209215165 -0.010399725288152695 -0.0035525707062333814
0.005412597209215165 -0.009853246621787548 -0.0036161416210234157
0.005412597209215165 -0.009306767955422401 -0.00367971253581345
0.005412597209215165 -0.008760289289057255 -0.0038653172086924306
0.005412597209215165 -0.008213811554014683 -0.003964312840253114
0.005412597209215165 -0.0076673333533108234 -0.003928764723241328
0.005412597209215165 -0.007120855152606964 -0.004114369396120309
0.005412597209215165 -0.0065743764862418175 -0.004111273214221
0.005412597209215165 -0.006027898285537958 -0.0040095667354762545
0.005412597209215165 -0.005481420084834099 -0.0038286587223410598
0.005412597209215165 -0.004934941418468952 -0.003726953174918889
0.005412597209215165 -0.004388463217765093 -0.0036252483259886495
0.005412597209215165 -0.00384198478423059 -0.003860921133309602
0.005412597209215164 -0.003295506350696087 -0.0028443022165447465
0.005412597209215164 -0.002749027917161584 -0.0028412060346454373
0.005412597209215164 -0.002202549483627081 -0.002231534104794263
0.004866119008511305 -0.013678595423698425 -0.0017833254532888525
0.004866119008511305 -0.013132116757333279 -0.0019642335828393693
0.004866119008511305 -0.012585638090968132 -0.002456902293488383
0.004866119008511305 -0.01203916035592556 -0.0025251184124499555
0.004866119008511305 -0.011492681689560413 -0.0031719475518912073
0.004866119008511305 -0.010946203023195267 -0.0033528560306876893
0.004866119008511305 -0.010399725288152695 -0.0035337645094841714
0.004866119008511306 -0.009853246621787548 -0.0035693130921572442
0.004866119008511306 -0.009306767955422401 -0.003750221105292439
0.004866119008511306 -0.008760289289057255 -0.003851926419883966
0.004866119008511306 -0.008213811554014683 -0.004344595130532979
0.004866119008511306 -0.0076673333533108234 -0.003815541975200176
0.004866119008511306 -0.007120855152606964 -0.0038837573956698175
0.004866119008511306 -0.0065743764862418175 -0.004155870992690324
0.004866119008511306 -0.006027898285537958 -0.003970266319811343
0.004866119008511306 -0.005481420084834099 -0.004005814902484416
0.004866119008511306 -0.004934941418468952 -0.003976073116064071
0.004866119008511306 -0.004388463217765093 -0.00397916929796338
0.004866119008511306 -0.00384198478423059 -0.0035934299230575557
0.004866119008511305 -0.003295506350696087 -0.0027973146643489595
0.004866119008511305 -0.002749027917161584 -0.0025111539289355274
0.004866119008511305 -0.002202549483627081 -0.003157983068376779
0.004866119008511305 -0.001656071050092578 -0.002693027956411242
0.004319640342146158 -0.013132116757333279 -0.002130664652213454
0.004319640342146158 -0.012585638090968132 -0.0024670693092048164
0.004319640342146158 -0.01203916035592556 -0.002398852258920669
0.004319640342146158 -0.011492681689560413 -0.0031101028434932228
0.004319640342146158 -0.010946203023195267 -0.0032957075163722034
0.004319640342146159 -0.010399725288152695 -0.003632112173363566
0.004319640342146159 -0.009853246621787548 -0.003731107339262962
0.004319640342146159 -0.009306767955422401 -0.003916712477803229
0.004319640342146159 -0.008760289289057255 -0.0036445991136133666
0.004319640342146159 -0.008213811554014683 -0.003981003072112798
0.004319640342146159 -0.0076673333533108234 -0.004010744858533143
0.004319640342146159 -0.007120855152606964 -0.004196349531412124
0.004319640342146159 -0.0065743764862418175 -0.004226091317832469
0.004319640342146159 -0.006027898285537958 -0.003774334210902452
0.004319640342146159 -0.005481420084834099 -0.003959938883781432
0.004319640342146159 -0.004934941418468952 -0.003858234034851193
0.004319640342146159 -0.004388463217765093 -0.003677325556054711
0.004319640342146158 -0.00384198478423059 -0.003184657776728272
0.004319640342146158 -0.003295506350696087 -0.002866378519684076
0.004319640342146158 -0.002749027917161584 -0.0019331076182425018
0.004319640342146158 -0.002202549483627081 -0.0012862780131399627
0.0037731621414422993 -0.013678595423698425 -0.0021855914965271945
0.0037731621414422993 -0.013132116757333279 -0.0021558508742600675
0.0037731621414422993 -0.012585638090968132 -0.002427963307127356
0.0037731621414422993 -0.01203916035592556 -0.0028797204140573736
0.0037731621414422993 -0.011492681689560413 -0.003197999438270926
0.0037731621414422993 -0.010946203023195267 -0.003470113035291433
0.0037731621414422993 -0.010399725288152695 -0.0035718178842216726
0.0037731621414422993 -0.009853246621787548 -0.003673524130135774
0.0037731621414422993 -0.009306767955422401 -0.003775228979066014
0.0037731621414422993 -0.008760289289057255 -0.0038434450980275865
0.0037731621414422993 -0.008213811554014683 -0.00391166191548109
0.0037731621414422993 -0.0076673333533108234 -0.004013366997241973
0.0037731621414422993 -0.007120855152606964 -0.003949795849621295
0.0037731621414422993 -0.0065743764862418175 -0.003451597178354859
0.0037731621414422993 -0.006027898285537958 -0.004061269108206033
0.0037731621414422993 -0.005481420084834099 -0.0040315273217856875
0.0037731621414422993 -0.004934941418468952 -0.003967957105487584
0.0037731621414422993 -0.004388463217765093 -0.0039043861906975503
0.0037731621414422993 -0.00384198478423059 -0.003874644404277205
0.0037731621414422993 -0.003295506350696087 -0.0027439773548394437
0.003773162141442299 -0.002749027917161584 -0.001613309257663786
0.003773162141442299 -0.002202549483627081 -0.0016815252602100368
0.0032266837079077963 -0.013132116757333279 -0.0021464396268129344
0.0032266837079077963 -0.012585638090968132 -0.002532179001718759
0.0032266837079077963 -0.01203916035592556 -0.0028685831930488344
0.0032266837079077963 -0.011492681689560413 -0.0029321541078388687
0.0032266837079077963 -0.010946203023195267 -0.0033178934827446933
0.0032266837079077963 -0.010399725288152695 -0.0036542979069054122
0.0032266837079077963 -0.009853246621787548 -0.00347338942810893
0.0032266837079077963 -0.009306767955422401 -0.003658994100987911
0.0032266837079077963 -0.008760289289057255 -0.0038445994723588224
0.0032266837079077963 -0.008213811554014683 -0.00403020391240716
0.0032266837079077963 -0.0076673333533108234 -0.004093775060027838
0.0032266837079077963 -0.007120855152606964 -0.003912866581231356
0.0032266837079077963 -0.0065743764862418175 -0.004098471254110336
0.0032266837079077963 -0.006027898285537958 -0.004030255135148764
0.0032266837079077963 -0.005481420084834099 -0.004215860273689032
0.0032266837079077963 -0.004934941418468952 -0.0036061878781765695
0.0032266837079077963 -0.004388463217765093 -0.003334076143801212
0.0032266837079077963 -0.00384198478423059 -0.003061962546780705
0.0032266837079077963 -0.003295506350696087 -0.0022474559955298896
0.0032266837079077963 -0.002749027917161584 -0.0029868991114199157
0.0026802052743732934 -0.013132116757333279 -0.0021745918784290548
0.0026802052743732934 -0.012585638090968132 -0.0026672596577554937
0.0026802052743732934 -0.01203916035592556 -0.0029393732547760005
0.0026802052743732934 -0.011492681689560413 -0.0032576506491750474
0.0026802052743732934 -0.010946203023195267 -0.0033593571279197927
0.0026802052743732934 -0.010399725288152695 -0.0034275725483894344
0.0026802052743732934 -0.009853246621787548 -0.0036537710111588235
0.0026802052743732934 -0.009306767955422401 -0.003721987130120396
0.0026802052743732934 -0.008760289289057255 -0.0039481851272284985
0.0026802052743732934 -0.008213811554014683 -0.0039184438064694405
0.0026802052743732934 -0.0076673333533108234 -0.0039866603910923
0.0026802052743732934 -0.007120855152606964 -0.003989757038652897
0.0026802052743732934 -0.0065743764862418175 -0.004091463051736355
0.0026802052743732934 -0.006027898285537958 -0.003905857447534799
0.0026802052743732934 -0.005481420084834099 -0.0040075634606182575
0.0026802052743732934 -0.004934941418468952 -0.003821957623586058
0.0026802052743732934 -0.004388463217765093 -0.0035862843506038185
0.0026802052743732934 -0.00384198478423059 -0.0031573066953569646
0.0026802052743732934 -0.003295506350696087 -0.0021544301416724916
0.0021337270736694336 -0.013132116757333279 -0.0013954360038042066
0.002133727073669434 -0.012585638090968132 -0.0025261032860726114
0.002133727073669434 -0.01203916035592556 -0.002911842660978436
0.002133727073669434 -0.011492681689560413 -0.003147517098113894
0.002133727073669434 -0.010946203023195267 -0.0033331217709928747
0.002133727073669434 -0.010399725288152695 -0.0035187264438718553
0.002133727073669434 -0.009853246621787548 -0.003704331116750836
0.002133727073669434 -0.009306767955422401 -0.003803326981142163
0.002133727073669434 -0.008760289289057255 -0.0039023228455334897
0.002133727073669434 -0.008213811554014683 -0.0039320639334619045
0.002133727073669434 -0.0076673333533108234 -0.004167737439274788
0.002133727073669434 -0.007120855152606964 -0.004132188856601715
0.002133727073669434 -0.0065743764862418175 -0.004030483774840832
0.002133727073669434 -0.006027898285537958 -0.003994935657829046
0.002133727073669434 -0.005481420084834099 -0.0037228229921311136
0.002133727073669434 -0.004934941418468952 -0.0034507096279412504
0.002133727073669434 -0.004388463217765093 -0.002546178642660379
0.002133727073669434 -0.00384198478423059 -0.00222789985127747
0.001587248523719609 -0.013678595423698425 -0.0016276467358693478
0.001587248523719609 -0.013132116757333279 -0.0018085549818351863
0.001587248523719609 -0.012585638090968132 -0.0025259240064769983
0.0015872485237196092 -0.01203916035592556 -0.003058534814044833
0.0015872485237196092 -0.011492681689560413 -0.0032394432928413153
0.0015872485237196092 -0.010946203023195267 -0.003341149305924773
0.0015872485237196092 -0.010399725288152695 -0.0035220577847212553
0.0015872485237196092 -0.009853246621787548 -0.0038863762747496367
0.0015872485237196092 -0.009306767955422401 -0.0037873804103583097
0.0015872485237196092 -0.008760289289057255 -0.0037238101940602064
0.0015872485237196092 -0.008213811554014683 -0.003950008191168308
0.0015872485237196092 -0.0076673333533108234 -0.0039855558425188065
0.0015872485237196092 -0.007120855152606964 -0.004087261855602264
0.0015872485237196092 -0.0065743764862418175 -0.0039016567170619965
0.0015872485237196092 -0.006027898285537958 -0.003937204368412495
0.0015872485237196092 -0.005481420084834099 -0.0038736334536224604
0.0015872485237196092 -0.004934941418468952 -0.0036880287807434797
0.0015872485237196092 -0.004388463217765093 -0.003302289405837655
0.001587248523719609 -0.00384198478423059 -0.0023905308917164803
0.001587248523719609 -0.003295506350696087 -0.0011941855773329733
0.001040770090185106 -0.013132116757333279 -0.0017162351869046686
0.001040770090185106 -0.012585638090968132 -0.0023269213270395994
0.0010407700901851062 -0.01203916035592556 -0.002825120696797967
0.0010407700901851062 -0.011492681689560413 -0.0031615253537893295
0.0010407700901851062 -0.010946203023195267 -0.00334713002666831
0.0010407700901851062 -0.010399725288152695 -0.003278914140537381
0.0010407700901851062 -0.009853246621787548 -0.0037078922614455223
0.0010407700901851062 -0.009306767955422401 -0.003893498098477721
0.0010407700901851062 -0.008760289289057255 -0.0036672998685389757
0.0010407700901851062 -0.008213811554014683 -0.0041654990054667
0.0010407700901851062 -0.0076673333533108234 -0.004195240791887045
0.0010407700901851062 -0.007120855152606964 -0.003702571615576744
0.0010407700901851062 -0.0065743764862418175 -0.003888177452608943
0.0010407700901851062 -0.006027898285537958 -0.0036160640884190798
0.0010407700901851062 -0.005481420084834099 -0.0036129667423665524
0.0010407700901851062 -0.004934941418468952 -0.0033867680467665195
0.001040770090185106 -0.004388463217765093 -0.0025415532290935516
0.001040770090185106 -0.00384198478423059 -0.0015249339630827306
0.0004942917730659249 -0.013678595423698425 -0.0016979575157165527
0.0004942917730659249 -0.013132116757333279 -0.001512352842837572
0.000494291773065925 -0.012585638090968132 -0.0026094147469848394
0.0004942917730659251 -0.01203916035592556 -0.0031420255545526743
0.0004942917730659251 -0.011492681689560413 -0.003145123366266489
0.0004942917730659251 -0.010946203023195267 -0.003326031845062971
0.0004942917730659251 -0.010399725288152695 -0.003506939858198166
0.0004942917730659251 -0.009853246621787548 -0.0035100365057587624
0.0004942917730659252 -0.009306767955422401 -0.004227405413985252
0.0004942917730659251 -0.008760289289057255 -0.003729205811396241
0.0004942917730659251 -0.008213811554014683 -0.003732303623110056
0.0004942917730659252 -0.0076673333533108234 -0.004050582181662321
0.0004942917730659251 -0.007120855152606964 -0.0038649775087833405
0.0004942917730659252 -0.0065743764862418175 -0.004229295998811722
0.0004942917730659251 -0.006027898285537958 -0.003843556623905897
0.0004942917730659251 -0.005481420084834099 -0.003813814837485552
0.0004942917730659251 -0.004934941418468952 -0.0032847614493221045
0.000494291773065925 -0.004388463217765093 -0.0024313165340572596
0.0004942917730659249 -0.00384198478423059 -0.0015488587087020278
0.0004942917730659249 -0.003295506350696087 -0.001485288143157959
-5.2186635002726465e-05 -0.013132116757333279 -0.0018269374268129468
-5.2186635002726404e-05 -0.012585638090968132 -0.002325136912986636
-5.218663500272631e-05 -0.01203916035592556 -0.0031212521716952324
-5.218663500272631e-05 -0.011492681689560413 -0.0031181557569652796
-5.21866350027263e-05 -0.010946203023195267 -0.0031478970777243376
-5.218663500272629e-05 -0.010399725288152695 -0.0032468929421156645
-5.218663500272624e-05 -0.009853246621787548 -0.0036758705973625183
-5.21866350027262e-05 -0.009306767955422401 -0.003962032031267881
-5.218663500272621e-05 -0.008760289289057255 -0.003926483448594809
-5.2186635002726215e-05 -0.008213811554014683 -0.0038909348659217358
-5.2186635002726235e-05 -0.0076673333533108234 -0.003710026852786541
-5.218663500272621e-05 -0.007120855152606964 -0.003945700824260712
-5.218663500272624e-05 -0.0065743764862418175 -0.003673587227240205
-5.218663500272624e-05 -0.006027898285537958 -0.003638039343059063
-5.2186635002726296e-05 -0.005481420084834099 -0.003186281770467758
-5.218663500272639e-05 -0.004934941418468952 -0.002435632748529315
-5.2186635002726506e-05 -0.004388463217765093 -0.0015023621963337064
-5.218663500272655e-05 -0.00384198478423059 -0.0011380425421521068
-0.0005986650357954202 -0.013678595423698425 -0.0019910431001335382
-0.0005986650357954202 -0.013132116757333279 -0.002092747949063778
-0.0005986650357954201 -0.012585638090968132 -0.0027024198789149523
-0.0005986650357954201 -0.01203916035592556 -0.0030206989031285048
-0.0005986650357954201 -0.011492681689560413 -0.00308891455642879
-0.00059866503579542 -0.010946203023195267 -0.003190619871020317
-0.00059866503579542 -0.010399725288152695 -0.003371528349816799
-0.00059866503579542 -0.009853246621787548 -0.0036436417140066624
-0.00059866503579542 -0.009306767955422401 -0.003869839943945408
-0.00059866503579542 -0.008760289289057255 -0.0038400981575250626
-0.00059866503579542 -0.008213811554014683 -0.003810357069596648
-0.00059866503579542 -0.0076673333533108234 -0.0038459054194390774
-0.00059866503579542 -0.007120855152606964 -0.0038161638658493757
-0.00059866503579542 -0.0065743764862418175 -0.0037864220794290304
-0.0005986650357954199 -0.006027898285537958 -0.004600928630679846
-0.00059866503579542 -0.005481420084834099 -0.0034702604170888662
-0.0005986650357954201 -0.004934941418468952 -0.0024985005147755146
-0.0005986650357954202 -0.004388463217765093 -0.0015867417678236961
-0.0005986650357954202 -0.00384198478423059 -0.001905020559206605
-0.0011451434111222623 -0.013132116757333279 -0.002116394229233265
-0.0011451434111222623 -0.012585638090968132 -0.002452798653393984
-0.001145143411122262 -0.01203916035592556 -0.00319224176928401
-0.001145143411122262 -0.011492681689560413 -0.002659630961716175
-0.001145143411122262 -0.010946203023195267 -0.003124585375189781
-0.001145143411122262 -0.010399725288152695 -0.0028983873780816793
-0.001145143411122262 -0.009853246621787548 -0.00350907351821661
-0.001145143411122262 -0.009306767955422401 -0.0037447467911988497
-0.001145143411122262 -0.008760289289057255 -0.003709199372678995
-0.001145143411122262 -0.008213811554014683 -0.003640982322394848
-0.001145143411122262 -0.0076673333533108234 -0.003572766901925206
-0.001145143411122262 -0.007120855152606964 -0.003602507058531046
-0.001145143411122262 -0.0065743764862418175 -0.003238188335672021
-0.001145143411122262 -0.006027898285537958 -0.0031364834867417812
-0.0011451434111222623 -0.005481420084834099 -0.002526811556890607
-0.0011451434111222623 -0.004934941418468952 -0.0015935400733724239
-0.0011451434111222623 -0.004388463217765093 -0.001141782617196441
-0.0016916217282414434 -0.013678595423698425 -0.002004974754527211
-0.0016916217282414434 -0.013132116757333279 -0.0023232533130794764
-0.0016916217282414432 -0.012585638090968132 -0.0026875720359385014
-0.0016916217282414432 -0.01203916035592556 -0.003005851060152054
-0.0016916217282414432 -0.011492681689560413 -0.0030413996428251266
-0.0016916217282414432 -0.010946203023195267 -0.0031096150632947683
-0.0016916217282414432 -0.010399725288152695 -0.0033817284274846315
-0.0016916217282414432 -0.009853246621787548 -0.003483434906229377
-0.0016916217282414432 -0.009306767955422401 -0.003297829069197178
-0.0016916217282414432 -0.008760289289057255 -0.0036621487233787775
-0.0016916217282414432 -0.008213811554014683 -0.003632407169789076
-0.0016916217282414432 -0.0076673333533108234 -0.0032960025127977133
-0.0016916217282414432 -0.007120855152606964 -0.0036603210028260946
-0.0016916217282414432 -0.0065743764862418175 -0.0033741602674126625
-0.0016916217282414432 -0.006027898285537958 -0.002789204940199852
-0.0016916217282414432 -0.005481420084834099 -0.0036937359254807234
-0.001691621728241443 -0.004934941418468952 -0.005102130118757486
-0.0016916217282414434 -0.004388463217765093 -0.0011816034093499186
-0.002238100161775946 -0.013132116757333279 -0.0021933729294687514
-0.002238100161775946 -0.012585638090968132 -0.0025791127700358634
-0.002238100161775946 -0.01203916035592556 -0.0029155169613659386
-0.002238100161775946 -0.011492681689560413 -0.003101123264059425
-0.002238100161775946 -0.010946203023195267 -0.0029202147852629427
-0.002238100161775946 -0.010399725288152695 -0.003385169198736549
-0.002238100161775946 -0.009853246621787548 -0.0034841650631278758
-0.002238100161775946 -0.009306767955422401 -0.0034159480128437285
-0.002238100161775946 -0.008760289289057255 -0.003445689799264074
-0.002238100161775946 -0.008213811554014683 -0.003509260714054108
-0.002238100161775946 -0.0076673333533108234 -0.003144941991195083
-0.002238100161775946 -0.007120855152606964 -0.003174682147800923
-0.002238100161775946 -0.0065743764862418175 -0.003106466727331281
-0.002238100161775946 -0.006027898285537958 -0.002742148004472256
-0.002238100161775946 -0.005481420084834099 -0.003683534683659673
-0.0022381001617759466 -0.004934941418468952 -0.0011243182234466078
-0.002784578595310449 -0.013678595423698425 -0.0020577174145728354
-0.002784578595310449 -0.013132116757333279 -0.002238624962046743
-0.002784578595310449 -0.012585638090968132 -0.0026903832331299786
-0.002784578595310449 -0.01203916035592556 -0.0028712905477732424
-0.002784578595310449 -0.011492681689560413 -0.003323048818856478
-0.002784578595310449 -0.010946203023195267 -0.0030873748473823075
-0.002784578595310449 -0.010399725288152695 -0.0032682828605175023
-0.002784578595310449 -0.009853246621787548 -0.0033699881751090292
-0.002784578595310449 -0.009306767955422401 -0.003340247552841902
-0.002784578595310449 -0.008760289289057255 -0.003154641948640347
-0.002784578595310449 -0.008213811554014683 -0.003472920507192612
-0.002784578595310449 -0.0076673333533108234 -0.0033739251084625725
-0.002784578595310449 -0.007120855152606964 -0.0030877636745572094
-0.002784578595310449 -0.0065743764862418175 -0.0030580235179513697
-0.002784578595310449 -0.006027898285537958 -0.002629044465720654
-0.002784578595310449 -0.005481420084834099 -0.001804366940632463
-0.0027845785953104496 -0.004934941418468952 -0.0017407960258424286
-0.003331057028844952 -0.013132116757333279 -0.002165024401620031
-0.003331057028844952 -0.012585638090968132 -0.0025014283601194624
-0.003331057028844952 -0.01203916035592556 -0.002837833017110825
-0.003331057028844952 -0.011492681689560413 -0.0025657205842435364
-0.003331057028844952 -0.010946203023195267 -0.0028518820181488995
-0.003331057028844952 -0.010399725288152695 -0.002915452932938934
-0.003331057028844952 -0.009853246621787548 -0.0033011923078447585
-0.003331057028844952 -0.009306767955422401 -0.003364762524142862
-0.003331057028844952 -0.008760289289057255 -0.0032965461723506455
-0.003331057028844952 -0.008213811554014683 -0.0035827069077640776
-0.003331057028844952 -0.0076673333533108234 -0.00313094980083406
-0.003331057028844952 -0.007120855152606964 -0.0031606915872544055
-0.003331057028844952 -0.0065743764862418175 -0.0027089340146631007
-0.003331057028844952 -0.006027898285537958 -0.0019582849927246575
-0.0038775352295488115 -0.013678595423698425 -0.0019033428980037574
-0.0038775352295488115 -0.013132116757333279 -0.0022216215729713444
-0.0038775352295488115 -0.012585638090968132 -0.0025859400629997258
-0.0038775352295488115 -0.01203916035592556 -0.002687646541744471
-0.0038775352295488115 -0.011492681689560413 -0.002868555020540953
-0.0038775352295488115 -0.010946203023195267 -0.003049463499337435
-0.0038775352295488115 -0.010399725288152695 -0.003151168348267675
-0.0038775352295488115 -0.009853246621787548 -0.003332076827064157
-0.0038775352295488115 -0.009306767955422401 -0.003512985305860639
-0.0038775352295488115 -0.008760289289057255 -0.003785098902881146
-0.0038775352295488115 -0.008213811554014683 -0.003498937468975783
-0.0038775352295488115 -0.0076673333533108234 -0.0034353665541857485
-0.0038775352295488115 -0.007120855152606964 -0.003149204654619098
-0.0038775352295488115 -0.0065743764862418175 -0.002763466211035848
-0.0038775352295488115 -0.006027898285537958 -0.0022344123572111134
-0.003877535229548812 -0.005481420084834099 -0.0014382964000105862
-0.004424013663083315 -0.012585638090968132 -0.002790973754599691
-0.004424013663083315 -0.01203916035592556 -0.002689268440008164
-0.004424013663083315 -0.011492681689560413 -0.0028748731128871445
-0.004424013663083315 -0.010946203023195267 -0.002938444027677179
-0.004424013663083315 -0.010399725288152695 -0.003037439659237862
-0.004424013663083315 -0.009853246621787548 -0.003323600627481938
-0.004424013663083314 -0.009306767955422401 -0.0035592739004641776
-0.004424013663083314 -0.008760289289057255 -0.003589015686884523
-0.004424013663083314 -0.008213811554014683 -0.00355346710421145
-0.004424013663083315 -0.0076673333533108234 -0.0029818620532751088
-0.004424013663083315 -0.007120855152606964 -0.0028009535744786267
-0.004424013663083315 -0.0065743764862418175 -0.0024366348516196017
-0.004424013663083315 -0.006027898285537958 -0.0016859853640198712
-0.0049704923294484615 -0.013132116757333279 -0.002221358241513372
-0.0049704923294484615 -0.012585638090968132 -0.002539637498557568
-0.0049704923294484615 -0.01203916035592556 -0.002720545511692763
-0.0049704923294484615 -0.011492681689560413 -0.0027560929302126174
-0.0049704923294484615 -0.010946203023195267 -0.0027916412800550465
-0.0049704923294484615 -0.010399725288152695 -0.003155960934236646
-0.0049704923294484615 -0.009853246621787548 -0.003257666248828173
-0.004970492329448461 -0.009306767955422401 -0.0035759448073804383
-0.004970492329448461 -0.008760289289057255 -0.0035462032537907366
-0.0049704923294484615 -0.008213811554014683 -0.003360598580911756
-0.0049704923294484615 -0.0076673333533108234 -0.0029748592060059313
-0.0049704923294484615 -0.007120855152606964 -0.002945117419585586
-0.0049704923294484615 -0.0065743764862418175 -0.0023872593883425
-0.0049704923294484615 -0.006027898285537958 -0.002101097954437137
-0.0049704923294484615 -0.005481420084834099 -0.0013333802344277508
-0.005516970530152321 -0.012585638090968132 -0.002182241529226304
-0.005516970530152321 -0.01203916035592556 -0.002711293753236533
-0.005516970530152321 -0.011492681689560413 -0.0023469752632081517
-0.005516970530152321 -0.010946203023195267 -0.0024105459451675424
-0.005516970530152321 -0.010399725288152695 -0.002646219218149782
-0.005516970530152321 -0.009853246621787548 -0.0031752726063132295
-0.005516970530152321 -0.009306767955422401 -0.003205013694241644
-0.005516970530152321 -0.008760289289057255 -0.0029329003300517806
-0.005516970530152321 -0.008213811554014683 -0.002864684909582139
-0.005516970530152321 -0.0076673333533108234 -0.002683776430785657
-0.005516970530152321 -0.007120855152606964 -0.0027827722951769837
-0.005516970530152321 -0.0065743764862418175 -0.0021730996668338784
-0.005516970530152321 -0.006027898285537958 -0.0024592611007392415
-0.00606344873085618 -0.012585638090968132 -0.0020214885007590064
-0.00606344873085618 -0.01203916035592556 -0.002473245607689024
-0.00606344873085618 -0.011492681689560413 -0.002443505451083184
-0.00606344873085618 -0.010946203023195267 -0.0023799333721399316
-0.00606344873085618 -0.010399725288152695 -0.0024154819548130044
-0.00606344873085618 -0.009853246621787548 -0.002596389967948199
-0.00606344873085618 -0.009306767955422401 -0.002599487779662014
-0.00606344873085618 -0.008760289289057255 -0.002602583961561323
-0.00606344873085618 -0.008213811554014683 -0.002638132544234396
-0.00606344873085618 -0.0076673333533108234 -0.002673680894076825
-0.00606344873085618 -0.007120855152606964 -0.0026101099792867908
-0.00606344873085618 -0.0065743764862418175 -0.0026456585619598636
-0.00606344873085618 -0.006027898285537958 -0.001934407860971988
-0.00606344873085618 -0.005481420084834099 -0.0013765499461442239
-0.006609927397221327 -0.01203916035592556 -0.0018722295062616476
-0.006609927397221327 -0.011492681689560413 -0.002370428992435337
-0.006609927397221327 -0.010946203023195267 -0.0017988233594223866
-0.006609927397221327 -0.010399725288152695 -0.0017957260133698591
-0.006609927397221327 -0.009853246621787548 -0.0016940206987783321
-0.006609927397221327 -0.009306767955422401 -0.0027283611707389363
-0.006609927397221327 -0.008760289289057255 -0.0019777107518166312
-0.006609927397221327 -0.008213811554014683 -0.0022133849561214456
-0.006609927397221327 -0.0076673333533108234 -0.0023123808205127725
-0.006609927397221327 -0.007120855152606964 -0.0023759517353028068
-0.006609927397221327 -0.0065743764862418175 -0.002274245489388705
-0.006609927397221327 -0.006027898285537958 -0.0016645744908601054
-0.006609927397221327 -0.005481420084834099 -0.0015628683613613257
-0.006609927397221327 -0.004934941418468952 -0.0012445905013009914
-0.007156405597925186 -0.011492681689560413 -0.001954975537955762
-0.007156405597925186 -0.010946203023195267 -0.001719302264973522
-0.007156405597925186 -0.010399725288152695 -0.0016895605949684986
-0.007156405597925186 -0.009853246621787548 -0.0016926567768678078
-0.007156405597925186 -0.009306767955422401 -0.0014569837367162117
-0.007156405597925186 -0.008760289289057255 -0.0019087411928921947
-0.007156405597925186 -0.008213811554014683 -0.0020896496716886767
-0.007156405597925186 -0.0076673333533108234 -0.0023158476687967786
-0.007156405597925186 -0.007120855152606964 -0.0023189438506960878
-0.007156405597925186 -0.0065743764862418175 -0.0023544924333691606
-0.007156405597925186 -0.006027898285537958 -0.002118819160386921
-0.007156405597925186 -0.005481420084834099 -0.002089077839627863
-0.007156405597925186 -0.004934941418468952 -0.0021246264223009357
-0.007156405597925186 -0.004388463217765093 -0.002127722604200245
-0.007156405597925186 -0.00384198478423059 -0.0020641516894102105
-0.007156405597925186 -0.003295506350696087 -0.001479197060689331
-0.007156405597925186 -0.002749027917161584 -0.0015809031901881107
-0.007156405597925186 -0.0005631142994388938 -0.0013476433232426652
-0.007156405597925186 -1.6635915017104708e-05 -0.0013507396215572962
-0.007156405597925186 0.0005298424512147903 -0.001418956322595478
-0.007156405597925186 0.0010763208847492933 -0.0015998649178072819
-0.007156405597925186 0.0016227993182837963 -0.0013137037167325625
-0.007156405597925186 0.0021692777518182993 -0.0011280977632850417
-0.007156405597925186 0.0032622343860566616 -0.0011234012199565777
-0.007156405597925186 0.0038087128195911646 -0.0010936597827821979
-0.007156405597925186 0.005448147654533386 -0.0017423308454453954
-0.007156405597925186 0.005994626320898533 -0.0020606094039976606
-0.007156405597925186 0.006541104521602392 -0.0021623147185891875
-0.007156405597925186 0.007087583187967539 -0.0017333365976810464
-0.007156405597925186 0.008180540055036545 -0.0018055863911286005
-0.007702884264290333 -0.010399725288152695 -0.001161207677796484
-0.007702884264290333 -0.009853246621787548 -0.0010929919080808767
-0.007702884264290333 -0.009306767955422401 -0.001156562822870911
-0.007702884264290333 -0.008760289289057255 -0.0013421674957498917
-0.007702884264290333 -0.008213811554014683 -0.0017711464315652856
-0.007702884264290333 -0.0076673333533108234 -0.0016694403020665058
-0.007702884264290333 -0.007120855152606964 -0.0021343950647860774
-0.007702884264290333 -0.0065743764862418175 -0.002745081204921008
-0.007702884264290333 -0.006027898285537958 -0.002426802646368743
-0.007702884264290333 -0.005481420084834099 -0.0025257980450987825
-0.007702884264290333 -0.004934941418468952 -0.0027114031836390504
-0.007702884264290333 -0.004388463217765093 -0.002708306536078454
-0.007702884264290333 -0.00384198478423059 -0.002606600522994996
-0.007702884264290333 -0.003295506350696087 -0.002538384636864067
-0.007702884264290333 -0.002749027917161584 -0.002874789061024786
-0.007702884264290333 -0.002202549483627081 -0.0018855411326512703
-0.007702884264290333 -0.001656071050092578 -0.0023145198356360206
-0.007702884264290333 -0.001109592616558075 -0.0020424062386155137
-0.007702884264290333 -0.0005631142994388938 -0.002507361350581051
-0.007702884264290333 -1.6635915017104708e-05 -0.002504263538867236
-0.007702884264290333 0.0005298424512147903 -0.002603259403258563
-0.007702884264290333 0.0010763208847492933 -0.0026330009568482646
-0.007702884264290333 0.0016227993182837963 -0.0025974526070058354
-0.007702884264290333 0.0021692777518182993 -0.0024957472924143085
-0.007702884264290333 0.0027157559525221586 -0.0022695492953062066
-0.007702884264290333 0.0032622343860566616 -0.0025557100307196387
-0.007702884264290333 0.0038087128195911646 -0.002741316333413125
-0.007702884264290333 0.004355191253125668 -0.0021316439379006633
-0.007702884264290333 0.004901669453829527 -0.002716599265113474
-0.007702884264290333 0.005448147654533386 -0.0028155944310128697
-0.007702884264290333 0.005994626320898533 -0.0027473773807287225
-0.007702884264290333 0.006541104521602392 -0.0024752644822001466
-0.007702884264290333 0.007087583187967539 -0.002203152049332858
-0.007702884264290333 0.007634061388671398 -0.001931038568727673
-0.007702884264290333 0.008180540055036545 -0.001895490102469922
-0.007702884264290333 0.008727017790079117 -0.0016692917561158547
-0.007702884264290333 0.009273497387766838 -0.0013510140124708423
-0.008249361999332905 -0.009306767955422401 -0.0012713209725916396
-0.008249361999332905 -0.008760289289057255 -0.0013068694388493906
-0.008249361999332905 -0.008213811554014683 -0.0016711880452930938
-0.008249361999332905 -0.0076673333533108234 -0.001852096524089576
-0.008249361999332905 -0.007120855152606964 -0.0020782945211976775
-0.008249361999332905 -0.0065743764862418175 -0.002304492052644492
-0.008249361999332905 -0.006027898285537958 -0.0026227706111967572
-0.008249361999332905 -0.005481420084834099 -0.0029870893340557822
-0.008249361999332905 -0.004934941418468952 -0.0031679978128522643
-0.008249361999332905 -0.004388463217765093 -0.0033941962756216535
-0.008249361999332905 -0.00384198478423059 -0.003495901124551893
-0.008249361999332905 -0.003295506350696087 -0.003466160502284766
-0.008249361999332905 -0.002749027917161584 -0.003402590053156019
-0.008249361999332905 -0.002202549483627081 -0.0034056862350553283
-0.008249361999332905 -0.001656071050092578 -0.0034739032853394755
-0.008249361999332905 -0.001109592616558075 -0.003542118938639761
-0.008249361999332905 -0.0005631142994388938 -0.003478548489511014
-0.008249361999332905 -1.6635915017104708e-05 -0.003192387055605651
-0.008249361999332905 0.0005298424512147903 -0.0032606031745672235
-0.008249361999332905 0.0010763208847492933 -0.0032961515244096526
-0.008249361999332905 0.0016227993182837963 -0.003266409970819951
-0.008249361999332905 0.0021692777518182993 -0.0032028390560299167
-0.008249361999332905 0.0027157559525221586 -0.003238387405872346
-0.008249361999332905 0.0032622343860566616 -0.003174816723912955
-0.008249361999332905 0.0038087128195911646 -0.00314507493749261
-0.008249361999332905 0.004355191253125668 -0.003371273400261999
-0.008249361999332905 0.004901669453829527 -0.003085111966356636
-0.008249361999332905 0.005448147654533386 -0.0030553708784282216
-0.008249361999332905 0.005994626320898533 -0.0028697657398879537
-0.008249361999332905 0.006541104521602392 -0.002484026364982129
-0.008249361999332905 0.007087583187967539 -0.0022984216921031484
-0.008249361999332905 0.007634061388671398 -0.001912682200782002
-0.008249361999332905 0.008180540055036545 -0.0017270775279030215
-0.008249361999332905 0.008727017790079117 -0.0014914032071828853
-0.008249361999332905 0.009273497387766838 -0.0013057981850579392
-0.008795841597020626 -0.008760289289057255 -0.0011539243860170256
-0.008795841597020626 -0.008213811554014683 -0.001440085587091745
-0.008795841597020626 -0.0076673333533108234 -0.001675758627243341
-0.008795841597020626 -0.007120855152606964 -0.0019114329479634773
-0.008795841597020626 -0.0065743764862418175 -0.0020970376208424577
-0.008795841597020626 -0.006027898285537958 -0.0027564535848796376
-0.008795841597020626 -0.005481420084834099 -0.0028200242668390283
-0.008795841597020626 -0.004934941418468952 -0.0035312746185809383
-0.008795841597020626 -0.004388463217765093 -0.0031669549643993386
-0.008795841597020626 -0.00384198478423059 -0.004049413837492467
-0.008795841597020626 -0.003295506350696087 -0.00433557527139783
-0.008795841597020626 -0.002749027917161584 -0.003883817931637169
-0.008795841597020626 -0.002202549483627081 -0.003913559019565583
-0.008795841597020626 -0.001656071050092578 -0.003845342667773367
-0.008795841597020626 -0.001109592616558075 -0.0038422457873821267
-0.008795841597020626 -0.0005631142994388938 -0.0038719864096492538
-0.008795841597020626 -1.6635915017104708e-05 -0.0029967848677188167
-0.008795841597020626 0.0005298424512147903 -0.0036321778316050777
-0.008795841597020626 0.0010763208847492933 -0.0036290809512138375
-0.008795841597020626 0.0016227993182837963 -0.0035608645994216212
-0.008795841597020626 0.0021692777518182993 -0.0034591592848300943
-0.008795841597020626 0.0027157559525221586 -0.003456061938777567
-0.008795841597020626 0.0032622343860566616 -0.003519632853567601
-0.008795841597020626 0.0038087128195911646 -0.0034179273061454305
-0.008795841597020626 0.004355191253125668 -0.0033823789563030013
-0.008795841597020626 0.004901669453829527 -0.0030641013290733108
-0.008795841597020626 0.005448147654533386 -0.002962395083159209
-0.008795841597020626 0.005994626320898533 -0.002736198017373682
-0.008795841597020626 0.006541104521602392 -0.0024179189931601295
-0.008795841597020626 0.007087583187967539 -0.0021458053961396226
-0.008795841597020626 0.007634061388671398 -0.001919607399031521
-0.008795841597020626 0.008180540055036545 -0.0015552885597571741
-0.009342319332063198 -0.008760289289057255 -0.001110750250518323
-0.009342319332063198 -0.008213811554014683 -0.001291658845730127
-0.009342319332063198 -0.0076673333533108234 -0.0013933639274910103
-0.009342319332063198 -0.007120855152606964 -0.0018451212672516714
-0.009342319332063198 -0.0065743764862418175 -0.0020260291639715446
-0.009342319332063198 -0.006027898285537958 -0.0029305603820830597
-0.009342319332063198 -0.005481420084834099 -0.0035402327775955213
-0.009342319332063198 -0.004934941418468952 -0.0038585113361477865
-0.009342319332063198 -0.004388463217765093 -0.004084710031747819
-0.009342319332063198 -0.00384198478423059 -0.0043109068647027024
-0.009342319332063198 -0.003295506350696087 -0.004211911465972663
-0.009342319332063198 -0.002749027917161584 -0.004215009044855834
-0.009342319332063198 -0.002202549483627081 -0.004116013180464507
-0.009342319332063198 -0.001656071050092578 -0.004086271859705449
-0.009342319332063198 -0.001109592616558075 -0.004056531004607678
-0.009342319332063198 -0.0005631142994388938 -0.003992960322648288
-0.009342319332063198 -1.6635915017104708e-05 -0.003656554734334351
-0.009342319332063198 0.0005298424512147903 -0.0037582609802484525
-0.009342319332063198 0.0010763208847492933 -0.0036592651158571256
-0.009342319332063198 0.0016227993182837963 -0.0035956948995590223
-0.009342319332063198 0.0021692777518182993 -0.0034100897610187544
-0.009342319332063198 0.0027157559525221586 -0.004371576942503453
-0.009342319332063198 0.0032622343860566616 -0.003305440302938224
-0.009342319332063198 0.0038087128195911646 -0.00324186938814819
-0.009342319332063198 0.004355191253125668 -0.003056263551115991
-0.009342319332063198 0.004901669453829527 -0.0028706588782370103
-0.009342319332063198 0.005448147654533386 -0.0026349856052547706
-0.009342319332063198 0.005994626320898533 -0.00244938093237579
-0.009342319332063198 0.006541104521602392 -0.0033826509024947895
-0.009342319332063198 0.007087583187967539 -0.0020845225080847753
-0.009342319332063198 0.007634061388671398 -0.001555468887090684
-0.009342319332063198 0.008180540055036545 -0.0011697295121848594
-0.009888797998428345 -0.007120855152606964 -0.0012366032460704459
-0.009888797998428345 -0.0065743764862418175 -0.0015227643307298435
-0.009888797998428345 -0.006027898285537958 -0.002318880753591658
-0.009888797998428345 -0.005481420084834099 -0.0031723259016871465
-0.009888797998428345 -0.004934941418468952 -0.003508730093017222
-0.009888797998428345 -0.004388463217765093 -0.0038451347500085844
-0.009888797998428345 -0.00384198478423059 -0.004181539174169303
-0.009888797998428345 -0.003295506350696087 -0.0043671438470482835
-0.009888797998428345 -0.002749027917161584 -0.004048865288496018
-0.009888797998428345 -0.002202549483627081 -0.004147860687226058
-0.009888797998428345 -0.001656071050092578 -0.004046156071126462
-0.009888797998428345 -0.001109592616558075 -0.0038652473594993366
-0.009888797998428345 -0.0005631142994388938 -0.003862150013446809
-0.009888797998428345 -1.6635915017104708e-05 -0.0035438709892332567
-0.009888797998428345 0.0005298424512147903 -0.0035407748073339475
-0.009888797998428345 0.0010763208847492933 -0.0032686612103134407
-0.009888797998428345 0.0016227993182837963 -0.0032004441600292934
-0.009888797998428345 0.0021692777518182993 -0.0028821667656302465
-0.009888797998428345 0.0027157559525221586 -0.0029119069222360862
-0.009888797998428345 0.0032622343860566616 -0.0024192396085709346
-0.009888797998428345 0.0038087128195911646 -0.0025182347744703306
-0.009888797998428345 0.004355191253125668 -0.0024826864246279014
-0.009888797998428345 0.004901669453829527 -0.0021183677017688764
-0.009888797998428345 0.005448147654533386 -0.0021152705885469926
-0.009888797998428345 0.005994626320898533 -0.0019343619933351887
-0.009888797998428345 0.006541104521602392 -0.0017534535145387067
-0.009888797998428345 0.007087583187967539 -0.0015272565651685012
-0.009888797998428345 0.007634061388671398 -0.0011629369109869016
-0.010435276664793491 -0.006027898285537958 -0.0017570167547091855
-0.010435276664793491 -0.005481420084834099 -0.002249684650450946
-0.010435276664793491 -0.004934941418468952 -0.002614004071801902
-0.010435276664793491 -0.004388463217765093 -0.002886117668822409
-0.010435276664793491 -0.00384198478423059 -0.0031582301016896976
-0.010435276664793491 -0.003295506350696087 -0.0033391385804861797
-0.010435276664793491 -0.002749027917161584 -0.0034073551651090397
-0.010435276664793491 -0.002202549483627081 -0.0033776138443499817
-0.010435276664793491 -0.001656071050092578 -0.004024443216621877
-0.010435276664793491 -0.001109592616558075 -0.003413756610825659
-0.010435276664793491 -0.0005631142994388938 -0.003416854422539474
-0.010435276664793491 -1.6635915017104708e-05 -0.0033871126361191286
-0.010435276664793491 0.0005298424512147903 -0.0031009512022137655
-0.010435276664793491 0.0010763208847492933 -0.003037380985915662
-0.010435276664793491 0.0016227993182837963 -0.0028517756145447506
-0.010435276664793491 0.0021692777518182993 -0.0027882053982466472
-0.010435276664793491 0.0027157559525221586 -0.0026026000268757356
-0.010435276664793491 0.0032622343860566616 -0.0025390298105776323
-0.010435276664793491 0.0038087128195911646 -0.0024400339461863054
-0.010435276664793491 0.004355191253125668 -0.0023410380817949785
-0.010435276664793491 0.004901669453829527 -0.0020046338904649032
-0.010435276664793491 0.005448147654533386 -0.002007730305194856
-0.010435276664793491 0.005994626320898533 -0.0019779894500970853
-0.010435276664793491 0.006541104521602392 -0.0015922501916065825
-0.010435276664793491 0.007634061388671398 -0.001137766055762769
-0.010435276664793491 0.008180540055036545 -0.0011408622376620783
-0.010981755331158638 -0.005481420084834099 -0.0011622416786849512
-0.010981755331158638 -0.004388463217765093 -0.0013211707118898643
-0.010981755331158638 -0.00384198478423059 -0.0015184483490884317
-0.010981755331158638 -0.003295506350696087 -0.0017157270340248955
-0.010981755331158638 -0.002749027917161584 -0.0024269772693514837
-0.010981755331158638 -0.002202549483627081 -0.002200779272243382
-0.010981755331158638 -0.001656071050092578 -0.002040008315816523
-0.010981755331158638 -0.001109592616558075 -0.00213900418020785
-0.010981755331158638 -0.0005631142994388938 -0.0013883548090234412
-0.010981755331158638 -1.6635915017104708e-05 -0.0019174080807715667
-0.010981755331158638 0.0005298424512147903 -0.0018157021841034306
-0.010981755331158638 0.0010763208847492933 -0.0019146974664181484
-0.010981755331158638 0.0016227993182837963 -0.0015964186750352396
-0.010981755331158638 0.0021692777518182993 -0.0018320932285860194
-0.010981755331158638 0.0027157559525221586 -0.0018618344329297556
-0.010981755331158638 0.0032622343860566616 -0.00185873720329255
-0.010981755331158638 0.0038087128195911646 -0.0015404582954943193
