ply
format ascii 1.0
element vertex 664
property float x
property float y
property float z
property uchar red
property uchar green
property uchar blue
end_header
0.005495966573972094 -0.015490141526114616 0.069941543208981 0 131 123
0.005986276114753613 -0.01574279129888114 0.06991154491709847 0 132 122
0.0064734520396495816 -0.015869617262708455 0.06864043206271551 59 195 0
0.006965112756759003 -0.01617652070227239 0.06914558698626169 0 233 21
0.007453787803217259 -0.01636354076515944 0.06846822322872674 78 176 0
0.007944703606901249 -0.01664053376006735 0.06867834425728575 40 214 0
0.008434446674455368 -0.016870437982091 0.0684239859297544 76 178 0
0.008924756213913606 -0.01712308770172402 0.06839398711376783 77 177 0
0.009415235031186353 -0.01738253441887313 0.06843103326065131 67 187 0
0.009905462178003374 -0.017631875833874912 0.06836840162986096 73 181 0
0.010396759010601189 -0.017924168249964123 0.06872943475197388 11 243 0
0.01089072079978197 -0.018323461804758773 0.07014591673476649 0 61 193
0.002318450782324356 -0.013244331887286315 0.07030511504911674 0 113 141
0.002808516827867566 -0.013487204616706936 0.07017867689440457 0 128 126
0.0032973489792971697 -0.013680532901986366 0.06956353686654905 0 211 43
0.003787756642536913 -0.01393712257737256 0.06957240141435743 0 206 48
0.004277094619995862 -0.014150761251671324 0.06915760120926254 6 248 0
0.004767502285882163 -0.01440735103332453 0.069166466805279 1 253 0
0.005258278565193435 -0.01467876025248464 0.06932151238498606 0 230 24
0.005749170309019359 -0.014954787173982468 0.06952210415363948 0 198 56
0.006238889318038692 -0.015183725375729549 0.06925821709030659 0 231 23
0.00672732920988593 -0.015361303295760392 0.06848771689779287 91 163 0
0.007217654476514617 -0.01561458450711483 0.06846394705848531 91 163 0
0.0077077205247043845 -0.015857457342802462 0.06833750995198125 106 148 0
0.008198045792656351 -0.016110738607290405 0.06831374063677773 106 148 0
0.008688287680800995 -0.01636067192955147 0.06825694752514636 111 143 0
0.00917861295007624 -0.01661395324717292 0.06823317873404691 110 144 0
0.009669103561734366 -0.01687387354326296 0.06827489622036162 99 155 0
0.010159880309972035 -0.017145283056803323 0.06842994229853458 71 183 0
0.010650455955536185 -0.017408617712003013 0.06850533871134436 54 200 0
0.011142919556727986 -0.017747754653426567 0.06932844135269889 0 183 71
0.001593492223397744 -0.012302314963786466 0.07091862332029167 0 41 213
0.002574616677767077 -0.012827906700112973 0.07105878705364882 0 14 240
0.0030616639296634513 -0.012949566068062536 0.06973671136928564 0 197 57
0.0035508342807600325 -0.013156474055460974 0.06925552028317979 7 247 0
0.00404114382154155 -0.013409123828227499 0.06922552199129726 8 246 0
0.004531288019940188 -0.013655134622525432 0.06913003742200058 18 236 0
0.005021347187079359 -0.013897731163980725 0.06900087497441691 35 219 0
0.005512262520513675 -0.014174723811374877 0.06921099498040598 0 252 2
0.0060024896646841365 -0.014424065120109644 0.06914836230140753 3 251 0
0.006491355710581045 -0.014618754367017376 0.06854664667478522 94 160 0
0.006981414877720215 -0.014861350908472667 0.06841748422720156 110 144 0
0.0074714740435361075 -0.015103947396794454 0.06828832125551385 126 128 0
0.007961618239288187 -0.015349958084825375 0.06819283563800906 137 117 0
0.00845218700380174 -0.01561301644579273 0.06826550670973924 121 133 0
0.008942496544583258 -0.015865666218559255 0.06823550841785672 122 132 0
0.009432889465172099 -0.01612166393355266 0.06823853392240208 117 137 0
0.009923282387084217 -0.01637766170167957 0.06824155995105147 112 142 0
0.010414071059388602 -0.01664955000124447 0.06840132873085292 83 171 0
0.010905477681795242 -0.016946250798077683 0.06880584571809878 14 240 0
0.011397288189242145 -0.017259164122574753 0.06937028099654895 0 184 70
0.002337488388641587 -0.012038989595097048 0.07066034537372799 0 81 173
0.002826462481588927 -0.01223801724592109 0.07010142336719981 0 156 98
0.003314464848450386 -0.012398027262856107 0.06915763498266067 35 219 0
0.0038049554587852325 -0.012657947505812644 0.06919935194487131 24 230 0
0.004294674469127842 -0.012886885760693231 0.06893546540564248 61 193 0
0.004784916357272487 -0.013136819082954294 0.06887867229401111 66 188 0
0.005275241626547732 -0.013390100400575745 0.06885490350291165 66 188 0
0.005765566425573304 -0.013643381370683437 0.06883113368924225 65 189 0
0.006256458169399228 -0.013919408292181265 0.06903172545789567 29 225 0
0.006745290320828833 -0.014112736577460695 0.06841658543004016 122 132 0
0.007235446313612848 -0.01435922095069956 0.06832577220017472 132 122 0
0.007724498745997949 -0.014561394158225289 0.0677978776777336 212 42 0
0.008215741189183914 -0.014851502680941871 0.06813736907502858 154 100 0
0.008705897181967931 -0.015097987054180736 0.06804655584516311 164 90 0
0.009197762599746367 -0.015413109822088746 0.06863278547299467 67 187 0
0.009687225842761587 -0.015631778273486746 0.06826759852994156 120 134 0
0.010177551110713553 -0.015885059537974693 0.06824382921473804 120 134 0
0.010668041723694958 -0.016144979887198242 0.06828554722515681 109 145 0
0.011160870921269115 -0.016498801222290426 0.06925349598615646 0 211 43
0.0021011207096765646 -0.011280613204387923 0.07056315451108011 0 105 149
0.002591689474190118 -0.011543671565355278 0.07063582558281031 0 91 163
0.003079425589384979 -0.011692990802037935 0.06958658431802887 0 236 18
0.0035707224219827943 -0.011985283218127144 0.06994761744014179 0 181 73
0.0040587431400768825 -0.01214603009052641 0.06901109733062027 61 193 0
0.004548970284247344 -0.012395371399261178 0.06894846465162183 67 187 0
0.005038596769601732 -0.012620594506253406 0.06864793223284954 110 144 0
0.0055291655327920075 -0.012883652814087255 0.06872060278047568 95 159 0
0.006019392209359353 -0.01313299388157528 0.06865797012711539 100 154 0
0.006509785131271472 -0.01338899164970219 0.06866099615576478 95 159 0
0.006998955483691334 -0.013595899690234135 0.06817980559376298 167 87 0
0.007489348404280173 -0.013851897405227537 0.06818283109830833 163 91 0
0.007979492601355533 -0.014097908146391964 0.06808734600490758 173 81 0
0.008470408405039521 -0.01437490114129987 0.06829746703346662 136 118 0
0.008960467568208855 -0.014617497523354644 0.06816830301357078 152 102 0
0.009450325630027952 -0.01485201910020226 0.06795948985241587 181 73 0
0.009941497197069497 -0.015139281739192233 0.06827090971248702 127 127 0
0.010432903818152855 -0.015435982482891939 0.06867542617562883 59 195 0
0.010922296182377096 -0.015651804944296317 0.06828216664714377 117 137 0
0.011413956903456356 -0.015958708543260768 0.06878732314300212 33 221 0
0.011906981446569499 -0.0163203689373712 0.06983259506506075 0 133 121
0.0023569318234436497 -0.01084994249912914 0.07117631002596476 0 25 229
0.002845443298066275 -0.011030394676178917 0.07043416124223958 0 127 127
0.003334086387337626 -0.01121613156489077 0.06974414037180614 0 220 34
0.00382432827548227 -0.011466064887151836 0.06968734726017477 0 225 29
0.00431309509133646 -0.011656769758695194 0.06904633011876854 63 191 0
0.00480294122908884 -0.011890812549518268 0.06883279425598512 93 161 0
0.005293266499687366 -0.012144093920273224 0.06880902598898973 92 162 0
0.005783112636116465 -0.01237813665796279 0.06859548960210225 122 132 0
0.0062728311748861225 -0.012607074512196115 0.0683316015161994 160 94 0
0.006762987168993416 -0.012853558938568484 0.06824078881043799 170 84 0
0.007253229057138062 -0.01310349226082955 0.06818399569880662 174 80 0
0.007743385049922076 -0.013349976634068415 0.06809318246894117 185 69 0
0.008233875664226759 -0.01360989703642547 0.06813490100346398 174 80 0
0.008724031657010774 -0.013856381409664335 0.06804408777359852 184 70 0
0.009214808405248442 -0.014127790923204694 0.06819913385177147 155 99 0
0.009705050293393087 -0.01437772424546576 0.0681423407401401 160 94 0
0.01019594203721901 -0.014653751166963587 0.06834293250879353 124 130 0
0.010686718785456677 -0.014925160680503946 0.06849797858696648 95 159 0
0.011177294428374271 -0.01518849522943663 0.06857337395156816 79 175 0
0.011669159846152705 -0.015503617997344636 0.06915960357939971 0 239 15
0.012161623447344507 -0.01584275493876819 0.06998270622075424 0 118 136
0.0021193287590296314 -0.010041961782817313 0.07058982662490496 0 119 135
0.0026103727540396754 -0.01032410203300671 0.07085071970956862 0 78 176
0.0030987841914194183 -0.010500537423253319 0.07006894970758676 0 185 69
0.003588176555643657 -0.0107163598846577 0.06967569017910169 0 237 17
0.004077685824947694 -0.01093687642566902 0.0693287326232467 31 223 0
0.004567078189171932 -0.0111526988870734 0.06893547309476163 89 165 0
0.005057387731276728 -0.011405348712973433 0.06890547532698316 89 165 0
0.005547014215307839 -0.011630571766832153 0.06860494238410682 133 121 0
0.006037241360801579 -0.01187991312870043 0.06854231022921242 138 116 0
0.006527300059014355 -0.012122509375775473 0.06841314728316285 154 100 0
0.007017444254766434 -0.012368520063806392 0.06831766166565806 165 89 0
0.007506836621637232 -0.012584342631477783 0.06792440318538111 223 31 0
0.007998008188678775 -0.012871605270467755 0.06823582304545227 170 84 0
0.008486973246277372 -0.013070270125711332 0.06767332245644496 255 0 0
0.008978379864714173 -0.013366970763144024 0.06807783787137868 186 68 0
0.009469168540988393 -0.013638859222109445 0.06823760822349229 157 97 0
0.009959478080446633 -0.013891508941742466 0.0682076094075057 157 97 0
0.01044995689771938 -0.014150955658891575 0.06824465555438919 147 107 0
0.010941000892729423 -0.01443309590908097 0.06850554863905285 101 153 0
0.01143204488641619 -0.01471523610613686 0.06876644119961248 56 198 0
0.011924036608524879 -0.015035430360946485 0.06940269551116798 0 211 43
0.012414631972721054 -0.015299552143085492 0.0694858554709167 0 195 59
0.012906826890930579 -0.015627905313442624 0.07020258858044845 0 90 164
0.0023735232639118904 -0.009546379520149114 0.07056270046452788 0 130 124
0.002864648808634455 -0.009831794228926286 0.07085589250971307 0 85 169
0.0033533528931262275 -0.010019980253473811 0.07019002969153398 0 175 79
0.003841995981074299 -0.010205717089052158 0.06950000829699647 16 238 0
0.004332486592732426 -0.010465637385142203 0.06954172578331118 5 249 0
0.004821190678547476 -0.010653823462823234 0.06887586348923613 106 148 0
0.005311346671331492 -0.0109003078360621 0.06878505025937068 116 138 0
0.005801502664115509 -0.011146792209300965 0.06869423702950522 126 128 0
0.006291348801867888 -0.011380835000124039 0.0684807011667218 156 98 0
0.006781414379807981 -0.011623707488297915 0.06835426303764777 171 83 0
0.0072718220456942815 -0.011880297269951118 0.06836312863366423 166 88 0
0.007761668183446662 -0.012114340060774194 0.06814959277088081 195 59 0
0.00825199345007535 -0.012367621272128631 0.06812582293157327 195 59 0
0.008742569096962778 -0.012630955980461833 0.0682012198684871 179 75 0
0.009233345843877167 -0.012902365440868684 0.068356265422556 150 104 0
0.009723921488118037 -0.013165700042934873 0.06843166131126173 134 120 0
0.01021449713103563 -0.013429034591867554 0.06850705667586342 117 137 0
0.01070421614137824 -0.013657972846748141 0.06824317013663458 155 99 0
0.011197114834916862 -0.014014584647319953 0.06923864379432998 0 249 5
0.011687440101545552 -0.01426786585867439 0.06921487395502242 0 248 6
0.012179305519323986 -0.014582988626582397 0.06980110358285396 0 162 92
0.0021381647783532453 -0.008828525185424105 0.07086521546206936 0 98 156
0.00262802284149562 -0.009063046815405228 0.07065640282501848 0 124 130
0.0031170893151937756 -0.009265783822565451 0.0701340695706919 0 194 60
0.003607233513592413 -0.009511794616863384 0.07003858500139523 0 203 51
0.004095908560050668 -0.009698814679750433 0.06936122124386025 45 209 0
0.004585766621869764 -0.00993333625659805 0.06915240808270533 74 180 0
0.00507562468368886 -0.010167857833445666 0.06894359492155039 103 151 0
0.005565851827859321 -0.010417199142180434 0.06888096224255194 109 145 0
0.006055709891001696 -0.010651720772161557 0.06867214960550108 137 117 0
0.006545769056817588 -0.010894317260483344 0.06854298663381336 154 100 0
0.007034835062912626 -0.01109705402639682 0.06802065340512493 232 22 0
0.007526495782668607 -0.011403957572227768 0.06852580937687923 148 106 0
0.008016639982390526 -0.011649968419659207 0.06843032533168661 159 95 0
0.008506266466421634 -0.011875191473517926 0.06812979238881026 202 52 0
0.008997055138726017 -0.012147079773082829 0.0682895611686117 172 82 0
0.009487282282896478 -0.012396421081817597 0.06822692848961326 178 76 0
0.009977675204808599 -0.01265241884994451 0.06822995451826265 173 81 0
0.010467984748236674 -0.012905068728978047 0.06819995727458823 174 80 0
0.01095928158083449 -0.013197361145067255 0.06856099039670116 112 142 0
0.011451620395044774 -0.013531492159157684 0.06933471562924765 0 242 12
0.01194266438873154 -0.013813632356213574 0.06959560818980727 0 201 53
0.012431339435189797 -0.014000652419100623 0.06891824443227229 43 211 0
0.012922837520443878 -0.014301021082179838 0.06935894031594017 0 227 27
0.0028819865122726683 -0.008558195890778627 0.07053785142939821 0 147 107
0.003371449755287888 -0.00877686434217663 0.07017266448634508 0 195 59
0.0038619403695925713 -0.009036784744533687 0.07021438302086791 0 185 69
0.004350451844215197 -0.009217236921583463 0.06947223423714272 35 219 0
0.004840297981967576 -0.009451279712406536 0.0692586983743593 65 189 0
0.005329761224982795 -0.00966994816380454 0.06889351143130616 119 135 0
0.005819827271849284 -0.009912820946358668 0.06876707380069805 134 120 0
0.006309673408278385 -0.010146863684048234 0.06855353741381057 164 90 0
0.006800681734304039 -0.010427571720577488 0.06880030327370494 121 133 0
0.007290144511039421 -0.010646239983862254 0.06843511688039401 174 80 0
0.007780386399184064 -0.01089617330612332 0.06837832376876263 179 75 0
0.008270232536936444 -0.011130216096946394 0.06816478790597921 208 46 0
0.008760474425081087 -0.011380149419207458 0.06810799479434784 213 41 0
0.009251938882717988 -0.01167917246906349 0.06853541827336766 141 113 0
0.009741785020470368 -0.011913215259886563 0.06832188241058423 171 83 0
0.010232360663387959 -0.012176549808819246 0.06839727777518591 155 99 0
0.010723137411625628 -0.012447959322359606 0.06855232385335887 126 128 0
0.011214705745337679 -0.012751153299320344 0.06902088897649537 47 207 0
0.011705831290060241 -0.013036568008097516 0.06931408102168055 0 252 2
0.012198518355564493 -0.013384682326420195 0.07022573629036913 0 119 135
0.01269047811982464 -0.013703593380487872 0.07084933322697413 0 27 227
0.0026459158975248457 -0.007811747494014178 0.07055831720988459 0 155 99
0.003136308816790408 -0.008067745155874075 0.07056134219032587 0 151 103
0.0036259353034680756 -0.00829296831599981 0.07026081029565763 0 190 64
0.004115105655887937 -0.008499876356531752 0.06977961973365585 0 254 0
0.004604614921222135 -0.008720392738142554 0.06943266060548868 49 205 0
0.005094241405253244 -0.008945615792001278 0.06913212766261234 93 161 0
0.005584300572392415 -0.009188212333456569 0.06900296521502867 109 145 0
0.006074359735561748 -0.009430808715511343 0.06887380119513285 125 129 0
0.006564418902700922 -0.009673405256966635 0.0687446387475492 141 113 0
0.007054563101099559 -0.00991941605126457 0.06864915417825251 152 102 0
0.007544706829248522 -0.010165426498048745 0.06855366858638587 163 91 0
0.008034765996387692 -0.010408023039504038 0.0684245061388022 179 75 0
0.00852524481366044 -0.010667469756653149 0.06846155228568569 169 85 0
0.009016827191332103 -0.010971227639515392 0.06893567972514482 90 164 0
0.009505596583610429 -0.011162035961995359 0.06829568301433128 187 67 0
0.00999598950552255 -0.01141803373012227 0.06829870904298069 182 72 0
0.010486468321472018 -0.011677480394137876 0.06833575466576011 172 82 0
0.010976947138744766 -0.011936927111286985 0.0683728008126436 162 92 0
0.011467340060656885 -0.012192924879413893 0.068375826841293 157 97 0
0.011960528332623626 -0.0125611640976857 0.06948599228549049 0 234 20
0.012453716607236927 -0.012929403422224515 0.07059615877789609 0 74 180
0.012943860805635565 -0.013175414216522446 0.0705006742085994 0 83 171
0.003390718967181964 -0.007580821688779889 0.07061962559886287 0 149 105
0.003880056944640912 -0.007794460363078655 0.07020482539376799 0 204 50
0.00436952018897941 -0.008013128867610164 0.06983963897481892 0 252 2
0.004859676181763426 -0.008259613240849027 0.06974882574495346 7 247 0
0.005349014159222374 -0.008473251915147795 0.06933402553985857 69 185 0
0.005838477402237594 -0.008691920366545798 0.06896883859680544 122 132 0
0.00632925415047526 -0.008963329880086158 0.06912388467497839 93 161 0
0.006819100288227641 -0.00919737267090923 0.06891034881219497 123 131 0
0.0073089464246567405 -0.0094314154085988 0.0686968124253075 152 102 0
0.007798792094806004 -0.009665457958175128 0.06848327658816221 182 72 0
0.00828894808759002 -0.009911942331413993 0.06839246335829675 192 62 0
0.008779724835827687 -0.010183351844954353 0.06854750943646971 163 91 0
0.009269570973580067 -0.010417394635777425 0.06833397357368629 193 61 0
0.009760061585238192 -0.010677314931867469 0.06837569106000099 182 72 0
0.010249907721667291 -0.010911357669557037 0.06816215467311351 211 43 0
0.010741773140769005 -0.011226480490598552 0.06874838482504911 114 140 0
0.011232781462824824 -0.011507188367727286 0.06899514911263133 71 183 0
0.011723789788850478 -0.01178789640425654 0.06924191497252571 28 226 0
0.012216175300252012 -0.012123902446647941 0.07003413531302559 0 164 90
0.012704615192099252 -0.012301480366678788 0.06926363512051188 16 238 0
0.0036450337409191375 -0.007090068571091441 0.07064013368362054 0 153 101
0.004134100217263851 -0.007292805684518677 0.07011780147750209 0 224 30
0.0046237267012949595 -0.007518028738377398 0.06981726853462575 8 246 0
0.005113235970598995 -0.00773854527938872 0.06947031097877074 59 195 0
0.005603295133768329 -0.007981141661443494 0.06934114695887493 75 179 0
0.006093439333490246 -0.008227152508874933 0.06924566291368228 86 168 0
0.006583182399721084 -0.00845705667776508 0.06899130406204688 122 132 0
0.0070733265981197235 -0.008703067472063012 0.06889581949275021 133 121 0
0.007563069665673841 -0.008932971694086664 0.06864146116521885 169 85 0
0.008053462118659566 -0.009188969167833325 0.06864448669540234 164 90 0
0.008543606315734923 -0.00943497990899775 0.0685490016020016 175 79 0
0.009033915857839721 -0.009687629734897783 0.06851900383422313 175 79 0
0.009523975022332334 -0.009930226170086064 0.06838984033843137 192 62 0
0.010014763697283276 -0.010202114575917978 0.06854961016644091 162 92 0
0.010504822861775889 -0.010444711011106257 0.06842044667064916 178 76 0
0.01099561153672683 -0.010716599416938172 0.06858021649865871 149 105 0
0.011486527337764263 -0.010993592305579065 0.06879033647900963 111 143 0
0.011977933956201066 -0.01129029294301176 0.06919485189394334 43 211 0
0.012470797756196769 -0.011645503666158073 0.07017650545184495 0 151 103
0.003901398343238817 -0.006681622044045755 0.07147250646312645 0 43 211
0.004388844880667199 -0.006819313889595174 0.07030857367389495 0 203 51
0.004878182858126147 -0.007032952563893939 0.06989377346880006 4 250 0
0.00536790186449892 -0.007261890659374007 0.06962988535725906 41 213 0
0.005857748002251299 -0.007495933450197081 0.06941634949447564 71 183 0
0.006347594140003679 -0.007729976241020155 0.0692028136316922 100 154 0
0.006837440277756057 -0.007964019031843229 0.06898927776890879 130 124 0
0.007327506323299268 -0.008206891761263848 0.06886283961419662 146 108 0
0.007817572368842477 -0.008449764490684469 0.06873640145948444 162 92 0
0.008307813790707283 -0.008699697624832296 0.06867960889759527 166 88 0
0.008797532799726613 -0.008928635826579377 0.06841572183426237 204 50 0
0.009287940465612916 -0.009185225608232582 0.06842458743027884 198 56 0
0.009778516108530508 -0.009448560157165265 0.06849998279488052 182 72 0
0.01026892377441681 -0.00970514993881847 0.06850884839089699 176 78 0
0.010759932097795905 -0.009985857869080711 0.06875561320258326 133 121 0
0.011250940423821559 -0.010266565905609967 0.06900237906247762 90 164 0
0.011743554515784235 -0.010611750123598676 0.06988513208901716 0 206 48
0.01223468005918352 -0.01089716477924234 0.07017832361009829 0 161 93
0.0036648775886868818 -0.005917099222470688 0.07131468776764284 0 76 178
0.004154735651167617 -0.0061516208258850565 0.07110587486853992 0 101 153
0.004643231590495242 -0.006331449215571819 0.07035757310322352 0 203 51
0.005132196648093838 -0.006530114070815395 0.06979507251421622 27 227 0
0.005622054709912933 -0.006764635647663011 0.0695862593530613 56 198 0
0.006112113874405546 -0.007007232082851291 0.06945709585726953 72 182 0
0.006601971936224641 -0.0072417536596989076 0.0692482826961146 101 153 0
0.007091364303095438 -0.007457576227370298 0.06885502421583765 159 95 0
0.007581933067608993 -0.007720634588337653 0.06892769528756786 143 111 0
0.00807241188355846 -0.007980081252353258 0.06896474091034728 133 121 0
0.008562154483509462 -0.008209985233130167 0.06871038260845408 169 85 0
0.009052381630326482 -0.008459326648131949 0.06864775097766372 175 79 0
0.009542440793495817 -0.008701923030186723 0.06851858695776791 191 63 0
0.01003322946712348 -0.008973811382885132 0.06867835626167342 161 93 0
0.0105234566139405 -0.009223152797886913 0.06861572463088307 167 87 0
0.011013935431213246 -0.009482599515036024 0.06865277077776656 157 97 0
0.01150472410351763 -0.009754487814600924 0.068812539557568 127 127 0
0.011996020936115447 -0.010046780230690134 0.06917357267968093 66 188 0
0.01248865337931075 -0.010392701304143092 0.0700635939812381 0 184 70
0.012982008414200337 -0.010767636539702417 0.07123980832855147 0 14 240
0.0044093563443945855 -0.0056731499913340805 0.07124753485218613 0 88 166
0.004898123161572056 -0.005863854916010945 0.07060651823488397 0 175 79
0.005387175592633878 -0.006066028070403169 0.07007862318833882 0 246 8
0.005876638835649097 -0.006284696521801171 0.06971343624528568 44 210 0
0.006366484973401477 -0.006518739312624245 0.06949990038250227 73 181 0
0.006856975585059602 -0.006778659608714288 0.06954161786881698 62 192 0
0.0073462037753562835 -0.006987890008536064 0.06908333484679724 131 123 0
0.007836049910462106 -0.007221932693092126 0.06886979793580571 160 94 0
0.008326941652964751 -0.007497959561456448 0.06907038918035507 124 130 0
0.008815993617746735 -0.0077001325277354345 0.06854249468355213 203 51 0
0.009306235505891379 -0.0079500658499965 0.06848570157192074 208 46 0
0.009797803842249988 -0.008253259933224252 0.06895426774326535 130 124 0
0.010287649977355809 -0.008487302617780313 0.06874073083227382 159 95 0
0.010778658303381462 -0.008768010654309568 0.0689874966921682 116 138 0
0.011268983572656708 -0.009021291971931016 0.06896372790106875 115 139 0
0.011759875316482631 -0.009297318893428844 0.06916431966972217 79 175 0
0.012252338799450379 -0.009636455721407205 0.06998742179338219 0 206 48
0.01274523749365064 -0.00999306754854577 0.07098289571312963 0 61 193
0.004173471587540118 -0.004934164968467306 0.07134161838157102 0 86 168
0.004664260259844503 -0.005206053268032208 0.07150138716137246 0 59 195
0.005151792124285199 -0.005347171241762906 0.07037124938768395 0 215 39
0.005640757181883793 -0.005545836097006482 0.06980874879867666 41 213 0
0.006131066721342031 -0.005798485816639502 0.06977874998269007 41 213 0
0.006620924783161127 -0.006033007393487118 0.06956993682153516 70 184 0
0.007110782846303502 -0.00626752902346824 0.06936112418448427 99 155 0
0.007601092388408297 -0.0065201788493682725 0.0693311264167058 99 155 0
0.008089588329059203 -0.006700007292188541 0.06858282517549345 213 41 0
0.008581170708054142 -0.007003765228184293 0.06905695313905662 134 120 0
0.009071479779909264 -0.007256414706570569 0.06902695434870819 134 120 0
0.009560989046566742 -0.007476931141314879 0.06867999574464508 185 69 0
0.010051777718871127 -0.00774881944087978 0.06883976452444653 156 98 0
0.010541170085741925 -0.007964642008551171 0.06844650604416959 214 40 0
0.011032466918339739 -0.00825693442464038 0.06880753916628249 152 102 0
0.011522859840251858 -0.00851293219276729 0.0688105651949319 147 107 0
0.01201452056000784 -0.008819835738598236 0.06931572116668619 63 191 0
0.012507004940196935 -0.009159811650906811 0.0701470999415633 0 190 64
0.012999562986002503 -0.00950274545237311 0.07100765506500958 0 64 190
0.01349004180261361 -0.009762192142955466 0.07104470094984103 0 55 199
0.004917847757390279 -0.004686097812290108 0.07123384608623125 0 104 150
0.005406900188452102 -0.004888270966682332 0.07070595103968609 0 175 79
0.005895196184298579 -0.005060071042979878 0.06987845872415763 37 217 0
0.006385521450927267 -0.005313352254334314 0.06985468888485007 37 217 0
0.0068757633403951895 -0.005563285629728886 0.06979789629732275 41 213 0
0.007365829385938399 -0.005806158359149507 0.06967145814261057 57 197 0
0.00785505757755836 -0.006015388812104789 0.06921317564469488 126 128 0
0.00834464839260508 -0.0062391796523033685 0.06889851547704924 171 83 0
0.008835056058491381 -0.006495769433956574 0.06890738107306571 165 89 0
0.009325463256774566 -0.006752358974363036 0.06891624669472034 160 94 0
0.009816240003688954 -0.007023768434769889 0.06907129224878922 131 123 0
0.010305959011385007 -0.007252706583383463 0.06880740466135228 168 86 0
0.010796967337410661 -0.007533414619912717 0.06905417052124666 125 129 0
0.011287375001973684 -0.007790004348432417 0.06906303559315907 119 135 0
0.011778839460933863 -0.008089027451421954 0.06949045959628294 48 206 0
0.012271062832287604 -0.008418523098429812 0.07021846199117879 0 191 63
0.012763749896468578 -0.008766637363618985 0.07113011673576332 0 58 196
0.0132549923423011 -0.00905674599260258 0.07146960918126641 0 6 248
0.004681499940876945 -0.003928518398729193 0.071144516786936 0 127 127
0.005171559108016117 -0.004171114940184485 0.07101535433935233 0 142 112
0.005660328500294446 -0.004361923262664453 0.0703753576285388 0 229 25
0.006149837765628644 -0.004582439644275256 0.07002839850037167 21 233 0
0.0066399819653505604 -0.004828450491706693 0.06993291445517902 32 222 0
0.007130041131166453 -0.005071046980028481 0.06980375148349131 48 206 0
0.007619899192985548 -0.005305568556876097 0.06959493832233637 77 177 0
0.008109525677016656 -0.005530791610734818 0.06929440537946004 120 134 0
0.008599268744570777 -0.00576069583275847 0.06904004705192869 156 98 0
0.009089661666482896 -0.0060166936008853806 0.06904307308057808 152 102 0
0.00958005411946862 -0.006272691074632041 0.06904609861076158 147 107 0
0.010070281263639081 -0.00652203238336681 0.06898346593176312 153 101 0
0.010560674185551202 -0.006778030151493721 0.06898649196041252 148 106 0
0.01105106710746332 -0.0070340279196206305 0.06898951798906193 143 111 0
0.012032504680731847 -0.007572192292156021 0.06925369705798566 93 161 0
0.012525289473033914 -0.007924230626180006 0.07020405845925304 0 200 54
0.01301792191689086 -0.008270151726199718 0.07109408002286224 0 70 184
0.013507431182886697 -0.008490668134377275 0.07074712115674713 0 115 139
0.005425885292497982 -0.0036808212729509903 0.07104039382193919 0 145 109
0.0059153485355132015 -0.0038994897243489935 0.07067520687888607 0 193 61
0.006403788427360439 -0.004077067644379838 0.06990470668637234 49 205 0
0.006895458179818606 -0.004384333879524236 0.07041344019239766 0 222 32
0.007384595022845343 -0.0045898964202781885 0.06991897774344231 38 216 0
0.007875486765347987 -0.004865923288642511 0.07011956898799168 2 252 0
0.008364253582525457 -0.005056628213319375 0.06947855237068953 99 155 0
0.008853972591544789 -0.005285566415066455 0.06921466530735665 136 118 0
0.009344380254784531 -0.005542156090452648 0.069223529855165 131 123 0
0.009834870401486099 -0.00580207625156296 0.06926524841532597 120 134 0
0.010325361011820945 -0.006061996494519497 0.06930696537753661 109 145 0
0.010815602903935427 -0.006311929976181081 0.06925017383821741 114 140 0
0.011306845347121392 -0.006602038498897665 0.0695896652355124 56 198 0
0.011797420990038984 -0.0068653730478303475 0.06966506060011406 40 214 0
0.012289286407817419 -0.007180495815738355 0.07025129022794561 0 204 50
0.012781973474644949 -0.00752861018719454 0.07116294602073824 0 71 183
0.01327343793294349 -0.007827633263617325 0.07159036976181009 0 6 248
0.005190237045898721 -0.0029513321881021316 0.07122814470661915 0 129 125
0.005679746312556199 -0.0031718486228464416 0.07088118610255603 0 175 79
0.006169138679426997 -0.0033876711905178334 0.0704879276222791 0 226 28
0.006658647944761196 -0.0036081875721286367 0.07014096849411194 19 235 0
0.007148875088931657 -0.003857528880863406 0.07007833581511348 24 230 0
0.007639019288653574 -0.004103539728294844 0.06998285176992086 35 219 0
0.008128645772684682 -0.004328762782153566 0.0696823188270445 79 175 0
0.008618704935854017 -0.00457135916420834 0.06955315480714869 95 159 0
0.00910949361080496 -0.004843247570040253 0.06971292463515824 65 189 0
0.009598885975029198 -0.005059070031444632 0.06931966510667319 123 131 0
0.010089278429338202 -0.005315067558324799 0.06932269116096072 119 135 0
0.010580449996379745 -0.005602330197314771 0.06963411102103187 65 189 0
0.011069842363250544 -0.005818152764986163 0.06924085254075492 123 131 0
0.011560886356937307 -0.006100292962042051 0.06950174510131454 77 177 0
0.012052689016887745 -0.006412895820284104 0.07006311857029213 0 241 13
0.01352772307912637 -0.0073356905132913805 0.07159914341885595 0 12 242
0.005934462345495951 -0.0026972072313823764 0.07106061878364159 0 156 98
0.006423800321631621 -0.002910845852547637 0.07064581805444266 0 211 43
0.006913263565970119 -0.0031295143570791457 0.07028063163549358 4 250 0
0.007403109699752661 -0.0033635569885017 0.070067094200398 34 220 0
0.007893886447990328 -0.0036349665020420597 0.07022214027857095 5 249 0
0.008383023291017064 -0.003840529042796013 0.0697276778296156 79 175 0
0.008873089336560273 -0.004083401772216633 0.06960123967490343 95 159 0
0.009363579950864958 -0.004343322174573688 0.06964295820942625 84 170 0
0.0098538218390096 -0.004593255496834753 0.06958616509779487 89 165 0
0.0103439773641905 -0.004839739628826875 0.06949535189356756 99 155 0
0.010835219807376466 -0.005129848151543458 0.06983484329086252 41 213 0
0.011325461699490948 -0.005379781633205042 0.06977805175154332 46 208 0
0.011815952309825795 -0.005639701876161579 0.06981976871375398 35 219 0
0.01230719475301176 -0.005929810398878163 0.07015926011104895 0 234 20
0.013291937380894887 -0.006600682344884512 0.07173245456726299 0 4 250
0.005698875636661486 -0.00197018906710674 0.07127274260323795 0 137 117
0.00618873370112714 -0.002204710750221368 0.07106393049029111 0 163 91
0.006677904050900444 -0.0024116186844863 0.07058273888008121 0 227 27
0.007167762115366096 -0.002646140367600928 0.0703739267671344 0 253 1
0.007656932465139399 -0.0028530483018658582 0.06989273515692448 69 185 0
0.00814784826750011 -0.00313004124364026 0.07010285566137946 32 222 0
0.008637706330642484 -0.0033645628736213825 0.06989404302432858 61 193 0
0.009127765496458376 -0.0036071593619431686 0.06976488005264088 77 177 0
0.00961815841572394 -0.0038631570238030657 0.06976790503308217 72 182 0
0.010108947090674881 -0.00413504542963498 0.06992767486109172 43 211 0
0.010598455889729241 -0.004355561623132546 0.06958071628266677 93 161 0
0.011089024652919516 -0.004618619930966394 0.0696533868302929 77 177 0
0.011580068647929561 -0.00490076018115579 0.06991427991495658 32 222 0
0.012070461565871844 -0.005156757789882181 0.06991730437129381 27 227 0
0.012561868188278482 -0.005453458586715393 0.07032182135853969 0 218 36
0.013054279524792217 -0.005790501582614169 0.0711242701137529 0 101 153
0.013544758342064964 -0.00604994829976328 0.07116131626063638 0 92 162
0.006443306834495188 -0.0017243315245541878 0.0711867656987144 0 152 102
0.0069327700788336865 -0.0019430000290856977 0.07082157927976533 0 200 54
0.0074222333218489055 -0.0021616684804837 0.07045639233671222 0 248 6
0.007913241645228001 -0.002442376410745941 0.07070315714839848 0 209 45
0.008402832460274722 -0.0026661672509445218 0.07038849698075283 0 250 4
0.008892988453058737 -0.002912651624183387 0.07029768375088737 4 250 0
0.009382326430517684 -0.0031262902984821525 0.06988288354579249 66 188 0
0.00987248242462498 -0.0033727747248545226 0.06979207084003108 76 178 0
0.010362973037606384 -0.0036326950740780727 0.06983378885044984 65 189 0
0.010852563386373266 -0.003856485726163415 0.0695191292325464 111 143 0
0.011344027844010169 -0.004155508776019447 0.06994655271156622 39 215 0
0.011834269732154814 -0.004405442098280512 0.06988975959993485 43 211 0
0.012325734191114993 -0.004704465201270049 0.07031718360305872 0 230 24
0.012817957562468734 -0.005033960848277908 0.07104518599795456 0 123 131
0.0062080401170092 -0.001010161945351982 0.07152562678828057 0 115 139
0.006697549383666678 -0.001230678380096292 0.07117866818421746 0 160 94
0.0071869417505374756 -0.0014465009477676836 0.07078540970394052 0 212 42
0.00767700091370681 -0.0016890973298224572 0.0706562456840447 0 226 28
0.008166858975525904 -0.0019236189066700726 0.07044743252288978 0 252 2
0.008656717037345 -0.002158140483517689 0.07023861936173485 26 228 0
0.009146776204484171 -0.002400737024972982 0.07010945691415119 42 212 0
0.009636634266303266 -0.0026352586018205974 0.06990064375299626 71 183 0
0.010126492328122363 -0.0028697801786682128 0.06969183059184134 100 154 0
0.010616118812153472 -0.0030950032325269346 0.06939129764896498 143 111 0
0.0111071623395604 -0.003377143241469586 0.0696521907592668 97 157 0
0.011597641156833146 -0.003636589958618696 0.06968923690615027 87 167 0
0.01208868515316647 -0.003918730261941597 0.069950130514918 42 212 0
0.012579981983117727 -0.004211022571763794 0.0703111625888228 0 237 17
0.013071642704196987 -0.004517926170728247 0.07081631908468117 0 162 92
0.01356398152039219 -0.004852057264518934 0.07159004510338375 0 49 205
0.0074408074060418935 -0.0009377144243354219 0.07062803792105772 0 241 13
0.007931383050282764 -0.00120104902640161 0.07070343380976346 0 227 27
0.008421229188035142 -0.0014350918172246832 0.07048989794698002 0 253 1
0.008911385180819159 -0.0016815761904635483 0.07039908471711458 8 246 0
0.009401451226362368 -0.0019244489198841693 0.07027264656240238 24 230 0
0.009891042042732365 -0.002148239813216255 0.0699579869188608 69 185 0
0.010380761051751699 -0.002377178014963335 0.06969409985552792 107 147 0
0.01087100293989634 -0.0026271113372244004 0.06963730674389654 112 142 0
0.011361410138179526 -0.0028837008776308624 0.06964617236555115 106 148 0
0.011853178901016103 -0.0031949426679776004 0.07019412038508743 15 239 0
0.012343955649253772 -0.00346635218151796 0.07034916646326039 0 243 11
0.012835198092439737 -0.0037564607042345436 0.07068865786055538 0 191 63
0.013327421465116757 -0.004085956404375908 0.07141666077955526 0 84 170
0.007206322561162715 -0.00025493930861794547 0.07127657113183276 0 160 94
0.0076958318264969145 -0.00047545569022874965 0.07092961200366561 0 205 49
0.008185689889639289 -0.0007099773202098713 0.07072079936661474 0 231 23
0.008675917036456307 -0.0009593187352116531 0.0706581677358244 0 236 18
0.00916614418062677 -0.0012086600439464232 0.07059553505682595 0 241 13
0.009655536544851009 -0.0014244825053508028 0.07020227552834088 43 211 0
0.0101455957106669 -0.0016670789936725889 0.07007311255665317 59 195 0
0.010635104977324379 -0.001887595428416898 0.06972615395259009 110 144 0
0.0111254978992365 -0.0021435931965438086 0.06972917998123947 105 149 0
0.011616286103937766 -0.0024154812548619667 0.06988894878667908 75 179 0
0.01210758293653558 -0.0027077736709511754 0.07024998190879198 14 240 0
0.012597975858447701 -0.002963771439078086 0.07025300793744138 9 245 0
0.013089709715831848 -0.0032736116737977715 0.0707871311402474 0 184 70
0.013580753710841892 -0.003555751923987167 0.07104802422491106 0 143 111
0.014073020421566518 -0.0038869877730239658 0.07179319181372387 0 34 220
0.007951125542160141 -2.400994343874311e-05 0.07133784440583946 0 155 99
0.008440099635107482 -0.00022303759426278453 0.07077892239931129 0 230 24
0.008931342078293446 -0.0005131461169793671 0.07111841379660626 0 178 76
0.009421498071077464 -0.0007596304902182322 0.0710276005667408 0 187 67
0.009911217080096794 -0.0009885686919653127 0.0707637135034079 0 221 33
0.010400191170397576 -0.0011875962365223416 0.07020479044867163 46 208 0
0.0108904330598655 -0.0014375296119169129 0.07014799786114431 51 203 0
0.011381441385891153 -0.0017182376484461675 0.07039476372103869 7 247 0
0.011871931528622884 -0.0019781576501559607 0.07043648070888749 0 252 2
0.01236270827686055 -0.0022495671636963196 0.07059152678706043 0 226 28
0.01285277432240376 -0.0024924398931169406 0.07046508863234827 0 240 14
0.013344639741505475 -0.002807562714158454 0.07105131878428388 0 153 101
0.013834230556552194 -0.0030313535543570348 0.07073665861663822 0 194 60
0.008205919963498978 0.0004474839253839043 0.07154832396286208 0 132 122
0.008695090315918837 0.00024057588485196148 0.07106713340086028 0 196 58
0.00918548323386112 -1.5421723874429853e-05 0.07107015785719752 0 192 62
0.009675962053780424 -0.0002748685472905533 0.07110720505228911 0 183 71
0.010166189197950887 -0.000524209856025323 0.07104457237329065 0 188 66
0.01065604726109326 -0.0007587314860064446 0.07083575973623979 0 213 41
0.0111463568005515 -0.0010113812056394642 0.07080576092025322 0 214 40
0.011636666343979574 -0.0012640310846730035 0.07077576367657878 0 214 40
0.01212689302054692 -0.0015133721521610301 0.07071313102321848 0 219 35
0.012617120164717381 -0.001762713460895799 0.07065049834422003 0 224 30
0.01310759898199013 -0.00202216017804491 0.07068754449110351 0 215 39
0.013597826126160593 -0.0022715014867796795 0.07062491181210508 0 221 33
0.014089949461594729 -0.0025969804001178777 0.07131329351284828 0 119 135
0.014581683318978876 -0.0029068206348375637 0.0718474167156543 0 40 214
0.00895100260494871 0.0006671841084922303 0.07172036086348788 0 110 144
0.009440055036010534 0.0004650109541000074 0.07119246581694272 0 181 73
0.00993182380017039 0.0001537691106197614 0.07174041436058307 0 100 154
0.010422149069445635 -9.951220700168788e-05 0.07171664556948361 0 100 154
0.010912724713686504 -0.00036284680906787607 0.07179204145818935 0 85 169
0.011400415833426863 -0.0005103593471385585 0.07072497908326768 0 232 22
0.01189263920875044 -0.0008398551535469352 0.07145298305047568 0 125 129
0.012382357747520096 -0.0010687930077802592 0.07118909496457283 0 159 95
0.012872423793063305 -0.0013116657372008794 0.07106265680986064 0 173 81
0.013362579785847322 -0.0015581501104397445 0.0709718435799952 0 182 72
0.013853155432734751 -0.0018214848187729452 0.07104724051690904 0 168 86
0.014345020847866628 -0.0021366074804139417 0.07163346909653248 0 81 173
0.014835596494092418 -0.0023999421621803893 0.07170886577139429 0 66 188
0.015326722035506782 -0.0026853567381237954 0.07200205650631933 0 21 233
0.00969549616495 0.0009105376282971854 0.07165908341070623 0 122 132
0.010186411965987432 0.00063354473965629 0.07186920339105715 0 89 165
0.01067680488789955 0.00037754697152937895 0.07187222941970654 0 84 170
0.011167114431327625 0.0001248970924958414 0.07184223217603213 0 85 169
0.01165803023170342 -0.00015209576957830005 0.07205235189433103 0 51 203
0.01214720058346164 -0.0003590037835434915 0.0715711610702772 0 116 138
0.01263705817767762 -0.0005935251191443638 0.07136234793476041 0 141 113
0.013126801245231738 -0.0008234293411680162 0.07110798960722906 0 174 80
0.013617110788659815 -0.0010760792202015555 0.07107799236355464 0 174 80
0.014107337932830276 -0.0013254205289363243 0.0710153596845562 0 179 75
0.014598253733867708 -0.0016024134175772198 0.07122547966490711 0 146 108
0.015088646654456549 -0.0018584111325706237 0.07122850516945246 0 141 113
0.015578873798627008 -0.0021077524413053933 0.071165872490454 0 146 108
0.016069183342055086 -0.0023604023203389318 0.07113587524677958 0 147 107
0.01655966215932783 -0.002619849037488042 0.07117292139366307 0 138 116
0.01705146481795499 -0.002932451842596589 0.0717342943385366 0 54 200
0.01754152398178597 -0.0031750482512181164 0.07160513058069282 0 69 185
0.019503385986704456 -0.004210691774485359 0.07173217280428823 0 36 218
0.01999369551278007 -0.00446334164456638 0.07170217556156523 0 36 218
0.020483839697321052 -0.004709352353038648 0.07160669020676344 0 46 208
0.020973697788365345 -0.004943873944964184 0.07139787704400612 0 72 182
0.021464741782713747 -0.005226014168586826 0.07165876986661776 0 31 223
0.02195553045832633 -0.005497902600985493 0.07181853995667933 0 4 250
0.022936177076210672 -0.006004312443653078 0.07176949584378742 0 4 250
0.023426569997461153 -0.006260310185213236 0.0717725216103848 0 0 254
0.02489587517750832 -0.006953073564677281 0.07103953858614184 0 92 162
0.0253853844441658 -0.00717358999942159 0.07069257998207874 0 137 117
0.02587544360998169 -0.007416186487743377 0.07056341701039104 0 152 102
0.02636685022974177 -0.007712887178309576 0.0709679329494288 0 91 163
0.027347301590989633 -0.008211452264463358 0.07084150827326496 0 101 153
0.010932532678760308 0.0008115633342742744 0.07245238367463765 0 9 245
0.011423023289756794 0.0005516430647509842 0.07249410089890033 0 0 255
0.011913179282540811 0.00030515869151211995 0.07240328766903488 0 9 245
0.01240302542029319 7.111590068904598e-05 0.07218975180625145 0 35 219
0.012892253141001838 -0.0001381141781857274 0.07173146802371377 0 96 158
0.013382828787227626 -0.000401448859952175 0.07180686469857558 0 82 172
0.013871965629592723 -0.000607011374139375 0.07131240198756822 0 148 106
0.014360732446770193 -0.0007977162988162386 0.07067138537026607 0 235 19
0.014851857990169477 -0.0010831309544599042 0.07096457689134718 0 189 65
0.015341924037035966 -0.0013260037370140306 0.07083813926073906 0 203 51
0.015831770173465067 -0.0015600464747035983 0.07062460287385158 0 230 24
0.016322095441417033 -0.0018133277391915404 0.07060083355864809 0 229 25
0.016812671086981184 -0.002076662394391235 0.07067622997145788 0 215 39
0.01730316169863931 -0.0023365826904812783 0.07071794745777257 0 205 49
0.01779262494165453 -0.0025552511418792823 0.07035276051471946 0 253 1
0.01828545413790541 -0.0029090724238379608 0.07132070875161506 0 112 142
0.018774682443779587 -0.0031183028308379174 0.07086242519908173 0 173 81
0.019265690769805242 -0.003399010867367172 0.0711091910589761 0 135 119
0.0197548276115087 -0.003604573354987619 0.0706147280859167 0 201 53
0.020245152864754767 -0.003857854716790057 0.07059095981987273 0 200 54
0.020735218898425237 -0.004100727440085272 0.07046452166581152 0 214 40
0.02122546081579508 -0.004350660777424257 0.07040772855257775 0 219 35
0.021715868481681378 -0.004607250559077463 0.07041659414859423 0 214 40
0.02220644412592225 -0.004870585161143652 0.07049199003729996 0 199 55
0.022697335751524116 -0.005146611969196289 0.07069258128825888 0 167 87
0.023186926567894114 -0.005370402862528375 0.07037792164471729 0 208 46
0.02367677270167666 -0.005604445493950931 0.0701643842096217 0 234 20
0.024168638120778373 -0.005919568314992444 0.07075061436155732 0 147 107
0.024657470270884697 -0.006112896547138367 0.07013547380959774 0 231 23
0.025147536317751185 -0.0063557693296924945 0.07000903617898963 0 245 9
0.025638026932055868 -0.006615689732049549 0.07005075471351244 0 235 19
0.026129035256758245 -0.006896397715445297 0.07029752004930276 0 196 58
0.026620043580137337 -0.007177105645707539 0.07054428486098903 0 158 96
0.027111051906162996 -0.007457813682236794 0.0707910507208834 0 119 135
0.02760145957204929 -0.00771440346389 0.07079991631689987 0 114 140
0.02809235131521358 -0.007990430358821073 0.07100050782350127 0 82 172
0.02858347732423106 -0.008275845176011223 0.07129369853278818 0 36 218
0.012167274155765188 0.0008047414555638292 0.0723367009282936 0 25 229
0.012657501299935649 0.0005554001468290595 0.07227406824929515 0 30 224
0.01314689319920333 0.00033957782040441083 0.07188080979465634 0 82 172
0.013636751261022425 0.00010505624355679546 0.0716719966335014 0 108 146
0.014126494328576544 -0.00012484797846685786 0.07141763830597006 0 140 114
0.014616237397453942 -0.0003547522536240166 0.07116328050254277 0 172 82
0.015105746664111418 -0.0005752686883683271 0.07081632189847965 0 217 37
0.015595139030982216 -0.0007910912560397179 0.07042306341820272 16 238 0
0.016084997092801312 -0.0010256128328873342 0.07021425025704778 45 209 0
0.016574740159032153 -0.0012555170017774812 0.06995989140541238 81 173 0
0.01706479932617132 -0.0014981135432327727 0.06983072895782873 97 157 0
0.017555192245436883 -0.0017541112050926712 0.06983375393827002 92 162 0
0.018045671061386354 -0.002013557869108276 0.06987079956104944 82 172 0
0.018535980604814428 -0.0022662077481418134 0.06984080231737501 82 172 0
0.019026124917467285 -0.0025122184964844196 0.0697453166934607 93 161 0
0.019516269117189202 -0.0027582293439158585 0.06964983264826806 104 150 0
0.020006747933138672 -0.003017676007931463 0.06968687827104748 94 160 0
0.02049779191079626 -0.003299816249168341 0.06994777135666258 49 205 0
0.020987936097322156 -0.003545827037340868 0.06985228678801686 59 195 0
0.021478163270717818 -0.0037951683611535574 0.06978965410741603 65 189 0
0.021968556192629933 -0.004051166129280468 0.06979268013606543 60 194 0
0.02245903500990268 -0.004310612846429579 0.0698297262829489 50 204 0
0.022949262037172364 -0.004559954094852663 0.06976709361036 56 198 0
0.023439740854445112 -0.004819400812001775 0.06980413975724346 46 208 0
0.023930133776357235 -0.005075398580128685 0.06980716578589287 41 213 0
0.024419876842588072 -0.00530530274901883 0.06955280693425747 77 177 0
0.024910920837598115 -0.005587442999208226 0.06981370001892113 31 223 0
0.025401313758186956 -0.00584344071420163 0.06981672552346649 27 227 0
0.02589210243181462 -0.006115329066900037 0.06997649482737198 0 252 2
0.026383399264412435 -0.006407621482989246 0.0703375279494849 0 197 57
0.026874187936716816 -0.0066795097825541475 0.07049729672928635 0 171 83
0.027365484769314635 -0.006971802198643357 0.07085832985139925 0 116 138
0.027856273441619017 -0.007243690498208259 0.0710180986312007 0 90 164
0.028347189245303005 -0.007520683493116165 0.07122821965975973 0 56 198
0.028837978385872147 -0.0077925720604945636 0.07138798867597507 0 30 224
0.012912276138510731 0.0010276905271233245 0.07247669572594179 0 8 246
0.013401866486615973 0.0008038999016047347 0.07216203584598631 0 49 205
0.013891585496296942 0.0005749616732909019 0.07189814904470544 0 82 172
0.014381304502669718 0.0003460235778108339 0.07163426093316444 0 116 138
0.014871150640422097 0.00011198078698775992 0.07142072507038102 0 142 112
0.015359793728370168 -7.375604859058849e-05 0.07073070367584351 0 236 18
0.015849949721154184 -0.0003202404218294527 0.07063989044597807 0 245 9
0.01633846119710009 -0.000500692652012736 0.06989774218635693 102 152 0
0.01682970364293261 -0.0007908012809963319 0.07023723463186002 44 210 0
0.01731778040453725 -0.0009537984636509966 0.06932291137722366 185 69 0
0.01780737121958397 -0.0011775893038495772 0.06900825120957801 231 23 0
0.018298835677220873 -0.0014766123537056086 0.06943567468859783 159 95 0
0.018789077566688794 -0.001726545729100179 0.0693788821010705 163 91 0
0.019279568296570977 -0.001986466138635415 0.06942060010507974 152 102 0
0.019769893564522946 -0.002239747403123358 0.06939683078987624 152 102 0
0.020260135455314146 -0.0024896808316514363 0.06934003872645296 157 97 0
0.020752675059754283 -0.002831874846358125 0.07019329675011006 17 237 0
0.02124137913237332 -0.0030200608647802463 0.06952743393258193 119 135 0
0.021731704429550483 -0.003273342144346109 0.06950366461577603 118 136 0
0.022222195042531884 -0.003533262493569659 0.06954538262619481 107 147 0
0.022712770686772757 -0.003796597095635848 0.06962077851490053 91 163 0
0.023203095839147224 -0.004049878352945611 0.06959700973021063 91 163 0
0.02369325183193124 -0.004296362726184476 0.06950619650034516 101 153 0
0.024183827476172114 -0.004559697328250665 0.0695815923890509 84 170 0
0.024674235142058413 -0.004816287109903869 0.06959045798506738 79 175 0
