ply
format ascii 1.0
element vertex 631
property float x
property float y
property float z
property uchar red
property uchar green
property uchar blue
end_header
0.008363997729713224 -0.0025996873764891006 -0.0006592101385892505 100 154 0
0.008363997729713224 -0.0020298449186525428 -0.0006281968697524502 95 159 0
0.008363997729713224 -0.001460002460815985 -0.0010992683594266673 167 87 0
0.008363997729713224 -0.0008901600029794271 -0.0010682556340339835 163 91 0
0.008363997729713224 -0.00032031754514286935 -0.0011393886647667112 173 81 0
0.008363997729713224 0.00024952491269368847 -0.0008936383443170615 136 118 0
0.008363997729713224 0.0008193673705302463 -0.0009996930939720008 152 102 0
0.008363997729713224 0.0013892098283668042 -0.0011883361328900335 181 73 0
0.008363997729713224 0.001959052286203362 -0.0008375489336155301 127 127 0
0.008363997729713224 0.00252889474403992 -0.00039022975593840445 59 195 0
0.008363997729713224 0.0030987372018764776 -0.0007701254524215983 117 137 0
0.008363997729713224 0.0036685796597130354 -0.00021845250517397958 33 221 0
0.008363997729713224 0.004238422253410623 0.0008932667762673118 0 133 121
0.007794155271876666 -0.007158426495737447 0.0016784342922507034 0 25 229
0.007794155271876666 -0.006588584037900889 0.000936774912229221 0 127 127
0.007794155271876666 -0.006018741580064331 0.0002491670274726328 0 220 34
0.007794155271876666 -0.005448899122227773 0.0002181537586358325 0 225 29
0.007794155271876666 -0.004879056664391215 -0.0004186421012339395 63 191 0
0.007794155271876666 -0.0043092142065546575 -0.0006121821150851819 93 161 0
0.007794155271876666 -0.0037393717487180997 -0.0006089518832570831 92 162 0
0.007794155271876666 -0.003169529290881542 -0.000802492440552442 122 132 0
0.007794155271876666 -0.0025996873764891006 -0.0010482427610020919 160 94 0
0.007794155271876666 -0.0020298449186525428 -0.0011145309874367878 170 84 0
0.007794155271876666 -0.001460002460815985 -0.001145544256273588 174 80 0
0.007794155271876666 -0.0008901600029794271 -0.0012118330261524004 185 69 0
0.007794155271876666 -0.00032031754514286935 -0.0011406994519755562 174 80 0
0.007794155271876666 0.00024952491269368847 -0.0012069882218543686 184 70 0
0.007794155271876666 0.0008193673705302463 -0.0010183451829363357 155 99 0
0.007794155271876666 0.0013892098283668042 -0.001049358451773136 160 94 0
0.007794155271876666 0.001959052286203362 -0.0008134890322485353 124 130 0
0.007794155271876666 0.00252889474403992 -0.0006248459933305026 95 159 0
0.007794155271876666 0.0030987372018764776 -0.0005187928740079124 79 175 0
0.007794155271876666 0.0036685796597130354 0.00011694490016715765 0 239 15
0.007794155271876666 0.004238422253410623 0.000998296590318652 0 118 136
0.007224312814040108 -0.007728268953574004 0.0009918127585654476 0 119 135
0.007224312814040108 -0.007158426495737447 0.0012902086843507704 0 78 176
0.007224312814040108 -0.006588584037900889 0.0005074660160149185 0 185 69
0.007224312814040108 -0.006018741580064331 0.00012757031953172476 0 237 17
0.007224312814040108 -0.005448899122227773 -0.0002043148064848832 31 223 0
0.007224312814040108 -0.004879056664391215 -0.0005842105029680771 89 165 0
0.007224312814040108 -0.0043092142065546575 -0.0005874396479079429 89 165 0
0.007224312814040108 -0.0037393717487180997 -0.0008711870375347189 133 121 0
0.007224312814040108 -0.003169529290881542 -0.0009082548172727387 138 116 0
0.007224312814040108 -0.0025996873764891006 -0.0010143084800394453 154 100 0
0.007224312814040108 -0.0020298449186525428 -0.0010854420542162893 165 89 0
0.007224312814040108 -0.001460002460815985 -0.0014653366638112501 223 31 0
0.007224312814040108 -0.0008901600029794271 -0.0011145494645367466 170 84 0
0.007224312814040108 -0.00032031754514286935 -0.0016699314178790447 255 0 0
0.007224312814040108 0.00024952491269368847 -0.0012226133270901518 186 68 0
0.007224312814040108 0.0008193673705302463 -0.0010290716829065602 157 97 0
0.007224312814040108 0.0013892098283668042 -0.001032301914734659 157 97 0
0.007224312814040108 0.001959052286203362 -0.0009660131448558467 147 107 0
0.007224312814040108 0.00252889474403992 -0.0006676172190705238 101 153 0
0.007224312814040108 0.0030987372018764776 -0.0003692218367293174 56 198 0
0.007224312814040108 0.0036685796597130354 0.0003183865914713872 0 211 43
0.007224312814040108 0.004238422253410623 0.00043249083537898463 0 195 59
0.007224312814040108 0.0048082647112471805 0.0012035478248791016 0 90 164
0.00665447035620355 -0.007728268953574004 0.0009130649888732112 0 130 124
0.00665447035620355 -0.007158426495737447 0.0012449517452221685 0 85 169
0.00665447035620355 -0.006588584037900889 0.000582393373568606 0 175 79
0.00665447035620355 -0.006018741580064331 -0.00010521505463209865 16 238 0
0.00665447035620355 -0.005448899122227773 -3.408256734348751e-05 5 249 0
0.00665447035620355 -0.004879056664391215 -0.0006966403955529335 106 148 0
0.00665447035620355 -0.0043092142065546575 -0.0007629291654317457 116 138 0
0.00665447035620355 -0.0037393717487180997 -0.0008292179353105581 126 128 0
0.00665447035620355 -0.003169529290881542 -0.0010227579491618004 156 98 0
0.00665447035620355 -0.0025996873764891006 -0.0011259862459671534 171 83 0
0.00665447035620355 -0.0020298449186525428 -0.0010889179227850172 166 88 0
0.00665447035620355 -0.001460002460815985 -0.0012824579366362597 195 59 0
0.00665447035620355 -0.0008901600029794271 -0.0012792293351405102 195 59 0
0.00665447035620355 -0.00032031754514286935 -0.0011731745854855708 179 75 0
0.00665447035620355 0.00024952491269368847 -0.0009845320900116546 150 104 0
0.00665447035620355 0.0008193673705302463 -0.0008784784272449479 134 120 0
0.00665447035620355 0.0013892098283668042 -0.0007724253079223578 117 137 0
0.00665447035620355 0.001959052286203362 -0.0010181739980396583 155 99 0
0.00665447035620355 0.00252889474403992 4.190939723429916e-05 0 249 5
0.00665447035620355 0.0030987372018764776 4.513799873004862e-05 0 248 6
0.00665447035620355 0.0036685796597130354 0.0006808757729051188 0 162 92
0.006084627898366992 -0.008298111411410562 0.0011482469515905194 0 98 156
0.006084627898366992 -0.007728268953574004 0.0009596044561166032 0 124 130
0.006084627898366992 -0.007158426495737447 0.00044587205985800136 0 194 60
0.006084627898366992 -0.006588584037900889 0.0003747395725693902 0 203 51
0.006084627898366992 -0.006018741580064331 -0.0002997441367752556 45 209 0
0.006084627898366992 -0.005448899122227773 -0.0004883871756932884 74 180 0
0.006084627898366992 -0.004879056664391215 -0.0006770302146113211 103 151 0
0.006084627898366992 -0.0043092142065546575 -0.0007140985377934574 109 145 0
0.006084627898366992 -0.0037393717487180997 -0.0009027410332673736 137 117 0
0.006084627898366992 -0.003169529290881542 -0.0010087946960340803 154 100 0
0.006084627898366992 -0.0025996873764891006 -0.0015225270922926823 232 22 0
0.006084627898366992 -0.0020298449186525428 -0.0009708546884891799 148 106 0
0.006084627898366992 -0.001460002460815985 -0.0010419866323336747 159 95 0
0.006084627898366992 -0.0008901600029794271 -0.0013257340219604507 202 52 0
0.006084627898366992 -0.00032031754514286935 -0.0011321940081092082 172 82 0
0.006084627898366992 0.00024952491269368847 -0.0011692623312913445 178 76 0
0.006084627898366992 0.0008193673705302463 -0.0011382490624545442 173 81 0
0.006084627898366992 0.0013892098283668042 -0.0011414776639502935 174 80 0
0.006084627898366992 0.001959052286203362 -0.0007392464142815581 112 142 0
0.006084627898366992 0.00252889474403992 9.090577532810079e-05 0 242 12
0.006084627898366992 0.0030987372018764776 0.0003893011576693072 0 201 53
0.006084627898366992 0.0036685796597130354 -0.00028518255167533864 43 211 0
0.006084627898366992 0.004238422253410623 0.0001996511168035175 0 227 27
0.0055147854405304345 -0.007728268953574004 0.0007860577513090609 0 147 107
0.0055147854405304345 -0.007158426495737447 0.0004352705520345573 0 195 59
0.0055147854405304345 -0.006588584037900889 0.0005064041262114014 0 185 69
0.0055147854405304345 -0.006018741580064331 -0.0002352552538100812 35 219 0
0.0055147854405304345 -0.005448899122227773 -0.00042879526766132365 65 189 0
0.0055147854405304345 -0.004879056664391215 -0.0007795824669358273 119 135 0
0.0055147854405304345 -0.0043092142065546575 -0.0008828102202970638 134 120 0
0.0055147854405304345 -0.0037393717487180997 -0.0010763507775924225 164 90 0
0.0055147854405304345 -0.003169529290881542 -0.0007926033879656466 121 133 0
0.0055147854405304345 -0.0025996873764891006 -0.0011433900437960338 174 80 0
0.0055147854405304345 -0.0020298449186525428 -0.001174403312632834 179 75 0
0.0055147854405304345 -0.001460002460815985 -0.0013679433264840765 208 46 0
0.0055147854405304345 -0.0008901600029794271 -0.0013989565953208768 213 41 0
0.0055147854405304345 -0.00032031754514286935 -0.0009278851056466594 141 113 0
0.0055147854405304345 0.00024952491269368847 -0.001121425119497902 171 83 0
0.0055147854405304345 0.0008193673705302463 -0.0010153720001753117 155 99 0
0.0055147854405304345 0.0013892098283668042 -0.000826728961257279 126 128 0
0.0055147854405304345 0.001959052286203362 -0.00031299765188691 47 207 0
0.0055147854405304345 0.00252889474403992 1.8889104462047328e-05 0 252 2
0.0055147854405304345 0.0030987372018764776 0.0009920611125266588 0 119 135
0.0055147854405304345 0.0036685796597130354 0.0016665450935933628 0 27 227
0.004944942982693877 -0.008298111411410562 0.000728782545545465 0 155 99
0.004944942982693877 -0.007728268953574004 0.0007597947274940324 0 151 103
0.004944942982693877 -0.007158426495737447 0.0004760484247554892 0 190 64
0.004944942982693877 -0.006588584037900889 4.976935081271921e-06 0 254 0
0.004944942982693877 -0.006018741580064331 -0.0003269098212676854 49 205 0
0.004944942982693877 -0.005448899122227773 -0.0006106572108944613 93 161 0
0.004944942982693877 -0.004879056664391215 -0.0007167103302170515 109 145 0
0.004944942982693877 -0.0043092142065546575 -0.0008227650798719909 125 129 0
0.004944942982693877 -0.0037393717487180997 -0.000928818199194581 141 113 0
0.004944942982693877 -0.003169529290881542 -0.0009999506864831922 152 102 0
0.004944942982693877 -0.0025996873764891006 -0.0010710842606600362 163 91 0
0.004944942982693877 -0.0020298449186525428 -0.0011771373799826263 179 75 0
0.004944942982693877 -0.001460002460815985 -0.001110848610103814 169 85 0
0.004944942982693877 -0.0008901600029794271 -0.000591349728325704 90 164 0
0.004944942982693877 -0.00032031754514286935 -0.001227087502500774 187 67 0
0.004944942982693877 0.00024952491269368847 -0.001196074233663974 182 72 0
0.004944942982693877 0.0008193673705302463 -0.001129786007229278 172 82 0
0.004944942982693877 0.0013892098283668042 -0.0010634972373504657 162 92 0
0.004944942982693877 0.001959052286203362 -0.0010324839685136654 157 97 0
0.004944942982693877 0.00252889474403992 0.0001465234765365651 0 234 20
0.004944942982693877 0.0030987372018764776 0.0013255320084750285 0 74 180
0.004944942982693877 0.0036685796597130354 0.0012543995211864174 0 83 171
0.004375100524857318 -0.007728268953574004 0.0007696082413486433 0 149 105
0.004375100524857318 -0.007158426495737447 0.0003673769916799078 0 204 50
0.004375100524857318 -0.006588584037900889 1.6590335849520637e-05 0 252 2
0.004375100524857318 -0.006018741580064331 -4.9698434029291665e-05 7 247 0
0.004375100524857318 -0.005448899122227773 -0.0004519296836980271 69 185 0
0.004375100524857318 -0.004879056664391215 -0.0008027168829725307 122 132 0
0.004375100524857318 -0.0043092142065546575 -0.0006140738440544979 93 161 0
0.004375100524857318 -0.0037393717487180997 -0.0008076138579057404 123 131 0
0.004375100524857318 -0.003169529290881542 -0.0010011544152010992 152 102 0
0.004375100524857318 -0.0025996873764891006 -0.0011946944290523417 182 72 0
0.004375100524857318 -0.0020298449186525428 -0.001260983198931154 192 62 0
0.004375100524857318 -0.001460002460815985 -0.0010723401600131212 163 91 0
0.004375100524857318 -0.0008901600029794271 -0.0012658801738643637 193 61 0
0.004375100524857318 -0.00032031754514286935 -0.0011947476865757525 182 72 0
0.004375100524857318 0.00024952491269368847 -0.0013882882438711113 211 43 0
0.004375100524857318 0.0008193673705302463 -0.0007525499262519247 114 140 0
0.004375100524857318 0.0013892098283668042 -0.00046880416695749803 71 183 0
0.004375100524857318 0.001959052286203362 -0.00018505677733072202 28 226 0
0.004375100524857318 0.00252889474403992 0.0006642730117038658 0 164 90
0.004375100524857318 0.0030987372018764776 -0.0001067839777962512 16 238 0
0.00380525806702076 -0.007728268953574004 0.0007402524770669743 0 153 101
0.00380525806702076 -0.007158426495737447 0.00022652116769660534 0 224 30
0.00380525806702076 -0.006588584037900889 -5.7226221930170636e-05 8 246 0
0.00380525806702076 -0.006018741580064331 -0.0003891113479467786 59 195 0
0.00380525806702076 -0.005448899122227773 -0.0004951660976017181 75 179 0
0.00380525806702076 -0.004879056664391215 -0.0005662980414462128 86 168 0
0.00380525806702076 -0.0043092142065546575 -0.0008021674609708135 122 132 0
0.00380525806702076 -0.0037393717487180997 -0.0008732999482594246 133 121 0
0.00380525806702076 -0.003169529290881542 -0.0011091688243399088 169 85 0
0.00380525806702076 -0.0025996873764891006 -0.001078156098947225 164 90 0
0.00380525806702076 -0.0020298449186525428 -0.0011492891296799527 175 79 0
0.00380525806702076 -0.001460002460815985 -0.0011525182746198186 175 79 0
0.00380525806702076 -0.0008901600029794271 -0.0012585724808306415 192 62 0
0.00380525806702076 -0.00032031754514286935 -0.0010650313800911661 162 92 0
0.00380525806702076 0.00024952491269368847 -0.0011710855863019893 178 76 0
0.00380525806702076 0.0008193673705302463 -0.000977544485562514 149 105 0
0.00380525806702076 0.0013892098283668042 -0.000731795252001097 111 143 0
0.00380525806702076 0.001959052286203362 -0.0002844771612122043 43 211 0
0.00380525806702076 0.00252889474403992 0.0007612761561554382 0 151 103
0.0032354156091842024 -0.007728268953574004 0.0015527201799616136 0 43 211
0.0032354156091842024 -0.007158426495737447 0.0003737124631893248 0 203 51
0.0032354156091842024 -0.006588584037900889 -2.851878647941066e-05 4 250 0
0.0032354156091842024 -0.006018741580064331 -0.00027426910692906044 41 213 0
0.0032354156091842024 -0.005448899122227773 -0.0004678091207803029 71 183 0
0.0032354156091842024 -0.004879056664391215 -0.0006613491346315453 100 154 0
0.0032354156091842024 -0.0043092142065546575 -0.0008548891484827876 130 124 0
0.0032354156091842024 -0.0037393717487180997 -0.0009581174452881406 146 108 0
0.0032354156091842024 -0.003169529290881542 -0.0010613457420934936 162 92 0
0.0032354156091842024 -0.0025996873764891006 -0.0010923584674861775 166 88 0
0.0032354156091842024 -0.0020298449186525428 -0.0013381077010475944 204 50 0
0.0032354156091842024 -0.001460002460815985 -0.0013010393778654583 198 56 0
0.0032354156091842024 -0.0008901600029794271 -0.0011949862585428682 182 72 0
0.0032354156091842024 -0.00032031754514286935 -0.0011579179353607319 176 78 0
0.0032354156091842024 0.00024952491269368847 -0.0008741716326221888 133 121 0
0.0032354156091842024 0.0008193673705302463 -0.0005904242429954128 90 164 0
0.0032354156091842024 0.0013892098283668042 0.0003527789958241894 0 206 48
0.0032354156091842024 0.001959052286203362 0.0006846652087290303 0 161 93
0.0026655731513476446 -0.008298111411410562 0.001310581589109801 0 76 178
0.0026655731513476446 -0.007728268953574004 0.0011219388219138266 0 101 153
0.0026655731513476446 -0.007158426495737447 0.0003738994079653789 0 203 51
0.0026655731513476446 -0.006588584037900889 -0.00018148254537691912 27 227 0
0.0026655731513476446 -0.006018741580064331 -0.0003701255842949519 56 198 0
0.0026655731513476446 -0.005448899122227773 -0.0004761797905057749 72 182 0
0.0026655731513476446 -0.004879056664391215 -0.0006648228294238077 101 153 0
0.0026655731513476446 -0.0043092142065546575 -0.0010447174390187685 159 95 0
0.0026655731513476446 -0.0037393717487180997 -0.0009414891422134156 143 111 0
0.0026655731513476446 -0.003169529290881542 -0.0008752009157787197 133 121 0
0.0026655731513476446 -0.0025996873764891006 -0.0011110697918592038 169 85 0
0.0026655731513476446 -0.0020298449186525428 -0.001148137028153107 175 79 0
0.0026655731513476446 -0.001460002460815985 -0.0012541917778080465 191 63 0
0.0026655731513476446 -0.0008901600029794271 -0.0010606512205126877 161 93 0
0.0026655731513476446 -0.00032031754514286935 -0.001097718456806591 167 87 0
0.0026655731513476446 0.00024952491269368847 -0.0010314296869277787 157 97 0
0.0026655731513476446 0.0008193673705302463 -0.0008378896730765364 127 127 0
0.0026655731513476446 0.0013892098283668042 -0.00043565842340780096 66 188 0
0.0026655731513476446 0.001959052286203362 0.0005150812984185432 0 184 70
0.0026655731513476446 0.00252889474403992 0.0017625749296323974 0 14 240
0.0020957306255805722 -0.007728268953574004 0.0012182055995876271 0 88 166
0.0020957306255805722 -0.007158426495737447 0.0005814102831619717 0 175 79
0.0020957306255805722 -0.006588584037900889 6.191085793974534e-05 0 246 8
0.0020957306255805722 -0.006018741580064331 -0.00028887634133475823 44 210 0
0.0020957306255805722 -0.005448899122227773 -0.00048241635518600067 73 181 0
0.0020957306255805722 -0.004879056664391215 -0.0004112838678973895 62 192 0
0.0020957306255805722 -0.0043092142065546575 -0.0008586025021303987 131 123 0
0.0020957306255805722 -0.0037393717487180997 -0.001052143602869874 160 94 0
0.0020957306255805722 -0.003169529290881542 -0.0008162747267893897 124 130 0
0.0020957306255805722 -0.0025996873764891006 -0.0013357736085674997 203 51 0
0.0020957306255805722 -0.0020298449186525428 -0.0013667868774042999 208 46 0
0.0020957306255805722 -0.001460002460815985 -0.000853054481145698 130 124 0
0.0020957306255805722 -0.0008901600029794271 -0.0010465955818851733 159 95 0
0.0020957306255805722 -0.00032031754514286935 -0.0007628481922583974 116 138 0
0.0020957306255805722 0.00024952491269368847 -0.0007596185038744151 115 139 0
0.0020957306255805722 0.0008193673705302463 -0.0005237490843498144 79 175 0
0.0020957306255805722 0.0013892098283668042 0.00035760206235756355 0 206 48
0.0020957306255805722 0.001959052286203362 0.0014176857293535792 0 61 193
0.0015258882017092714 -0.008298111411410562 0.001237264728195173 0 86 168
0.0015258882017092714 -0.007728268953574004 0.0014308047420464153 0 59 195
0.0015258882017092717 -0.007158426495737447 0.0002868391170681291 0 215 39
0.0015258882017092717 -0.006588584037900889 -0.00026854283627416887 41 213 0
0.0015258882017092717 -0.006018741580064331 -0.00027177306810226764 41 213 0
0.0015258882017092717 -0.005448899122227773 -0.00046041610702030045 70 184 0
0.0015258882017092717 -0.004879056664391215 -0.0006490586024942167 99 155 0
0.0015258882017092717 -0.0043092142065546575 -0.0006522877474340826 99 155 0
0.0015258882017092719 -0.0037393717487180997 -0.0014003266179384137 213 41 0
0.0015258882017092717 -0.003169529290881542 -0.0008808271927161873 134 120 0
0.0015258882017092717 -0.0025996873764891006 -0.0008840574245442861 134 120 0
0.0015258882017092719 -0.0020298449186525428 -0.0012159436374491268 185 69 0
0.0015258882017092719 -0.001460002460815985 -0.0010224036235978846 156 98 0
0.0015258882017092719 -0.0008901600029794271 -0.0014022982331928454 214 40 0
0.0015258882017092719 -0.00032031754514286935 -0.00100006698352411 152 102 0
0.0015258882017092719 0.00024952491269368847 -0.0009690537146873098 147 107 0
0.0015258882017092717 0.0008193673705302463 -0.00041738131088380756 63 191 0
0.0015258882017092717 0.0013892098283668042 0.00047255190531033606 0 190 64
0.0015258882017092714 0.001959052286203362 0.0013927381120223854 0 64 190
0.0015258882017092714 0.00252889474403992 0.0014590266101791394 0 55 199
0.0009560457396270566 -0.007728268953574004 0.0011027704610388767 0 104 150
0.0009560457396270566 -0.007158426495737447 0.0005832710358166502 0 175 79
0.0009560457396270567 -0.006588584037900889 -0.0002468811537930086 37 217 0
0.0009560457396270567 -0.006018741580064331 -0.00024365255229725913 37 217 0
0.0009560457396270567 -0.005448899122227773 -0.000274665277689943 41 213 0
0.0009560457396270567 -0.004879056664391215 -0.000377893574495296 57 197 0
0.0009560457396270569 -0.0043092142065546575 -0.0008252116652841887 126 128 0
0.0009560457396270569 -0.0037393717487180997 -0.0011236075910695115 171 83 0
0.0009560457396270569 -0.003169529290881542 -0.0010865392678873753 165 89 0
0.0009560457396270569 -0.0025996873764891006 -0.001049470944705239 160 94 0
0.0009560457396270569 -0.0020298449186525428 -0.0008608284492313228 131 123 0
0.0009560457396270569 -0.001460002460815985 -0.001106578226236856 168 86 0
0.0009560457396270569 -0.0008901600029794271 -0.0008228308366100802 125 129 0
0.0009560457396270569 -0.00032031754514286935 -0.0007857630568720605 119 135 0
0.0009560457396270567 0.00024952491269368847 -0.00031469102375372677 48 206 0
0.0009560457396270566 0.0008193673705302463 0.00046805110113800865 0 191 63
0.0009560457396270565 0.0013892098283668042 0.0014412225657585039 0 58 196
0.0009560457396270565 0.001959052286203362 0.0018211182622416976 0 6 248
0.00038620325207089877 -0.008298111411410562 0.0009316486038788741 0 127 127
0.00038620325207089877 -0.007728268953574004 0.000825595484556284 0 142 112
0.0003862032520708989 -0.007158426495737447 0.000189857710381214 0 229 25
0.0003862032520708989 -0.006588584037900889 -0.0001420290459677433 21 233 0
0.0003862032520708989 -0.006018741580064331 -0.000213160989812238 32 222 0
0.00038620325207089893 -0.005448899122227773 -0.00031921465257894456 48 206 0
0.00038620325207089893 -0.004879056664391215 -0.0005078576914969774 77 177 0
0.000386203252070899 -0.0043092142065546575 -0.0007916050811237534 120 134 0
0.000386203252070899 -0.0037393717487180997 -0.0010274739572042376 156 98 0
0.000386203252070899 -0.003169529290881542 -0.0009964606883674373 152 102 0
0.000386203252070899 -0.0025996873764891006 -0.0009654479629747535 147 107 0
0.000386203252070899 -0.0020298449186525428 -0.0010025162861568896 153 101 0
0.000386203252070899 -0.001460002460815985 -0.0009715030173200893 148 106 0
0.000386203252070899 -0.0008901600029794271 -0.0009404897484832891 143 111 0
0.00038620325207089893 0.00024952491269368847 -0.0006108110055794135 93 161 0
0.0003862032520708988 0.0008193673705302463 0.00040249543737226915 0 200 54
0.0003862032520708987 0.0013892098283668042 0.0013532354309206715 0 70 184
0.00038620325207089877 0.001959052286203362 0.0010213489462937723 0 115 139
-0.0001836391378351445 -0.007728268953574004 0.0008009383381053255 0 145 109
-0.00018363913783514446 -0.007158426495737447 0.00045015113883082187 0 193 61
-0.00018363913783514438 -0.006588584037900889 -0.0003209058506692951 49 205 0
-0.00018363913783514443 -0.006018741580064331 0.0002344761026730029 0 222 32
-0.00018363913783514438 -0.005448899122227773 -0.0002503570223617368 38 216 0
-0.0001836391378351444 -0.004879056664391215 -1.4488146281252576e-05 2 252 0
-0.00018363913783514432 -0.0043092142065546575 -0.0006512834627069082 99 155 0
-0.0001836391378351443 -0.0037393717487180997 -0.0008970326962683251 136 118 0
-0.0001836391378351443 -0.003169529290881542 -0.0008599654599744217 131 123 0
-0.0001836391378351443 -0.0025996873764891006 -0.0007888318857975777 120 134 0
-0.00018363913783514432 -0.0020298449186525428 -0.000717699941953083 109 145 0
-0.00018363913783514432 -0.001460002460815985 -0.0007487115804575339 114 140 0
-0.00018363913783514435 -0.0008901600029794271 -0.00036881697086257306 56 198 0
-0.00018363913783514438 -0.00032031754514286935 -0.0002627638515399829 40 214 0
-0.00018363913783514446 0.00024952491269368847 0.00037297392263508717 0 204 50
-0.00018363913783514456 0.0008193673705302463 0.001346146474143815 0 71 183
-0.00018363913783514462 0.0013892098283668042 0.0018172182355400907 0 6 248
-0.0007534815956717024 -0.008298111411410562 0.0009171212557582925 0 129 125
-0.0007534815956717024 -0.007728268953574004 0.0005852350428534517 0 175 79
-0.0007534815956717022 -0.007158426495737447 0.00020534043325849078 0 226 28
-0.0007534815956717022 -0.006588584037900889 -0.0001265463230904665 19 235 0
-0.0007534815956717022 -0.006018741580064331 -0.00016361464627260265 24 230 0
-0.0007534815956717022 -0.005448899122227773 -0.00023474659011709736 35 219 0
-0.0007534815956717021 -0.004879056664391215 -0.0005184939797438733 79 175 0
-0.0007534815956717021 -0.0043092142065546575 -0.0006245487293988128 95 159 0
-0.0007534815956717022 -0.0037393717487180997 -0.00043100762865933755 65 189 0
-0.0007534815956717021 -0.003169529290881542 -0.0008109033251425314 123 131 0
-0.0007534815956717021 -0.0025996873764891006 -0.000779890056305731 119 135 0
-0.0007534815956717022 -0.0020298449186525428 -0.00042910285703122745 65 189 0
-0.0007534815956717021 -0.001460002460815985 -0.0008089974666261884 123 131 0
-0.0007534815956717021 -0.0008901600029794271 -0.000510602084284982 77 177 0
-0.0007534815956717022 -0.00032031754514286935 9.93623092239689e-05 0 241 13
-0.0007534815956717025 0.0013892098283668042 0.001775695029213466 0 12 242
-0.0013233240535082602 -0.007728268953574004 0.0007206683814429503 0 156 98
-0.0013233240535082602 -0.007158426495737447 0.00031843658833009836 0 211 43
-0.0013233240535082602 -0.006588584037900889 -3.23500675002888e-05 4 250 0
-0.0013233240535082602 -0.006018741580064331 -0.0002258917116838805 34 220 0
-0.0013233240535082602 -0.005448899122227773 -3.7248672765847744e-05 5 249 0
-0.0013233240535082602 -0.004879056664391215 -0.0005220817978005874 79 175 0
-0.0013233240535082602 -0.0043092142065546575 -0.0006253100946059404 95 159 0
-0.0013233240535082602 -0.0037393717487180997 -0.0005541765204290964 84 170 0
-0.0013233240535082602 -0.003169529290881542 -0.0005851897892658966 89 165 0
-0.0013233240535082602 -0.0025996873764891006 -0.000651478559144709 99 155 0
-0.0013233240535082602 -0.0020298449186525428 -0.00027158394954974807 41 213 0
-0.0013233240535082602 -0.001460002460815985 -0.00030259558805419904 46 208 0
-0.0013233240535082602 -0.0008901600029794271 -0.00023146364420970433 35 219 0
-0.0013233240535082602 -0.00032031754514286935 0.00014843096538525658 0 234 20
-0.0013233240535082604 0.0008193673705302463 0.001835429319603937 0 4 250
-0.001893166511344818 -0.008298111411410562 0.000862123624286682 0 137 117
-0.001893166511344818 -0.007728268953574004 0.0006734816722568822 0 163 91
-0.001893166511344818 -0.007158426495737447 0.00020240909569443194 0 227 27
-0.001893166511344818 -0.006588584037900889 1.3767143664632063e-05 0 253 1
-0.001893166511344818 -0.006018741580064331 -0.0004573054328978181 69 185 0
-0.001893166511344818 -0.005448899122227773 -0.00021155565589228476 32 222 0
-0.001893166511344818 -0.004879056664391215 -0.0004001981513662011 61 193 0
-0.001893166511344818 -0.0043092142065546575 -0.0005062518141329077 77 177 0
-0.001893166511344818 -0.0037393717487180997 -0.0004752396321843402 72 182 0
-0.001893166511344818 -0.003169529290881542 -0.00028169853144486493 43 211 0
-0.001893166511344818 -0.0025996873764891006 -0.0006135847443497058 93 161 0
-0.001893166511344818 -0.0020298449186525428 -0.0005103569909884692 77 177 0
-0.001893166511344818 -0.001460002460815985 -0.00021196106520314642 32 222 0
-0.001893166511344818 -0.0008901600029794271 -0.00018094942669869547 27 227 0
-0.001893166511344818 -0.00032031754514286935 0.0002663702944225466 0 218 36
-0.0018931665113448182 0.00024952491269368847 0.0011263059388335098 0 101 153
-0.0018931665113448182 0.0008193673705302463 0.001192594708712322 0 92 162
-0.002463008969181376 -0.007728268953574004 0.0007502290241565155 0 152 102
-0.002463008969181376 -0.007158426495737447 0.00039944236832612835 0 200 54
-0.002463008969181376 -0.006588584037900889 4.865516905162477e-05 0 248 6
-0.002463008969181376 -0.006018741580064331 0.0003324014717901679 0 209 45
-0.002463008969181376 -0.005448899122227773 3.400554600484505e-05 0 250 4
-0.002463008969181376 -0.004879056664391215 -3.228322387396725e-05 4 250 0
-0.002463008969181376 -0.0043092142065546575 -0.0004345144735427027 66 188 0
-0.002463008969181376 -0.0037393717487180997 -0.0005008026999773986 76 178 0
-0.002463008969181376 -0.003169529290881542 -0.000429669669244671 65 189 0
-0.002463008969181376 -0.0025996873764891006 -0.0007280650515858774 111 143 0
-0.002463008969181376 -0.0020298449186525428 -0.0002569935619116601 39 215 0
-0.002463008969181376 -0.001460002460815985 -0.00028800683074846036 43 211 0
-0.002463008969181376 -0.0008901600029794271 0.00018306520236987338 0 230 24
-0.002463008969181376 -0.00032031754514286935 0.0009658073272616087 0 123 131
-0.0030328514270179336 -0.008298111411410562 0.0010230982929045813 0 115 139
-0.0030328514270179336 -0.007728268953574004 0.0006912120799997405 0 160 94
-0.0030328514270179336 -0.007158426495737447 0.0003113174704047795 0 212 42
-0.0030328514270179336 -0.006588584037900889 0.00020526272074984007 0 226 28
-0.0030328514270179336 -0.006018741580064331 1.6619681831807304e-05 0 252 2
-0.0030328514270179336 -0.005448899122227773 -0.0001720233570862255 26 228 0
-0.0030328514270179336 -0.004879056664391215 -0.0002780764764088156 42 212 0
-0.0030328514270179336 -0.0043092142065546575 -0.00046671951532684835 71 183 0
-0.0030328514270179336 -0.0037393717487180997 -0.000655362554244881 100 154 0
-0.0030328514270179336 -0.003169529290881542 -0.0009391099438716571 143 111 0
-0.0030328514270179336 -0.0025996873764891006 -0.0006407140180863342 97 157 0
-0.0030328514270179336 -0.0020298449186525428 -0.000574425248207522 87 167 0
-0.0030328514270179336 -0.001460002460815985 -0.0002760287789780827 42 212 0
-0.0030328514270179336 -0.0008901600029794271 0.00012620138380241985 0 237 17
-0.0030328514270179336 -0.00032031754514286935 0.0006778743310500386 0 162 92
-0.0030328514270179336 0.00024952491269368847 0.001508027335825872 0 49 205
-0.0036026938848544915 -0.007158426495737447 9.751785989278294e-05 0 241 13
-0.0036026938848544915 -0.006588584037900889 0.00020357152265948952 0 227 27
-0.0036026938848544915 -0.006018741580064331 1.0031508808247101e-05 0 253 1
-0.0036026938848544915 -0.005448899122227773 -5.62572610705652e-05 8 246 0
-0.0036026938848544915 -0.004879056664391215 -0.00015948555787591819 24 230 0
-0.0036026938848544915 -0.0043092142065546575 -0.0004578809402171246 69 185 0
-0.0036026938848544915 -0.0037393717487180997 -0.0007036301737785415 107 147 0
-0.0036026938848544915 -0.003169529290881542 -0.0007346434426153418 112 142 0
-0.0036026938848544915 -0.0025996873764891006 -0.0006975751194332056 106 148 0
-0.0036026938848544915 -0.0020298449186525428 -0.00010153159041089307 15 239 0
-0.0036026938848544915 -0.001460002460815985 8.71114485071397e-05 0 243 11
-0.0036026938848544915 -0.0008901600029794271 0.0004670060581021006 0 191 63
-0.0036026938848544915 -0.00032031754514286935 0.0012497487264379525 0 84 170
-0.004172536342691049 -0.007728268953574004 0.0006914865192785407 0 160 94
-0.004172536342691049 -0.007158426495737447 0.0003595997629295835 0 205 49
-0.004172536342691049 -0.006588584037900889 0.00017095726745566713 0 231 23
-0.004172536342691049 -0.006018741580064331 0.00013389003116176382 0 236 18
-0.004172536342691049 -0.005448899122227773 9.682170797962767e-05 0 241 13
-0.004172536342691049 -0.004879056664391215 -0.0002830739885035661 43 211 0
-0.004172536342691049 -0.0043092142065546575 -0.00038912765127027265 59 195 0
-0.004172536342691049 -0.0037393717487180997 -0.0007210138641751136 110 144 0
-0.004172536342691049 -0.003169529290881542 -0.0006900005953383132 105 149 0
-0.004172536342691049 -0.0025996873764891006 -0.0004964605814870708 75 179 0
-0.004172536342691049 -0.0020298449186525428 -9.422933181833539e-05 14 240 0
-0.004172536342691049 -0.001460002460815985 -6.321606298153512e-05 9 245 0
-0.004172536342691049 -0.0008901600029794271 0.0005184924971374144 0 184 70
-0.004172536342691049 -0.00032031754514286935 0.0008168884229227373 0 143 111
-0.004172536342691049 0.00024952491269368847 0.001617429157793944 0 34 220
-0.004742378800527606 -0.007158426495737447 0.0007322758043259178 0 155 99
-0.004742378800527606 -0.006588584037900889 0.00018060448741064847 0 230 24
-0.004742378800527606 -0.006018741580064331 0.0005604990970056094 0 178 76
-0.004742378800527606 -0.005448899122227773 0.0004942103271267971 0 187 67
-0.004742378800527606 -0.004879056664391215 0.00024846109356538017 0 221 33
-0.004742378800527606 -0.0043092142065546575 -0.0003032113102381221 46 208 0
-0.004742378800527606 -0.0037393717487180997 -0.0003342240356308059 51 203 0
-0.004742378800527606 -0.003169529290881542 -5.04766460040299e-05 7 247 0
-0.004742378800527606 -0.0025996873764891006 2.0655297840464817e-05 0 252 2
-0.004742378800527606 -0.0020298449186525428 0.0002092983367584976 0 226 28
-0.004742378800527606 -0.001460002460815985 0.00010607003995314459 0 240 14
-0.004742378800527606 -0.0008901600029794271 0.0007418083575723312 0 153 101
-0.004742378800527606 -0.00032031754514286935 0.00044341243178700824 0 194 60
-0.005312221258364164 -0.007158426495737447 0.0008999016854848839 0 132 122
-0.005312221258364164 -0.006588584037900889 0.0004288301958106666 0 196 58
-0.005312221258364164 -0.006018741580064331 0.00045984183431511754 0 192 62
-0.005312221258364164 -0.005448899122227773 0.0005261316910821627 0 183 71
-0.005312221258364164 -0.004879056664391215 0.0004890633679000266 0 188 66
-0.005312221258364164 -0.0043092142065546575 0.0003004208724261102 0 213 41
-0.005312221258364164 -0.0037393717487180997 0.00029719064059801145 0 214 40
-0.005312221258364164 -0.003169529290881542 0.000293962039102262 0 214 40
-0.005312221258364164 -0.0025996873764891006 0.0002568937159201258 0 219 35
-0.005312221258364164 -0.0020298449186525428 0.00021982539273798966 0 224 30
-0.005312221258364164 -0.001460002460815985 0.000286114162616802 0 215 39
-0.005312221258364164 -0.0008901600029794271 0.0002490458394346658 0 221 33
-0.005312221258364164 -0.00032031754514286935 0.0009907052194561483 0 119 135
-0.005312221258364164 0.00024952491269368847 0.001572413779575098 0 40 214
-0.005882063716200722 -0.006588584037900889 0.0010555419066558423 0 110 144
-0.005882063716200722 -0.006018741580064331 0.0005360424814336158 0 181 73
-0.005882063716200722 -0.005448899122227773 0.0011320865539000448 0 100 154
-0.005882063716200722 -0.004879056664391215 0.0011353162422840272 0 100 154
-0.005882063716200722 -0.0043092142065546575 0.0012413699050507338 0 85 169
-0.005882063716200722 -0.0037393717487180997 0.00016280723604146817 0 232 22
-0.005882063716200722 -0.003169529290881542 0.0009455509912655529 0 125 129
-0.005882063716200722 -0.0025996873764891006 0.000699800670815903 0 159 95
-0.005882063716200722 -0.0020298449186525428 0.00059657237401055 0 173 81
-0.005882063716200722 -0.001460002460815985 0.0005302836041317378 0 182 72
-0.005882063716200722 -0.0008901600029794271 0.0006363383537866772 0 168 86
-0.005882063716200722 -0.00032031754514286935 0.0012720750410735145 0 81 173
-0.005882063716200722 0.00024952491269368847 0.0013781295190063957 0 66 188
-0.005882063716200722 0.0008193673705302463 0.001710014916745062 0 21 233
-0.00645190617403728 -0.006018741580064331 0.0009692581974009803 0 122 132
-0.00645190617403728 -0.005448899122227773 0.0012150074309623972 0 89 165
-0.00645190617403728 -0.004879056664391215 0.0012460206997991973 0 84 170
-0.00645190617403728 -0.0043092142065546575 0.001242792098303448 0 85 169
-0.00645190617403728 -0.0037393717487180997 0.0014885410601428067 0 51 203
-0.00645190617403728 -0.003169529290881542 0.0010174692987465312 0 116 138
-0.00645190617403728 -0.0025996873764891006 0.0008288262598284985 0 141 113
-0.00645190617403728 -0.0020298449186525428 0.0005929573837480142 0 174 80
-0.00645190617403728 -0.001460002460815985 0.0005897287822522648 0 174 80
-0.00645190617403728 -0.0008901600029794271 0.0005526604590701285 0 179 75
-0.00645190617403728 -0.00032031754514286935 0.0007984096926315455 0 146 108
-0.00645190617403728 0.00024952491269368847 0.0008294224180242294 0 141 113
-0.00645190617403728 0.0008193673705302463 0.0007923540948420932 0 146 108
-0.00645190617403728 0.0013892098283668042 0.0007891254933463437 0 147 107
-0.00645190617403728 0.001959052286203362 0.0008554142632251561 0 138 116
-0.00645190617403728 0.00252889474403992 0.0014653781132899903 0 54 200
-0.00645190617403728 0.0030987372018764776 0.0013593236353571091 0 69 185
-0.00645190617403728 0.005378107169083738 0.0016025561792153084 0 36 218
-0.00645190617403728 0.0059479496067534245 0.001599327577719559 0 36 218
-0.00645190617403728 0.006517792050791596 0.001528194275264773 0 46 208
-0.00645190617403728 0.007087634542593412 0.0013395512363467404 0 72 182
-0.00645190617403728 0.00765747700042997 0.001637946890410005 0 31 223
-0.00645190617403728 0.008227319458266527 0.0018314882628715386 0 4 250
-0.00645190617403728 0.009367004238078614 0.0018363855095268064 0 4 250
-0.00645190617403728 0.009936846695915172 0.0018673985066415485 0 0 254
-0.00645190617403728 0.011646374069424845 0.001190994265789416 0 92 162
-0.00645190617403728 0.012216216527261403 0.0008591080528845751 0 137 117
-0.00645190617403728 0.012786058985097961 0.0007530543901178686 0 152 102
-0.00645190617403728 0.013355901442934519 0.0012003730243508777 0 91 163
-0.00645190617403728 0.014495586358607634 0.0011250342796010476 0 101 153
-0.0070217486318738375 -0.004879056664391215 0.001796962714710209 0 9 245
-0.0070217486318738375 -0.0043092142065546575 0.001868094930276762 0 0 255
-0.0070217486318738375 -0.0037393717487180997 0.0018018061603979495 0 9 245
-0.0070217486318738375 -0.003169529290881542 0.0016082661465467072 0 35 219
-0.0070217486318738375 -0.0025996873764891006 0.0011609466971475232 0 96 158
-0.0070217486318738375 -0.0020298449186525428 0.0012670011750804046 0 82 172
-0.0070217486318738375 -0.001460002460815985 0.0007821677783236066 0 148 106
-0.0070217486318738375 -0.0008901600029794271 0.00014537246189795107 0 235 19
-0.0070217486318738375 -0.00032031754514286935 0.0004772586748027919 0 189 65
-0.0070217486318738375 0.00024952491269368847 0.00037403092144155535 0 203 51
-0.0070217486318738375 0.0008193673705302463 0.0001804903641461965 0 230 24
-0.0070217486318738375 0.0013892098283668042 0.0001837195090860624 0 229 25
-0.0070217486318738375 0.001959052286203362 0.00028977371529688537 0 215 39
-0.0070217486318738375 0.00252889474403992 0.00036090620258549653 0 205 49
-0.0070217486318738375 0.0030987372018764776 1.0119003310992964e-05 0 253 1
-0.0070217486318738375 0.0036685796597130354 0.00104166125703382 0 112 142
-0.0070217486318738375 0.004238422253410623 0.0005943420793566944 0 173 81
-0.0070217486318738375 0.0048082647112471805 0.0008780894689834704 0 135 119
-0.0070217486318738375 0.005378107169083738 0.00039325580050461427 0 201 53
-0.0070217486318738375 0.0059479496067534245 0.00039648603233271304 0 200 54
-0.0070217486318738375 0.006517792050791596 0.00029325773552736005 0 214 40
-0.0070217486318738375 0.007087634542593412 0.00026224446669055975 0 219 35
-0.0070217486318738375 0.00765747700042997 0.00029931278987269593 0 214 40
-0.0070217486318738375 0.008227319458266527 0.00040536645263940246 0 199 55
-0.0070217486318738375 0.008797161780242056 0.0006412353287198867 0 167 87
-0.0070217486318738375 0.009367004238078614 0.00034283994637868034 0 208 46
-0.0070217486318738375 0.009936846695915172 0.0001492983021950886 0 234 20
-0.0070217486318738375 0.01050668915375173 0.0007850366198142751 0 147 107
-0.0070217486318738375 0.011076531611588288 0.00017507222630532422 0 231 23
-0.0070217486318738375 0.011646374069424845 7.184447294408767e-05 0 245 9
-0.0070217486318738375 0.012216216527261403 0.00014297804712093168 0 235 19
-0.0070217486318738375 0.012786058985097961 0.0004267248933035912 0 196 58
-0.0070217486318738375 0.013355901442934519 0.0007104711960421343 0 158 96
-0.0070217486318738375 0.013925743900771077 0.0009942185856689103 0 119 135
-0.0070217486318738375 0.014495586358607634 0.0010312869088510465 0 114 140
-0.0070217486318738375 0.015065428816444192 0.001267156056653589 0 82 172
-0.0070217486318738375 0.015635271817724866 0.0015990414543922552 0 36 218
-0.007591591089710395 -0.0037393717487180997 0.0016821416680130317 0 25 229
-0.007591591089710395 -0.003169529290881542 0.0016450733448308955 0 30 224
-0.007591591089710395 -0.0025996873764891006 0.0012651787352359347 0 82 172
-0.007591591089710395 -0.0020298449186525428 0.0010765356963179018 0 108 146
-0.007591591089710395 -0.001460002460815985 0.0008406668202374175 0 140 114
-0.007591591089710395 -0.0008901600029794271 0.0006047984876010497 0 172 82
-0.007591591089710395 -0.00032031754514286935 0.0002729122746962089 0 217 37
-0.007591591089710395 0.00024952491269368847 -0.00010698233489875203 16 238 0
-0.007591591089710395 0.0008193673705302463 -0.0002956253738167848 45 209 0
-0.007591591089710395 0.0013892098283668042 -0.0005314947933413855 81 173 0
-0.007591591089710395 0.001959052286203362 -0.0006375479126639757 97 157 0
-0.007591591089710395 0.00252889474403992 -0.0006065357307154083 92 162 0
-0.007591591089710395 0.0030987372018764776 -0.0005402475042807123 82 172 0
-0.007591591089710395 0.0036685796597130354 -0.0005434761057764618 82 172 0
-0.007591591089710395 0.004238422253410623 -0.0006146096799533059 93 161 0
-0.007591591089710395 0.0048082647112471805 -0.0006857416237978005 104 150 0
-0.007591591089710395 0.005378107169083738 -0.0006194533973631047 94 160 0
-0.007591591089710395 0.0059479496067534245 -0.00032105747157778184 49 205 0
-0.007591591089710395 0.006517792050791596 -0.00039218995886639295 59 195 0
-0.007591591089710395 0.007087634542593412 -0.00042925828204852913 65 189 0
-0.007591591089710395 0.00765747700042997 -0.00039824501321172884 60 194 0
-0.007591591089710395 0.008227319458266527 -0.00033195624333291654 50 204 0
-0.007591591089710395 0.008797161780242056 -0.0003690245665150527 56 198 0
-0.007591591089710395 0.009367004238078614 -0.0003027357966362404 46 208 0
-0.007591591089710395 0.009936846695915172 -0.0002717225277994402 41 213 0
-0.007591591089710395 0.01050668915375173 -0.0005075919473240409 77 177 0
-0.007591591089710395 0.011076531611588288 -0.000209196021538718 31 223 0
-0.007591591089710395 0.011646374069424845 -0.00017818329614603415 27 227 0
-0.007591591089710395 0.012216216527261403 1.535726114932467e-05 0 252 2
-0.007591591089710395 0.012786058985097961 0.00041758851081806015 0 197 57
-0.007591591089710395 0.013355901442934519 0.0006111285246693025 0 171 83
-0.007591591089710395 0.013925743900771077 0.001013359774338038 0 116 138
-0.007591591089710395 0.014495586358607634 0.0012068997881892805 0 90 164
-0.007591591089710395 0.015065428816444192 0.0014526501086389303 0 56 198
-0.007591591089710395 0.015635271817724866 0.0016461903942122309 0 30 224
-0.00816143409099107 -0.003169529290881542 0.0018045573462374092 0 8 246
-0.00816143409099107 -0.0025996873764891006 0.0015061616921741446 0 49 205
-0.00816143409099107 -0.0020298449186525428 0.001260412730334786 0 82 172
-0.00816143409099107 -0.001460002460815985 0.0010146624098851362 0 116 138
-0.00816143409099107 -0.0008901600029794271 0.0008211223960338939 0 142 112
-0.00816143409099107 -0.00032031754514286935 0.00013351396783318925 0 236 18
-0.00816143409099107 0.00024952491269368847 6.722519795437696e-05 0 245 9
-0.00816143409099107 0.0008193673705302463 -0.0006744336386229891 102 152 0
-0.00816143409099107 0.0013892098283668042 -0.0002945379421397953 44 210 0
-0.00816143409099107 0.001959052286203362 -0.0012147252357400775 185 69 0
-0.00816143409099107 0.00252889474403992 -0.0015131211615254003 231 23 0
-0.00816143409099107 0.0030987372018764776 -0.001042049671851183 159 95 0
-0.00816143409099107 0.0036685796597130354 -0.001073062397243867 163 91 0
-0.00816143409099107 0.004238422253410623 -0.0010019293665111393 152 102 0
-0.00816143409099107 0.0048082647112471805 -0.0009987002215712734 152 102 0
-0.00816143409099107 0.005378107169083738 -0.0010297124035198407 157 97 0
-0.00816143409099107 0.0059479496067534245 -0.00011709256924093741 17 237 0
-0.00816143409099107 0.006517792050791596 -0.0007796509408944998 119 135 0
-0.00816143409099107 0.007087634542593412 -0.0007764217959546339 118 136 0
-0.00816143409099107 0.00765747700042997 -0.0007052887652219063 107 147 0
-0.00816143409099107 0.008227319458266527 -0.0005992351024551998 91 163 0
-0.00816143409099107 0.008797161780242056 -0.0005960054140712175 91 163 0
-0.00816143409099107 0.009367004238078614 -0.0006622941839500298 101 153 0
-0.00816143409099107 0.009936846695915172 -0.0005562405211833232 84 170 0
-0.00816143409099107 0.01050668915375173 -0.0005191721980011871 79 175 0
-0.00816143409099107 0.011076531611588288 -0.00018728707198457912 28 226 0
-0.00816143409099107 0.011646374069424845 -8.123232232963967e-05 12 242 0
-0.00816143409099107 0.012216216527261403 0.0001546354668626117 0 233 21
-0.00816143409099107 0.012786058985097961 0.000486522223211569 0 188 66
-0.00816143409099107 0.013355901442934519 0.000770269612838345 0 149 105
-0.00816143409099107 0.013925743900771077 0.0010061384889188292 0 117 137
-0.00816143409099107 0.014495586358607634 0.0013860333702358483 0 65 189
-0.008731276548827627 -0.003169529290881542 0.0018495773437312449 0 2 252
-0.008731276548827627 -0.0025996873764891006 0.0016609343048132122 0 28 226
-0.008731276548827627 -0.0020298449186525428 0.0015548809137685637 0 42 212
-0.008731276548827627 -0.001460002460815985 0.0010838091523722882 0 107 147
-0.008731276548827627 -0.0008901600029794271 0.0008951666568983719 0 132 122
-0.008731276548827627 -0.00032031754514286935 -4.803658192123034e-05 7 247 0
-0.008731276548827627 0.00024952491269368847 -0.0006837748995404168 104 150 0
-0.008731276548827627 0.0008193673705302463 -0.0010156611124452577 155 99 0
-0.008731276548827627 0.0013892098283668042 -0.0012515305319698584 191 63 0
-0.008731276548827627 0.001959052286203362 -0.0014873983211621097 227 27 0
-0.008731276548827627 0.00252889474403992 -0.0013841705678008733 211 43 0
-0.008731276548827627 0.0030987372018764776 -0.0013874002561848555 211 43 0
-0.008731276548827627 0.0036685796597130354 -0.0012841719593795025 196 58 0
-0.008731276548827627 0.004238422253410623 -0.0012531592339868186 191 63 0
-0.008731276548827627 0.0048082647112471805 -0.0012221470520382513 186 68 0
-0.008731276548827627 0.005378107169083738 -0.0011558582821594389 176 78 0
-0.008731276548827627 0.0059479496067534245 -0.0008050699959967025 122 132 0
-0.008731276548827627 0.006517792050791596 -0.0009111247456516419 139 115 0
-0.008731276548827627 0.007087634542593412 -0.0008078964488462889 123 131 0
-0.008731276548827627 0.00765747700042997 -0.0007416082224115931 113 141 0
-0.008731276548827627 0.008227319458266527 -0.0005480676651162343 83 171 0
-0.008731276548827627 0.009367004238078614 -0.0004389440865357777 67 187 0
-0.008731276548827627 0.009936846695915172 -0.0003726553166569654 56 198 0
-0.008731276548827627 0.01050668915375173 -0.0001791142159174901 27 227 0
-0.008731276548827627 0.011076531611588288 1.4425797933752308e-05 0 253 1
-0.008731276548827627 0.011646374069424845 0.00026017503149516923 0 219 35
-0.008731276548827627 0.012216216527261403 0.0004537150453464116 0 193 61
-0.008731276548827627 0.013355901442934519 0.0008341726630460008 0 141 113
-0.008731276548827627 0.013925743900771077 0.0013858453385715613 0 65 189
-0.008731276548827627 0.014495586358607634 0.0017880765882402967 0 10 244
-0.009301119006664187 -0.001460002460815985 0.001718343741273568 0 20 234
-0.009301119006664187 -0.0008901600029794271 0.0014199480872103033 0 61 193
-0.009301119006664187 -0.00032031754514286935 0.0005897945389903531 0 174 80
-0.009301119006664187 0.00024952491269368847 -0.0003001386772037904 45 209 0
-0.009301119006664187 0.0008193673705302463 -0.0006509253330341776 99 155 0
-0.009301119006664187 0.0013892098283668042 -0.0010017125323086812 152 102 0
-0.009301119006664187 0.001959052286203362 -0.0013524997315831847 206 48 0
-0.009301119006664187 0.00252889474403992 -0.001546039745434427 236 18 0
