ply
format ascii 1.0
element vertex 660
property float x
property float y
property float z
property uchar red
property uchar green
property uchar blue
end_header
-0.008593059961624915 0.01153375613257103 0.05999013937190083 54 200 0
-0.009080678029128457 0.011627566826179745 0.059854453841081325 75 179 0
-0.009529623209805427 0.01173676479095027 0.060378090091561504 11 243 0
-0.009967582642653483 0.01185033379431217 0.06108901887233435 0 206 48
-0.010425537851483249 0.011955946825095626 0.06145904601062438 0 177 77
-0.01090384786460135 0.01205346103216223 0.061482050546707905 0 178 76
-0.011372279661283846 0.012154905610281076 0.0616734656616447 0 164 90
-0.011845245363454339 0.012254546226014627 0.0617875836599737 0 157 97
-0.012325254076991308 0.012351384549636454 0.06178162759140716 0 159 95
-0.012800074263452164 0.012450287366846665 0.06186413102495452 0 155 99
-0.013290063172741624 0.012543154743614171 0.06168802576450682 0 171 83
-0.013773535090784682 0.012638615118207706 0.061623026620769836 0 179 75
-0.014251845077184189 0.012736129319821675 0.06164603115541342 0 179 75
-0.01470391325671187 0.012844084696423496 0.062116424358572 0 142 112
-0.015205709724294542 0.012932254067620084 0.061739016269307036 0 175 79
-0.01567867539918325 0.013031894694208585 0.061853134732754556 0 168 86
-0.01615698541230135 0.013129408901275189 0.06187613926883808 0 168 86
-0.01662995094590894 0.013229049515454061 0.061990258191260375 0 161 93
-0.017102916620797645 0.01332869014204256 0.062104376654707895 0 154 100
-0.017586388538840703 0.013424150516636094 0.06203937751097092 0 161 93
-0.018052199401603013 0.0135266379189203 0.06227547609700908 0 144 110
-0.018539817469106556 0.013620448612529016 0.062139790566189575 0 157 97
-0.019016408429593276 0.013718646800832892 0.062192102685339104 0 155 99
-0.01949122852933658 0.013817549583923573 0.0622746056476242 0 150 104
-0.0199660486017981 0.013916452377869204 0.06235710907502781 0 146 108
-0.02044263956228482 0.01401465056617308 0.06240942119417734 0 144 110
-0.02090580750200726 0.014118189541712126 0.06269057813684403 0 123 131
-0.021385816242826018 0.014215027854479007 0.06268462160315896 0 125 129
-0.021811465615378563 0.014333494817401945 0.06360542069742409 0 51 203
-0.022255094864652887 0.014444808173602275 0.06421969437501826 0 3 251
-0.0227568913167372 0.014532977533809655 0.0638422860625593 0 36 218
-0.02321069976290571 0.01464024048955989 0.06428301004219733 0 2 252
-0.0038041560534711853 0.01012072605025519 0.0615259486956731 0 143 111
-0.0048582015208348565 0.010276990570515928 0.059910982323308846 40 214 0
-0.005360688816590091 0.010364885056004424 0.059521796036225066 93 161 0
-0.005844018923908387 0.010460401854626641 0.05945921457855522 104 150 0
-0.006325494606372084 0.01055665649674668 0.05942824862204781 112 142 0
-0.006805199373528796 0.010653615755363421 0.059427474438913004 115 139 0
-0.007279775854714192 0.010752615195562705 0.0595141229779922 107 147 0
-0.007761251509896102 0.010848869848537692 0.05948315748660331 114 140 0
-0.00821360926008394 0.010956710011066616 0.059948613921886225 58 196 0
-0.008711949751615822 0.011046254438058727 0.05963012518472944 102 152 0
-0.009164307474521877 0.011154094611442601 0.06009558208513088 46 208 0
-0.00963713128412225 0.011253791683769682 0.060212119164882595 35 219 0
-0.010091630599964634 0.011360779754454908 0.0606410647265797 0 244 10
-0.010525533176638497 0.011475962910551168 0.06142115756151899 0 182 72
-0.01098003249248088 0.011582950981236392 0.061850103123216094 0 149 105
-0.011441519137564065 0.011687158914762286 0.06215992392491705 0 125 129
-0.01190782598319982 0.01178944897406045 0.06238756665626096 0 109 145
-0.0123841129700245 0.011887768108214188 0.06244506112596074 0 106 148
-0.012793210979675467 0.012012820640092799 0.0636480411062814 0 9 245
-0.01334827245916318 0.012079796769399864 0.062362534236140986 0 117 137
-0.013846613005258633 0.012169341174682075 0.06204404456874716 0 145 109
-0.01434910027429527 0.012257235654717934 0.061654858280223435 0 180 74
-0.014832430379832326 0.012352752452976644 0.061592276822457596 0 187 67
-0.01531041620470285 0.012450395666081953 0.06162080882856917 0 187 67
-0.015784993060040234 0.012549395231904403 0.061707458787578905 0 182 72
-0.01625956996994119 0.012648394776016952 0.061794107816351605 0 177 77
-0.01672824757064532 0.012749741484354378 0.061981330346805044 0 163 91
-0.017204534557469998 0.012848060618508118 0.06203882481650482 0 161 93
-0.017682520271995326 0.01294570385836213 0.062067358216436025 0 160 94
-0.018157097209178068 0.013044703391619731 0.062154006780090205 0 155 99
-0.018636801976334785 0.01314166265023647 0.06215323259695539 0 158 96
-0.019113088990441247 0.013239981773535262 0.06221072660153665 0 155 99
-0.019587665900342204 0.01333898131764781 0.06229737563030934 0 150 104
-0.020063952887166885 0.01343730045180155 0.06235487010000912 0 147 107
-0.02054542856963058 0.013533555093921588 0.06232390414350171 0 152 102
-0.021021715556455257 0.013631874228075326 0.06238139861320149 0 149 105
-0.021490393243876936 0.01373322097053228 0.0625686216149172 0 136 118
-0.02197186892634063 0.013829475612652319 0.0625376556584098 0 141 113
-0.022435772675326145 0.01393272209693473 0.06280627582106241 0 121 133
-0.022869675279281798 0.014047905242176039 0.06358636819088317 0 59 195
-0.0039294609645187575 0.00963067189029914 0.061056565144344814 0 183 71
-0.004370376406185324 0.009743064749003126 0.061717097868353214 0 131 123
-0.004952992845269016 0.009799077237631968 0.05996181523190038 36 218 0
-0.005445385252642499 0.00989098830418344 0.059744733494956 67 187 0
-0.005937777714579553 0.009982899349025014 0.05952765082777458 98 156 0
-0.006419496614167383 0.010079057219268231 0.05949253833966104 106 148 0
-0.006901215431909856 0.010175215122076298 0.05945742724690307 113 141 0
-0.007381223744013047 0.010272053330929912 0.05945147022352451 117 137 0
-0.007861232512113585 0.01036889163284184 0.059445513224720935 121 133 0
-0.008336052584575105 0.01046779442678747 0.059528016652124545 114 140 0
-0.008819524529899947 0.010563254790526055 0.05946301704326904 126 128 0
-0.009287956353864228 0.010664699357789952 0.059654431693087324 105 149 0
-0.009753767162062969 0.010767186781784056 0.05989053120936253 78 176 0
-0.010194682603729535 0.010879579640488043 0.06055106393337092 0 253 1
-0.010607257180237093 0.011003248838067832 0.06169477107836344 0 161 93
-0.011061065612125288 0.011110511799499952 0.062135495301461945 0 126 128
-0.011534031287013998 0.011210152426088454 0.062249613764909464 0 119 135
-0.011997199199454654 0.011313691412482448 0.06253077117269468 0 98 156
-0.012457736984013175 0.011418276881159862 0.0628567687965225 0 73 181
-0.012965807420344762 0.011503950000435878 0.06237239926628667 0 115 139
-0.013431618228543505 0.011606437424429983 0.06260849878256187 0 98 156
-0.013906438301005025 0.011705340218375614 0.06269100220996549 0 93 161
-0.014410376360869165 0.011792657453894873 0.06227708184878328 0 130 124
-0.014907595569206244 0.011882648018957269 0.06197770948270399 0 156 98
-0.015395213665209621 0.011976458718382127 0.061842023953420415 0 170 84
-0.015887606127146674 0.012068369763223702 0.06162494128623899 0 190 64
-0.016348143911705196 0.012172955231901116 0.06195093891006682 0 165 89
-0.016842952880266108 0.01226390472203126 0.06169265603823683 0 188 66
-0.01732467175257215 0.012360062603129426 0.061657544015241816 0 193 61
-0.01779048264261625 0.012462549994558682 0.06189364213616147 0 176 78
-0.018265302660514196 0.012561452810214212 0.06197614649380212 0 171 83
-0.018767099099597034 0.012649622175594656 0.061598738403001216 0 205 49
-0.019213278862014016 0.012759920452344297 0.06216952139226488 0 160 94
-0.019693287630114555 0.012856758754256225 0.0621635643934613 0 162 92
-0.02016625327772148 0.012956399391699675 0.06227768332202734 0 155 99
-0.0206392189253284 0.013056040029143127 0.06239180225059338 0 148 106
-0.021097174134158164 0.013161653059926583 0.0627618293888834 0 119 135
-0.021598970600522786 0.013249822414452078 0.062384420832963985 0 153 101
-0.02207897936862333 0.013346660716364006 0.062378463834160416 0 155 99
-0.0225251595051923 0.013456959118736815 0.06294924824335461 0 110 144
-0.022990970367954618 0.013559446521021017 0.06318534682939278 0 93 161
-0.02342138955160059 0.013676015658808372 0.06402482692720735 0 26 228
-0.0044739048779334776 0.009261674846784149 0.06161897471846328 0 141 113
-0.00499522293555355 0.009342076898612413 0.060908748745057785 0 201 53
-0.0055195657248116176 0.009421275462164402 0.060146955081335864 18 236 0
-0.006056901683010309 0.009495304269069126 0.05916364500149848 146 108 0
-0.006518388328093493 0.009599512202595022 0.05947346580319944 110 144 0
-0.007001718435411789 0.009695029001217239 0.0594108843455296 121 133 0
-0.007489581910375377 0.009788741776960694 0.059271007142032546 143 111 0
-0.007967567679464277 0.009886384995104809 0.0592995396117267 142 112 0
-0.008447272473902775 0.0099833442428666 0.059298764963473374 146 108 0
-0.008923559460727454 0.010081663377020338 0.05935625943317315 142 112 0
-0.00939984644755213 0.010179982511174078 0.059413753902872936 137 117 0
-0.009858922992359027 0.010285149381813841 0.05976466373975243 96 158 0
-0.010305155790568418 0.010395426556541212 0.06033454253861314 27 227 0
-0.010671723263096842 0.010537401183127921 0.062262610206883756 0 115 139
-0.011139012389445379 0.010639300409961147 0.062473506345913754 0 100 154
-0.011598088879688705 0.010744467302310809 0.06282441711303029 0 73 181
-0.012528504832107854 0.010949921863092323 0.06331717112833667 0 37 217
-0.013006490715196092 0.011047565104501016 0.06334570360417456 0 37 217
-0.0134727975753253 0.011149855158032487 0.06357334608842426 0 20 234
-0.013965925403316412 0.011241473613470849 0.06334372639862948 0 41 213
-0.014445630171036316 0.011338432855780007 0.0633429517489362 0 43 211
-0.014946234176025893 0.011427076668939624 0.06298587305831305 0 75 179
-0.015441992147610639 0.011517648652998973 0.06271141337203588 0 100 154
-0.015953401542321683 0.011601993190003374 0.06217011704975202 0 146 108
-0.01642968852914636 0.011700312324157114 0.062227611519451796 0 144 110
-0.016932175710902258 0.011788206786381032 0.061838425226224264 0 178 76
-0.017410161507272946 0.011885849993670195 0.0618669572307999 0 178 76
-0.017871648152356128 0.011990057927196093 0.06217677803250087 0 154 100
-0.01835312380753804 0.012086312580171078 0.06214581254111198 0 159 95
-0.018821801494959718 0.012187659322628032 0.06233303554282769 0 146 108
-0.019290479209663182 0.012289006054230034 0.06252025807942488 0 132 122
-0.019766766196487855 0.012387325188383772 0.06257775254912466 0 130 124
-0.020241343106388816 0.012486324732496324 0.06266440157789735 0 125 129
-0.020715920043571562 0.012585324265753926 0.06275105014155152 0 120 134
-0.021190496898908947 0.012684323831576375 0.06283770010056126 0 115 139
-0.0216783608025881 0.012778036711233098 0.06269782338675771 0 128 126
-0.022151184639470262 0.01287773377270523 0.0628143600013909 0 121 133
-0.02263451517550412 0.012973250675240716 0.06275177903341457 0 128 126
-0.023058029175367596 0.013092567265933766 0.06370898341936145 0 51 203
-0.004123944013978085 0.008672895230196164 0.061074686380993205 0 185 69
-0.004571470678180652 0.008782657598077764 0.061622506468922686 0 142 112
-0.005144282179706516 0.008842571301363879 0.06003438510297831 31 223 0
-0.005668245124655071 0.008921920998380921 0.059279067284410854 131 123 0
-0.006118698142374526 0.009030519020934963 0.059776996899407145 70 184 0
-0.006613507279498345 0.009121468512619786 0.05951871310348387 106 148 0
-0.007093515993035313 0.009218306836241615 0.059512757034917325 111 143 0
-0.007583504419045637 0.009311174130805754 0.059336652215013164 136 118 0
-0.008063513187146177 0.009408012432717681 0.05933069521620959 140 114 0
-0.008546985132471019 0.009503472796456268 0.05926569560735408 152 102 0
-0.009023576092957737 0.009601670984760143 0.05931800772650361 149 105 0
-0.009503584861058277 0.009698509286672072 0.059312050727700044 153 101 0
-0.009980175821544996 0.00979670747497595 0.059364362846849573 149 105 0
-0.010453141469151918 0.0098963481124194 0.05947848177541561 138 116 0
-0.010906949928321903 0.010003611062996569 0.0599192055333956 85 169 0
-0.011243599321066479 0.010157489574812722 0.06235733705453069 0 111 143
-0.01167555228673363 0.010273448447326401 0.06317066818914881 0 46 208
-0.012123078978857399 0.010383210804098639 0.06371848780105854 0 3 251
-0.016482849184619338 0.011238963112664606 0.06298819249881128 0 82 172
-0.016946017010342446 0.011342502064939074 0.06326934943533422 0 61 193
-0.017468410161312013 0.011422476355763432 0.06254079453640965 0 123 131
-0.01795012900633627 0.011518634247716548 0.06250568297853316 0 128 126
-0.018426719966822987 0.011616832436020425 0.0625579950976827 0 126 128
-0.01890672873492353 0.011713670737932353 0.06255203809887912 0 129 125
-0.01937969438253045 0.011813311375375803 0.06266615702744516 0 122 132
-0.01985970315063099 0.011910149677287733 0.06266020002864159 0 124 130
-0.020332668825519703 0.012009790303876233 0.0627743184920891 0 117 137
-0.020793206610078222 0.012114375772553648 0.06310031611591693 0 92 162
-0.021274925509666053 0.012210533642796863 0.06306520362780339 0 97 157
-0.02173809342210671 0.012314072629190861 0.0633463610355886 0 76 178
-0.02221291344000466 0.012412975444846392 0.06342886539322926 0 72 182
-0.022691223936401897 0.012510489734116365 0.06345186948876924 0 72 182
-0.023143292090429035 0.012618445121936644 0.06392226315714235 0 35 219
-0.004670492207258633 0.008303061140108873 0.06160121996027147 0 145 109
-0.005190315086585027 0.008384058097456947 0.06091648480735656 0 203 51
-0.005725954199526317 0.008458762049669865 0.059962103704109884 45 209 0
-0.00621643909168922 0.008551432083451327 0.05977754258896792 72 182 0
-0.006709566934173781 0.008643050533123 0.059547922652078915 105 149 0
-0.00720532487725869 0.008733622511366203 0.05927346296426581 143 111 0
-0.007693188324940492 0.008827335297964608 0.059133586225887276 164 90 0
-0.008169475311765168 0.008925654432118346 0.05919108069558705 160 94 0
-0.008649180106203667 0.009022613679880139 0.05919030604733372 164 90 0
-0.009132510213521962 0.009118130478502356 0.05912772458966388 175 79 0
-0.009596413506510127 0.00922137686972645 0.05939634472774152 144 110 0
-0.0100743993301626 0.009319020066160665 0.05942487626719863 144 110 0
-0.010562263233841752 0.009412732945817386 0.05928499955339508 165 89 0
-0.011030940893981643 0.009514079699129289 0.0594722230202293 144 110 0
-0.011466451049908403 0.009628623227312862 0.060224908746375455 51 203 0
-0.018932696079011185 0.011263141273565267 0.06377622921891445 0 29 225
-0.019408983120399435 0.011361460386009105 0.06383372275837719 0 27 227
-0.01989231322771773 0.011456977184631323 0.06377114130070735 0 34 220
-0.020351389718813614 0.011562144076641767 0.06412205205328893 0 7 247
-0.020825966628501433 0.011661143620839125 0.06420870108569536 0 2 252
-0.004273091890984089 0.007733156859098397 0.06186571179861844 0 122 132
-0.004781162213316339 0.007818829955109833 0.06138134226223887 0 164 90
-0.005315346443162192 0.007894112780081813 0.060451764999428684 0 243 11
-0.005817142882245028 0.007982282145462257 0.06007435690862778 33 221 0
-0.006318939321327863 0.008070451510842699 0.059696948817826875 85 169 0
-0.006806557388831403 0.008164262204451414 0.059561263287007365 105 149 0
-0.007294175456334944 0.008258072898060131 0.059425577756187856 126 128 0
-0.007781793040559349 0.00835188350946548 0.05928989266591189 147 107 0
-0.008263511885583606 0.008448041401418596 0.05925478110803539 154 100 0
-0.008743520653684146 0.008544879703330524 0.05924882410923182 158 96 0
-0.009221830639520463 0.008642393921252078 0.05927182911043386 159 95 0
-0.00968499855196112 0.008745932907646074 0.059552986518219074 126 128 0
-0.010179807661803151 0.008836882410185846 0.05929470318741431 162 92 0
-0.010677026871921472 0.008926872975611752 0.058995330821431026 204 50 0
-0.011124553563405824 0.009036635332638402 0.05954315044424197 137 117 0
-0.011604562331506365 0.00913347363455033 0.0595371934454384 141 113 0
-0.012079382403967885 0.009232376428495961 0.05961969687284201 134 120 0
-0.012520297791070877 0.009344769308909848 0.06028023052708744 53 201 0
-0.004843881019515539 0.007353677826112848 0.06197896896408651 0 117 137
-0.005381217059559587 0.007427706600452723 0.060995657488893566 0 200 54
-0.005934505141950324 0.0074953883337177 0.05974038470337611 78 176 0
-0.006403182829372001 0.007596735076174652 0.05992760770509181 57 197 0
-0.006903786808861032 0.007685378900552729 0.05957052947968318 106 148 0
-0.00739165073982197 0.007779091769354502 0.059430652300761104 127 127 0
-0.007882135230551096 0.007871761688367748 0.05924609023080712 154 100 0
-0.008363610885733007 0.007968016341342735 0.05921512473941823 162 92 0
-0.008843315625607931 0.008064975610814425 0.059214351021401934 165 89 0
-0.009321301394696833 0.008162618828958539 0.05924288349109609 165 89 0
-0.009794125177015424 0.008262315912140572 0.05935942103596633 153 101 0
-0.010266949013897584 0.008362012973612706 0.059475957650599515 141 113 0
-0.01074323600072226 0.008460332107766444 0.05953345212029929 137 117 0
-0.011219523042110512 0.008558651220210284 0.05959094565976203 133 121 0
-0.011712650857313284 0.008650269680736906 0.05936132618799155 166 88 0
-0.012187227712650673 0.008749269246559357 0.059447976147001286 158 96 0
-0.012626080651279153 0.008862482739462734 0.06014367183112442 73 181 0
-0.004444868022294075 0.006784415202890657 0.06227095488838986 0 92 162
-0.004937260429667557 0.0068763262694421295 0.062053873151445484 0 112 142
-0.005468626232742798 0.006952730497560546 0.06117234635270321 0 187 67
-0.005999992063099827 0.007029134714824014 0.06029081908884242 10 244 0
-0.006483463981142883 0.007124595089417548 0.06022581994510543 22 232 0
-0.007004249607423126 0.007205208986444693 0.059524671224736966 114 140 0
-0.007487721552747968 0.007300669350183278 0.059459671615881456 126 128 0
-0.00797533916425416 0.0073944799507336765 0.05932398606048697 147 107 0
-0.008455347932354699 0.007491318252645605 0.05931802906168339 151 103 0
-0.008972790748651434 0.007573262195807896 0.058673870848456454 236 18 0
-0.009413706135754426 0.007685655076221782 0.05933440450270189 155 99 0
-0.009893714903854968 0.0077824933781337115 0.05932844750389832 159 95 0
-0.01038610736579202 0.007874404422975285 0.05911136483671689 190 64 0
-0.010846645123068757 0.007978989902507649 0.05943736292566324 152 102 0
-0.011328363968093016 0.008075147794460766 0.05940225136778675 160 94 0
-0.011804954928579733 0.008173345982764642 0.05945456348693628 156 98 0
-0.012270765818623835 0.008275833374193898 0.059690661607855924 129 125 0
-0.012760754700631507 0.008368700761816355 0.059514556812526744 155 99 0
-0.01323372034823843 0.008468341399259805 0.05962867574109278 144 110 0
-0.013696888401960209 0.00857188039806343 0.059909832689903214 111 143 0
-0.00451842481396151 0.006314950722432459 0.06268380861098499 0 59 195
-0.005549259319555892 0.00648045048195196 0.06146455856380836 0 164 90
-0.006070577377175967 0.006560852533780224 0.06075433259040287 0 224 30
-0.00659340136211349 0.0066406554032384865 0.06001843253980988 50 204 0
-0.007081265265792641 0.006734368282895208 0.059878555826006326 71 183 0
-0.007581869327127031 0.006823012074708437 0.05952147620524213 120 134 0
-0.00804817571676544 0.006925302040948282 0.059749118912011054 94 160 0
-0.008556944780206304 0.007010697119987299 0.05925283676009631 161 93 0
-0.009040274887524598 0.0071062139186095176 0.05919025530242647 172 82 0
-0.009518260602049928 0.007203857158463531 0.059218788702357666 172 82 0
-0.00999283756651446 0.007302856680866183 0.05930543680089333 164 90 0
-0.010470823281039788 0.007400499920720196 0.05933397020082452 164 90 0
-0.010990646214929756 0.00748149685635837 0.05864923411767258 255 0 0
-0.01143493390362716 0.007592547956436454 0.05925227447165632 181 73 0
-0.011909510758964546 0.0076915475222589045 0.05933892443066606 173 81 0
-0.01237818847366801 0.007792894253860907 0.059526146967263244 152 102 0
-0.012861518580986303 0.007888411052483125 0.059463565509593405 164 90 0
-0.013341223320861231 0.007985370321954816 0.05946279179157712 167 87 0
-0.01379572275070295 0.008092358415904619 0.05989173735941797 116 138 0
-0.0142328818723523 0.00820624584921677 0.06061631039197608 27 227 0
-0.005146221828127508 0.005912789108960625 0.06182515691271768 0 133 121
-0.005626230541664474 0.006009627432582453 0.06181920084415114 0 136 118
-0.00615172882369602 0.006088366245593689 0.0610377075506316 0 203 51
-0.0066674295069702304 0.006171003353280721 0.06042325041073863 1 253 0
-0.0071734584696487155 0.0062574886709055085 0.05997368336762077 61 193 0
-0.00767525490873155 0.006345658036285952 0.05959627527681986 113 141 0
-0.00816524336202366 0.006438525319995141 0.059420169991797174 139 115 0
-0.008648715280066716 0.0065339856945886765 0.05935517084806019 150 104 0
-0.009132187198109772 0.006629446069182211 0.0592901717043232 162 92 0
-0.009612195966210312 0.00672628437109414 0.059284214705519624 166 88 0
-0.010093914811234572 0.006822442263047257 0.05924910314764314 174 80 0
-0.01058872394835839 0.006913391754732079 0.058990819351719855 210 44 0
-0.011046679157188155 0.007019004785515537 0.05936084649000988 166 88 0
-0.011491565517402328 0.007129817684576803 0.059953680283189946 93 161 0
-0.012015528407787307 0.007209167403303746 0.05919836339485953 193 61 0
-0.012483960259033373 0.007310611959712692 0.05938977757955929 172 82 0
-0.012973949141041047 0.007403479347335149 0.0592136727842301 198 56 0
-0.013427757627492817 0.007510742287057369 0.05965439607709157 145 109 0
-0.013906067672764897 0.007608256549953402 0.0596774020146744 145 109 0
-0.014380887772508205 0.007707159333044083 0.059759904976959495 138 116 0
-0.014844055684948862 0.007810698319438079 0.0600410623847447 105 149 0
-0.005712317555478894 0.005535177403818838 0.0620184307464207 0 121 133
-0.006232140489368863 0.005616174339457013 0.06133369466326876 0 180 74
-0.006747520829909301 0.005698938905963744 0.06072469894503805 0 232 22
-0.007257636876981109 0.005783798043569871 0.06020545249643355 34 220 0
-0.007767752924052917 0.005868657181176 0.05968620604782905 103 151 0
-0.008255616399016506 0.005962369956919455 0.059546328844331996 125 129 0
-0.008756220378505535 0.006051013781297533 0.059189250618923356 173 81 0
-0.009229044215387696 0.006150710842769665 0.05930578723355655 162 92 0
-0.009712374322705991 0.006246227641391883 0.05924320577588671 173 81 0
-0.01019207906258092 0.0063431869108635745 0.05924243205787042 177 77 0
-0.0106735547723264 0.006439441542128662 0.05921146563624449 184 70 0
-0.011153259566764901 0.006536400789890453 0.05921069098799116 187 67 0
-0.01163124528129023 0.006634044029744467 0.059239224387922354 187 67 0
-0.012109230995815559 0.00673168726959848 0.05926775778785355 186 68 0
-0.01258380796028009 0.006830686792001131 0.059354405886389204 179 75 0
-0.013058384870181048 0.006929686336113683 0.059441054915161905 171 83 0
-0.013534671857005727 0.007028005470267422 0.05949854938486168 167 87 0
-0.014003349631144954 0.007129352246843903 0.05968577285783965 146 108 0
-0.014499107628793436 0.007219924203377207 0.059411312239789515 185 69 0
-0.014925470365492011 0.007338107331074675 0.060319949414992725 72 182 0
-0.015384546883580314 0.0074432741962618025 0.06067085925043227 30 224 0
-0.00583688159873442 0.005045418038710789 0.06156167795299485 0 160 94
-0.0063186004164768935 0.005141575941518856 0.06152656686023687 0 165 89
-0.006847080243078847 0.005219128449639235 0.06069424215901813 0 236 18
-0.007353109233039119 0.0053056137564090715 0.060244674650781746 31 223 0
-0.007872245811751414 0.0053868837808724885 0.05957164001935687 120 134 0
-0.008348836398086142 0.005485081843553199 0.05962395071857587 117 137 0
-0.008852774402823518 0.0055723991170899415 0.05921003175418915 173 81 0
-0.009331084443223406 0.005669913313301596 0.05923303582515416 173 81 0
-0.00980939437449615 0.005767427552933049 0.05925604175659324 174 80 0
-0.010285985389546441 0.005865625719527027 0.059308352945505745 170 84 0
-0.01076945736215307 0.005961086072410662 0.059243352871531714 182 72 0
-0.011251176207177329 0.006057243964363778 0.05920824131365522 190 64 0
-0.011724141854784252 0.006156884601807229 0.05932236024222126 178 76 0
-0.012211759895006006 0.006250695306270894 0.05918667517652027 199 55 0
-0.012695231867612636 0.006346155659154529 0.05912167510254625 211 43 0
-0.013153187131005972 0.0064517686682280875 0.05949170131059923 167 87 0
-0.013636659049049028 0.006547229042821622 0.059426702166862244 178 76 0
-0.014109624810655287 0.006646869703529652 0.05954082110157203 167 87 0
-0.014578056661901354 0.006748314259938598 0.05973223528627179 146 108 0
-0.015017496186215312 0.006861294360567886 0.06041793045709563 62 192 0
-0.01552755914349433 0.0069461746055985985 0.05989958866257266 131 123 0
-0.015983250835303917 0.0070526882494875275 0.060308205754137055 82 172 0
-0.01642269046996307 0.007165668323368111 0.060993899531141274 0 253 1
-0.00640655691685521 0.004666382066625249 0.06169392451629756 0 153 101
-0.006915325980296075 0.004751777145664267 0.061197642364382805 0 196 58
-0.0074321821836255495 0.004833954491955596 0.06056348512957369 0 250 4
-0.007940951247066416 0.0049193495709946135 0.06006720297765895 59 195 0
-0.008448301419880884 0.0050053089275215405 0.05959510324326294 123 131 0
-0.00893616535084182 0.005099021796323313 0.059455226064340866 144 110 0
-0.00942402925452097 0.005192734675980035 0.05931534935053731 165 89 0
-0.009905504909702883 0.005288989328955021 0.05928438385914842 172 82 0
-0.010388835017021179 0.005384506127577239 0.05922180240147859 183 71 0
-0.010872165124339472 0.005480022926199457 0.05915922094380875 195 59 0
-0.01134674197967686 0.005579022492021907 0.059245870902818486 187 67 0
-0.011845082525772313 0.005668566897304117 0.05892738123542467 231 23 0
-0.01230415907057921 0.00577373376794388 0.05927829107230416 189 65 0
-0.01278386386501771 0.005870693015705671 0.059277516424050825 193 61 0
-0.01326533952019962 0.005966947668680659 0.059246550932661936 200 54 0
-0.013731646393117164 0.006069237717123871 0.05947419319888732 174 80 0
-0.014207933493941179 0.006167556874542189 0.05953168767473084 170 84 0
-0.014671836841492916 0.006270803244056384 0.05980030688257144 139 115 0
-0.015149822583300032 0.006368446473055447 0.059828839817384113 139 115 0
-0.015622646366181811 0.006468143539929895 0.05994537689569588 127 127 0
-0.016097223219737954 0.006567143105388836 0.06003202685460962 120 134 0
-0.016547490040484523 0.00667581522964586 0.060533131370159615 59 195 0
-0.005949558883824519 0.004120190683813038 0.06297447892450836 0 46 208
-0.006446778148506412 0.004210181227529043 0.06267510562828803 0 73 181
-0.0070017986243219935 0.004277173671486331 0.06139029781674826 0 181 73
-0.007534580352101951 0.004353014527713897 0.0604846313668161 5 249 0
-0.008046588418329765 0.004437120863701481 0.05993312848372856 78 176 0
-0.008548384428697037 0.004525290125168658 0.059555719903234154 130 124 0
-0.009023204501158556 0.004624192919114288 0.05963822333063777 123 131 0
-0.009520423683995088 0.004714183495395144 0.059338851429773 164 90 0
-0.010017642894113409 0.004804174060821048 0.05903947906378971 206 48 0
-0.01048345378415751 0.004906661452250305 0.05927557718470936 179 75 0
-0.010966925702200564 0.00500212182684384 0.05921057804097237 190 64 0
-0.011441745801943872 0.0051010246099345204 0.05929308100325746 183 71 0
-0.011934138263880926 0.005192935654776094 0.05907599833607604 214 40 0
-0.012407103911487848 0.005292576292219544 0.05919011726464208 203 51 0
-0.012885413951887737 0.005390090488431198 0.059213121335607084 203 51 0
-0.01336372388316048 0.005487604728062652 0.05923612726704617 204 50 0
-0.013832155734406546 0.005589049284471598 0.059427541451745926 182 72 0
-0.01430058769965195 0.005690493864145123 0.05961895564258943 161 93 0
-0.01478059646775249 0.005787332166057053 0.05961299864378586 165 89 0
-0.015253562115359413 0.005886972803500502 0.0597271175723519 154 100 0
-0.015721993939886884 0.005988417354456813 0.059918531755611716 133 121 0
-0.01620200265164261 0.006085255677715132 0.05991257568694918 137 117 0
-0.01665995788897221 0.006190868714314734 0.06028260282677514 93 161 0
-0.017132923591142706 0.006290509330048284 0.06039672082510414 82 172 0
-0.017584991717888056 0.006398464728723515 0.060867114958595765 25 229 0
-0.007071650517932711 0.003809183200778501 0.061866315568618484 0 143 111
-0.007619554648940465 0.0038790071149523778 0.06070283206255611 0 241 13
-0.00814087270656054 0.003959409166780643 0.059992606089150614 73 181 0
-0.008631357115444306 0.004052079118358738 0.05980804541455219 100 154 0
-0.00914673748326653 0.004134843674010519 0.05919904923120296 181 73 0
-0.009605814000791642 0.004240010555505231 0.059549959533200976 139 115 0
-0.010104154519605309 0.004329554971642391 0.05923147033092567 183 71 0
-0.010585630283914365 0.00442580958119758 0.05920050297906271 190 64 0
-0.011068960336669088 0.0045213264015296975 0.05913792245162991 202 52 0
-0.011545247378057337 0.004619645513973536 0.05919541599109265 198 56 0
-0.01202857743081206 0.004715162334305653 0.05913283546365985 209 45 0
-0.012508282170686986 0.004812121603777344 0.059132061745643553 212 42 0
-0.012982859080587945 0.004911121147889895 0.05921871077441625 205 49 0
-0.013446762428139681 0.0050143675174040905 0.05948732998225684 174 80 0
-0.013934626331818833 0.005108080397060812 0.05934745326845328 195 59 0
-0.014398529793369905 0.005211326789839586 0.05961607248243761 164 90 0
-0.014881859791561057 0.005306843631881602 0.05955349288524186 175 79 0
-0.01535053750626452 0.0054081903634836045 0.05974071542183905 154 100 0
-0.015830242273984423 0.005505149605792761 0.059739940772145776 158 96 0
-0.016291728890004582 0.005609357549810097 0.06004976203886926 122 132 0
-0.016764552755386578 0.005709054617098374 0.06016629865503839 110 144 0
-0.017239129665287536 0.005808054161210925 0.060252947683811085 102 152 0
-0.01769362898112992 0.0059150422318961495 0.06068189324550819 51 203 0
-0.018127531389240874 0.006030225386437731 0.06146198700454077 0 225 29
-0.0072151846274590165 0.0033118759588037063 0.061086148194335284 0 209 45
-0.007696903527046847 0.003408033829046924 0.06105103570622175 0 214 40
-0.008229685200263232 0.00348387470698439 0.06014537018652664 56 198 0
-0.008724493881389702 0.003574824105610895 0.05988708636602837 92 162 0
-0.009230522871349973 0.003661309412380732 0.05943751885779199 153 101 0
-0.009713994843956601 0.0037567697652643676 0.05937251878381797 164 90 0
-0.010192304829792918 0.003854283983185921 0.05939552378502001 164 90 0
-0.010675776747835975 0.003949744357779457 0.05933052464128303 176 78 0
-0.011159248720442603 0.004045204710663091 0.059265524567309 188 66 0
-0.01165405780300285 0.0041361542240578135 0.05900724170162276 224 30 0
-0.012132367788839167 0.0042336684419793675 0.05903024670282481 224 30 0
-0.012588059591557139 0.004340182042812007 0.05943886193401112 175 79 0
-0.01308527880167546 0.004430172608237913 0.05913948956802783 217 37 0
-0.01355824444928238 0.004529813245681363 0.05925360849659387 206 48 0
-0.014039963348870211 0.00462597111592458 0.05921849600848034 213 41 0
-0.014495655156460376 0.004732484783441599 0.059627113106284484 165 89 0
-0.01498327319668213 0.004826295487905264 0.0594914280405835 185 69 0
-0.015449084086726232 0.00492878287933452 0.05972752616150315 158 96 0
-0.01596478471600006 0.0050114199924238675 0.05911306948528875 240 14 0
-0.01639976243880575 0.005126175365442812 0.05987483246437593 146 108 0
-0.016848707593418985 0.0052353733577393795 0.06039846964662909 83 171 0
-0.017345926803537304 0.005325363923165285 0.060099097280645795 124 130 0
-0.01780909471597796 0.00542890290955928 0.060380254688431 91 163 0
-0.01827752645322469 0.005530347442703648 0.06057166886698701 70 184 0
-0.01873321820137909 0.005636861065246188 0.06098028502841037 21 233 0
-0.0077821631682939395 0.002933912987643768 0.06126437125822506 0 198 56
-0.008300499517652887 0.0030155014094925877 0.0606049794832299 0 254 0
-0.008806341798861299 0.003102060729945897 0.060158587314554826 59 195 0
-0.009323197974908987 0.0031842380870921757 0.059524430544864226 144 110 0
-0.009802902714783911 0.0032811973565638666 0.05952365682684794 147 107 0
-0.010293387634228603 0.003373867379490379 0.05933909524658745 174 80 0
-0.010762065294368493 0.0034752141328022817 0.059526318713421685 153 101 0
-0.011257823292016975 0.0035657860893355854 0.05925185809537154 192 62 0
-0.01175095110721975 0.0036574045498622074 0.05902223862360106 224 30 0
-0.012225528017120709 0.003756404093974758 0.05910888765237375 216 38 0
-0.01269835185400287 0.003856101155446891 0.05922542426700694 205 49 0
-0.013179827509184781 0.0039523558084218775 0.059194458775618054 212 42 0
-0.013646134382102324 0.00405464585686509 0.059422101041843436 186 68 0
-0.01412946448942062 0.0041501626554873074 0.0593595195841736 198 56 0
-0.01459814231812342 0.00425150941035389 0.059546742126914534 177 77 0
-0.015077847057998348 0.004348468679825581 0.059545968408898246 180 74 0
-0.015539333730363319 0.004452676602496527 0.05985578874548069 144 110 0
-0.01601903844351965 0.004549635866515583 0.05985501502602446 147 107 0
-0.01649532548312666 0.004647954978595912 0.0599125085653912 143 111 0
-0.01696990239424567 0.004746954539379558 0.059999158060818354 136 118 0
-0.017442726176564255 0.0048466516225615895 0.06011569560568858 124 130 0
-0.01791140386398593 0.004947998365018542 0.06030291860740429 103 151 0
-0.018384227586868758 0.005047695403226098 0.06041945521589374 92 162 0
-0.01884813087985692 0.005150941794450191 0.06068807535397136 61 193 0
-0.019320954689457295 0.005250638866777274 0.06080461243372308 49 205 0
-0.01975485729341294 0.005365822012018585 0.06158470480354385 0 224 30
-0.007873305717512156 0.0024574514391561475 0.06137741097816034 0 190 64
-0.008390748615654248 0.0025393953497535897 0.06073325136957784 0 245 9
-0.008892544598739734 0.0026275646220757162 0.06035584325420196 36 218 0
-0.009408245282013944 0.0027102017297627483 0.05974138611430898 118 136 0
-0.009903054391855976 0.002801151232302521 0.059483102783504216 154 100 0
-0.010390672377514159 0.0028949619584760847 0.05934741864804027 175 79 0
-0.0108706811456147 0.0029918002603880143 0.0593414616492367 179 75 0
-0.0113541531727849 0.0030872605915617506 0.05927646064502563 191 63 0
-0.011835871963245587 0.003183418505224767 0.05924135001738618 198 56 0
-0.012315880731346127 0.0032802568071366956 0.059235393018582605 202 52 0
-0.012797599576370385 0.0033764146990898124 0.059200281460706106 210 44 0
-0.013281071494413443 0.003471875073683347 0.05913528231696912 222 32 0
-0.013755891594156747 0.0035707778567740283 0.05921778527925421 214 40 0
-0.014234201634556637 0.0036682920529856828 0.05924078935021922 215 39 0
-0.014700012584036502 0.003770779489389417 0.05947688840751965 188 66 0
-0.01517660354452322 0.003868977677693294 0.059529200526669185 185 69 0
-0.015649569246693716 0.003968618293426845 0.05964331852499819 173 81 0
-0.016133041138018177 0.004064078662567744 0.05957831937982126 185 69 0
-0.016593578948077243 0.0041686641200266985 0.05990431653843457 147 107 0
-0.01706201080054136 0.0042701086931067386 0.06009573118978878 125 129 0
-0.017545482718584415 0.004365569067700273 0.0600307320460518 137 117 0
-0.018018448393473125 0.0044652096942887735 0.06014485050949932 126 128 0
-0.018491413981644285 0.0045648502867577465 0.06025896850168457 114 140 0
-0.018954581921366724 0.004668389262296792 0.06054012544435126 82 172 0
-0.01943117288185344 0.004766587450600669 0.060592437563500794 79 175 0
-0.019876059242067614 0.0048774003496619344 0.06118527135668086 6 248 0
-0.020356068010168156 0.004974238651573863 0.06117931435787728 10 244 0
-0.008463073943186634 0.002070421057426262 0.06116709913877761 0 211 43
-0.008974482854618545 0.0021547655122272956 0.060625803257037286 4 250 0
-0.009480325537260734 0.002241324947448821 0.06017941204317424 64 190 0
-0.009984553138158814 0.0023285269956942077 0.05976055584569733 121 133 0
-0.010482893684254268 0.002418071400976418 0.05944206617830351 165 89 0
-0.010964369339436179 0.0025143260539514057 0.059411100686914624 172 82 0
-0.011447699446754474 0.002609842852573623 0.059348519229244785 183 71 0
-0.011923986488142723 0.0027081619650174624 0.05940601276870752 179 75 0
-0.012405462197888208 0.00280441659628255 0.05937504634708159 187 67 0
-0.012893326101567359 0.0028981294759392717 0.05923516963327804 208 46 0
-0.01336200376170725 0.0029994762292511737 0.05942239310011227 187 67 0
-0.013845333869025544 0.003094993027873392 0.05935981164244243 198 56 0
-0.014314011583729008 0.003196339759475395 0.05954703417903962 178 76 0
-0.014790298684553022 0.0032946589168937127 0.059604528654883145 174 80 0
-0.015256605557470566 0.0033969489653369253 0.059832170921108534 148 106 0
-0.015722912457669897 0.0034992390029251873 0.0600598127222154 122 132 0
-0.016216040273435862 0.003590857447144224 0.05983019278388646 155 99 0
-0.01669402598617995 0.003688500686634728 0.05985872618372166 155 99 0
-0.017168602924580747 0.0037875002365634234 0.05994537521403029 147 107 0
-0.017641426706899332 0.003887197319745455 0.06006191275890052 135 119 0
-0.018114250516499706 0.003986894392072538 0.060178449838652226 124 130 0
-0.018588827339683117 0.004085893902065561 0.060265098396162654 116 138 0
-0.019057505027104793 0.0041872406445225135 0.060452321397878366 95 159 0
-0.019532081882442178 0.004286240210344964 0.060538971356888106 87 167 0
-0.02000490571932434 0.004385937271817097 0.0606555079715213 76 178 0
-0.02047358340674602 0.004487284014274049 0.06084273097323701 55 199 0
-0.0209280827225884 0.004594272084959274 0.061271676534934115 4 250 0
-0.00858005826410093 0.0015836775160227162 0.06083957068951964 0 239 15
-0.009060066576204121 0.0016805157248763278 0.06083361366614108 0 242 12
-0.009584029466589102 0.0017598654436032707 0.060078296777810666 79 175 0
-0.010078838576431133 0.0018508149461430425 0.0598200134470059 116 138 0
-0.010580635015513968 0.0019389843115234862 0.059442605356205 167 87 0
-0.0110623539151018 0.0020351421817667043 0.05940749286809147 175 79 0
-0.011544072760126058 0.002131300073719821 0.05937238131021498 183 71 0
-0.012027544678169116 0.0022267604483133556 0.05930738216647799 194 60 0
-0.012507553446269656 0.0023235987502252843 0.059301425167674414 198 56 0
-0.012989272291293914 0.002419756642178401 0.05926631360979792 206 48 0
-0.013465863306344205 0.0025179548087723783 0.05931862479871042 203 51 0
-0.013942454266830922 0.002616152997076255 0.05937093691785995 199 55 0
-0.01443007236161625 0.0027099636798300205 0.05923525092192192 220 34 0
-0.014893240360774457 0.002813502700343545 0.05951640880096939 187 67 0
-0.015366206062944953 0.002913143316077096 0.059630526799298395 176 78 0
-0.015841026108124687 0.003012046120877677 0.05971303069182053 169 85 0
-0.01632274492643035 0.0031082040073781587 0.059677919132504094 176 78 0
-0.016795710572256033 0.0032078446444580985 0.059792038060974134 165 89 0
-0.017274020641155758 0.0033053588464858974 0.05981504213347508 166 88 0
-0.01774698628876268 0.0034049994839293477 0.05992916106204112 154 100 0
-0.018221806388505984 0.003503902267020028 0.060011664024326214 147 107 0
-0.018687617137268964 0.0036063896460396564 0.060247762604220635 120 134 0
-0.019090624809803444 0.0037338653488403475 0.061554572860634295 0 227 27
-0.01963496883140046 0.0038051057688239494 0.06045178453072555 101 153 0
-0.02011155979188718 0.003903303957127826 0.060504096649875085 97 157 0
-0.020584525466775888 0.004002944583716327 0.060618215113322604 86 168 0
-0.021042480675605654 0.004108557614499784 0.060988242251612625 42 212 0
-0.021478953551204473 0.004222718093217378 0.061724514875423735 0 224 30
-0.00913903724737402 0.0012088971556293788 0.06115416787426464 0 217 37
-0.009655893450703494 0.0012910745019207078 0.06052001063945553 25 229 0
-0.010166009525057088 0.0013759336286718856 0.06000076372573251 95 159 0
-0.010673360099305335 0.0014618930999670283 0.05952866494614853 158 96 0
-0.011156690152060058 0.0015574099202991468 0.05946608441871574 169 85 0
-0.011629513988942217 0.001657106981771279 0.05958262103334892 158 96 0
-0.01212785453503767 0.00174665138705349 0.059264131365955104 202 52 0
-0.012604141521862348 0.001844970521207228 0.05932162583565488 198 56 0
-0.013078718377199735 0.0019439700870296783 0.059408275794664615 190 64 0
-0.01355670420085221 0.0020416132834638933 0.05943680733412173 190 64 0
-0.014040034308170503 0.0021371300820861115 0.05937422587645189 201 53 0
-0.014486267079098107 0.0022474072676684316 0.05994410514043112 132 122 0
-0.014986871199868261 0.0023360511044561386 0.059587026456047715 180 74 0
-0.01546315824125651 0.002434370216899978 0.05964451999551046 176 78 0
-0.01594114395578184 0.002532013456753992 0.059673053395441655 176 78 0
-0.016415720838964205 0.002631012995413908 0.05975970242277441 168 86 0
-0.016884398551886427 0.0027323597266524008 0.0599469249592756 148 106 0
-0.017365874235568173 0.0028286143854435323 0.05991595946942265 155 99 0
-0.017798207127390196 0.0029444220919273064 0.06072281336353075 55 199 0
-0.018313587440648846 0.0030271866692889882 0.060113818110418556 136 118 0
-0.018786411163531674 0.0031268837074965427 0.060230354718908 125 129 0
-0.019264396878057 0.0032245269473505566 0.0602588881188392 124 130 0
-0.019718896193899382 0.0033315150180357805 0.06068783368053631 73 181 0
-0.020212024009102155 0.0034231334785624025 0.06045821420876583 105 149 0
-0.02067592732937211 0.003526379858931546 0.06072683388172493 74 180 0
-0.021124152816528647 0.003635864177275879 0.06126273995876367 9 245 0
-0.02153697224706751 0.0037594359516818646 0.062402272665038866 0 169 85
-0.009220727230585202 0.0007361966192683533 0.061428361393903584 0 195 59
-0.009757690301329863 0.0008103737916259511 0.06045140855399806 36 218 0
-0.01026576056909854 0.000896046909347286 0.05996703994785552 101 153 0
-0.010769698601117704 0.0009833641720290798 0.05955312051835029 157 97 0
-0.011253170519160761 0.0010788245466226152 0.059488121374613304 169 85 0
-0.01173664249176739 0.0011742848995062501 0.05942312130063928 180 74 0
-0.012218361336791649 0.001270442791459367 0.05938800974276279 188 66 0
-0.01269132698439857 0.0013700834289028171 0.05950212867132883 177 77 0
-0.01316791794488529 0.001468281617206693 0.05955444079047836 174 80 0
-0.013655536039670617 0.0015620922999604585 0.059418754794540334 194 60 0
-0.014132127054720906 0.0016602904665544366 0.05947106598345282 191 63 0
-0.014610437040557223 0.0017578046844759897 0.05949407098465487 191 63 0
-0.015088747140392876 0.0018553189256621232 0.05951707599200066 191 63 0
-0.015567057126229192 0.0019528331435836764 0.05954008099320271 192 62 0
-0.016040022773836118 0.0020524737810271266 0.05965419992176875 181 73 0
-0.01651661376216781 0.002150671942168469 0.05970651110924131 177 77 0
-0.016919621460202837 0.0022781476337507007 0.06101332090044045 14 240 0
-0.017465189453074792 0.002348901073940828 0.05988966595990324 160 94 0
-0.017945198221175334 0.0024457393758527566 0.059883708961099666 164 90 0
-0.018418163868782252 0.002545380013296207 0.059997827889665706 153 101 0
-0.0188865955787472 0.0026468245572955247 0.06018924253334024 132 122 0
-0.019359561253635905 0.0027464651838840243 0.06030336099678776 121 133 0
-0.019836152214122625 0.002844663372187901 0.0603556731159373 117 137 0
-0.020312743174609342 0.002942861560491777 0.060407985235086836 114 140 0
-0.020761688382568103 0.003052059514407352 0.060931621020448495 50 204 0
-0.021222226167126622 0.0031566449830847656 0.06125761864427632 12 242 0
-0.021663141554229614 0.0032690378634986517 0.06191815229852175 0 210 44
-0.022143150322330156 0.0033658761654105805 0.06191219529971818 0 213 41
-0.022520163663420027 0.0035036945620060735 0.06366217466808913 0 71 183
-0.00979017690105218 0.00035725042847200867 0.06156445495248551 0 188 66
-0.010334480982114175 0.0004285067401020113 0.06046234755609009 40 214 0
-0.010843250072836827 0.0005139018082860793 0.059966064939056825 107 147 0
-0.011345737423155634 0.000601796272064678 0.059576877721736005 160 94 0
-0.01182544216303056 0.0006987555415363684 0.05957610400371972 163 91 0
-0.012301729204418809 0.0007970746539802077 0.059633597543182454 159 95 0
-0.012800069750514263 0.0008866190592624178 0.05931510787578863 203 51 0
-0.013232402560490927 0.0010024267983110421 0.060121963165252285 103 151 0
-0.013720266518733652 0.0010961396562578643 0.05998208552121169 124 130 0
-0.014220870525504468 0.0011847834697809936 0.059625006830684536 173 81 0
-0.014704200632822764 0.001280300268403211 0.0595624253730147 185 69 0
-0.01518218646134743 0.0013779435315218035 0.05959095877908964 184 70 0
-0.015661891255785928 0.0014749027792835953 0.05959018413083631 188 66 0
-0.01613056891592582 0.0015762495325954973 0.05977740759767054 167 87 0
-0.016605145853671757 0.0016752490495455137 0.05986405569476626 159 95 0
-0.017095630716771632 0.0017679190938184155 0.05967949504464681 186 68 0
-0.017570207655172428 0.0018669186437471107 0.059766144074955445 178 76 0
-0.01803888536987589 0.001968265375349113 0.059953366611552636 158 96 0
-0.01849124303821837 0.0020761055704428873 0.06041882444219111 102 152 0
-0.018952729542020434 0.002180313491559155 0.06072864570286685 65 189 0
-0.019445857439068567 0.002271931919520927 0.06049902483574081 98 156 0
-0.019914535126490242 0.002373278661977879 0.060686247837456526 77 177 0
-0.020383212813911915 0.0024746254044348322 0.06087347083917223 57 197 0
-0.020837712129754302 0.002581613475120056 0.061302416400869336 5 249 0
-0.021274871224121864 0.0026955009192871577 0.06202698989854597 0 201 53
-0.021679292556972804 0.0028224141511578246 0.06330969910860691 0 97 157
-0.022096435278462622 0.002944265763051194 0.06437552539871404 0 11 243
-0.0104164751299599 -4.4314818093525374e-05 0.06073135546934915 8 246 0
-0.010918271596324521 4.385453643196858e-05 0.060353946913429726 59 195 0
-0.011439057140759407 0.00012446846602396245 0.05965279958841682 152 102 0
-0.011926675235544732 0.00021827914877772803 0.0595171135924788 173 81 0
-0.012399640937715228 0.0003179197645112788 0.0596312315908078 161 93 0
-0.012872606585322152 0.00041756040195472816 0.05974535051937384 150 104 0
-0.013345572232929074 0.0005172010393981784 0.05985946944793988 139 115 0
-0.013827291077953332 0.0006133589313512952 0.059824357890063386 147 107 0
-0.014307299846053872 0.0007101972332632248 0.05981840089125981 151 103 0
-0.01478389080654059 0.0008083954215671015 0.05987071301040934 147 107 0
-0.015262200960939816 0.0009059096410433355 0.05989371708751809 148 106 0
-0.015743919805964075 0.0010020675329964522 0.059858605529641604 155 99 0
-0.016222229791800394 0.0010995817509180054 0.05988161053084365 156 98 0
-0.01670570168312485 0.001195042120058905 0.05981661138566672 167 87 0
-0.01717151257138771 0.0012975295111246517 0.060052709506490366 141 113 0
-0.017639944451133614 0.001398974073349742 0.06024412369272606 119 135 0
-0.018100482235692137 0.0015035595420271556 0.06057012131655389 81 173 0
-0.018566293043890878 0.0016060469660212611 0.06080622083282909 54 200 0
-0.01904460297029143 0.001703561138968337 0.06082922489765035 55 199 0
-0.019528074888334485 0.0017990215135618715 0.06076422575391337 66 188 0
-0.019968990275437477 0.0019114143939757576 0.06142475940815881 0 245 9
-0.020432158187878132 0.002014953380369754 0.061705916815944006 0 224 30
-0.02088784996331432 0.002121466992057343 0.06211453251224885 0 193 61
-0.021427580171071506 0.0021945431685739918 0.06109040363109308 38 216 0
-0.021754067453113087 0.0023524650080492485 0.06370178575440094 0 66 188
-0.010993724744951971 -0.00042636447158177996 0.060734470247697125 13 241 0
-0.011481588648631124 -0.00033265159192505736 0.06059459353389358 34 220 0
