ply
format ascii 1.0
element vertex 724
property float x
property float y
property float z
end_header
0.0067830574554749905 -0.010013563782014607 -0.004299509668988554
0.0067830574554749905 -0.009487455402292313 -0.00436518390743705
0.0067830574554749905 -0.00896134702257002 -0.004303981642396743
0.0067830574554749905 -0.008435238642847726 -0.004242780380828534
0.0067830574554749905 -0.007909130764861482 -0.0041474761199834734
0.0067830574554749905 -0.007383022385139187 -0.003968788345090745
0.0067830574554749905 -0.006856914005416893 -0.00369329411162109
0.00678305745547499 -0.0063308056256945995 -0.0035146078419365095
0.00678305745547499 -0.005804697245972305 -0.0032877192882512455
0.00678305745547499 -0.005278588866250012 -0.0031090325168306155
0.00678305745547499 -0.004752480486527717 -0.002930345243673936
0.00678305745547499 -0.004226372106805424 -0.0028350409828288756
0.00678305745547499 -0.0037002637270831295 -0.002559545244151073
0.00678305745547499 -0.0031741553473608355 -0.002464240481569963
0.00678305745547499 -0.0026480469676385416 -0.002403039721737804
0.00678305745547499 -0.0021219385879162477 -0.0025009535117757275
0.00678305745547499 -0.0015958300827599416 -0.0019378029629992712
0.00678305745547499 -0.0010697217030376477 -0.0014901791465384286
0.00678305745547499 -0.0005436133233153536 -0.0017521485830608002
0.00678305745547499 -1.7504972991656358e-05 -0.001755130902138358
0.00678305745547499 0.0005086034047707311 -0.001726497829271926
0.00678305745547499 0.001034711815851528 -0.0016978647564054941
0.00678305745547499 0.001560820195573822 -0.0022106229433256916
0.00678305745547499 0.002086928575296116 -0.001647471892813186
0.00678305745547499 0.0026130368295843977 -0.001618840325154902
0.00678305745547499 0.0031391452093066916 -0.0015235345591016935
0.00678305745547499 0.0036652535890289856 -0.0014949014862352616
0.00678305745547499 0.004191361968751279 -0.0015291249021639663
0.00678305745547499 0.004717470348473573 -0.0015321062177694254
0.00678305745547499 0.005243578728195867 -0.001597779954481872
0.00678305745547499 0.005769687107918161 -0.001632002366938478
0.00678305745547499 0.006295795487640455 -0.0015708011053702695
0.00678305745547499 0.006821903867362749 -0.001392114835685689
0.00678305745547499 0.007348012247085043 -0.0009124862801065318
0.00678305745547499 0.007874120626807337 -0.00032456301562762895
0.006256949075752697 -0.011065780541459196 -0.004188758460391008
0.006256949075752697 -0.010013563782014607 -0.004265776950916149
0.006256949075752697 -0.009487455402292313 -0.004262795635310691
0.006256949075752697 -0.00896134702257002 -0.004259813817969182
0.006256949075752697 -0.008435238642847726 -0.004194140582992785
0.006256949075752697 -0.007909130764861482 -0.004128466846280339
0.006256949075752697 -0.007383022385139187 -0.004062793611303942
0.006256949075752697 -0.006856914005416893 -0.003845026618996538
0.006256949075752696 -0.0063308056256945995 -0.0034101087662503785
0.006256949075752696 -0.005804697245972305 -0.003344435531273981
0.006256949075752696 -0.005278588866250012 -0.002993696945949818
0.006256949075752696 -0.004752480486527717 -0.002819532321542316
0.006256949075752696 -0.004226372106805424 -0.002468792732746054
0.006256949075752696 -0.0037002637270831295 -0.0024658114171405947
0.006256949075752696 -0.0031741553473608355 -0.002115071828344333
0.006256949075752696 -0.0026480469676385416 -0.0020171580383064095
0.006256949075752696 -0.0021219385879162477 -0.0019192437465324365
0.006256949075752696 -0.0015958300827599416 -0.002014549512585645
0.006256949075752696 -0.0010697217030376477 -0.0020115676952441367
0.006256949075752696 -0.0005436133233153536 -0.0021902539649287173
0.006256949075752696 -1.7504972991656358e-05 -0.0021245807299523204
0.006256949075752696 0.0005086034047707311 -0.0019504156038087682
0.006256949075752696 0.001034711815851528 -0.001688445665550347
0.006256949075752696 0.001560820195573822 -0.0018671319352349277
0.006256949075752696 0.002086928575296116 -0.0018957645063653104
0.006256949075752696 0.0026130368295843977 -0.001991070272418519
0.006256949075752696 0.0031391452093066916 -0.0018169051462749667
0.006256949075752696 0.0036652535890289856 -0.001782681730346262
0.006256949075752696 0.004191361968751279 -0.0017484588161536063
0.006256949075752696 0.004717470348473573 -0.0017770913872839891
0.006256949075752696 0.005243578728195867 -0.0016791775972460656
0.006256949075752696 0.005769687107918161 -0.0020505385376721435
0.006256949075752696 0.006295795487640455 -0.0017885680976776732
0.006256949075752696 0.006821903867362749 -0.0017543446817489684
0.006256949075752696 0.007348012247085043 -0.0015801795556054162
0.006256949075752696 0.007874120626807337 -0.0004730773879823069
0.006256949075752696 0.008400229006529631 -0.0004700960723768478
0.006256949075752696 0.008926337887987974 -0.00037218127886682554
0.006256949075752696 0.009452446267710269 -2.1442705302101156e-05
0.005730840696030403 -0.011065780541459196 -0.003992482328287009
0.005730840696030403 -0.010013563782014607 -0.004433718041367053
0.005730840696030403 -0.009487455402292313 -0.004206829487681789
0.005730840696030403 -0.00896134702257002 -0.004241052903610494
0.005730840696030403 -0.008435238642847726 -0.004145747137557285
0.005730840696030403 -0.007909130764861482 -0.003967059864400606
0.005730840696030403 -0.007383022385139187 -0.0040012832803293106
0.005730840696030403 -0.006856914005416893 -0.003774394726644047
0.005730840696030403 -0.0063308056256945995 -0.0037773755405134564
0.005730840696030403 -0.005804697245972305 -0.003951540666657008
0.005730840696030402 -0.005278588866250012 -0.003414477382032393
0.005730840696030402 -0.004752480486527717 -0.002675376530248665
0.005730840696030402 -0.004226372106805424 -0.0023040155898225866
0.005730840696030402 -0.0037002637270831295 -0.0023069974071640953
0.005730840696030402 -0.0031741553473608355 -0.002128310134007416
0.005730840696030402 -0.0026480469676385416 -0.002033005371426306
0.005730840696030402 -0.0021219385879162477 -0.002067227783882912
0.005730840696030402 -0.0015958300827599416 -0.002006026522314704
0.005730840696030402 -0.0010697217030376477 -0.0022237935146221075
0.005730840696030402 -0.0005436133233153536 -0.002321707304660031
0.005730840696030402 -1.7504972991656358e-05 -0.002324689122001539
0.005730840696030402 0.0005086034047707311 -0.0018450605664223825
0.005730840696030402 0.001034711815851528 -0.002279978419168542
0.005730840696030402 0.001560820195573822 -0.002184673154851383
0.005730840696030402 0.002086928575296116 -0.002187654972192891
0.005730840696030402 0.0026130368295843977 -0.002092349206139683
0.005730840696030402 0.0031391452093066916 -0.0019970439418225236
0.005730840696030402 0.0036652535890289856 -0.002094957731860447
0.005730840696030402 0.004191361968751279 -0.0018680691781751834
0.005730840696030402 0.004717470348473573 -0.002042234304318735
0.005730840696030402 0.005243578728195867 -0.002013601231452303
0.005730840696030402 0.005769687107918161 -0.0019524004716201444
0.005730840696030402 0.006295795487640455 -0.001891199210051936
0.005730840696030402 0.006821903867362749 -0.0018625661371855038
0.005730840696030402 0.007348012247085043 -0.0015870719037158491
0.005730840696030402 0.007874120626807337 -0.0016212948179085047
0.005730840696030402 0.008400229006529631 -0.000655801127656307
0.005730840696030402 0.008926337887987974 -2.0964801715059856e-05
0.005730840696030402 0.009452446267710269 -0.0004558828935698056
0.005730840696030402 0.009978554647432561 -8.259339736426312e-06
0.005204732316308108 -0.011591888921181489 -0.0018608572242012908
0.005204732316308109 -0.010539672161736902 -0.003658560430130159
0.005204732316308109 -0.010013563782014607 -0.004106183744854951
0.005204732316308109 -0.009487455402292313 -0.0042014895109081605
0.005204732316308109 -0.00896134702257002 -0.004262690772476369
0.005204732316308109 -0.008435238642847726 -0.004291323343606751
0.005204732316308109 -0.007909130764861482 -0.004225650610366404
0.005204732316308109 -0.007383022385139187 -0.004286851370198563
0.005204732316308109 -0.006856914005416893 -0.0038125482410476027
0.005204732316308109 -0.0063308056256945995 -0.004183908178001581
0.005204732316308109 -0.005804697245972305 -0.0037096045471145716
0.005204732316308109 -0.005278588866250012 -0.003611690255340599
0.005204732316308108 -0.004752480486527717 -0.003176772402594439
0.005204732316308108 -0.004226372106805424 -0.002363062396794727
0.005204732316308108 -0.0037002637270831295 -0.0019281445440485667
0.005204732316308108 -0.0031741553473608355 -0.0016217298230633236
0.005204732316308108 -0.0026480469676385416 -0.00140396283075592
0.005204732316308108 -0.0021219385879162477 -0.001369739414827215
0.005204732316308108 -0.0015958300827599416 -9.984950339571044e-05
0.005204732316308108 -0.0010697217030376477 -0.0015143583084944502
0.005204732316308108 -0.0005436133233153536 -0.0018857192489205284
0.005204732316308108 -1.7504972991656358e-05 -0.002333342563645322
0.005204732316308108 0.0005086034047707311 -0.0024286483296985305
0.005204732316308108 0.001034711815851528 -0.0024256675158291206
0.005204732316308108 0.001560820195573822 -0.002359993277380625
0.005204732316308108 0.002086928575296116 -0.0022943200424042276
0.005204732316308108 0.0026130368295843977 -0.002120155417996725
0.005204732316308108 0.0031391452093066916 -0.00208593200206802
0.005204732316308108 0.0036652535890289856 -0.002082949682990462
0.005204732316308108 0.004191361968751279 -0.0020172769497501146
0.005204732316308108 0.004717470348473573 -0.0020459095208804974
0.005204732316308108 0.005243578728195867 -0.002011686606687842
0.005204732316308108 0.005769687107918161 -0.0019460133717114445
0.005204732316308108 0.006295795487640455 -0.0019117899557827397
0.005204732316308108 0.006821903867362749 -0.0019729912173509483
0.005204732316308108 0.007348012247085043 -0.0019387678014222431
0.005204732316308108 0.007874120626807337 -0.0017646026752786911
0.005204732316308108 0.008400229006529631 -0.0018258039368468995
0.005204732316308108 0.008926337887987974 -0.001563833496852429
0.005204732316308108 0.009452446267710269 -0.0007501239927887658
0.004678623936585814 -0.011591888921181489 -0.002385369581550484
0.004678623936585814 -0.011065780541459196 -0.0017006323324539143
0.004678623936585815 -0.010539672161736902 -0.003621901085681679
0.004678623936585815 -0.010013563782014607 -0.0038838705222040506
0.004678623936585815 -0.009487455402292313 -0.004145840962198521
0.004678623936585815 -0.00896134702257002 -0.004211515200647016
0.004678623936585815 -0.008435238642847726 -0.004277187933887364
0.004678623936585815 -0.007909130764861482 -0.004311411349816069
0.004678623936585815 -0.007383022385139187 -0.004345634765744774
0.004678623936585815 -0.006856914005416893 -0.004284433504176566
0.004678623936585815 -0.0063308056256945995 -0.004382347795950538
0.004678623936585815 -0.005804697245972305 -0.0042036610245299085
0.004678623936585815 -0.005278588866250012 -0.003976771467372546
0.004678623936585814 -0.004752480486527717 -0.0032920342182759764
0.004678623936585814 -0.004226372106805424 -0.002086083526354935
0.004678623936585814 -0.0037002637270831295 -0.0016384597098940922
0.004678623936585814 -0.0031741553473608355 -0.0015431544455769331
0.004678623936585814 -0.0026480469676385416 -0.001267659710371229
0.004678623936585814 -0.0021219385879162477 -0.0009437946095882971
0.004678623936585814 -0.0015958300827599416 -0.001494094694667847
0.004678623936585814 -0.0010697217030376477 -0.001267205137510484
0.004678623936585814 -0.0005436133233153536 -0.0012060038759422757
0.004678623936585814 -1.7504972991656358e-05 -0.0016803085103013846
0.004678623936585814 0.0005086034047707311 -0.002031047095625548
0.004678623936585814 0.001034711815851528 -0.0022052122217691
0.004678623936585814 0.001560820195573822 -0.0024671826617635706
0.004678623936585814 0.002086928575296116 -0.0021433175609806383
0.004678623936585814 0.0026130368295843977 -0.0024497317802298323
0.004678623936585814 0.0031391452093066916 -0.0025154055169422786
0.004678623936585814 0.0036652535890289856 -0.002288517464993064
0.004678623936585814 0.004191361968751279 -0.0022273151999527567
0.004678623936585814 0.004717470348473573 -0.002662233052698917
0.004678623936585814 0.005243578728195867 -0.0020743112934281617
0.004678623936585814 0.005769687107918161 -0.0021085347093568667
0.004678623936585814 0.006295795487640455 -0.0020132289433036584
0.004678623936585814 0.006821903867362749 -0.0019179231772504495
0.004678623936585814 0.007348012247085043 -0.0015465622368243713
0.004678623936585814 0.007874120626807337 -0.001981480591306581
0.004678623936585814 0.008400229006529631 -0.0020157040072352854
0.004678623936585814 0.008926337887987974 -0.0014277807427563825
0.004678623936585814 0.009452446267710269 -0.0012008921890711184
0.004678623936585814 0.009978554647432561 -0.000323119521013542
0.004152515305995495 -0.011065780541459196 -0.0018246559647659016
0.004152515305995495 -0.010539672161736902 -0.002618593556331361
0.004152515305995495 -0.010013563782014607 -0.0034681586236923858
0.004152515305995496 -0.009487455402292313 -0.0045566794984624875
0.004152515305995496 -0.00896134702257002 -0.004250264777477244
0.004152515305995496 -0.008435238642847726 -0.004345570543530452
0.004152515305995496 -0.007909130764861482 -0.004524257314951083
0.004152515305995496 -0.007383022385139187 -0.0045212759993456236
0.004152515305995496 -0.006856914005416893 -0.004549909072212055
0.004152515305995496 -0.0063308056256945995 -0.004515685656283351
0.004152515305995496 -0.005804697245972305 -0.004481462240354645
0.004152515305995496 -0.005278588866250012 -0.004130723655030482
0.004152515305995496 -0.004752480486527717 -0.0035437772706397373
0.004152515305995495 -0.004226372106805424 -0.0014917154623216528
0.004152515305995495 -0.0037002637270831295 -0.0012920134764724375
0.004152515305995495 -0.0031741553473608355 -0.0009412738876761755
0.004152515305995495 -0.0021219385879162477 -0.0004653215521308789
0.004152515305995495 -0.0015958300827599416 -0.00046234023652541985
0.004152515305995495 -0.0010697217030376477 -0.0002445735107652924
0.004152515305995495 -0.0005436133233153536 -0.0005200679794237202
0.004152515305995495 -1.7504972991656358e-05 -0.0005487010522901522
0.004152515305995495 0.0005086034047707311 -0.0009616890257896937
0.004152515305995495 0.001034711815851528 -0.0012855536248365764
0.004152515305995495 0.001560820195573822 -0.0018972621884727318
0.004152515305995495 0.002086928575296116 -0.0018630387725440268
0.004152515305995495 0.0026130368295843977 -0.00231066208726882
0.004152515305995495 0.0031391452093066916 -0.0023076812733994105
0.004152515305995495 0.0036652535890289856 -0.002001266552414167
0.004152515305995495 0.004191361968751279 -0.002062467312246326
0.004152515305995495 0.004717470348473573 -0.0018883021861027742
0.004152515305995495 0.005243578728195867 -0.0017141375616952714
0.004152515305995495 0.005769687107918161 -0.0016799141457665666
0.004152515305995495 0.006295795487640455 -0.0016142409107901695
0.004152515305995495 0.006821903867362749 -0.0015485681775498218
0.004152515305995495 0.007348012247085043 -0.001482893939101326
0.004152515305995495 0.007874120626807337 -0.0016615802087859067
0.004152515305995495 0.008400229006529631 -0.0015636664187479831
0.004152515305995495 0.008926337887987974 -0.0016589716830651424
0.004152515305995495 0.009452446267710269 -0.0006542066104913544
0.0036264069262732022 -0.011591888921181489 -0.0024021727218444633
0.0036264069262732022 -0.011065780541459196 -0.0018390216713319576
0.0036264069262732022 -0.010539672161736902 -0.0035799689970901884
0.0036264069262732022 -0.010013563782014607 -0.004422548393435594
0.0036264069262732022 -0.009487455402292313 -0.003913215558524563
0.0036264069262732022 -0.00896134702257002 -0.004219630781245856
0.0036264069262732022 -0.008435238642847726 -0.004253853193702461
0.0036264069262732022 -0.007909130764861482 -0.004471619684273816
0.0036264069262732022 -0.007383022385139187 -0.004505843100202521
0.0036264069262732022 -0.006856914005416893 -0.004603757391976494
0.0036264069262732022 -0.0063308056256945995 -0.004575124319110061
0.0036264069262732022 -0.005804697245972305 -0.004609347735038767
0.0036264069262732022 -0.005278588866250012 -0.004580714662172334
0.0036264069262732022 -0.004752480486527717 -0.004485408896119126
0.0036264069262732022 -0.004226372106805424 -0.004037785581394332
0.003626406926273202 -0.0037002637270831295 -0.0014355039657646008
0.003626406926273202 -0.0031741553473608355 -0.0005859388984035759
0.003626406926273202 -0.0026480469676385416 -2.2788361386558105e-05
0.003626406926273202 0.002086928575296116 -0.0010607548017970104
0.003626406926273202 0.0026130368295843977 -0.0007852605683273557
0.003626406926273202 0.0031391452093066916 -0.0015989700723910189
0.003626406926273202 0.0036652535890289856 -0.001664643307367416
0.003626406926273202 0.004191361968751279 -0.0016360102345009838
0.003626406926273202 0.004717470348473573 -0.0016702336504296888
0.003626406926273202 0.005243578728195867 -0.0015749278843764803
0.003626406926273202 0.005769687107918161 -0.001609151300305185
0.003626406926273202 0.006295795487640455 -0.001513846035988026
0.003626406926273202 0.006821903867362749 -0.001189980935205094
0.003626406926273202 0.007348012247085043 -0.0012556551736535898
0.003626406926273202 0.007874120626807337 -0.0009801604384478857
0.003626406926273202 0.008400229006529631 -0.0009189581734075785
0.003626406926273202 0.008926337887987974 -0.0009219404924851363
0.003626406926273202 0.009452446267710269 -0.0004423114351699299
0.0031002985465509083 -0.011065780541459196 -0.0018801595117572682
0.0031002985465509083 -0.010539672161736902 -0.002646599459136059
0.0031002985465509083 -0.010013563782014607 -0.0037039138568424213
0.0031002985465509083 -0.009487455402292313 -0.003930802410527686
0.0031002985465509083 -0.00896134702257002 -0.00420629714573339
0.0031002985465509083 -0.008435238642847726 -0.004530161744780273
0.0031002985465509083 -0.007909130764861482 -0.004708848014464854
0.0031002985465509083 -0.007383022385139187 -0.004674624598536148
0.0031002985465509083 -0.006856914005416893 -0.004703257671402581
0.0031002985465509083 -0.0063308056256945995 -0.004798563437455789
0.0031002985465509083 -0.005804697245972305 -0.004536592997461318
0.0031002985465509083 -0.005278588866250012 -0.004533612685327958
0.0031002985465509083 -0.004752480486527717 -0.004712298955012539
0.0031002985465509083 -0.004226372106805424 -0.004538133327132938
0.0031002985465509083 -0.0037002637270831295 -0.0037539881180433687
0.003100298546550908 0.004717470348473573 -0.00036784076030357674
0.003100298546550908 0.005243578728195867 -0.0003336183478469706
0.003100298546550908 0.005769687107918161 -0.0004289241139001791
0.003100298546550908 0.006295795487640455 -7.818454078316888e-05
0.003100298546550908 0.006821903867362749 -1.2511301886958956e-05
0.002574190166828614 -0.011591888921181489 -0.0015852230063738576
0.0025741901668286144 -0.011065780541459196 -0.002135523091453407
0.0025741901668286144 -0.010539672161736902 -0.003166080909118046
0.0025741901668286144 -0.010013563782014607 -0.0036009987618642056
0.0025741901668286144 -0.009487455402292313 -0.004035916614610366
0.0025741901668286144 -0.00896134702257002 -0.004210081740753918
0.0025741901668286144 -0.008435238642847726 -0.00438424686689747
0.0025741901668286144 -0.007909130764861482 -0.0045584114913049725
0.0025741901668286144 -0.007383022385139187 -0.00462408472628137
0.0025741901668286144 -0.006856914005416893 -0.004658308142210074
0.0025741901668286144 -0.0063308056256945995 -0.004661289457815534
0.0025741901668286144 -0.005804697245972305 -0.00438579472260983
0.0025741901668286144 -0.005278588866250012 -0.004692209443595073
0.0025741901668286144 -0.004752480486527717 -0.005042948028919236
0.0025741901668286144 -0.004226372106805424 -0.0044797974801427795
0.0025741901668286144 -0.0037002637270831295 -0.004514020896071485
0.0025741901668286144 -0.0031741553473608355 -0.004452819634503276
0.0025741901668286144 -0.0026480469676385416 -0.003768081381934607
0.002048081912540332 -0.011065780541459196 -0.001509022345609217
0.0020480819125403326 -0.010539672161736902 -0.0025975447255874667
0.0020480819125403326 -0.010013563782014607 -0.003979439197947138
0.0020480819125403326 -0.009487455402292313 -0.003805274071803586
0.0020480819125403326 -0.00896134702257002 -0.0042182615435670786
0.0020480819125403326 -0.008435238642847726 -0.004396948314987708
0.0020480819125403326 -0.007909130764861482 -0.004623837872145071
0.0020480819125403326 -0.007383022385139187 -0.00468503863197723
0.0020480819125403326 -0.006856914005416893 -0.004713670701371564
0.0020480819125403326 -0.0063308056256945995 -0.0047106893857661045
0.0020480819125403326 -0.005804697245972305 -0.004612774592256082
0.0020480819125403326 -0.005278588866250012 -0.004514860802218159
0.0020480819125403326 -0.004752480486527717 -0.0044806373862894535
0.0020480819125403326 -0.004226372106805424 -0.004446414973832848
0.0020480819125403326 -0.0037002637270831295 -0.004721909207302502
0.0020480819125403326 -0.0031741553473608355 -0.004656234968854007
0.0020480819125403326 -0.0026480469676385416 -0.00393356647442376
0.0015219735328180384 -0.011591888921181489 -0.0011844272188744267
0.0015219735328180384 -0.011065780541459196 -0.0014463966553967982
0.0015219735328180384 -0.010539672161736902 -0.002425121125271338
0.0015219735328180386 -0.010013563782014607 -0.0034038460968819273
0.0015219735328180386 -0.009487455402292313 -0.003501759886919851
0.0015219735328180386 -0.00896134702257002 -0.004285905597745469
0.0015219735328180386 -0.008435238642847726 -0.004383819889519441
0.0015219735328180389 -0.007909130764861482 -0.004557985015662994
0.0015219735328180389 -0.007383022385139187 -0.0045922084315916985
0.0015219735328180389 -0.006856914005416893 -0.0053148769260219445
0.0015219735328180389 -0.0063308056256945995 -0.0046301386734532764
0.0015219735328180389 -0.005804697245972305 -0.004664362089381981
0.0015219735328180389 -0.005278588866250012 -0.004926332529376452
0.0015219735328180389 -0.004752480486527717 -0.0046024669268574705
0.0015219735328180389 -0.004226372106805424 -0.004668140161833868
0.0015219735328180389 -0.0037002637270831295 -0.004639507088967435
0.0015219735328180386 -0.0031741553473608355 -0.0044126190370182205
0.0015219735328180389 -0.0026480469676385416 -0.004630385527589575
0.0015219735328180389 -0.0021219385879162477 -0.004535079761536366
0.0015219735328180386 -0.0015958300827599416 -0.004259585528066712
0.0009958651530957443 -0.011591888921181489 -0.0007572461360098185
0.0009958651530957445 -0.010539672161736902 -0.0021280793354246986
0.0009958651530957447 -0.010013563782014607 -0.0029220169269901577
0.0009958651530957447 -0.009487455402292313 -0.0037436498467457446
0.0009958651530957447 -0.00896134702257002 -0.003922336116430326
0.0009958651530957447 -0.008435238642847726 -0.004335325093401965
0.0009958651530957447 -0.007909130764861482 -0.004117558101094562
0.000995865153095745 -0.007383022385139187 -0.0046807086498710185
0.000995865153095745 -0.006856914005416893 -0.004776014415924227
0.000995865153095745 -0.0063308056256945995 -0.004773032096846669
0.000995865153095745 -0.005804697245972305 -0.004707359865342371
0.000995865153095745 -0.005278588866250012 -0.004704377546264813
0.000995865153095745 -0.004752480486527717 -0.0054708184971157025
0.000995865153095745 -0.004226372106805424 -0.004848099837611793
0.000995865153095745 -0.0037002637270831295 -0.004782425599163297
0.000995865153095745 -0.0031741553473608355 -0.004608260974755795
0.000995865153095745 -0.0026480469676385416 -0.004703566740809003
0.000995865153095745 -0.0021219385879162477 -0.004732198810203337
0.0009958651530957447 -0.0015958300827599416 -0.004297280957457177
0.0009958651530957447 -0.0010697217030376477 -0.003543461678664673
0.0004697567420149476 -0.011065780541459196 -0.0017294701136284971
0.0004697567420149476 -0.010539672161736902 -0.0017636925260851033
0.0004697567420149477 -0.010013563782014607 -0.002634508122081876
0.0004697567420149478 -0.009487455402292313 -0.0033251372576064
0.00046975674201494785 -0.00896134702257002 -0.0038378949427905484
0.0004697567420149479 -0.008435238642847726 -0.0042728127955367085
0.0004697567420149479 -0.007909130764861482 -0.004490579787844112
0.0004697567420149479 -0.007383022385139187 -0.0045884935778820355
0.00046975674201494796 -0.006856914005416893 -0.0046864073679199585
0.00046975674201494796 -0.0063308056256945995 -0.004720630783848664
0.00046975674201494796 -0.005804697245972305 -0.00478630401882506
0.000469756742014948 -0.005278588866250012 -0.005092719241546353
0.00046975674201494796 -0.004752480486527717 -0.004721358301120276
0.00046975674201494785 -0.004226372106805424 -0.00410964973748412
0.00046975674201494796 -0.0037002637270831295 -0.0049522281303574275
0.00046975674201494796 -0.0031741553473608355 -0.004773541860672846
0.00046975674201494796 -0.0026480469676385416 -0.0049913083512442
0.0004697567420149479 -0.0021219385879162477 -0.004543685538255457
0.0004697567420149479 -0.0015958300827599416 -0.004546665850388817
0.0004697567420149479 -0.0010697217030376477 -0.004485465090556658
0.0004697567420149479 -0.0005436133233153536 -0.004209970355350954
-5.635162594790775e-05 -0.010539672161736902 -0.0015669532916075197
-5.635162594790765e-05 -0.010013563782014607 -0.002333394242458409
-5.6351625947907564e-05 -0.009487455402292313 -0.003018131993291028
-5.6351625947907496e-05 -0.00896134702257002 -0.003606054756033882
-5.635162594790742e-05 -0.008435238642847726 -0.004193977518776735
-5.63516259479074e-05 -0.007909130764861482 -0.004372664290197365
-5.6351625947907354e-05 -0.007383022385139187 -0.004785651761960857
-5.635162594790736e-05 -0.006856914005416893 -0.004687737971922934
-5.6351625947907354e-05 -0.0063308056256945995 -0.004783043737976143
-5.635162594790735e-05 -0.005804697245972305 -0.004811675807370476
-5.635162594790734e-05 -0.005278588866250012 -0.0048728775706747334
-5.6351625947907334e-05 -0.004752480486527717 -0.004901510643541165
-5.6351625947907334e-05 -0.004226372106805424 -0.004898528324463608
-5.635162594790734e-05 -0.0037002637270831295 -0.00489554600538605
-5.635162594790735e-05 -0.0031741553473608355 -0.004829873773881751
-5.6351625947907354e-05 -0.0026480469676385416 -0.004764200538905354
-5.635162594790736e-05 -0.0021219385879162477 -0.0047299771229766495
-5.635162594790738e-05 -0.0015958300827599416 -0.004555811495097048
-5.635162594790734e-05 -0.0010697217030376477 -0.00487967709761603
-5.6351625947907456e-05 -0.0005436133233153536 -0.00392730280158321
-5.6351625947907496e-05 -1.7504972991656358e-05 -0.0035765642162590467
-0.0005824599860711372 -0.010539672161736902 -0.002077840504799552
-0.0005824599860711372 -0.010013563782014607 -0.0021435132380399
-0.0005824599860711371 -0.009487455402292313 -0.003069162061666058
-0.000582459986071137 -0.00896134702257002 -0.003581920248586256
-0.0005824599860711369 -0.008435238642847726 -0.004335738523906661
-0.0005824599860711369 -0.007909130764861482 -0.004307106956248376
-0.0005824599860711369 -0.007383022385139187 -0.004781410085399338
-0.0005824599860711369 -0.006856914005416893 -0.004784392404476895
-0.0005824599860711369 -0.0063308056256945995 -0.004787372716610255
-0.0005824599860711369 -0.005804697245972305 -0.004758740647215922
-0.0005824599860711369 -0.005278588866250012 -0.004856655440725944
-0.0005824599860711368 -0.004752480486527717 -0.004922328675702341
-0.0005824599860711369 -0.004226372106805424 -0.004827022909649133
-0.0005824599860711368 -0.0037002637270831295 -0.0050011875340566355
-0.0005824599860711368 -0.0031741553473608355 -0.005099102327566658
-0.0005824599860711369 -0.0026480469676385416 -0.0047277423906126785
-0.0005824599860711369 -0.0021219385879162477 -0.004825656180650602
-0.0005824599860711369 -0.0015958300827599416 -0.004730350414597393
-0.0005824599860711369 -0.0010697217030376477 -0.004551664144912813
-0.000582459986071137 -0.0005436133233153536 -0.003839783477280442
-0.0005824599860711369 -1.7504972991656358e-05 -0.004426730363407238
-0.0005824599860711369 0.0005086034047707311 -0.004013741386435597
-0.000582459986071137 0.001034711815851528 -0.0033018622240113746
-0.0011085683657934312 -0.010013563782014607 -0.001981155466346578
-0.0011085683657934312 -0.009487455402292313 -0.0025443060151230344
-0.001108568365793431 -0.00896134702257002 -0.003256186181019356
-0.001108568365793431 -0.008435238642847726 -0.0038193367297958123
-0.001108568365793431 -0.007909130764861482 -0.004356401017892527
-0.0011085683657934308 -0.007383022385139187 -0.004535087789313157
-0.0011085683657934308 -0.006856914005416893 -0.004713774058997738
-0.0011085683657934308 -0.0063308056256945995 -0.004774974818829897
-0.0011085683657934308 -0.005804697245972305 -0.004870280584883105
-0.0011085683657934308 -0.005278588866250012 -0.004965586350936313
-0.0011085683657934308 -0.004752480486527717 -0.004899912112487818
-0.0011085683657934308 -0.004226372106805424 -0.005271273052913895
-0.0011085683657934308 -0.0037002637270831295 -0.004920534467589732
-0.0011085683657934308 -0.0031741553473608355 -0.004949167540456165
-0.0011085683657934308 -0.0026480469676385416 -0.005010368300288324
-0.0011085683657934308 -0.0021219385879162477 -0.004792601809716969
-0.0011085683657934308 -0.0015958300827599416 -0.004758378393788265
-0.0011085683657934308 -0.0010697217030376477 -0.004496408957265893
-0.0011085683657934308 -0.0005436133233153536 -0.004493427139924384
-0.001108568365793431 -1.7504972991656358e-05 -0.004395512848150412
-0.001108568365793431 0.0005086034047707311 -0.004329838609701916
-0.001108568365793431 0.001034711815851528 -0.0038170809245177675
-0.0016346767455157254 -0.010539672161736902 -0.0005901645194115161
-0.0016346767455157252 -0.010013563782014607 -0.0009409041082077778
-0.0016346767455157252 -0.009487455402292313 -0.0023546588197035398
-0.001634676745515725 -0.00896134702257002 -0.0033594233905412784
-0.001634676745515725 -0.008435238642847726 -0.003982142050045188
-0.001634676745515725 -0.007909130764861482 -0.004417060404527396
-0.001634676745515725 -0.007383022385139187 -0.004355859142959188
-0.0016346767455157247 -0.006856914005416893 -0.004706597226547302
-0.0016346767455157247 -0.0063308056256945995 -0.0050573358118714655
-0.0016346767455157247 -0.005804697245972305 -0.004830447759922251
-0.0016346767455157247 -0.005278588866250012 -0.004928361549960174
-0.0016346767455157247 -0.004752480486527717 -0.004867160790128015
-0.0016346767455157247 -0.004226372106805424 -0.005129131230122486
-0.0016346767455157247 -0.0037002637270831295 -0.0050338254640692765
-0.0016346767455157247 -0.0031741553473608355 -0.005036807783146835
-0.0016346767455157247 -0.0026480469676385416 -0.005039788095280195
-0.0016346767455157247 -0.0021219385879162477 -0.004861101825595614
-0.0016346767455157247 -0.0015958300827599416 -0.004682415555911034
-0.0016346767455157247 -0.0010697217030376477 -0.0047166389718397385
-0.0016346767455157247 -0.0005436133233153536 -0.00462133320578653
-0.0016346767455157247 -1.7504972991656358e-05 -0.004442646936101949
-0.0016346767455157247 0.0005086034047707311 -0.004476869348558556
-0.001634676745515725 0.001034711815851528 -0.004105508408132477
-0.001634676745515725 0.001560820195573822 -0.004010203645551368
-0.001634676745515725 0.002086928575296116 -0.0035305740865001116
-0.002160785250672031 -0.009487455402292313 -0.0018593409778600435
-0.002160785250672031 -0.00896134702257002 -0.003142219847817337
-0.002160785250672031 -0.008435238642847726 -0.003936157439382796
-0.002160785250672031 -0.007909130764861482 -0.0041630454913320104
-0.002160785250672031 -0.007383022385139187 -0.004847783743900679
-0.002160785250672031 -0.006856914005416893 -0.004497044656840467
-0.002160785250672031 -0.0063308056256945995 -0.004868405095530495
-0.002160785250672031 -0.005804697245972305 -0.004929607862306852
-0.002160785250672031 -0.005278588866250012 -0.005024912624887962
-0.002160785250672031 -0.004752480486527717 -0.004990690212431355
-0.002160785250672031 -0.004226372106805424 -0.005085994975012466
-0.002160785250672031 -0.0037002637270831295 -0.005114627044406799
-0.002160785250672031 -0.0031741553473608355 -0.005048953809430401
-0.002160785250672031 -0.0026480469676385416 -0.00478698437290803
-0.002160785250672031 -0.0021219385879162477 -0.00496567064259261
-0.002160785250672031 -0.0015958300827599416 -0.004703701206070238
-0.002160785250672031 -0.0010697217030376477 -0.00479900496517925
-0.002160785250672031 -0.0005436133233153536 -0.004624840340771747
-0.002160785250672031 -1.7504972991656358e-05 -0.004653473413638179
-0.002160785250672031 0.0005086034047707311 -0.0043470581909168865
-0.002160785250672031 0.001034711815851528 -0.004249144400878963
-0.002160785250672031 0.001560820195573822 -0.004183471165902566
-0.002160785250672031 0.002086928575296116 -0.0037485533131564066
-0.002160785250672031 0.0026130368295843977 -0.0029348423038845954
-0.002686893630394325 -0.009487455402292313 -0.0027191043321609138
-0.002686893630394325 -0.00896134702257002 -0.0027847785706094095
-0.002686893630394325 -0.008435238642847726 -0.0037895421379750493
-0.002686893630394325 -0.007909130764861482 -0.004095957360696342
-0.002686893630394325 -0.007383022385139187 -0.004608715547616539
-0.002686893630394325 -0.006856914005416893 -0.004706630341126562
-0.002686893630394325 -0.0063308056256945995 -0.004709611656732021
-0.002686893630394325 -0.005804697245972305 -0.004807525446769944
-0.002686893630394325 -0.005278588866250012 -0.0049054402402799666
-0.002686893630394325 -0.004752480486527717 -0.0052118544595291605
-0.002686893630394325 -0.004226372106805424 -0.005214835775134619
-0.002686893630394325 -0.0037002637270831295 -0.004801848805107177
-0.002686893630394325 -0.0031741553473608355 -0.00515258739043134
-0.002686893630394325 -0.0026480469676385416 -0.005057281624378131
-0.002686893630394325 -0.0021219385879162477 -0.005122955862826627
-0.002686893630394325 -0.0015958300827599416 -0.004709966885854987
-0.002686893630394325 -0.0010697217030376477 -0.004884131510262489
-0.002686893630394325 -0.0005436133233153536 -0.004657243458313275
-0.0026868936303943245 -1.7504972991656358e-05 -0.00534787209210175
-0.002686893630394325 0.0005086034047707311 -0.00455393500227234
-0.002686893630394325 0.001034711815851528 -0.004016870714175625
-0.002686893630394325 0.001560820195573822 -0.004367609299499788
-0.002686893630394325 0.002086928575296116 -0.0040921145642940845
-0.002686893630394325 0.0026130368295843977 -0.0039134282946095035
-0.002686893630394325 0.0031391452093066916 -0.003500440321109963
-0.003213002010116619 -0.00896134702257002 -0.002572823186962059
-0.003213002010116619 -0.008435238642847726 -0.0033119245404818363
-0.003213002010116619 -0.007909130764861482 -0.003821257375392867
-0.003213002010116619 -0.007383022385139187 -0.004533137039553139
-0.003213002010116619 -0.006856914005416893 -0.004561769108947472
-0.003213002010116619 -0.0063308056256945995 -0.004788658164368785
-0.003213002010116619 -0.005804697245972305 -0.004614492536489184
-0.003213002010116619 -0.005278588866250012 -0.0049383581390081656
-0.003213002010116619 -0.004752480486527717 -0.00521385237247782
-0.003213002010116619 -0.004226372106805424 -0.0051481791375014236
-0.003213002010116619 -0.0037002637270831295 -0.0050502653474635
-0.003213002010116619 -0.0031741553473608355 -0.005111466107295659
-0.003213002010116619 -0.0026480469676385416 -0.004893699616724305
-0.003213002010116619 -0.0021219385879162477 -0.004989005382777513
-0.003213002010116619 -0.0015958300827599416 -0.004814840758370011
-0.003213002010116619 -0.0010697217030376477 -0.004843472827764344
-0.003213002010116619 -0.0005436133233153536 -0.00453705860851515
-0.003213002010116619 -1.7504972991656358e-05 -0.004565690677909483
-0.003213002010116619 0.0005086034047707311 -0.004531468265452877
-0.003213002010116619 0.001034711815851528 -0.00446579452874043
-0.003213002010116619 0.001560820195573822 -0.0043678797352304085
-0.003213002010116619 0.002086928575296116 -0.004193714609086856
-0.003213002010116619 0.0026130368295843977 -0.004095800819048933
-0.003213002010116619 0.0031391452093066916 -0.0038338303790544626
-0.003213002010116619 0.0036652535890289856 -0.00373591608728049
-0.003213002010116619 0.004191361968751279 -0.0029222065832168265
-0.003739110389838913 -0.00896134702257002 -0.002469059656324329
-0.003739110389838913 -0.008435238642847726 -0.0031917296559627237
-0.003739110389838913 -0.007909130764861482 -0.0036266475087088834
-0.003739110389838913 -0.007383022385139187 -0.004317276644233408
-0.003739110389838913 -0.006856914005416893 -0.004623691365218651
-0.003739110389838913 -0.0063308056256945995 -0.004797854986154055
-0.003739110389838913 -0.005804697245972305 -0.0048320784020827595
-0.003739110389838913 -0.005278588866250012 -0.004929994199064881
-0.003739110389838913 -0.004752480486527717 -0.0049956664305691794
-0.003739110389838913 -0.004226372106805424 -0.005029889846497884
-0.003739110389838913 -0.0037002637270831295 -0.005095563081474281
-0.003739110389838913 -0.0031741553473608355 -0.005193476871512204
-0.003739110389838913 -0.0026480469676385416 -0.005132276111680045
-0.003739110389838913 -0.0021219385879162477 -0.005135258430757603
-0.003739110389838913 -0.0015958300827599416 -0.00490836937533629
-0.003739110389838913 -0.0010697217030376477 -0.004879736302469858
-0.003739110389838913 -0.0005436133233153536 -0.004784431539888749
-0.003739110389838913 -1.7504972991656358e-05 -0.004882345329926672
-0.003739110389838913 0.0005086034047707311 -0.004558480730879789
-0.003739110389838913 0.001034711815851528 -0.004379793959459159
-0.003739110389838913 0.001560820195573822 -0.0044777077494970825
-0.003739110389838913 0.002086928575296116 -0.004382402485179924
-0.003739110389838913 0.0026130368295843977 -0.004287097722598813
-0.003739110389838913 0.0031391452093066916 -0.004011603489129159
-0.003739110389838913 0.0036652535890289856 -0.003982970416262727
-0.003739110389838913 0.004191361968751279 -0.0033712618526265713
-0.003739110389838913 0.004717470348473573 -0.003405485268555276
-0.0042652185186931825 -0.008435238642847726 -0.0027419017130369226
-0.0042652185186931825 -0.007909130764861482 -0.0033536097749370286
-0.004265218518693182 -0.007383022385139187 -0.0038629416063759607
-0.004265218518693182 -0.006856914005416893 -0.004342570663691168
-0.004265218518693182 -0.0063308056256945995 -0.004713931604117246
-0.004265218518693182 -0.005804697245972305 -0.004775132363949405
-0.004265218518693182 -0.005278588866250012 -0.004870438130002613
-0.004265218518693182 -0.004752480486527717 -0.0048362157175460075
-0.004265218518693182 -0.004226372106805424 -0.004897417480850265
-0.004265218518693182 -0.0037002637270831295 -0.005076103750534845
-0.004265218518693182 -0.0031741553473608355 -0.004901938122655244
-0.004265218518693182 -0.0026480469676385416 -0.0049972438887084525
-0.004265218518693182 -0.0021219385879162477 -0.00482307926430095
-0.004265218518693182 -0.0015958300827599416 -0.0047888558483722456
-0.004265218518693182 -0.0010697217030376477 -0.004571089357800891
-0.004265218518693182 -0.0005436133233153536 -0.0043533233689655865
-0.004265218518693182 -1.7504972991656358e-05 -0.00462881810417129
-0.004265218518693182 0.0005086034047707311 -0.004625835785093732
-0.004265218518693182 0.001034711815851528 -0.004560162550117335
-0.004265218518693182 0.001560820195573822 -0.004462247756607313
-0.004265218518693182 0.002086928575296116 -0.00436433346483334
-0.004265218518693182 0.0026130368295843977 -0.004298660731592992
-0.004265218518693182 0.0031391452093066916 -0.00412449560544944
-0.004265218518693182 0.0036652535890289856 -0.004058821367000944
-0.004265218518693182 0.004191361968751279 -0.003960907576963021
-0.004265218518693182 0.004717470348473573 -0.0037867424508194686
-0.0042652185186931825 0.005243578728195867 -0.003351824598073309
-0.004791326898415477 -0.008435238642847726 -0.003113391097891644
-0.004791326898415477 -0.007909130764861482 -0.003147614513820349
-0.004791326898415476 -0.007383022385139187 -0.003990192906693657
-0.004791326898415476 -0.006856914005416893 -0.004296607627678899
-0.004791326898415476 -0.0063308056256945995 -0.004731525480425059
-0.004791326898415476 -0.005804697245972305 -0.0047971997188735556
-0.004791326898415476 -0.005278588866250012 -0.004862872953849952
-0.004791326898415476 -0.004752480486527717 -0.004960786743887876
-0.004791326898415476 -0.004226372106805424 -0.00499501015981658
-0.004791326898415476 -0.0037002637270831295 -0.005060683394792978
-0.004791326898415476 -0.0031741553473608355 -0.005032051325398645
-0.004791326898415476 -0.0026480469676385416 -0.005003418252532212
-0.004791326898415476 -0.0021219385879162477 -0.005177583880411814
-0.004791326898415476 -0.0015958300827599416 -0.004902088643470061
-0.004791326898415476 -0.0010697217030376477 -0.0048067838808889506
-0.004791326898415476 -0.0005436133233153536 -0.004745582117584693
-0.004791326898415476 -1.7504972991656358e-05 -0.00481125535256109
-0.004791326898415476 0.0005086034047707311 -0.004715949586507881
-0.004791326898415476 0.001034711815851528 -0.004718931905585439
-0.004791326898415476 0.001560820195573822 -0.004623626139532231
-0.004791326898415476 0.002086928575296116 -0.004562425379700072
-0.004791326898415476 0.0026130368295843977 -0.004335536826014808
-0.004791326898415477 0.0031391452093066916 -0.002953642353655136
-0.004791326898415476 0.0036652535890289856 -0.004171047679583689
-0.004791326898415476 0.004191361968751279 -0.004142414606717257
-0.004791326898415476 0.004717470348473573 -0.004047109342400098
-0.004791326898415476 0.005243578728195867 -0.003675748401974019
-0.004791326898415477 0.005769687107918161 -0.0029093084545952284
-0.00531743527813777 -0.007909130764861482 -0.002819999437804297
-0.00531743527813777 -0.007383022385139187 -0.0035318796037006185
-0.0053174352781377695 -0.006856914005416893 -0.004119802868179521
-0.0053174352781377695 -0.0063308056256945995 -0.0046568661528041365
-0.0053174352781377695 -0.005804697245972305 -0.004752170915385247
-0.0053174352781377695 -0.005278588866250012 -0.004654257125347323
-0.0053174352781377695 -0.004752480486527717 -0.005025618065773401
-0.0053174352781377695 -0.004226372106805424 -0.004991394649844696
-0.0053174352781377695 -0.0037002637270831295 -0.004925720411396201
-0.0053174352781377695 -0.0031741553473608355 -0.00492274009926284
-0.0053174352781377695 -0.0026480469676385416 -0.0050180458653160485
-0.0053174352781377695 -0.0021219385879162477 -0.004431098979189253
-0.0053174352781377695 -0.0015958300827599416 -0.004844086952688794
-0.0053174352781377695 -0.0010697217030376477 -0.0048098645402321885
-0.0053174352781377695 -0.0005436133233153536 -0.00480688222115463
-0.0053174352781377695 -1.7504972991656358e-05 -0.004741208986178234
-0.0053174352781377695 0.0005086034047707311 -0.004567044361770731
-0.0053174352781377695 0.001034711815851528 -0.00462824512160289
-0.0053174352781377695 0.001560820195573822 -0.003785667230465632
-0.0053174352781377695 0.002086928575296116 -0.0044704044795622015
-0.0053174352781377695 0.0026130368295843977 -0.0043724906895242785
-0.0053174352781377695 0.0031391452093066916 -0.00436950837044672
-0.0053174352781377695 0.0036652535890289856 -0.00393459051770056
-0.0053174352781377695 0.004191361968751279 -0.004210084751170215
-0.0053174352781377695 0.004717470348473573 -0.003948114812911794
-0.00531743527813777 0.005243578728195867 -0.003397815731304343
-0.00531743527813777 0.005769687107918161 -0.002196368120426552
-0.005843543657860065 -0.007909130764861482 -0.002542394902510919
-0.005843543657860064 -0.007383022385139187 -0.003624058048957996
-0.005843543657860064 -0.006856914005416893 -0.004174357130565447
-0.005843543657860064 -0.0063308056256945995 -0.004648660761452457
-0.005843543657860064 -0.005804697245972305 -0.004746574551490381
-0.005843543657860064 -0.005278588866250012 -0.004844489345000403
-0.005843543657860064 -0.004752480486527717 -0.0049101625799768
-0.005843543657860064 -0.004226372106805424 -0.004814856813923592
-0.005843543657860064 -0.0037002637270831295 -0.004786223741057159
-0.005843543657860064 -0.0031741553473608355 -0.004960389368936761
-0.005843543657860064 -0.0026480469676385416 -0.0049317572995424275
-0.005843543657860064 -0.0021219385879162477 -0.004934738615147887
-0.005843543657860064 -0.0015958300827599416 -0.004937719930753346
-0.005843543657860064 -0.0010697217030376477 -0.004940701246358805
-0.005843543657860064 -0.0005436133233153536 -0.004845395480305596
-0.005843543657860064 -1.7504972991656358e-05 -0.004816763410911263
-0.005843543657860065 0.0005086034047707311 -0.003434869440287641
-0.005843543657860064 0.001034711815851528 -0.004674784150599854
-0.005843543657860064 0.001560820195573822 -0.00470900756652856
-0.005843543657860064 0.002086928575296116 -0.0046137018004753505
-0.005843543657860064 0.0026130368295843977 -0.004435015029054721
-0.005843543657860064 0.0031391452093066916 -0.004339709764737561
-0.005843543657860064 0.0036652535890289856 -0.0043110766918711295
-0.005843543657860064 0.004191361968751279 -0.004282443619004698
-0.005843543657860064 0.004717470348473573 -0.0037453808361161316
-0.005843543657860065 0.005243578728195867 -0.0034215157353331993
-0.005843543657860065 0.005769687107918161 -0.002736777482764531
-0.005843543657860065 0.006295795487640455 -0.002771000898693236
-0.005843543657860065 0.006821903867362749 -0.0009110478028529402
-0.006369652037582358 -0.007383022385139187 -0.0024415600051934635
-0.006369652037582357 -0.006856914005416893 -0.003658230789545713
-0.006369652037582357 -0.0063308056256945995 -0.004221381840058219
-0.006369652037582357 -0.005804697245972305 -0.004669006158255111
-0.006369652037582357 -0.005278588866250012 -0.004697638227649444
-0.006369652037582357 -0.004752480486527717 -0.0046634158151928375
-0.006369652037582357 -0.004226372106805424 -0.005034776755618916
-0.006369652037582357 -0.0037002637270831295 -0.00419219735927351
-0.006369652037582357 -0.0031741553473608355 -0.004370884632430189
-0.006369652037582357 -0.0026480469676385416 -0.004783872605929731
-0.006369652037582357 -0.0021219385879162477 -0.00487917837198294
-0.006369652037582357 -0.0015958300827599416 -0.004876196052905382
-0.006369652037582357 -0.0010697217030376477 -0.004904829125771813
-0.006369652037582357 -0.0005436133233153536 -0.004730663497892212
-0.006369652037582357 -1.7504972991656358e-05 -0.004664991266387914
-0.006369652037582357 0.0005086034047707311 -0.004891879318337128
-0.006369652037582357 0.001034711815851528 -0.004826206083360731
-0.006369652037582357 0.001560820195573822 -0.004652041458953229
-0.006369652037582357 0.002086928575296116 -0.00417773682459412
-0.006369652037582357 0.0026130368295843977 -0.0038713216018728272
-0.006369652037582357 0.0031391452093066916 -0.00414681734055063
-0.006369652037582357 0.0036652535890289856 -0.003972652214407078
-0.006369652037582357 0.004191361968751279 -0.003798487088263526
-0.006369652037582358 0.004717470348473573 -0.0033635692355173663
-0.006369652037582358 0.005243578728195867 -0.0026097494549888133
-0.006369652037582358 0.005769687107918161 -0.0012538534395002414
-0.006369652037582358 0.006295795487640455 -0.00013191495257600217
-0.0068957604173046525 -0.006856914005416893 -0.003386220109466954
-0.006895760417304652 -0.0063308056256945995 -0.003821138463949163
-0.006895760417304652 -0.005804697245972305 -0.004605282669566633
-0.006895760417304652 -0.005278588866250012 -0.004779448297446234
-0.006895760417304652 -0.004752480486527717 -0.004684143534865124
-0.006895760417304652 -0.004226372106805424 -0.004588837768811916
-0.006895760417304652 -0.0037002637270831295 -0.004493532002758707
-0.006895760417304652 -0.0031741553473608355 -0.004559205237735104
-0.006895760417304652 -0.0026480469676385416 -0.004593428653663809
