ply
format ascii 1.0
element vertex 766
property float x
property float y
property float z
end_header
0.004346228001080292 0.011119289981990958 0.0571533088736774
0.004126738885329635 0.010618372523176956 0.05732874656390965
0.003981428083131448 0.01009392881573536 0.057263878438764154
0.0036908136635220553 0.009615568840508518 0.057669731057559494
0.003441936982332512 0.00912397154335633 0.05794037149355143
0.0031783768613359237 0.008637031168861092 0.05825857991052503
0.0029841990591940055 0.00812808586248939 0.05835201968560594
0.0028198572920839615 0.007609677915935323 0.058348803638507966
0.0026003680890857644 0.007108760301597555 0.058524241439401575
0.002501227347083328 0.006569673580407009 0.05830980236754573
0.0022671053927721015 0.006073396772555781 0.058532643903048194
0.002112247723969219 0.005551980899189754 0.05849870348796617
0.0019284227935423733 0.005039752130394534 0.05855860444575906
0.0017735649891752045 0.004518336422153189 0.0585246645845018
0.0015246884789232905 0.004026739070787318 0.058795304466729904
0.0013891648474492783 0.0034991913156776156 0.05869873015032476
0.0012248235955237552 0.0029807834499899774 0.058695512663562675
0.0010053342380887832 0.0024798658235676545 0.05887095090743689
0.0008111563652001795 0.0019709202953739533 0.058964390682395944
0.0006468146517430579 0.0014525125760632535 0.05896117469079621
0.00707987208378437 0.01595662872212331 0.05541791148676668
0.006579036515564443 0.01497441215255605 0.05596917782842784
0.006402726857353024 0.013889270649666191 0.05546912087539793
0.006105455308323919 0.013413022258904856 0.055896539937537404
0.005929819552914477 0.012898196010108127 0.05592991128825806
0.005685048488268186 0.01240529684143398 0.056187251535387756
0.005413330469097116 0.011920943538821708 0.0565318877773974
0.00521836044178939 0.011412249734682755 0.056627894247965334
0.005023390683238602 0.010903555356786969 0.05672389938925635
0.004792038085753912 0.010406400457536907 0.05693776961852008
0.004597068466324863 0.009897706279777648 0.05703377453842743
0.004276167522654948 0.009428951819467691 0.057537742368606704
0.004081197698100743 0.008920257706764849 0.057633747953030647
0.0037602967202433005 0.00845150325729763 0.05813771589396269
0.0035941447578249222 0.007933669422781044 0.05814036409510159
0.0033991751042083485 0.007424975255864521 0.05823636912576171
0.003154403918126991 0.006932075942509344 0.05849370959430553
0.003058032297346569 0.006392110981374473 0.05827029976986341
0.002872849683783857 0.005880312829223615 0.0583345990522854
0.0027162949803833355 0.005359435178438347 0.058306156293782926
0.0025311120530530995 0.004847637104809286 0.05837045657296935
0.002336142434809867 0.004338943048803763 0.058466461603690394
0.0021509598493548885 0.0038271448667473408 0.058530760775349154
0.0019848080236866137 0.00330931098885981 0.058533408533476994
0.0018484926114846305 0.0027820145950272863 0.0584393994727729
0.001653522957868055 0.0022733204281107627 0.05853540450343302
0.0015172074041727018 0.0017460235906342375 0.058441395442485194
0.0013510556492511124 0.0012281899345687078 0.0584440432007349
0.0008807997357772046 0.0008068038678624777 0.05943185617138852
0.0009316534809249381 0.000220145887031363 0.05873150016241058
0.0005567574706276408 -0.00023148353725046264 0.05941038883561117
0.00031198619664710766 -0.0007243831280525589 0.059667729302272154
0.007879748991178628 0.016843034622905952 0.055662185846502475
0.007567165999157966 0.015801111877868916 0.05560359451514316
0.007421855819450149 0.015276668705780492 0.05553872506133005
0.007238030373838781 0.014764439856118843 0.055598627458787055
0.007054205201727618 0.014252210919715302 0.05565852897022192
0.006860027919513491 0.01374326618122498 0.05575196774889353
0.006640538325137472 0.013242348874209284 0.05592740698966451
0.00639166167576382 0.012750751322706885 0.05619804709327628
0.0061721725600131635 0.012249833863892882 0.05637348478350852
0.005938050836563194 0.0117535567175722 0.056596325322103756
0.0057185615840624334 0.011252639302129143 0.05677176345534707
0.005499071984943145 0.0107517215080985 0.05694720225286325
0.005304894561235646 0.010242776325964174 0.05704064103129113
0.005056017572358369 0.00975117912639661 0.057311282464057964
0.0048618399411540815 0.00924223376581123 0.05740472168537505
0.00467801504491476 0.008730004986173275 0.05746462253241519
0.004542491379253223 0.008202457241906307 0.05736804832676281
0.004206293021998809 0.007738554428952186 0.05792157314685849
0.0039051642971770937 0.007263529115549061 0.05836148755750557
0.0038194419258534727 0.006720186715373638 0.058103578800052534
0.003655100614788142 0.00620177866425667 0.05810036131318858
0.0034811620391778687 0.005686414412078541 0.058128234785956495
0.0033072234574878026 0.005171050140837585 0.05815610825871394
0.0032976312528172364 0.004603562635750369 0.05765157069977856
0.0029614327941860624 0.004139659977078194 0.05820509596294624
0.0027874946569338317 0.003624295564881666 0.05823296799591772
0.00259331671804181 0.0031153503018809107 0.058326408214009695
0.002419378172910904 0.002599986263304691 0.058354281797641766
0.002264520504108021 0.002078570389938663 0.05832034138255974
0.002100178803001394 0.0015601621781916484 0.058317124892328834
0.0019548683792376268 0.00103571859498743 0.0582522557705303
0.0018000102978128 0.0005143026082267627 0.05821831646285408
0.0016161853013825353 2.07410462448954e-06 0.058278217863779916
0.001396696151444353 -0.0004988433433467765 0.058453655664764924
0.001085851927674855 -0.0009707875843856491 0.058925043851869155
0.0007421334063539035 -0.0014323055858573267 0.05950293051489336
0.008356932162687217 0.016690724448247783 0.055880624813570125
0.008049818627808491 0.015647067038907274 0.055804314811604555
0.007883667185317904 0.015129233772272065 0.05580696201633416
0.0077175153230904705 0.014611399661719798 0.05580960966358737
0.0075323326327012795 0.01409960126868411 0.05587390894587703
0.00734715008854873 0.013587803806307372 0.05593820867166521
0.007161967539652912 0.013076005856915686 0.056002507954198595
0.006930614869049901 0.01257885049233615 0.05621637796171307
0.006633343251645746 0.012102602123260288 0.05664379724535808
0.0064481605612565565 0.0115908037302246 0.05670809652764774
0.0061764426835788575 0.01110645087125633 0.057052732769901096
0.0059583260554992995 0.010605097632941086 0.057223723736312
0.005686607904321393 0.010120744860714705 0.05756836086458749
0.0055204562495907465 0.009602910928613493 0.057571008068951504
0.005248737959291104 0.009118557956250583 0.05791564541861066
0.005053768339862054 0.008609863778491324 0.05801165033851801
0.004858798515307849 0.008101169665788482 0.05810765592294195
0.0047224832032968095 0.007573872995920276 0.058013646308352165
0.00455633134344101 0.0070560391288754815 0.05801629417723277
0.004445327330909489 0.006520714921255287 0.05784028697990229
0.004260144722873863 0.006008916786434273 0.05790458626233381
0.0040420279664956284 0.005507563854060276 0.05807557789339365
0.003797256899477704 0.005014664441878654 0.05833291791889595
0.0036862528350719865 0.004479340189645696 0.05815691083228776
0.0035296980302947055 0.003958462693142373 0.05812846851685728
0.0033933827182836655 0.0034311660232741676 0.0580344589022675
0.003175265921638112 0.002929813082680078 0.05820545064406963
0.0029996304102846193 0.002414987244999145 0.05823882166277572
0.0028239949307470183 0.0019001611529680018 0.05827219234910165
0.0026674400198497088 0.001379283323731678 0.058243750033488376
0.0024724704369798196 0.0008705893786371561 0.05833975506427035
0.002419955175807645 0.0003167148804735782 0.057974269375680586
0.0021751840769738294 -0.00017618427735783355 0.05823160973356305
0.0019995485314328112 -0.0006910101041960304 0.058264980863021905
0.0017814316982280986 -0.0011923632774548574 0.058435972493949405
0.0012801096398063977 -0.00160389656877789 0.059524426309763914
0.0011139581887689293 -0.002121729832702413 0.0595270735421817
0.0009189878737311911 -0.002630425011144316 0.0596230795690074
0.0006472701578457071 -0.00311477743290646 0.05996771574574503
0.00879024233367975 0.016552328804857692 0.05624119177648659
0.008593691667778593 0.015473605856629474 0.05580670599841443
0.00835957036406547 0.01497732955422585 0.056029546094486044
0.008204712556140852 0.014455913480723295 0.055995605900787684
0.00801053458068967 0.013946967985057802 0.05608904600800504
0.007791045264557126 0.013446051078315164 0.05626448480600868
0.007636187598125878 0.01292463544845661 0.05623054461255404
0.007402065943050957 0.012428358280450455 0.05645338492964373
0.007237724246687598 0.011909950555718387 0.05645016888266762
0.0071253476533083525 0.011375061363306986 0.056278607965751355
0.0067970684285476105 0.010908647204139314 0.0568064784581327
0.006407458008348426 0.010461684036307779 0.05753303498337847
0.006129479916054961 0.009979316634130604 0.05789795160772874
0.005965138490820175 0.009460908579149172 0.05789473445310309
0.005745648962447575 0.00895999100694053 0.05807017325074114
0.005551471331243286 0.008451045646355149 0.05816361247205822
0.005396613320565144 0.007929629881416484 0.05812967316450386
0.0052127882192006675 0.007417401166834945 0.05818957467606059
0.005113647602341458 0.006878314365880782 0.05797513516117369
0.004978124022741643 0.006350766655383843 0.05787856073404624
0.004813782540738683 0.005832358658480558 0.057875343800946125
0.004502938376701901 0.005360414663747882 0.05834673204355908
0.004469716745574629 0.004800421343462256 0.05791874358504367
0.004275538977620239 0.00429147602624782 0.05801218324937182
0.004111197519383743 0.003773068103862862 0.05800896631631264
0.003917019546304195 0.0032641228517048424 0.058102406645157395
0.0037228417783498023 0.002755177534490406 0.058195846309485544
0.0035873181834349503 0.0022276300120454406 0.058099272103955026
0.0033531965649191905 0.0017313530767040224 0.05832211253191935
0.0032408199373524195 0.0011964638951353582 0.058150551725755846
0.0030668814605965657 0.0006810998348736658 0.05817842508788238
0.0028830564252355067 0.00016887085509918135 0.05823832615630619
0.002699231394617717 -0.0003433576376603558 0.05829822766798479
0.002525292883674336 -0.0008587216870793121 0.05832610114086409
0.0022764163026757368 -0.0013503192602671839 0.05859674102297033
0.0021215583921885385 -0.0018717353012415317 0.058562801161530266
0.0016632237212133097 -0.0022969012695738837 0.05951199539055106
0.0013052638417821996 -0.0027539035337365305 0.060136016964221106
0.0012720424960776591 -0.0033138962117663854 0.059708028268991145
0.0009709137889160613 -0.003788921775030152 0.06014794239311663
0.008801299007413537 0.017118382824907002 0.05850529094507028
0.009016521945779739 0.015909063922839188 0.056736837157190155
0.008987157109639026 0.015347847157450507 0.05629635412519277
0.008850842078243097 0.014820551131362832 0.056202344289463045
0.008704173823770301 0.014296537702096143 0.05614187349203941
0.008547618810310412 0.013775659905388028 0.05611343150868444
0.00836243653965807 0.0132638623562694 0.056177730348450486
0.008215768289928541 0.012739849414017658 0.056117259994281646
0.007906540674602027 0.012267392457934867 0.05658341107068967
0.007854025281423017 0.011713518490157181 0.05621792626836576
0.007544797460971348 0.011241061599130808 0.056684078009290394
0.00734982777553888 0.010732367686564494 0.05678008337233067
0.007052556016641353 0.01025611887384463 0.05720750265573195
0.006640297117409087 0.009816339267200696 0.058007430895521406
0.006343025497633296 0.009340090654617359 0.05843484995753902
0.0060847626312107396 0.008851470230680735 0.058735897565591555
0.005853409962979363 0.008354315109608674 0.058949767794733425
0.005677774346691658 0.007839489060948475 0.05898313892407042
0.00512703599758267 0.00744362862512253 0.06023168033336119
0.005391182015721594 0.006789323742865724 0.058840349574217535
0.005338666877170302 0.006235449511136911 0.05847486377502733
0.005309302191758207 0.005674232982277428 0.058034380521666276
0.005172986817451908 0.005146936353157523 0.057940371128592495
0.005006835367846418 0.004629102355999894 0.05794301766843991
0.0048216524063286565 0.004117304293213569 0.05800731805837909
0.004636469822059495 0.0036055062329108834 0.05807161734085155
0.004418353264726623 0.003104153216417641 0.05824260830738432
0.004242717648438918 0.002589327167757443 0.058275979436721304
0.0040765657225797 0.0020714935659055943 0.058278627748734844
0.003891383308062351 0.0015596953296354904 0.05834292636662977
0.003734828362977515 0.0010388175112419026 0.058314484161769264
0.0035591929541866005 0.0005239916410327611 0.05834785484821706
0.0033740102637974103 1.219324799707315e-05 0.05841215413050672
0.0031983747866314435 -0.0005026326005265959 0.05844552503846004
0.003051706605276968 -0.0010266455644638095 0.05838505446278567
0.002876070918242577 -0.001541471834946009 0.0584184255920008
0.0026579541192253897 -0.002042825019047572 0.05858941711217553
0.002511286147739337 -0.0025668375610262547 0.058528946315239354
0.0022665145902378793 -0.003059738038946937 0.058786286783143404
0.001854255986342852 -0.0034995172507391826 0.05958621452478914
0.009453413959416086 0.016910592206257364 0.05815702525034294
0.009080306268214168 0.016458395119563575 0.058830120086134266
0.009498285823715522 0.015755300956216765 0.056940435110075224
0.009412563398146069 0.015211958267921107 0.05668252624171709
0.009326841529063568 0.014668616380171562 0.056424616487824285
0.009181531066369007 0.014144172320795134 0.05635974703352373
0.009036220193424135 0.013619728391531536 0.056294878908256366
0.00888136266848626 0.013098313205316986 0.056260938715045464
0.008726505138805114 0.012576897532087487 0.05622699807857977
0.008542679966693952 0.012064668595683947 0.056286899590014636
0.008407156576904256 0.011537121008182565 0.056190324719967516
0.008187667114535072 0.011036203170780978 0.056365763074472636
0.007953545259078265 0.010539926554846186 0.05658860449933373
0.0075804375678763455 0.010087729468152395 0.057261699335125045
0.007049108917599377 0.009685713398437433 0.05844736196192564
0.006747980158590134 0.009210688095877044 0.058887276483325486
0.006553802356448217 0.008701742789505341 0.0589807162584064
0.0063049257094462 0.008210145481510417 0.059251356583645574
0.006041365554262086 0.007723205117857916 0.05956956511137194
0.006043169727159321 0.007152103197511054 0.059028108228454654
0.005809047766768303 0.0066558263705969985 0.059250949763946646
0.005625222717278024 0.0061435977006282245 0.059310851164781075
0.0056039574669995065 0.005579812397457154 0.05884412925198741
0.005545182136413098 0.005027923575284029 0.058498923724121354
0.005432805545405485 0.004493034626380101 0.058327363028832485
0.005347083464082928 0.003949692073164553 0.05806945327457408
0.005083523378459683 0.003462751809580315 0.05838766169160861
0.005011292788854024 0.0029151303657043944 0.05808604535157487
0.004865982260156045 0.002390686571520911 0.05802117634040724
0.0046318608833246 0.0018944098037878131 0.05824401621472959
0.004448035508459916 0.0013821811759481637 0.05830391861230846
0.004414813772398434 0.0008221876446832734 0.05787593026442395
0.004071095871196218 0.0003606699350572919 0.05845381537715315
0.00391623813164665 -0.00016074616013073682 0.05841987496194927
0.0037220602293137877 -0.0006696911904667553 0.05851331529091588
0.0035278823269809263 -0.0011786362208027735 0.058606755619882496
0.003249904127381616 -0.0016610040774666876 0.058971672133236265
0.003216682562257762 -0.0022209976629452596 0.05854368323158792
0.003061825105694938 -0.0027424128708452822 0.058509742816871484
0.002718106335574769 -0.0032039317704477006 0.05908762936865547
0.002483984895111541 -0.003700208029480379 0.05931046990773815
0.0020522788016433223 -0.004133820354649547 0.06017339816956508
0.009610848031005401 0.016289162014314715 0.058875700343751336
0.00968661147797673 0.015694603314750907 0.05809464723843171
0.00977926137473591 0.015094688997454066 0.0572588893546057
0.009944449689663855 0.01447176975343562 0.05618813935224556
0.009686186786682139 0.01398314909683426 0.056489186849423466
0.00954987133554936 0.013455852226829525 0.056395177456217346
0.00943886765432133 0.012920528585848889 0.05621916981621092
0.00927271607033737 0.01240269487556968 0.05622181702069679
0.009116161330377688 0.011881816992119673 0.05619337415131968
0.008940525716461619 0.011366991186966949 0.05622674550228408
0.008764890097802281 0.010852164894799277 0.05626011640999368
0.008493172220124582 0.010367812035831007 0.056604752652247035
0.008149750241403197 0.009906199984465788 0.057181678645774045
0.0073615734441190555 0.009585644524179681 0.059199417947561235
0.007135704625978014 0.009086750174012215 0.059395522879182136
0.00686398638695966 0.0086023971853852 0.05974016006271215
0.006389011549158527 0.007611978273850461 0.060207648387571304
0.0062228598858809995 0.007094144344459933 0.060210295619623495
0.00599150730311844 0.006596989196281031 0.06042416557188345
0.005909890631435252 0.006052344653969335 0.060152956127058864
0.005753335939641609 0.0055314670395767394 0.06012451336857638
0.005713457216990313 0.004973585068469238 0.05971809102103541
0.00564652391614621 0.004424283564309196 0.05939931376132785
0.00566696941872274 0.0038472694577389435 0.0587974670496436
0.0054913338378083775 0.0033324435199897457 0.05883083817904153
0.005461969140789404 0.002771226954737591 0.058390354925660484
0.005295817622808861 0.002253392979265435 0.05839300168701342
0.005037554861320516 0.0017647727663080766 0.058694049184435056
0.00489088647246925 0.0012407596239198061 0.05863357905164989
0.0046727696734520634 0.0007394064398182439 0.05880457057182463
0.004454653152678352 0.00023805365598973866 0.058975561649232025
0.004279017465643962 -0.0002767726144924608 0.05900893277844716
0.004093834916748144 -0.0007885705638841461 0.05907323206098055
0.003908652538789955 -0.001300368567489512 0.0591375307897501
0.003723469540713032 -0.0018121668629405745 0.05920183106881466
0.0036124654055606268 -0.002347491336995534 0.05902582398208461
0.003417495929996584 -0.002856184827603316 0.05912182912386308
0.0032811801275020114 -0.0033834825632105834 0.059027819951675047
0.0028109240782176552 -0.0038048676098052913 0.06001563427953751
0.01044430002706824 0.01659438945327949 0.058475594349434994
0.010108101462317038 0.016130486461874313 0.059029119612419884
0.010471342139365479 0.015444752993748336 0.05731676487800874
0.010561871452268773 0.01484551122969067 0.056487876766787265
0.01024201029512617 0.014376427728925249 0.056988476827206404
0.010169779908274033 0.013828805976485439 0.05668685960102866
0.010014921963599308 0.013307389946353826 0.05665291985034136
0.009915781353855 0.012768303875922085 0.05643848100033665
0.009760923687423751 0.01224688824606353 0.05640454080688202
0.009625400156140683 0.011719340214918144 0.056307965936591174
0.00945146174775988 0.01120397613297098 0.05633583907721217
0.009296603939835262 0.010682560059468424 0.05630189888351382
0.009122665394704355 0.010167196020892205 0.05632977246714589
0.008928487419253173 0.009658250525226713 0.056423212574363245
0.008627358833553193 0.009183225411960115 0.056863126763626655
0.007672155594160847 0.008915642936629392 0.059421959117108646
0.007249012341564396 0.008479315110078005 0.06025714771506775
0.006912813980570722 0.00801541229830981 0.06081067254727702
0.005740682578885584 0.0032523921171960374 0.05978736119896309
0.005491806051539908 0.0027607947712515353 0.060058001136567576
0.0055735715825844055 0.002164332726483559 0.05925750410954239
0.005428260987883009 0.0016398891974930213 0.05919263554150769
0.005254322406192943 0.0011245249262520633 0.059220509014265135
0.005099464666643376 0.0006031088310640354 0.05918656859906124
0.004905286764310513 9.416380072801707e-05 0.05928000892802786
0.0047504290247609455 -0.00042725229446001164 0.05924606851282397
0.004556251293365713 -0.0009361973790097109 0.059339508288026754
0.004292691208928286 -0.0014231375208402113 0.05965771681587497
0.004147380780421249 -0.001947581591059377 0.05959284725082165
0.0038985040284850196 -0.002439179110033568 0.059863487686691724
0.003714678848766632 -0.0029514070669858445 0.059923390140012564
0.0035503371723609933 -0.0034698162636054896 0.0599201726525193
0.0032394930691874916 -0.00394175956585336 0.06039156136618663
0.010613481918095649 0.015969233385034233 0.059156210844173204
0.010680898104558224 0.01537732205877651 0.05840219924509102
0.0108366130465756 0.01475740636292097 0.057362137947836636
0.010740241558053304 0.014217442052544903 0.05713872834524564
0.0106586249175931 0.01367279719500613 0.05686751851263403
0.010591691546002311 0.013123495469024084 0.0565487412528046
0.010480687591274074 0.01258817191478534 0.05637273449882031
0.010305052114108107 0.01207334606626167 0.056406105406773634
0.010148497374148425 0.011552468182811665 0.056377662537396525
0.010012182064509021 0.011025171756450932 0.056283653144434134
0.009767410789994308 0.010532272165818254 0.05654099361282564
0.009601259479510555 0.010014438368797155 0.056543639931289386
0.009490255378545677 0.00947911388389946 0.05636763273380657
0.00927213848170918 0.008977761219341053 0.0565386250294944
0.008868854352651737 0.008535134977461152 0.05730947867438871
0.005196998767456801 0.0005712061622994051 0.06063490525500426
0.005021363538150397 5.638023516589866e-05 0.060668275360000024
0.004885048138298908 -0.0004709166511029405 0.060574265800664766
0.004613329974300679 -0.0009552694192632958 0.06091890297047254
0.004428147429945392 -0.001467067370095032 0.06098320223829658
0.01118208933903324 0.016358457538575368 0.059614086486190404
0.011183893406996265 0.015787355407249244 0.059072629713904035
0.011331486008237714 0.015170015750338524 0.058058881280435855
0.011298264340551282 0.014610022197388162 0.05763089271104581
0.011265042955851595 0.014050029531725803 0.05720290414214323
0.011152666294097299 0.013515140360999874 0.05703134344673249
0.011040289632343001 0.012980251190273944 0.05685978275132175
0.010927913253575448 0.012445362906836021 0.05668822205639848
0.010782602658874051 0.011920919377845484 0.05662335348836378
0.010627744850949429 0.011399503304342928 0.05658941329466542
0.010463403291336174 0.010881095536239914 0.05658619680467824
0.01021452650521242 0.01038949802810846 0.05685683735130108
0.010142296259853655 0.00984187671931265 0.05655522012536707
0.010083520715690662 0.009289987699625642 0.056210015040379736
0.009747322429182935 0.008826085108493522 0.05676353986059728
0.009592464828755105 0.008304669213442022 0.056729599224009726
0.009408639727390629 0.007792440498860483 0.056789500735566455
0.009035531833435188 0.007340243720730583 0.05746259645750178
0.01148660322914965 0.015690380284629976 0.05985628520317506
0.011651791773903738 0.01506745999068248 0.05878553353903597
0.011906037216786755 0.014416294878619857 0.05742627612337331
0.011687920734943838 0.01391494257096356 0.05759726753328274
0.011648041730340907 0.013357060424027649 0.05719084585012603
0.011537037766126133 0.012821735895759008 0.05701483820963215
0.011440666619479097 0.01228177147695558 0.056791427499513485
0.011293998232999465 0.011757758578074783 0.05673095758835571
0.011137443219539576 0.011236880781366665 0.05670251560500074
0.010971291635555616 0.010719047071087456 0.056705162809486606
0.010776321603504623 0.010210352779933558 0.05680116883679976
0.010581351986447208 0.009701658845681771 0.056897173978334506
0.010405716367787868 0.009186832553514102 0.0569305448860441
0.010230081164122109 0.008672006618248542 0.05696391490797529
0.010148464320908383 0.008127362069273659 0.05669270596150769
0.009963281427765674 0.007615563984801861 0.05675700612994134
0.009578659311840688 0.007167018996843186 0.05746740294064491
0.012046207399331717 0.01608245986189883 0.06034332747551456
0.011960484939574741 0.015539117184445908 0.060085418717909206
0.012092342868775564 0.014926767853486641 0.05912264380224181
0.01222420093472649 0.014314418479156432 0.058159868443563356
0.01208867748130501 0.013786871400355468 0.05806329423827657
0.012161468528025389 0.013193255411645255 0.057291870421493224
0.012025944996742319 0.01266570738049987 0.057195295551202376
0.011913568617974766 0.012130819097061946 0.057023734856279096
0.011758710951543518 0.011609403467203393 0.056989794662824465
0.011812839848381333 0.011021706267942896 0.056278828123242926
0.011439731888422474 0.010569509755005941 0.056951924288311175
0.01128487421724796 0.01004809363813244 0.05691798365160175
0.011199152206672086 0.009504751306738893 0.05666007389746522
0.010935591878178708 0.009017810753792599 0.05697828275732801
0.010790281283477312 0.008493367224802062 0.05691341418929331
0.01061634266759972 0.00797800296440384 0.05694128777280352
0.010382221151646538 0.0074817259965342135 0.057164127868509544
0.01028308032966217 0.006942639260636468 0.05694968901813924
0.010088902424957675 0.006433693986792976 0.05704312912547846
0.00984002584633071 0.005942096657112577 0.057313769229212094
0.012409423524357702 0.015966294877603295 0.060930969523042444
0.012495064440624669 0.014798073529145368 0.05958230532423558
0.012570827887595998 0.01420351482958156 0.058801252218915946
0.012654998945545814 0.013606290593312217 0.057992963015235474
0.012543994707830833 0.013070966151785468 0.057816956260763726
0.012504116250228316 0.012513083831365774 0.057410532805562756
0.01227276386261205 0.012015929354074244 0.05762440281356468
0.012278469005522562 0.011443590466824142 0.057070308707845824
0.012142153554389785 0.010916293596819405 0.056976299314639704
0.011976001696905618 0.010398459973282084 0.05697894740514771
0.011790819280016636 0.009886661493504508 0.057043245801415246
0.011624667422532469 0.009368827869967187 0.057045893891923244
0.011692083916682779 0.00877691644612484 0.05629188129606616
0.01133780289048127 0.008318748881749823 0.056903986355597756
0.011152619997338558 0.007806950797278026 0.056968286524031415
0.010934503440005688 0.007305597780784783 0.05713927749056418
0.010798188059619596 0.00677830113260205 0.05704526809747993
0.010641632980156291 0.00625742360108688 0.05701682655725789
0.0103443613603805 0.005781174988503544 0.0574442456192755
0.00995028304316948 0.0053356290796841115 0.0581852764237056
0.013032200697732239 0.015197278911679503 0.06014213399147016
0.012877342650494937 0.014675862914076099 0.060108194573041174
0.012976443391514242 0.014073902680891278 0.059251538749691884
0.013020846493723393 0.013489291040617357 0.058572080486663604
0.013011254149931088 0.012921803335393615 0.058067543149111896
0.012978032413869604 0.012361809804128723 0.057639554801227386
0.0128788919408754 0.011822723690326038 0.057425115508211604
0.0127433684143356 0.0112951761461956 0.057328541081175556
0.012607844746302428 0.01076762815842116 0.05723196665389577
0.01245298707987118 0.010246212528562604 0.05719802646044114
0.012307676343676412 0.009721768555928066 0.05713315789216272
0.012235446098317646 0.009174147247132256 0.05683154066622871
0.011957467932905861 0.008691779379625607 0.05719645706882971
0.01160652921598543 0.008232551785991634 0.057797734494890785
0.011697058326135204 0.007633310330497857 0.05696884726981331
0.011477569071262812 0.007132392671547326 0.057144285181429215
0.011378428386028547 0.006593305892278635 0.05692984588804785
0.011077300003082088 0.006118280470448148 0.05736975919116726
0.010912957962471836 0.005599872610635968 0.057366544030091414
0.010729133134607568 0.005087643809312541 0.05742644465562602
0.010480256436917171 0.004596046578458587 0.05769708520240119
0.013310512389539666 0.014537511808988459 0.060469217123730684
0.01337792884950245 0.013945600395988847 0.05971520463862637
0.013420543533857259 0.01336155596092947 0.05904154007432267
0.01343376849184415 0.012786831640101864 0.058463084568320764
0.013446993381455986 0.01221210734095973 0.057884629283824394
0.013335989700227955 0.011676783699979097 0.05770862164381797
0.013296110837118395 0.011118901996687185 0.05730219996090499
0.013101141215317712 0.01061020757542045 0.05739820465918494
0.012964825905678306 0.01008291114905972 0.057304195266222546
0.012808270892218419 0.009562033352351604 0.05727575328286758
0.012661602915989098 0.009038020323357973 0.057215282042676605
0.012505048039279312 0.008517142483278914 0.05718683961631057
0.012338896181795147 0.007999308859741592 0.05718948770681857
0.012172744253564294 0.00748147501438227 0.05719213579720472
0.011987561907421998 0.006969676756426693 0.0572564341935941
0.011802379287779493 0.006457878585213007 0.05732073347600563
0.01162674373986684 0.005943052514867337 0.05735410438383709
0.011408626772283657 0.005441699628486928 0.05752509667940305
0.011341693744939763 0.004892398037584996 0.05720631853367336
0.010887341538145905 0.0044659683401133445 0.058142610674194344
0.010615623532953346 0.003981615317401216 0.05848724713785137
0.013958491359472937 0.014331032936373481 0.06013435079663287
0.013813180486528066 0.013806589007109887 0.06006948267136551
0.013928926869889391 0.01319935050645551 0.05915890309850712
0.013919334594472138 0.012631862779546294 0.058654365539449874
0.013982919350720732 0.012041166609573916 0.05791276611366947
0.01380898135733351 0.011525802884528865 0.05794063836851207
0.01378771582431954 0.010962017875214487 0.05747391756334794
0.01362337439671312 0.010443609576725582 0.057470700187094895
0.013459032563599656 0.009925201895364458 0.05746748458312985
0.013285094150475588 0.009409837326402347 0.05749535728049606
0.013149570897435995 0.00888228969553002 0.05739878196743788
0.013004260161241225 0.00835784572289548 0.057333913399159456
0.012810082327283414 0.00784890067087399 0.05742735350662054
0.0126977055995257 0.007314011765341006 0.057255793254342734
0.012562182275739422 0.006786463912646678 0.05715921794116268
0.01228420445457453 0.00630409618022014 0.05752413345786342
0.012148680857288045 0.005776548414267702 0.05742755903070551
0.011954502815833445 0.0052676031837951545 0.05752099958105579
0.011735013697711155 0.004766685481473679 0.05769643704966064
0.011353666354202763 0.004317101944958219 0.058396225074390885
0.011366595125443855 0.0037424718454969388 0.057818729352005896
0.01107598023328889 0.0032641120411312325 0.05822458352135044
0.010694633350719188 0.0028145282973619664 0.05892436999551149
0.014256787141333606 0.013664927784675937 0.0603966940558684
0.014262492425737492 0.013092589341069836 0.059842599950393274
0.01431334629434518 0.012505930832563515 0.059142243082837664
0.014319051227387268 0.01193359152335488 0.05858814919838061
0.014316837723544374 0.011363764561042444 0.058059708534719555
0.014205833900822971 0.010828440476417806 0.057883700894469405
0.014094829663107988 0.010293116034891053 0.057707694139997656
0.01394816141337846 0.009769103092639312 0.057647223785828816
0.013811846098995788 0.009241806179263633 0.05755321394961164
0.013675530789356384 0.008714509752902902 0.05745920455664925
0.013490347825466986 0.008202711446609104 0.05752350472496104
0.013437832705788182 0.007648837392089529 0.05715801903661499
0.013166114757363796 0.007164484311299256 0.05750265527874649
0.013009560088150803 0.0066436066496712515 0.05747421240949124
0.012862891767674588 0.00611959348559751 0.05741374205520054
0.012631539167818263 0.005622438342839976 0.05762761206283688
0.01245590361990561 0.005107612272494304 0.05766098297066834
0.01221113268963779 0.004614712816941738 0.057918322553159575
0.012044980915843714 0.004096878983666972 0.05792097020056511
0.011850011102896386 0.0035881849073568016 0.05801697578500905
0.011664828215833468 0.003076386841947832 0.05808127595345318
0.011343927272163552 0.002607632381637877 0.05858524378363246
0.014492672876681156 0.014159676200681788 0.06193244375330546
0.014433897759862237 0.013607787045460576 0.06158723728390855
0.014697815085524903 0.012953555426887472 0.06019664807720108
0.01483757778608689 0.012338699060156375 0.0592082651283539
0.014861365527197811 0.011760624702505162 0.058595590783077266
0.014828144210873176 0.011200632015157334 0.05816760199266915
0.014644319180255386 0.010688403522397796 0.058227503504347744
0.014585543636092393 0.010136514502710785 0.05788229841936042
0.014526768370172879 0.009584625883296833 0.057537092891605746
0.014292646783473011 0.009088348693605206 0.05775993298718991
0.014157123256933211 0.00856080114947477 0.057663358560153866
0.013973298221572153 0.008048572169700285 0.05772325962857766
0.01388757621099628 0.007505229838306737 0.05746534987444113
0.013693398306291783 0.006996284564463245 0.05755878998178035
0.01352905694943205 0.006477876487796341 0.05755557260564917
0.013364715045571901 0.005959468584613217 0.05755235700156226
0.013145225790699506 0.005458550925662687 0.05772779491317818
0.012925736672577215 0.00495763322334121 0.05790323238178302
0.012770878935399282 0.0044362173716606555 0.05786929218820652
0.012576701048381458 0.0039272721532726635 0.057962732295576205
0.01235721180511594 0.0034263545307148045 0.05813817020721212
0.012202353800517592 0.002904938784838967 0.05810423089966823
0.011924375705852494 0.0024225711391543184 0.0584691473023911
0.011730198074648205 0.0019136257785689367 0.05856258652370818
0.01141935363221724 0.0014416819732690597 0.05903397576314649
0.01504034750392911 0.012843950378153078 0.06085129674727093
0.015264535479175067 0.012202318134674999 0.05958941249945622
0.015340298857771342 0.01160775945679666 0.058808359615642125
0.015243927300873997 0.011067795168106066 0.058584950234556656
0.015286541980485537 0.010483750246031744 0.05791128522699817
0.015014823824564361 0.009999396986790414 0.058255921912018865
0.014962308568135456 0.009445522975641782 0.05789043666668389
0.014815640860663074 0.008921509372891316 0.057829964097216
0.014679325277523463 0.008394213033272473 0.05773595559027574
0.014503689932364328 0.007879386654362913 0.0577693256119632
0.014367374349224717 0.007352090314744071 0.05767531710502294
0.01421081926976141 0.0068312127832289 0.0576468755648009
0.014025636650118908 0.006319414612015213 0.05771117484721242
0.01378086585660119 0.005826515113091702 0.05796851398669259
0.013669861689632894 0.005291190893386952 0.05779250723234271
0.013425090759365073 0.0047982914378343865 0.05804984681483393
0.013288774831978569 0.004270994963135432 0.05795583919379395
0.013070658292332369 0.0037696420020976893 0.05812683016035718
0.012914103634726252 0.003248764376862357 0.05809838729112193
0.01265584067182091 0.0027601440045167706 0.058399435231443246
0.012460870984016808 0.0022514498484429843 0.05849544037285613
0.012275688364374305 0.0017396516772292974 0.058559739655267645
0.011978416711596806 0.0012634031972424344 0.05898715893885172
0.011566157468117646 0.0008236234555183881 0.05978708806454146
0.015794232470083883 0.012603882915860195 0.06017334107048185
0.015648922007389324 0.012079438856483765 0.06010847161618129
0.0157886844344511 0.011464582576494556 0.05912008955335625
0.01571645433058571 0.01091696171134275 0.05881847232766596
0.015706862333411932 0.010349474384706592 0.058313934325841386
0.015571338938878965 0.00982192631019026 0.05821735901253947
0.01540699737926571 0.009303518542087249 0.05821414252255229
0.015271473574482435 0.008775970597683754 0.058117568538283586
0.015135950321442843 0.008248422966811428 0.0580209932252254
0.015063719661090498 0.007700801301113506 0.05771937688506979
0.014899378101477241 0.007182393533010494 0.05771616039508261
0.014608763886993002 0.006704033492727235 0.05812201234936135
0.014549988550326801 0.006152144651491281 0.05777680682148482
0.014355810645622306 0.0056431993776477896 0.05787024692882404
0.01421050025367443 0.0051187555400933615 0.05780537747464535
0.013919885355439672 0.004640395716664826 0.058211231643979414
0.013807508627681958 0.004105506811131844 0.05803967139170162
0.01357338726616555 0.0036092298553467724 0.058262511044427034
0.013617789894241315 0.003024617672741411 0.05758305366707529
0.013211533371012711 0.002582934160777932 0.05836353660051636
0.012883253802005074 0.0021165198665301487 0.05889140797879797
0.012824478465338875 0.001564631025294195 0.05854620245092144
0.012575601785335148 0.001073033849895742 0.05881684299772707
0.012356112530462754 0.0005721161909452111 0.05899228090934299
0.012065498042478306 9.375623740384242e-05 0.05939813374964386
0.016077472733673454 0.011942552693167494 0.06048445787249595
0.016136589932413833 0.011353273430272384 0.059757331396744814
0.016125958160570913 0.010786116361629058 0.05925616227281736
0.01617681203392187 0.010199458340137683 0.058555805848516544
0.016020256883711878 0.009678580586800512 0.05852736430817263
0.015923885458821365 0.009138615767724024 0.0583039540408213
0.015705768557241602 0.008637262616150672 0.058474945893254346
0.015638835600644392 0.00808796124707074 0.058156167747646516
0.01555721868668398 0.007543316476273857 0.05788495880105705
0.015372036137788161 0.007031518526882172 0.05794925808359043
0.015177066586734164 0.00652282432743744 0.05804526278199225
0.01503039812950785 0.005998811206734641 0.057984792870712606
0.014799045666401627 0.005501656020606162 0.058198662435337875
0.014662730286015536 0.004974359372423429 0.05810465304225363
0.014444613728682665 0.004473006355930186 0.05827564400878639
0.014288058785969462 0.003952128781044072 0.05824720202555329
0.014029796108171205 0.0034635083583492675 0.05854824907987246
0.013873241040314779 0.00294263086322677 0.05851980753967041
0.013697605771982126 0.002427804725202038 0.05855317756149021
0.013512423015589518 0.0019160065973592966 0.0586174772869128
0.013317453054285212 0.001407312528027399 0.05871348331434781
0.013099336395575579 0.0009059596658161015 0.05888447472395258
0.012904366707771477 0.0003972655097423149 0.05898047986536546
0.01265959550400345 -9.563385906836194e-05 0.05923782033387882
0.01246462575019593 -0.000604327749949203 0.05933382591842463
0.01205236691696708 -0.0010441076217860843 0.06013375371508116
0.016538866527204134 0.011795250195123522 0.060754046825542904
0.01659299576591721 0.011207552887435662 0.0600430791784337
0.016559774312842473 0.010647560243458778 0.059615090831036645
0.016604177205183198 0.010062948181226328 0.058935632789270165
0.016531946681580957 0.00951532647215746 0.05863401600610349
0.016419569887819823 0.008980437831817423 0.05846245619695862
0.016264712079895202 0.008459021758314868 0.05842851600326026
0.016129189100355816 0.007931474040700652 0.058331939804179944
0.01598387809066084 0.007407030154808002 0.058267072121923655
0.015829020424229595 0.006885614524949448 0.058233131928469024
0.01568370975878151 0.006361170774136908 0.058168263360312465
0.015548186161495024 0.00583362300818447 0.05807168893315454
0.015364361196880652 0.005321394250231986 0.05813159000170021
0.01520001997677102 0.004802986130194139 0.05812837218255797
0.014965898187317632 0.004306709249066402 0.058351213164286125
0.014791959571440041 0.0037913449886681806 0.058379086747796335
0.014597781957922423 0.003282399683538299 0.05847252596914389
0.014462258235492713 0.0027548519973494773 0.05837595198501703
0.01419869825732602 0.002267911598546123 0.05869415995899003
0.013979209002453627 0.001766993939595592 0.058869597870605944
0.013843685268417038 0.001239446217014098 0.058773023886459094
0.013649507535835988 0.0007305010107106619 0.05886646355084818
0.0134553299046317 0.0002215556501252811 0.058959902772165264
0.013206453326004734 -0.000270041679555117 0.0592305428758989
0.01303251491762393 -0.0007854057615022819 0.059258416016519905
0.012681576061581764 -0.0012446335552727832 0.059859693663964646
0.012526718322032195 -0.001766049650460811 0.05982575324876075
0.016949336893247263 0.011093568341719274 0.06065299248343526
0.016969782471313748 0.01051655494398597 0.06005114621512767
0.016959150216102198 0.009949397540126003 0.059549978198484156
0.016939501201319127 0.009385099355859598 0.05907802011625094
0.016886986081640326 0.008831225301340024 0.058712534427904896
0.016740317690417426 0.008307211915444281 0.058652064073492334
0.01660400238077802 0.007779915489083548 0.05855805468052995
0.01642836703561889 0.007265089110173988 0.058591424702217405
0.016281699059389566 0.006741076081180357 0.058530953462026435
0.016170695029171372 0.006205751818104663 0.05835494626466549
0.015952578061588195 0.005704398931724254 0.05852593856023145
0.015816262817952204 0.0051771022401705755 0.058431928724136134
0.01559814612386923 0.004675749267048278 0.05860292013367997
0.015422510575956576 0.004160923196702607 0.058636291041511426
0.015191158112850357 0.0036637680105741284 0.0588501606061367
0.014959805667430808 0.003166612879901149 0.05906403017079243
0.014878189109324168 0.002621968280577049 0.058792820338322685
0.014712037187173108 0.002104134454280555 0.0587954684287193
0.014526854567530605 0.0015923362830668687 0.05885976771113083
0.014331884606226298 0.0010836422137349712 0.058955773738565836
0.014136914817045435 0.0005749482119431293 0.05905177932305072
0.013951732334153033 6.31499973584985e-05 0.05911607816245117
0.013733615640070059 -0.00043820297576379935 0.059287069571995005
0.013548432817674034 -0.0009500008384135954 0.059351369740550525
0.013353463129869932 -0.0014586949944873826 0.05944737488196341
0.013135346228290167 -0.0019600481460607362 0.059618366734396445
0.012838074679261065 -0.0024362965368220713 0.06004578579653592
0.017554999715384823 0.0109005102366274 0.06045521155651519
0.017400142258822 0.01037909502872738 0.06042127114179876
0.017490671302968355 0.009779853838426548 0.05959238435985421
0.017418440916116218 0.009232232085986735 0.05929076713367646
0.017385219321548104 0.008672238998365847 0.05886277878603568
0.017239908858853546 0.008147794938989417 0.058797909331735135
0.017094598264152147 0.007623351409998881 0.058733040763700436
0.016959074596118975 0.0070958034222244415 0.05863646633642065
0.016804216929687726 0.006574387792365887 0.05860252614296602
0.016658906264239645 0.006049944041553348 0.058537657574809464
0.016484968058612364 0.0055345796510422925 0.05856552982928647
0.01631102944273477 0.005019215390644071 0.058593403412796674
0.016198652988477263 0.004484326398369199 0.05842184227449674
0.01594977613635009 0.0039927291554306904 0.058692483264252505
0.015755598505145803 0.003483783794845309 0.058785922485569596
0.015571773284717894 0.0029715551790902156 0.05884582444016786
0.01542646263087669 0.002447111464670349 0.05878095587203129
0.015232284732251985 0.0019381662098896851 0.05887439597938098
0.01506794337539225 0.0014197581332227821 0.05887117860324981
0.014873765470687757 0.0009108128593792902 0.05896461871058902
0.014689940541446726 0.0003985842123378075 0.05902451977919562
0.01445581888874344 -9.769271216087403e-05 0.059247360317912716
0.01387108009002315 -0.00048276974394647677 0.06060604844770846
0.014075392878336196 -0.0011180979889950941 0.05940855165001364
0.013901454262458604 -0.001633462249393316 0.05943642523352385
0.013707276423757526 -0.002142407788429753 0.05952986489773013
0.013429298331464062 -0.0026247751906069284 0.059894781522080394
0.013031388752605053 -0.00306910624086217 0.06064822372442106
0.017793583154038842 0.010253344114632981 0.060910998789063496
0.01784443709576485 0.009666686071456133 0.060210642143257144
0.017857662258876892 0.00909196168557211 0.05963218597273864
0.017855448203290318 0.008522134409728504 0.059103746637867056
0.017719132478657335 0.007994837626465658 0.059009738130683075
0.01752416299835002 0.007486143648842929 0.059105742829206755
0.017471647737177846 0.006932269150679352 0.05874025714061698
0.017296012123261775 0.006417443345526627 0.05877362849158137
0.017110829230119064 0.00590564526105483 0.058837928660015026
0.016944677848888628 0.005387811242211728 0.0588405749783569
0.01680836260525264 0.00486051455065805 0.058746565142261585
0.016464940560527837 0.004398902764485778 0.05932349157892153
0.0164250617634217 0.0038410207960009202 0.058917069452875614
0.016249426489009254 0.003326194638913361 0.058950439474684944
0.01608327457846507 0.0028083608490095387 0.05895308756510155
0.015898091970429445 0.0022965627141885245 0.05901738684753307
0.01567997528242626 0.0017952097601290546 0.05918837825708738
0.015533306961950048 0.0012711965960553124 0.05912790790279668
0.015112284840209897 0.0008341960427809742 0.05995622495610699
0.015154899074197783 0.0002501511399084842 0.05928256127752076
0.014959929523143786 -0.000258543059536247 0.05937856597592258
0.014793777458162828 -0.0007763768615246247 0.05938121450931978
0.014496505909133723 -0.0012526252522859593 0.059808633571459255
0.014414889202670101 -0.001797269844631787 0.05953742418198058
0.014170118064905493 -0.0022901694786354094 0.05979476420736102
0.01383782098535209 -0.0027553093560773985 0.06033565080788022
0.013307859079241872 -0.0031577593837139265 0.06151688531732426
0.018202204939960238 0.010122778509797353 0.061351545419344296
0.01836531143494339 0.009500519036340317 0.060287539152696606
0.01836711516103115 0.008929417013441552 0.0597460834879379
0.018345849764767285 0.008365631960756228 0.059279362239762705
0.018210325959984012 0.007838084016352734 0.059182788255493994
0.01807480270694442 0.0073105363854804074 0.05908621294243581
0.01792949197074965 0.006786092412845867 0.05902134437415739
0.017735314136791837 0.006277147360824378 0.05911478448161847
0.017561375520914246 0.005761783100426155 0.059142658065128674
0.017448999203406843 0.005226894064780338 0.05897109648381767
0.017275060861029458 0.0047115297176402275 0.058998969181305747
0.017110719230669515 0.004193121727715214 0.0589957526911967
0.016946377600309575 0.0036747137377901996 0.05899253620108765
0.016782035969949635 0.0031563057478651863 0.058989319710978615
0.01658785808293181 0.0026473605294771944 0.0590827598183483
0.016413919752161304 0.002131996218729756 0.05911063251585636
0.01582918109627091 0.0017469191626360366 0.06046932020265152
0.016040326806261787 0.0011094235797725251 0.05924968747088688
0.01588546920583396 0.0005880076847210253 0.05921574683429932
0.015691291199752704 7.906256515947821e-05 0.059309187384710534
0.015471801944880308 -0.00042185509379105224 0.05948462529632645
0.01527762404017581 -0.0009308003676345442 0.05957806540366566
0.015103685631795009 -0.0014461644495817093 0.05960593854428667
0.014929747015917417 -0.001961528709979931 0.05963381212779688
0.014601467854788459 -0.002427943377848022 0.060161681955417885
0.014337907736163506 -0.0029148835088357865 0.06047989059401888
0.013964799771461379 -0.0033670805087876884 0.06115298631583234
0.013809942173405181 -0.0038884961603317145 0.06111904590087217
0.013080082474877436 -0.004227547165398552 0.06294786307807525
0.01849924138513656 0.00945707325070961 0.06161796978643021
0.01870333106091238 0.00882181527834229 0.06042119531803519
0.018709036272197943 0.008249476369406716 0.0598671009908108
0.018679671846307543 0.007688259473905199 0.05942661662978023
0.018523116974341027 0.007167382120841085 0.05939817464666898
0.018347481492431792 0.00665255578530247 0.05943154511136751
0.018294966509503095 0.006098681687411949 0.059066058980010404
0.017873943840762525 0.00566168130762139 0.05989437780536498
0.017762939947294436 0.00512635700117475 0.059718370164992964
0.017723061286938402 0.004568474989318949 0.059311947595935985
0.01758674590655231 0.004041178341136216 0.05921793820285173
0.017420593978321457 0.0035233444957768934 0.05922058629323787
0.017264039309108463 0.0030024668341488894 0.059192143423982636
0.01704592235921195 0.002501114003223981 0.05936313571957907
0.016860740161426635 0.0019893157382901328 0.059427433672977384
0.01676436826161892 0.0014493508465673066 0.05920402473454787
0.016579185641976416 0.0009375526753536202 0.05926832401695939
0.016361069084643545 0.0004361996588603777 0.059439314983492156
0.01605184116518675 -3.625683437657795e-05 0.05990546738911618
0.01579357805945151 -0.0005248771824140474 0.06020651577243809
0.0157119617632382 -0.0010695219048727092 0.05993530505392621
0.015493845139901909 -0.0015708746561730056 0.06010629646359191
0.015275728445818933 -0.002072227629295304 0.06027728787313575
0.014978456686921406 -0.0025484764420151684 0.06070470715653703
0.014584378235331916 -0.002994022063956182 0.061445738625605595
