ply
format ascii 1.0
element vertex 721
property float x
property float y
property float z
end_header
0.0031903737340165774 -0.009959700631103869 -0.0036192391999065867
0.0035478863941890235 -0.009533633633945443 -0.0036160873714834443
0.0039053987550401637 -0.009107566993504259 -0.003646357683464884
0.00426291141521261 -0.008681499996345833 -0.003643205389380454
0.004620424075385056 -0.008255432999187408 -0.003573776921257376
0.004977936735557503 -0.007829366002028982 -0.0033896532841026774
0.005335449395729949 -0.007403299004870556 -0.0032861398067325345
0.005692962055902395 -0.00697723200771213 -0.0024259022902697316
-0.001883356890023796 -0.015141058519877779 -0.001410105382092296
-0.0011683315696789038 -0.014288924525560928 -0.0012138356687501062
-0.0008108186101851518 -0.01386285717168526 -0.002524648327380418
-0.0004533062493340114 -0.013436790531244077 -0.0029844350647181264
-9.579388848287102e-05 -0.013010723890802892 -0.002987587358802556
0.000261719071010881 -0.012584656536927225 -0.0030570158269256345
0.0006192314318620213 -0.01215858989648604 -0.003160528140142559
0.0009767437927131618 -0.011732523256044857 -0.0029206662438809863
0.001334256452885608 -0.01130645625888643 -0.0029568467289209357
0.001691769113058054 -0.010880389261728005 -0.0035386113449931136
0.0020492817732305005 -0.01045432226456958 -0.003642123891040682
0.0024067944334029466 -0.010028255267411154 -0.0037456369027495376
0.002764307093575393 -0.009602188270252728 -0.0038150663021951905
0.003121819753747839 -0.009176121273094303 -0.0037143109366297713
0.003479332114598979 -0.008750054632653118 -0.003717463230714201
0.0038368447747714252 -0.008323987635494693 -0.0036871936172246924
0.004194357434943872 -0.007897920638336267 -0.003656923305243253
0.004551870095116318 -0.007471853641177841 -0.003468019887804984
0.004909382755288764 -0.007045786644019415 -0.003031416330486535
0.00526689541546121 -0.00661971964686099 -0.0024329661391675464
-0.0019519109276884695 -0.014357478505829666 -0.0016936984611675135
-0.0015943985668373292 -0.01393141186538848 -0.0022321534343063823
-0.0012368856073435772 -0.013505344511512814 -0.0031601167283952228
-0.0008793732464924368 -0.01307927787107163 -0.0030906887259334317
-0.0005218608856412964 -0.012653211230630446 -0.0033305501565337172
-0.00016434792614754444 -0.01222714387675478 -0.003360820468515157
0.00019316443470359594 -0.011801077236313594 -0.003357668174430727
0.0005506767955547363 -0.01137501059587241 -0.003354516811668872
0.0009081894557271826 -0.010948943598713986 -0.0031242980621755114
0.0012657021158996287 -0.01052287660155556 -0.0037196492776274672
0.0016232147760720749 -0.010096809604397135 -0.00378434988670051
0.0019807274362445212 -0.009670742607238709 -0.004291403107345103
0.0023382400964169674 -0.009244675610080282 -0.003920609597116708
0.0026957527565894136 -0.008818608612921858 -0.003985310439020394
0.0030532651174405537 -0.008392541972480672 -0.0033648028038442126
0.003410777777613 -0.007966474975322248 -0.003707186318933963
0.003768290437785446 -0.0075404079781638215 -0.0037040344905108205
0.004125803097957893 -0.007114340981005396 -0.003634605556726455
0.004483315758130339 -0.006688273983846969 -0.0026277753058820954
-0.0027354908843406477 -0.014426033199532886 -0.001868677092716097
-0.002377977924846896 -0.01399996584565722 -0.0017679218435659996
-0.0020204655639957554 -0.013573899205216036 -0.0028026096988469354
-0.0016629526045020035 -0.013147831851340368 -0.0024100146256387225
-0.001305440243650863 -0.012721765210899185 -0.003330621635541319
-0.0009479278827997226 -0.012295698570458 -0.0033668021205812684
-0.0005904149233059698 -0.011869631216582334 -0.003643751144409179
-0.00023290256245482946 -0.011443564576141148 -0.0035429964773356906
0.00012460979839631095 -0.011017497935699965 -0.0035791767295449963
0.0004821224585687571 -0.01059143093854154 -0.0035489064175635568
0.0008396351187412033 -0.010165363941383114 -0.004008692689239978
0.0011971477789136495 -0.009739296944224688 -0.003978422842919826
0.0015546604390860956 -0.009313229947066263 -0.004047852009534835
0.0019121730992585418 -0.008887162949907837 -0.003807988949120044
0.002269685759430988 -0.00846109595274941 -0.00391150265932083
0.0026271981202821283 -0.008035029312308227 -0.0040956265293061725
0.0029847107804545745 -0.007608962315149801 -0.003753243247047066
0.0033422234406270197 -0.0071828953179913745 -0.003316640155389904
0.0036997361007994668 -0.00675682832083295 -0.003687434829771518
0.0040572487609719125 -0.006330761323674523 -0.0031489783432334653
0.004414761421144359 -0.005904694326516097 -0.0020638920832425347
-0.003161557881499073 -0.014068520539360441 -0.001297534559853374
-0.0028040449220053214 -0.013642453185484774 -0.002021426334977149
-0.002446532561154181 -0.013216386545043588 -0.0026925613638013593
-0.0020890196016604286 -0.012790319191167921 -0.002722831675782799
-0.0017315072408092885 -0.012364252550726738 -0.0033443719148635856
-0.0013739948799581481 -0.011938185910285554 -0.0035332753323018542
-0.0010164819204643962 -0.011512118556409887 -0.003530122572556137
-0.0006589695596132549 -0.011086051915968703 -0.003719026455655693
-0.00030145719876211444 -0.01065998527552752 -0.003958889283239841
5.6055461410331734e-05 -0.010233918278369093 -0.00402358965948224
0.0004135681215827779 -0.009807851281210667 -0.004053859971463679
0.0007710807817552241 -0.009381784284052242 -0.004118560813367366
0.0011285934419276702 -0.008955717286893816 -0.004049131181091069
0.0014861061021001164 -0.00852965028973539 -0.004113832022994756
0.0018436187622725626 -0.008103583292576965 -0.003929708153009414
0.002201131123123703 -0.007677516652135781 -0.003959978464990853
0.002558643783296149 -0.0072514496549773546 -0.003729759715497493
0.0029161564434685952 -0.006825382657818929 -0.003545635845512151
0.0032736691036410405 -0.006399315660660503 -0.003442123532295226
0.0036311817638134867 -0.005973248663502077 -0.0028216158971190444
0.003988694423985933 -0.005547181666343651 -0.0019613783806562415
-0.003945137239508639 -0.01413707451962918 -0.0019677069503813973
-0.0035876248786574985 -0.013711007879187996 -0.0016764595638960593
-0.0032301119191637468 -0.013284940525312327 -0.0024404502473771563
-0.002872599558312606 -0.012858873884871143 -0.00281124492175877
-0.002515086598818854 -0.012432806530995476 -0.0031351791694760314
-0.002157574237967714 -0.012006739890554292 -0.003505973843857645
-0.0018000618771165735 -0.011580673250113109 -0.0035091256722807876
-0.0014425489176228216 -0.011154605896237442 -0.003786075394600629
-0.001085036556771681 -0.010728539255796256 -0.0038222551811486474
-0.0007275241959205408 -0.010302472615355072 -0.003925768192857503
-0.00037001153574809455 -0.009876405618196648 -0.003995197359472512
-1.2498875575648346e-05 -0.009450338621038222 -0.004365991335362195
0.0003450137845967978 -0.009024271623879795 -0.004023607820272445
0.000702526444769244 -0.008598204626721371 -0.004565684590488671
0.0010600391049416901 -0.008172137629562945 -0.004129082430154084
0.0014175517651141363 -0.007746070632404518 -0.003940177615731954
0.0017750641259652769 -0.007320003991963335 -0.003943330608308314
0.002132576786137723 -0.006893936994804908 -0.003878629766404628
0.002490089446310169 -0.006467869997646483 -0.0035873823799192897
0.002847602106482615 -0.006041803000488057 -0.0032961356919258824
0.0032051147666550613 -0.005615736003329631 -0.0026249999646097413
0.003562627426827508 -0.005189669006171206 -0.002513629384338855
0.003920140086999954 -0.00476360200901278 -0.00176104437559843
-0.004371204236667065 -0.013779561859456732 -0.002044568071141838
-0.004013691875815925 -0.013353495219015549 -0.0017206323100253933
-0.003656178916322173 -0.012927427865139882 -0.0023673179093748322
-0.0032986665554710325 -0.012501361224698698 -0.0030384536366909734
-0.0029411535959772803 -0.01207529387082303 -0.002969025168567895
-0.0025836412351261393 -0.011649227230381847 -0.0036157104186713687
-0.0022261288742749987 -0.011223160589940662 -0.0036804110277444116
-0.001868615914781247 -0.010797093236064995 -0.0037451116368174544
-0.0015111035539301064 -0.010371026595623811 -0.003934015054255723
-0.001153591193078966 -0.009944959955182627 -0.004034770652651786
-0.0007960785329065199 -0.009518892958024201 -0.0039985901676118365
-0.00043856587273407373 -0.009092825960865775 -0.004187493585050105
-8.105321256162756e-05 -0.00866675896370735 -0.004184342455118894
0.00027645944761081864 -0.008240691966548924 -0.00408082827925682
0.0006339721077832649 -0.007814624969390498 -0.0038967051077634087
0.000991484767955711 -0.007388557972232072 -0.003793192096054553
0.0013489971288068515 -0.0069624913317908885 -0.0036896797828376285
0.0017065097889792976 -0.006536424334632462 -0.00392954098060727
0.0020640224491517427 -0.006110357337474037 -0.0028948537074029437
0.002421535109324189 -0.005684290340315611 -0.0028917025774717322
0.002779047769496635 -0.005258223343157185 -0.0022711949422955504
-0.0051547841933192425 -0.013848116553159954 -0.0018150204559788101
-0.004797271233825491 -0.013422049199284287 -0.0019991437438875432
-0.00443975887297435 -0.012995982558843103 -0.0025005687493830915
-0.004082245913480598 -0.012569915204967435 -0.002569996984675526
-0.003724733552629458 -0.012143848564526251 -0.0032283223699778314
-0.0033672205931357057 -0.011717781210650584 -0.0034124462399631734
-0.003009708232284565 -0.0112917145702094 -0.003596569877117872
-0.0026521958714334245 -0.010865647929768216 -0.0036327501293271776
-0.002294682911939673 -0.01043958057589255 -0.0038168735336512323
-0.0019371705510885322 -0.010013513935451364 -0.0039203865453600875
-0.0015796581902373919 -0.00958744729501018 -0.004421811550855636
-0.0012221455300649457 -0.009161380297851756 -0.0038833552971482273
-0.0008646328698924996 -0.00873531330069333 -0.003952783066779374
-0.0005071202097200534 -0.008309246303534903 -0.004229732789099216
-0.00014960754954760721 -0.007883179306376479 -0.004040829371660947
0.00020790511062483897 -0.007457112309218052 -0.004077009856700896
0.0005654177707972852 -0.007031045312059626 -0.004046739544719457
0.0009229301316484255 -0.006604978671618442 -0.004049890674650668
0.0012804427918208718 -0.006178911674460016 -0.003657295601442456
0.0016379554519933175 -0.005752844677301591 -0.002847031224519014
0.0019954681121657635 -0.005326777680143164 -0.002555784303694963
0.0023529807723382096 -0.004900710682984739 -0.0032141096889972682
0.002710493432510656 -0.004474643685826314 -0.002740890951827168
-0.005223338230983916 -0.01306453653911184 -0.0021685326937586065
-0.004865825870132776 -0.012638469898670656 -0.0025109162088483568
-0.004508312910639024 -0.01221240254479499 -0.002441486809402704
-0.004150800549787884 -0.011786335904353804 -0.003165378468111157
-0.0037932875902941315 -0.011360268550478137 -0.0033542818855494256
-0.0034357752294429905 -0.010934201910036955 -0.003696665400639176
-0.00307826286859185 -0.01050813526959577 -0.003797420067712664
-0.002720749909098098 -0.010082067915720102 -0.003986324183642863
-0.0023632375482469576 -0.009656001275278919 -0.0037093744613230224
-0.0020057251873958175 -0.009229934634837735 -0.004051757510751485
-0.001648212527223371 -0.008803867637679309 -0.0040820278227329245
-0.001290699867050925 -0.008377800640520882 -0.004270931240171193
-0.0009331872068784788 -0.007951733643362458 -0.004301201552152633
-0.0005756745467060326 -0.0075256666462040316 -0.0038414150476455684
-0.00021816188653358642 -0.007099599649045606 -0.004030318465083837
0.00013935077363885976 -0.00667353265188718 -0.003926806151866912
0.0004968631344900001 -0.006247466011445996 -0.0037426822818815704
0.0008543757946624454 -0.005821399014287569 -0.0032412584405392404
0.0012118884548348917 -0.005395332017129144 -0.0029173225630074735
0.0015694011150073379 -0.004969265019970718 -0.001967464573681354
0.001926913775179784 -0.004543198022812292 -0.0013091389555484052
-0.006006918009277473 -0.013133091382475714 -0.002224435796961188
-0.005649405049783721 -0.012707024028600047 -0.0021941666491329666
-0.0052918926889325806 -0.012280957388158863 -0.0024711152072995897
-0.004934379729438829 -0.011854890034283196 -0.002930901478976011
-0.004576867368587688 -0.011428823393842012 -0.0032548373565077777
-0.0042193544090939365 -0.011002756039966345 -0.003531787078827619
-0.003861842048242796 -0.01057668939952516 -0.003635299392044544
-0.0035043296873916554 -0.010150622759083976 -0.0037388135679066177
-0.0031468167278979036 -0.009724555405208309 -0.0038423258811235424
-0.002789304367046763 -0.009298488764767125 -0.003911754116415977
-0.002431792006195623 -0.00887242212432594 -0.003981183748692273
-0.0020742793460231767 -0.008446355127167515 -0.004084696061909198
-0.0017167666858507304 -0.008020288130009089 -0.004019995685666799
-0.0013592540256782842 -0.007594221132850664 -0.0035129419993609186
-0.001001741365505838 -0.007168154135692238 -0.004133449867367744
-0.0006442287053333918 -0.006742087138533812 -0.004103179555386304
-0.00028671604516094563 -0.0063160201413753865 -0.004038479179143905
7.079631569019473e-05 -0.005889953500934202 -0.003973778337240218
0.00042830897586264093 -0.005463886503775777 -0.003943508025258779
0.0007858216360350871 -0.005037819506617351 -0.0027927458286285396
0.0011433342962075329 -0.004611752509458925 -0.0016419824678450818
0.001500846956379979 -0.0041856855123004995 -0.0017114109359681602
-0.0060754720469421465 -0.012349511368427601 -0.00218458822928369
-0.005717959686091007 -0.011923444727986418 -0.002577183302491903
-0.005360446726597254 -0.011497377374110749 -0.002919566351920366
-0.0050029343657461145 -0.011071310733669565 -0.0029842669609934087
-0.004645421406252362 -0.010645243379793898 -0.0033768620342016216
-0.004287909045401221 -0.010219176739352714 -0.003719245549291372
-0.003930396684550082 -0.00979311009891153 -0.00353512167930603
-0.0035728837250563294 -0.009367042745035862 -0.003724025329574942
-0.003215371364205189 -0.008940976104594678 -0.003912928979843855
-0.0028578590033540487 -0.008514909464153494 -0.0041018323972821236
-0.0025003463431816026 -0.008088842466995068 -0.00416653323918581
-0.0021428336830091564 -0.007662775469836643 -0.003982409369200468
-0.00178532102283671 -0.007236708472678217 -0.004171312786638737
-0.0014278083626642639 -0.006810641475519792 -0.004101884551346302
-0.0010702957024918177 -0.006384574478361366 -0.004290788434445858
-0.0007127830423193715 -0.00595850748120294 -0.0036702803336083885
-0.0003552706814682311 -0.005532440840761756 -0.0033933322411030527
2.2419787042150868e-06 -0.00510637384360333 -0.0031163825187832113
0.00035975463887666126 -0.004680306846444905 -0.00228739995509386
0.0007172672990491075 -0.004254239849286479 -0.0030399849638342853
-0.006501539044100572 -0.011991998708255154 -0.002213240601122379
-0.006144026683249432 -0.01156593206781397 -0.0027146646752953525
-0.00578651372375568 -0.011139864713938304 -0.002991614397615194
-0.00542900136290454 -0.01071379807349712 -0.003315548645332455
-0.005071488403410787 -0.010287730719621453 -0.0034190625883638854
-0.004713976042559647 -0.009861664079180267 -0.0034884905908256765
-0.004356463681708507 -0.009435597438739084 -0.003718709340319037
-0.003998950722214754 -0.009009530084863417 -0.0037881375756114717
-0.0036414383613636143 -0.008583463444422233 -0.004018356092274189
-0.003283926000512474 -0.008157396803981047 -0.003988086245954037
-0.002926413340340028 -0.007731329806822623 -0.004057514946907759
-0.002568900680167582 -0.007305262809664197 -0.004060667008161545
-0.0022113880199951352 -0.006879195812505771 -0.004164180252701044
-0.0018538753598226893 -0.006453128815347346 -0.003975275903940201
-0.0014963626996502431 -0.00602706181818892 -0.0040787891484797
-0.001138850039477797 -0.005600994821030494 -0.0038898847997188564
-0.0007813376786266565 -0.00517492818058931 -0.0036500229034572835
-0.0004238250184542103 -0.004748861183430884 -0.0032134212087839838
-6.631235828176413e-05 -0.004322794186272459 -0.0021927205380052324
-0.006927605862900378 -0.011634486197743361 -0.001420237007550895
-0.006570093502049237 -0.011208419557302177 -0.0025709995534270997
-0.0062125805425554854 -0.01078235220342651 -0.0029635946266353126
-0.005855068181704345 -0.010356285562985327 -0.0032034576870501037
-0.005497555222210592 -0.00993021820910966 -0.0033923611044883724
-0.0051400428613594526 -0.009504151568668474 -0.003581264521926641
-0.004782530500508312 -0.00907808492822729 -0.0037701679393649097
-0.00442501754101456 -0.008652017574351623 -0.003870923304930329
-0.00406750518016342 -0.00822595093391044 -0.0039716786704957485
-0.003709992819312279 -0.007799884293469255 -0.0040019480511546135
-0.003352480159139833 -0.0073738172963108296 -0.00424181018024683
-0.002994967498967387 -0.006947750299152403 -0.004205629695206881
-0.0026374548387949406 -0.006521683301993978 -0.004102117381989956
-0.0022799421786224945 -0.0060956163048355525 -0.004065937362611294
-0.0019224295184500483 -0.005669549307677126 -0.0037889885716140266
-0.0015649168582776022 -0.005243482310518701 -0.003512038849294185
-0.0012074044974264616 -0.004817415670077517 -0.002591431606560945
-0.0008498918372540155 -0.004391348672919091 -0.0022674961946904655
-0.007711185819552555 -0.011703040891446583 -0.0016565747791901229
-0.007353672860058803 -0.011276973537570916 -0.0018406982999294994
-0.006996160499207663 -0.010850906897129732 -0.0025708170142024755
-0.006638647539713911 -0.010424839543254065 -0.0031128940172493458
-0.00628113517886277 -0.00999877290281288 -0.003297017654404044
-0.0059236222193690185 -0.009572705548937212 -0.003400531131774187
-0.005566109858517878 -0.009146638908496029 -0.003584655001759529
-0.005208597497666737 -0.008720572268054845 -0.003955448511987925
-0.004851084538172986 -0.008294504914179178 -0.003854693379253149
-0.004493572177321845 -0.007868438273737993 -0.00378999300301075
-0.0041360598164707045 -0.007442371633296809 -0.004020211286842823
-0.0037785471562982588 -0.007016304636138383 -0.0040563903748989105
-0.0034210344961258126 -0.006590237638979957 -0.004159904550760984
-0.003063521835953366 -0.006164170641821532 -0.0039710006676614285
-0.00270600917578092 -0.005738103644663106 -0.004007179755717516
-0.0023484965156084737 -0.00531203664750468 -0.003942479379475117
-0.0019909838554360276 -0.004885969650346255 -0.0037535757292062044
-0.0016334714945848872 -0.004459903009905071 -0.0033609806559979916
-0.0012759588344124413 -0.004033836012746645 -0.0024330175947397947
-0.0009184461742399951 -0.003607769015588219 -0.001215409720316529
-0.0077797398572172285 -0.010919460877398469 -0.001746737747453153
-0.007422227496366089 -0.010493394236957285 -0.0023682776372879744
-0.007064714536872336 -0.010067326883081618 -0.0028753315564244986
-0.006707202176021196 -0.009641260242640434 -0.003217714838683605
-0.006349689216527444 -0.009215192888764767 -0.0034066184889525175
-0.005992176855676303 -0.008789126248323582 -0.003337190020829439
-0.005634664494825164 -0.008363059607882398 -0.00377379241399467
-0.005277151535331411 -0.007936992254006731 -0.003962696995586157
-0.0049196391744802705 -0.007510925613565547 -0.0037324787117540836
-0.004562126813629131 -0.007084858973124363 -0.0042395321652293205
-0.004204614153456685 -0.006658791975965937 -0.00426980247721076
-0.003847101493284238 -0.006232724978807511 -0.003768377238884568
-0.003489588833111792 -0.005806657981649086 -0.003957281820476055
-0.0031320761729393457 -0.00538059098449066 -0.0036803320981562138
-0.0027745635127668995 -0.004954523987332234 -0.0036771795712411404
-0.0024170508525944534 -0.0045284569901738085 -0.00344696082174778
-0.0020595384917433133 -0.004102390349732624 -0.002586724003776908
-0.0017020258315708669 -0.0036763233525741986 -0.0015520364977419374
-0.00856331976927975 -0.010988015608516854 -0.001728135161101818
-0.008205806809786 -0.010561948254641186 -0.0015392317436635494
-0.007848294448934858 -0.010135881614200003 -0.0026557918172329664
-0.007490781489441107 -0.009709814260324336 -0.003197868587449193
-0.007133269128589966 -0.00928374761988315 -0.00320102134719491
-0.006775756169096214 -0.008857680266007483 -0.003385145217180252
-0.006418243808245074 -0.0084316136255663 -0.003569268388673663
-0.006060731447393934 -0.008005546985125116 -0.0035724202170968056
-0.0057032184879001815 -0.007579479631249448 -0.004302538465708494
-0.005345706127049041 -0.007153412990808264 -0.00379548454657197
-0.004988193766197901 -0.0067273463503670795 -0.0037986375391483307
-0.004630681106025455 -0.006301279353208654 -0.00412257295101881
-0.004273168445853009 -0.005875212356050229 -0.003933669533580542
-0.003915655785680562 -0.005449145358891802 -0.004304463043808937
-0.003558143125508116 -0.005023078361733377 -0.003911867737770081
-0.00320063046533567 -0.004597011364574952 -0.003881597425788641
-0.002843117805163224 -0.004170944367416525 -0.0033431414049118757
-0.0024856054443120838 -0.0037448777269753412 -0.0024745280388742685
-0.0021280927841396376 -0.0033188107298169154 -0.0015763863921165466
-0.0017705801239671912 -0.00289274373265849 -0.0015116860158741474
-0.00863187376235477 -0.010204435631883904 -0.0018594074063003063
-0.00827436140150363 -0.009778368991442719 -0.0023664613254368305
-0.007916848442009877 -0.009352301637567052 -0.003176725935190916
-0.007559336081158737 -0.008926234997125868 -0.003173574572429061
-0.007201823121664985 -0.0085001676432502 -0.0032038444187492132
-0.006844310760813844 -0.008074101002809017 -0.0033045995514839888
-0.006486798399962705 -0.0076480343623678325 -0.003741201478987932
-0.006129285440468952 -0.0072219670084921654 -0.00403244886547327
-0.0057717730796178115 -0.006795900368050981 -0.003996268380433321
-0.005414260718766672 -0.006369833727609797 -0.003960088361054659
-0.005056748058594226 -0.005943766730451371 -0.003775964956730604
-0.0046992353984217795 -0.0055176997332929455 -0.004015827551484108
-0.004341722738249333 -0.005091632736134519 -0.003738877596333623
-0.003984210078076887 -0.004665565738976094 -0.0037026978097856045
-0.0036266974179044406 -0.0042394987418176685 -0.0032429113052785397
-0.0032691847577319944 -0.0038134317446592426 -0.0024789210874587297
-0.0029116723968808543 -0.003387365104218058 -0.0015290635637938976
-0.002554159736708408 -0.0029612981070596327 -0.001158268889412284
-0.009415453719006947 -0.010272990325587124 -0.0020264298655092716
-0.009057940759513196 -0.009846922971711457 -0.0021299421787261963
-0.008700428398662054 -0.009420856331270273 -0.002750449813902378
-0.008342915439168304 -0.008994788977394606 -0.003074385691434145
-0.007985403078317162 -0.00856872233695342 -0.0031438134610652924
-0.00762789011882341 -0.008142654983077754 -0.003247326472774148
-0.007270377757972271 -0.00771658834263657 -0.0034314501099288464
-0.00691286539712113 -0.007290521702195386 -0.0037084000650793314
-0.006555352437627378 -0.006864454348319719 -0.003938618116080761
-0.006197840076776238 -0.006438387707878535 -0.003908347804099321
-0.005840327715925097 -0.00601232106743735 -0.0038780781906098127
-0.005482815055752651 -0.005586254070278925 -0.0039142584428191185
-0.005125302395580205 -0.005160187073120499 -0.003883988130837679
-0.004767789735407759 -0.004734120075962073 -0.0038537178188562393
-0.0044102770752353125 -0.004308053078803648 -0.004682700615376234
-0.004052764415062866 -0.003881986081645222 -0.0035319370217621326
-0.0036952517548904202 -0.0034559190844867965 -0.0025429062079638243
-0.0033377393940392797 -0.003029852444045612 -0.001614942797459662
-0.0029802267338668335 -0.0026037854468871865 -0.0019388783257454634
-0.00948400766749231 -0.009489410386369338 -0.0021540087182074785
-0.009126495306641171 -0.009063343745928154 -0.002496392233297229
-0.008768982347147418 -0.008637276392052487 -0.003248977242037654
-0.008411469986296279 -0.008211209751611302 -0.0027069002389907837
-0.008053957026802526 -0.0077851423977356345 -0.0031801185104995966
-0.007696444665951385 -0.007359075757294451 -0.0029499002266675234
-0.007338932305100246 -0.006933009116853266 -0.0035714400000870228
-0.006981419345606493 -0.006506941762977599 -0.0038113018963485956
-0.0066239069847553525 -0.006080875122536415 -0.0037751225754618645
-0.006266394623904213 -0.005654808482095231 -0.0037056931760162115
-0.005908881963731767 -0.005228741484936805 -0.003636265406385064
-0.0055513693035593205 -0.004802674487778379 -0.003666534088551998
-0.005193856643386874 -0.004376607490619954 -0.003295740345492959
-0.004836343983214428 -0.003950540493461528 -0.0031922280322760344
-0.004478831323041982 -0.003524473496303102 -0.0025717203970998526
-0.004121318662869536 -0.0030984064991446767 -0.001621861942112446
-0.0037638063020183953 -0.0026723398587034926 -0.0011620754376053812
-0.010267587534965178 -0.009557965154902886 -0.0020406090188771486
-0.009910074575471427 -0.009131897801027218 -0.002364544430747628
-0.009552562214620286 -0.008705831160586033 -0.0027353379409760237
-0.009195049255126533 -0.008279763806710366 -0.0030592738185077906
-0.008837536894275393 -0.007853697166269182 -0.0030954540707170963
-0.00848002393478164 -0.007427629812393515 -0.0031648820731788874
-0.008122511573930501 -0.0070015631719523306 -0.0034418317954987288
-0.0077649992130793604 -0.006575496531511147 -0.003545345738530159
-0.007407486253585609 -0.00614942917763548 -0.003356441156938672
-0.007049973892734468 -0.005723362537194295 -0.003727235831320286
-0.0066924615318833276 -0.0052972958967531115 -0.003696965519338846
-0.006334948871710881 -0.004871228899594685 -0.003354582004249096
-0.005977436211538435 -0.00444516190243626 -0.003725375747308135
-0.005619923551365989 -0.004019094905277834 -0.003434128826484084
-0.005262410891193543 -0.0035930279081194086 -0.002838777145370841
-0.004904898231021097 -0.0031669609109609828 -0.003759384388104081
-0.004547385570848651 -0.002740893913802557 -0.005192809738218784
-0.004189873209997511 -0.002314827273361373 -0.0012026039185002448
-0.010336141483450542 -0.008774385215685097 -0.002232355531305075
-0.0099786291225994 -0.008348318575243914 -0.002624951303005219
-0.00962111616310565 -0.007922251221368247 -0.0029673341196030383
-0.009263603802254508 -0.007496184580927063 -0.0031562391668558125
-0.008906090842760757 -0.007070117227051395 -0.002972115529701114
-0.008548578481909616 -0.006644050586610211 -0.0034453335683792834
-0.008191066121058476 -0.006217983946169027 -0.0035460889339447026
-0.007833553161564723 -0.00579191659229336 -0.003476659301668406
-0.007476040800713584 -0.005365849951852176 -0.0035069296136498456
-0.007118528439862443 -0.004939783311410991 -0.003571630455553532
-0.006761015779689997 -0.004513716314252566 -0.003200836712494493
-0.006403503119517551 -0.00408764931709414 -0.0032311056274920706
-0.006045990459345105 -0.0036615823199357142 -0.0031616776250302796
-0.0056884777991726585 -0.003235515322777289 -0.002790884114801884
-0.005330965139000212 -0.002809448325618863 -0.0037490017712116246
-0.004973452478827766 -0.0023833813284604368 -0.0011443006806075575
-0.011119721440102719 -0.00884293990938832 -0.0020942890550941233
-0.010762208480608966 -0.008416872555512652 -0.002278411760926247
-0.010404696119757827 -0.007990805915071468 -0.0027381991967558865
-0.010047183160264074 -0.0075647385611958004 -0.0029223219025880103
-0.009689670799412934 -0.007138671920754617 -0.003382109105587006
-0.009332157839919182 -0.006712604566878949 -0.0031422465108335022
-0.008974645479068042 -0.006286537926437765 -0.003326369915157557
-0.008617133118216902 -0.0058604712859965805 -0.0034298829268664126
-0.00825962015872315 -0.005434403932120913 -0.0033996135462075476
-0.00790210779787201 -0.00500833729167973 -0.0032107091974467043
-0.007544595437020869 -0.004582270651238545 -0.0035346443764865403
-0.007187082776848422 -0.00415620365408012 -0.003433889709413052
-0.006829570116675976 -0.003730136656921694 -0.003142642322927714
-0.00647205745650353 -0.003304069659763268 -0.00311237364076078
-0.006114544796331084 -0.0028780026626048427 -0.002675770083442331
-0.005757032136158638 -0.002451935665446417 -0.0018364357529208068
-0.005399519475986192 -0.002025868668287991 -0.0017717350274324421
-0.011188275477767393 -0.008059359895340205 -0.0022035031579434876
-0.010830763116916253 -0.007633293254899021 -0.002545885974541307
-0.0104732501574225 -0.007207225901023354 -0.0028882694896310572
-0.01011573779657136 -0.00678115926058217 -0.002611320931464434
-0.009758224837077608 -0.006355091906706503 -0.0029025683179497723
-0.009400712476226468 -0.005929025266265319 -0.002967268927022815
-0.009043200115375327 -0.005502958625824134 -0.003359864000231028
-0.008685687155881576 -0.005076891271948467 -0.0034245641436427836
-0.008328174795030435 -0.004650824631507283 -0.0033551354426890616
-0.007970662434179295 -0.004224757991066099 -0.003646382130682469
-0.007613149774006849 -0.003798690993907673 -0.0031865958590060477
-0.0072556371138344025 -0.0033726239967492473 -0.0032168661709874873
-0.006898124453661956 -0.002946556999590822 -0.0027570796664804225
-0.00654061179348951 -0.002520490002432396 -0.0019930894486606125
-0.011971855434419571 -0.008127914589043427 -0.0019371708622202282
-0.011614342474925819 -0.00770184723516776 -0.002261106157675386
-0.01125683011407468 -0.007275780594726575 -0.002631899900734425
-0.010899317154580927 -0.006849713240850908 -0.0027354138437658553
-0.010541804793729787 -0.0064236466004097235 -0.0029195377137511973
-0.010184291834236034 -0.0059975792465340565 -0.0031036613509058957
-0.009826779473384893 -0.005571512606092873 -0.003207173896953464
-0.009469267112533753 -0.005145445965651688 -0.0033912975341081624
-0.00911175415304 -0.004719378611776021 -0.0035754214040935044
-0.00875424179218886 -0.004293311971334837 -0.0038523711264133458
-0.00839672943133772 -0.0038672453308936532 -0.0035611237399280076
-0.008039216771165274 -0.003441178333735227 -0.0034964231308549647
-0.007681704110992828 -0.003015111336576801 -0.003205175278708339
-0.007324191450820382 -0.0025890443394183758 -0.002812581136822701
-0.006966678790647936 -0.00216297734225995 -0.0022741244174540047
-0.0066091661304754894 -0.0017369103451015243 -0.00146385922562331
-0.011682897111233104 -0.006918267934554129 -0.002840577391907573
-0.011325384151739353 -0.006492200580678462 -0.002737064613029361
-0.010967871790888211 -0.006066133940237277 -0.00292596803046763
-0.01061035883139446 -0.00564006658636161 -0.0029906686395406727
-0.010252846470543319 -0.005213999945920427 -0.003091424005106092
-0.00989533410969218 -0.004787933305479242 -0.003382670693099499
-0.009537821150198427 -0.004361865951603575 -0.003622532589361072
-0.009180308789347285 -0.003935799311162391 -0.0036528029013425116
-0.008822796428496146 -0.003509732670721207 -0.003616622649133206
-0.0084652837683237 -0.003083665673562781 -0.0030348582658916716
-0.008107771108151253 -0.002657598676404355 -0.0028507346287369732
-0.007750258447978808 -0.0022315316792459296 -0.0024799411185085778
-0.007392745787806362 -0.0018054646820875038 -0.001715950318612159
-0.01246647646924267 -0.006986821914822867 -0.002260838402435184
-0.01210896410839153 -0.006560755274381683 -0.002584774279966951
-0.011751451148897777 -0.006134687920506015 -0.002768897451460362
-0.011393938788046638 -0.005708621280064831 -0.002805076772347093
-0.011036425828552885 -0.005282553926189164 -0.002841257024556399
-0.010678913467701745 -0.00485648728574798 -0.0032120516989380126
-0.010321401106850606 -0.004430420645306796 -0.0033155644778162245
-0.009963888147356851 -0.004004353291431129 -0.003639499889686704
-0.009606375786505712 -0.003578286650989945 -0.0036092295777052645
-0.009248863425654572 -0.00315222001054876 -0.003420326160266996
-0.008891350765482127 -0.0027261530133903342 -0.003027731087058783
-0.00853383810530968 -0.0023000860162319084 -0.0029974607750773434
-0.008176325445137234 -0.0018740190190734828 -0.002429688116535545
-0.007818812784964787 -0.0014479520219150572 -0.0021384407300502066
-0.007461300124792341 -0.0010218850247566316 -0.001357078203000129
-0.012535030748832714 -0.006203242913530542 -0.002221026225015522
-0.012177517789338961 -0.005777175559654875 -0.0027594813145697126
-0.011820005428487821 -0.005351108919213691 -0.002388687804341317
-0.011462492468994069 -0.004925041565338024 -0.00245338841341436
-0.011104980108142929 -0.00449897492489684 -0.002693250309675933
-0.01074746774729179 -0.004072908284455655 -0.0032317065633833417
-0.010389954787798037 -0.0036468409305799882 -0.0032619761768728503
-0.010032442426946897 -0.003220774290138804 -0.002985026454553009
-0.009674930066095756 -0.00279470764969762 -0.0029155986849218616
-0.00931741740592331 -0.002368640652539194 -0.0027314748149365195
-0.008959904745750863 -0.0019425736553807685 -0.0028322301805019387
-0.008602392085578418 -0.0015165066582223427 -0.0022117220796644696
-0.008244879425405971 -0.001090439661063917 -0.002502969466149808
-0.01296109774599114 -0.005845730253358096 -0.0020574161317199477
-0.012603584786497387 -0.005419662899482428 -0.002517202403396369
-0.012246072425646248 -0.0049935962590412445 -0.0024869334883987912
-0.011888559466152495 -0.004567528905165577 -0.00242223171517253
-0.011531047105301355 -0.004141462264724393 -0.0024584122002124795
-0.011173534744450216 -0.0037153956242832087 -0.0026425353717058906
-0.010816021784956463 -0.0032893282704075416 -0.0026456881314516076
-0.010458509424105323 -0.0028632616299663575 -0.0026488394942134627
-0.010100997063254182 -0.0024371949895251733 -0.0026850197464227685
-0.009743484403081737 -0.0020111279923667475 -0.0027211999986320743
-0.00938597174290929 -0.001585060995208322 -0.0026564993895590314
-0.009028459082736844 -0.001158993998049896 -0.002692679641768337
-0.008670946422564397 -0.0007329270008914705 -0.001968787983059884
-0.008313433762391952 -0.00030686000373304474 -0.0014010152081027633
-0.013029651783655814 -0.005062150239309982 -0.0019055044976994404
-0.012672139422804674 -0.004636083598868798 -0.0024125585332512864
-0.012314626463310921 -0.004210016244993131 -0.0018307936843484649
-0.01195711410245978 -0.0037839496045519467 -0.0018276413902640351
-0.01159960174160864 -0.0033578829641107625 -0.0017241283785551795
-0.011242088782114888 -0.0029318156102350955 -0.002776852110400797
-0.010884576421263748 -0.0025057489697939113 -0.002012860495597125
-0.010527064060412608 -0.002079682329352727 -0.0022527233231812724
-0.010169551400240161 -0.0016536153321943014 -0.0023534786887466916
-0.009812038740067716 -0.0012275483350358757 -0.0024181792978197345
-0.009454526079895269 -0.00080148133787745 -0.0023146653547883042
-0.009097013419722823 -0.0003754143407190243 -0.0016941588837653407
-0.008739500759550376 5.065265643940139e-05 -0.0015906450571492323
-0.008381988099377931 0.0004767196535978271 -0.0012667105766013273
-0.013098206419963098 -0.004278570938696352 -0.0019897210877388724
-0.012740693460469346 -0.0038525035848206847 -0.0017498593078926214
-0.012383181099618206 -0.0034264369443795005 -0.0017195889959111818
-0.012025668738767066 -0.0030003703039383164 -0.0017227402422577151
-0.011668155779273314 -0.0025743029500626493 -0.001482878578826786
-0.011310643418422174 -0.002148236309621465 -0.0019426650833338508
-0.010953131057571033 -0.001722169669180281 -0.002126788720488549
-0.010595618397398587 -0.0012961026720218552 -0.0023570070043206224
-0.01023810573722614 -0.0008700356748634296 -0.0023601583670824775
-0.009880593077053695 -0.00044396867770500387 -0.0023963386192917832
-0.009523080416881248 -1.790168054657815e-05 -0.0021564767230302104
-0.009165567756708803 0.00040816531661184757 -0.002126206876710058
-0.008808055096536356 0.0008342323137702733 -0.002162387128919364
-0.008450542735685216 0.0012602989542114574 -0.002165538491681219
-0.008093030075512769 0.001686365951369883 -0.002100837882608176
-0.007735517415340323 0.002112432948528309 -0.0015054866671562203
-0.007378004755167877 0.0025384999456867347 -0.001609000377357007
-0.005947954151893255 0.004242767889730782 -0.0013715949608013043
-0.005590441543166659 0.004668834825578432 -0.0013747462071478376
-0.0052329289437938525 0.005094901750278668 -0.0014441753737628469
-0.004875416283621406 0.005520968747437093 -0.001628299127332867
-0.004517903698279287 0.005947035655416209 -0.0013370520900934943
-0.004160391112937167 0.006373102563395325 -0.0011481472756713637
-0.0034453659422529277 0.007225236379353555 -0.0011433673789724716
-0.0030878532820804816 0.00765130337651198 -0.0011130972998216757
-0.002015315451223796 0.008929504189628637 -0.0017732972046360382
-0.0016578027910513495 0.009355571186787063 -0.002097232500091196
-0.0013002901308789034 0.009781638183945488 -0.0022007455118000516
-0.0009427774707064572 0.010207705181103914 -0.0017641431186348209
-0.00022775244968287065 0.011059838818703524 -0.001837676973082126
-0.012809248096776632 -0.0030689242842070544 -0.001181845786049963
-0.012451735735925493 -0.0026428576437658702 -0.00111241766717285
-0.01209422277643174 -0.002216790289890203 -0.001177118276245893
-0.0117367104155806 -0.001790723649449019 -0.0013660218100994834
-0.011379198054729459 -0.0013646570090078349 -0.0018026249017566451
-0.011021685394557014 -0.000938590011849409 -0.0016991111915558585
-0.010664172734384567 -0.0005125230146909834 -0.0021723294630646714
-0.010306660074212121 -8.64560175325577e-05 -0.002793869236484171
-0.009949147414039674 0.000339610979625868 -0.002469934057444335
-0.009591634753867229 0.0007656779767842937 -0.002570688724517823
-0.009234122093694782 0.0011917449739427194 -0.002759592607617379
-0.008876609732843642 0.0016178116143839036 -0.0027564410120248803
-0.008519097072671195 0.002043878611542329 -0.0026529275346547374
-0.00816158441249875 0.002469945608700755 -0.002583499066531659
-0.007804071752326303 0.002896012605859181 -0.0029258825816214093
-0.007446559092153857 0.0033220796030176063 -0.0019190526800230154
-0.007089046431981411 0.003748146600176032 -0.0023556554224342116
-0.0067315337718089644 0.0041742135973344575 -0.0020787057001143703
-0.006374021149051681 0.004600280549903228 -0.0025519244372844705
-0.006016508540325085 0.005026347485750878 -0.0025487716775387534
-0.005658995940952279 0.005452414410451114 -0.002649526810273529
-0.005301483280779833 0.0058784814076095395 -0.0026797971222549686
-0.004943970695437713 0.006304548315588655 -0.002643616870045663
-0.004586458110095593 0.006730615223567771 -0.002540103858336807
-0.004228945449923147 0.007156682220726196 -0.0023098858073353776
-0.003871432939411354 0.007582749039526001 -0.002601132495328785
-0.003513920279238908 0.008008816036684427 -0.002790037542581559
-0.0031564077687271145 0.008434882855484232 -0.00216952944174409
-0.0027988951085546683 0.008860949852642658 -0.002764881122857333
-0.002441382448382222 0.009287016849801082 -0.0028656357899308213
-0.002083869788209776 0.009713083846959509 -0.0027962063904851684
-0.0017263571280373296 0.010139150844117935 -0.0025192571338266143
-0.0013688444678648835 0.01056521784127636 -0.002242308575659991
-0.0010113318076924373 0.010991284838434786 -0.00196535885334015
-0.0006538194468412969 0.01141735147887597 -0.0019291784847155222
-0.00029630648734754495 0.011843418832751636 -0.0016989599680528053
6.120647214620704e-05 0.012269486186627305 -0.0013750254875049004
-0.012520289416872924 -0.0018592779290390635 -0.0012939160224050294
-0.012162777056021784 -0.0014332112885978793 -0.001330096391029657
-0.011805264695170643 -0.0010071446481566952 -0.0017008899012580525
-0.011447752034998197 -0.0005810776509982693 -0.0018850136548280727
-0.01109023937482575 -0.00015501065383984367 -0.0021152319386601457
-0.010732726714653305 0.000271056343318582 -0.002345449524000288
-0.010375214054480858 0.0006971233404770077 -0.0026693849358707675
-0.010017701394308413 0.0011231903376354333 -0.003040178446099163
-0.009660188734135966 0.0015492573347938592 -0.003224302316084505
-0.009302676373284826 0.001975323975235043 -0.0034545210655778655
-0.008945163713112379 0.002401390972393469 -0.00355803337879479
-0.008587651052939934 0.0028274579695518947 -0.003527764230966569
-0.008230138392767487 0.0032535249667103206 -0.0034630640875548133
-0.007872625732595041 0.003679591963868746 -0.0034662154503166684
-0.007515113072422594 0.004105658961027172 -0.0035356448497623214
-0.007157600412250148 0.004531725958185597 -0.0036050726193934688
-0.006800087789492865 0.004957792910754368 -0.003540372475981713
-0.006442575180766269 0.005383859846602018 -0.003249125089496375
-0.0060850625813934625 0.005809926771302254 -0.0033185535576194533
-0.005727549921221016 0.006235993768460679 -0.003354733809828759
-0.005370037335878897 0.006662060676439795 -0.0033244634978473195
-0.005012524750536777 0.0070881275844189105 -0.0032597628887742766
-0.004655012090364331 0.007514194581577336 -0.0032959431409835824
-0.004297499579852537 0.00794026140037714 -0.003231242299079896
-0.003939986919680091 0.008366328397535566 -0.0032009719870984563
-0.003582474409168298 0.008792395216335371 -0.003431190736591817
-0.003224961748995852 0.009218462213493797 -0.0031399435829371223
-0.002867449088823406 0.009644529210652222 -0.00310967373661697
-0.0025099364286509597 0.010070596207810648 -0.002920769853517414
-0.0021524237684785136 0.010496663204969075 -0.002528174780309201
-0.0017949111083060672 0.010922730202127499 -0.002339271130040289
-0.001437398448133621 0.011348797199285925 -0.001946676173247398
-0.0010798860872824807 0.011774863839727109 -0.0017577726393938075
-0.0007223731277887286 0.012200931193602776 -0.0015179096953943383
-0.0003648601682949767 0.012626998547478445 -0.001329006045125426
-0.012588844409897451 -0.0010756983291041267 -0.001174433040432633
-0.01223133204904631 -0.0006496316886629424 -0.0014656800776720058
-0.011873819388873864 -0.00022356469150451678 -0.001705541741102935
-0.011516306728701417 0.00020250230565390894 -0.0019454046851024042
-0.011158794068528972 0.0006285693028123346 -0.002134308218955995
-0.010801281408356525 0.0010546362999707603 -0.0028054437134414924
-0.01044376874818408 0.001480703297129186 -0.0028701443225145353
-0.010086256088011633 0.0019067702942876118 -0.003594035515561701
-0.009728743727160493 0.0023328369347287957 -0.0032232408411800874
-0.009371231066988046 0.0027589039318872215 -0.004121383652091027
-0.0090137184068156 0.0031849709290456473 -0.004412631038576365
-0.008656205746643154 0.003611037926204073 -0.0039528445340693006
-0.008298693086470708 0.004037104923362499 -0.003983114380389453
-0.007941180426298261 0.004463171920520924 -0.003913685679435731
-0.007583667766125815 0.00488923891767935 -0.003910533618181945
-0.007226155143368532 0.00531530587024812 -0.00394080299884081
-0.006868642534641936 0.005741372806095771 -0.0030500465072691454
-0.0065111299352691296 0.006167439730796006 -0.0036967322230339063
-0.006153617275096683 0.006593506727954432 -0.003693580394610764
-0.005796104689754564 0.0070195736359335474 -0.0036241514608263982
-0.005438592104412444 0.007445640543912663 -0.0035206384491175426
-0.005081079444239998 0.007871707541071088 -0.003517486155033113
-0.004723566933728204 0.008297774359870893 -0.0035821869969367994
-0.004366054273555758 0.008723841357029319 -0.0034786739852279438
-0.004008541763043965 0.009149908175829124 -0.003442493733018638
-0.003651029102871519 0.00957597517298755 -0.0031185594853013767
-0.003293516442699073 0.010002042170145975 -0.003015045309439303
-0.002936003782526627 0.010428109167304401 -0.002784828189760448
-0.0025784911223541806 0.010854176164462827 -0.002460892312228681
-0.0022209784621817345 0.011280243161621252 -0.0021839425899088396
-0.001863465802009288 0.011706310158779678 -0.0019537243060767664
-0.0015059534411581478 0.012132376799220862 -0.001582930563017727
-0.013014911763773118 -0.0007181853696103748 -0.0011304916115477692
-0.012657399402921979 -0.0002921187291691907 -0.0013146153651177894
-0.012299886742749531 0.00013394826798923497 -0.0014181280275806795
-0.011942374082577086 0.0005600152651476606 -0.0018779145320877444
-0.01158486142240464 0.0009860822623060865 -0.0020620378199964775
-0.011227348762232194 0.001412149259464512 -0.002982644829899074
-0.010869836102059747 0.0018382162566229377 -0.003603152930736543
-0.010512323441887302 0.0022642832537813633 -0.003927088342607022
-0.01015481108103616 0.0026903498942225474 -0.004157307092100383
-0.009797298420863715 0.0031164168913809733 -0.004387524444609881
-0.009439785760691268 0.003542483888539399 -0.004286769311875106
-0.009082273100518823 0.0039685508856978245 -0.004289921838790179
-0.008724760440346375 0.004394617882856251 -0.004189166706055404
-0.00836724778017393 0.004820684880014676 -0.004158896859735251
-0.008009735120001483 0.0052467518771731015 -0.004128627479076386
-0.0076522224972442 0.005672818829741872 -0.0040639266371727
-0.007294709888517604 0.006098885765589522 -0.0037215421907603754
-0.0069371972891447975 0.006524952690289758 -0.0038250563666224493
-0.006579684628972351 0.006951019687448184 -0.00372430100105703
-0.006222172043630232 0.007377086595427299 -0.0036596008576452745
-0.005864659458288112 0.007803153503406415 -0.0034706969745457185
-0.005507146798115666 0.00822922050056484 -0.0044492725282907495
-0.005149634287603872 0.008655287319364645 -0.0033641876652836813
-0.004792121627431426 0.009081354316523071 -0.0032994868233799947
-0.004434609116919633 0.009507421135322876 -0.0031105824746191515
-0.004077096456747187 0.009933488132481301 -0.002921678824350239
-0.003719583796574741 0.010359555129639727 -0.0026818169280886663
-0.0033620711364022947 0.010785622126798153 -0.0024929135106503976
-0.0030045584762298486 0.011211689123956578 -0.0034427705686539425
-0.0026470458160574024 0.011637756121115004 -0.002121570520102979
-0.002289533155884956 0.01206382311827343 -0.0015831140335649263
-0.0019320207950338157 0.012489889758714614 -0.0011905189603567134
-0.01236844072301827 0.0009175276259988012 -0.001258581294678153
-0.012010928062845823 0.001343594623157227 -0.0015498283319175256
-0.011653415402673378 0.0017696616203156526 -0.0023600941058248294
-0.01129590274250093 0.0021957286174740785 -0.0032287074718624366
-0.010938390082328485 0.002621795614632504 -0.0035710905212908996
-0.010580877721477344 0.003047862255073688 -0.003913473803550006
-0.010223365061304899 0.003473929252232114 -0.004255857318639756
-0.009865852401132452 0.0038999962493905397 -0.004444760736078025
-0.009508339740960006 0.004326063246548965 -0.004120825324207545
-0.00915082708078756 0.004752130243707391 -0.004221580456942321
-0.008793314420615114 0.005178197240865817 -0.004118067678064109
-0.008435801760442667 0.005604264238024242 -0.003933944273740054
-0.008078289137685385 0.006030331190593013 -0.003930791746824981
-0.007720776528958788 0.006456398126440663 -0.003606855869293214
-0.007363263929585981 0.006882465051140899 -0.0036037047393620027
-0.007005751269413535 0.007308532048299324 -0.0033267550170421613
-0.006648238684071416 0.00773459895627844 -0.0032573253847658647
-0.0062907260987292955 0.008160665864257555 -0.0029333911370486034
-0.005933213438556849 0.00858673286141598 -0.002963660052046181
-0.005575700928045056 0.009012799680215785 -0.0024622364435344947
-0.00521818826787261 0.009438866677374211 -0.0025629913434386266
-0.0048606757573608165 0.009864933496174016 -0.0025268108583986772
-0.00450316309718837 0.010291000493332442 -0.0021560173481702818
-0.004145650437015924 0.010717067490490867 -0.002152865054085852
-0.0037881377768434784 0.011143134487649293 -0.00196874118410051
-0.0034306251166710323 0.01156920148480772 -0.0017846175469458116
-0.003073112456498586 0.011995268481966144 -0.0015544003108516348
-0.0027155997963261395 0.01242133547912457 -0.0011836056364700211
-0.012079482756549045 0.0021271745798094044 -0.0017882440006360425
-0.011721970096376598 0.00255324157696783 -0.0022896679583936943
-0.011364457436204152 0.0029793085741262556 -0.002660462632775308
-0.011006945075353011 0.0034053752145674398 -0.0029374123550951494
-0.010649432415180566 0.0038314422117258656 -0.003214361146092416
-0.010291919755008119 0.004257509208884291 -0.0033984847832471145
-0.009934407094835673 0.004683576206042717 -0.00346791371703148
-0.009576894434663226 0.005109643203201143 -0.0034376441035419716
-0.009219381774490781 0.0055357102003595685 -0.004095969256013633
