ply
format ascii 1.0
element vertex 744
property float x
property float y
property float z
end_header
0.0017961621267865583 -0.008879651809793318 0.06105881116052712
0.0020426093877036746 -0.00840662228591994 0.061040579914485166
0.0022862891981899856 -0.00793662764140092 0.060922731845645395
0.002541280229583943 -0.0074542287469230506 0.061212041860425837
0.0027886072377661265 -0.0069802344207532535 0.061225476061146145
0.003017095580035582 -0.006526899202619313 0.06056079551215997
0.0032829048425819614 -0.006032636708805182 0.06123951894932627
0.0035353997538037137 -0.005552975188757613 0.06143898088540234
0.003781847068461577 -0.005079945561719475 0.06142074963472447
0.004033114288688642 -0.0046016303655947045 0.06157601960115485
0.0042730890966101 -0.004135698778129545 0.061324807851913
-0.00246030517511738 -0.01582329138367626 0.058221548799073736
-0.001969662177607443 -0.014879701515615323 0.05810404430715076
-0.0014663180697955212 -0.013922183217094562 0.05844372902925687
-0.0009584402540718951 -0.0129596929373058 0.05894660136199109
-0.0006985721402711495 -0.01247194573522367 0.059411469125732565
-0.0004495253568595507 -0.011996065538798874 0.05948681224023205
-0.00019813061765668917 -0.011517610324496531 0.059646664623840884
4.638351942581019e-05 -0.011046700768251434 0.059558850584091536
0.0003043752268667042 -0.010561011291429235 0.059956175217471694
0.000558495679703252 -0.010079567063699554 0.06021414627742974
0.0008139780882267921 -0.009596629273232082 0.06052114229940079
0.0010630249156850192 -0.009120748984273395 0.06059648506031486
0.0013093043686153698 -0.00864790343959837 0.060572211458264406
0.0015606989433646174 -0.008169448538333929 0.060732063739464485
0.001800930645025088 -0.007703235196618894 0.06049009753240757
0.0020536824830509016 -0.00722329187085689 0.06069880553431667
0.0022990822432647764 -0.0067514110244276185 0.06064286650994716
0.002547168795652614 -0.006276583802816762 0.06068364320582879
0.002792568516666918 -0.005804703043605947 0.06062770470951944
0.0030466888474807953 -0.005323259038152088 0.060885675255325074
0.0032902952863867975 -0.004853344803344551 0.06076518383043672
0.0035365745914434973 -0.004380499509294334 0.060740908783701836
0.0037879691269931733 -0.0039020446952483484 0.06090076159296207
0.004037016115673643 -0.0034261640967953835 0.06097610433996841
0.004283295462738186 -0.0029533187566780647 0.06095183080534802
-0.003440907743118212 -0.016538534424885096 0.05774080074084935
-0.0029323811599497596 -0.015575332863571007 0.05826703386531111
-0.0024539558206261814 -0.014645141257424546 0.05770974250352493
-0.0021953466237347122 -0.014158774622569113 0.05812929428948205
-0.001948019725457553 -0.013684780505386553 0.05814272841223681
-0.0016942801812051258 -0.013203754082255423 0.05838699216354949
-0.00143804099406941 -0.012719986296489275 0.05872122531310445
-0.001188920729245163 -0.012244025518074254 0.05879921346480905
-0.0009398005096601311 -0.011768064789269958 0.058877199988082655
-0.0006873053846871546 -0.011288402857892208 0.05907666186199638
-0.00043818515863937833 -0.010812442122000667 0.05915464861790298
-0.00017738423805092624 -0.010323671975139215 0.05965309369827048
7.173610840383472e-05 -0.00984771101874366 0.05973108091017126
0.00033253713647378186 -0.009358940665552689 0.060229525981266914
0.0005789844410144275 -0.008885911093840399 0.060211296305497715
0.0008281047713123253 -0.008409950155162962 0.060289282935815994
0.0010818443660741287 -0.007928923632410698 0.06053354656617626
0.0013218192188530747 -0.007462991959124639 0.06028233482581741
0.001570031711914415 -0.006988026619473104 0.06032764454937362
0.0018155888787497925 -0.006515973156073395 0.06027737153434165
0.0020638013884254226 -0.006041007805804318 0.060322682189226665
0.002312921664982574 -0.00556504697029164 0.06040066882418085
0.002561134095066476 -0.005090081751536309 0.060445978553169785
0.0028075814371910065 -0.004617052094377375 0.060427748291182165
0.003051261217714438 -0.004147057519345365 0.06030990074960576
0.0033003814405308416 -0.003671096786997446 0.060387887389195864
0.003544061432785889 -0.003201101802850022 0.06027003971275931
0.0037905086706602974 -0.002728072348476985 0.06025180957636001
0.0040651629399450035 -0.0022241101908886157 0.06124891984831485
0.004291482143445869 -0.001773153584736585 0.06050615315482124
0.004557291361137776 -0.0012788911843422488 0.06118487691649383
0.004811030902966675 -0.0007978647638688403 0.06142914058056914
-0.004404636998839196 -0.017235274691792847 0.05786742514069322
-0.0039135712891707475 -0.016291220910654543 0.05776512108450786
-0.0036690574122904525 -0.015820311816679207 0.057677305434871186
-0.0034209706550568436 -0.01534548423773516 0.05771808368711781
-0.0031728839236742122 -0.014870656687140098 0.05775886100883245
-0.0029238374004648205 -0.01439477695298506 0.057834202513444594
-0.0026724428374484757 -0.013916322108818279 0.057994056311395085
-0.002418322501787539 -0.013434878098048986 0.058252027031675466
-0.002166927984010413 -0.012956423303492927 0.05841187920119496
-0.0019141760230814006 -0.012476479717860697 0.058620586143144617
-0.0016627814859160395 -0.011998024902042902 0.05878043901056311
-0.0014113869358251853 -0.011519570072050612 0.058940292343247595
-0.0011623399762270697 -0.011043689505490254 0.059015634043405436
-0.0009082196017896624 -0.010562245452197484 0.05927360615948381
-0.0006591728442290447 -0.010086365284121672 0.0593489483434513
-0.000411086239716146 -0.009611537961117867 0.059389724976538764
-0.00016747979757877115 -0.009141623722766709 0.0592692336679669
9.474008537928204e-05 -0.008651297453644848 0.059818753784020205
0.0003537071479369448 -0.008164538283767477 0.06025118342566273
0.0005926942439799009 -0.007699689807471676 0.05996441605685271
0.0008389735919249706 -0.007226844429759953 0.05994014094812047
0.0010861431497894364 -0.006753022805108005 0.059947909172421474
0.0013333127521579589 -0.0062792010950227396 0.05995567739288337
0.0015652384233943023 -0.005822096395611612 0.05941472695027105
0.001827458319277846 -0.005331770112315258 0.05996424753159034
0.00207462777215703 -0.004857948654626612 0.059972014249209574
0.002323674666281495 -0.004382068248328674 0.06004735747075373
0.002570844161168524 -0.003908246744572927 0.06005512570048745
0.002816243813900903 -0.0034363661044731746 0.05999918668538977
0.003062523361387258 -0.0029635203676431224 0.05997491260880148
0.0033070374726187767 -0.00249261083974701 0.05988709763852013
0.0035524371544335106 -0.0020207301677546484 0.05983115967027096
0.003800523882584767 -0.0015459026207032102 0.059871936875669086
0.004051918403593268 -0.0010674478226035291 0.060031789161505075
0.004311786514162642 -0.0005797006240650213 0.06049665680893005
0.004574703863427563 -8.860953604626024e-05 0.061071284863867294
-0.00487636269716279 -0.01698693270473087 0.057925504254717416
-0.004385804312990647 -0.016043435272425684 0.05780493850806577
-0.004139357299773345 -0.015570406241342552 0.05778670804126065
-0.003892909856630067 -0.015097376384941349 0.0577684775373682
-0.003644697205120429 -0.014622410746439734 0.057813787480446466
-0.003396484983536771 -0.014147445933256191 0.05785909746061205
-0.003148272546990123 -0.013672480707413613 0.057904407422233975
-0.00289577764344288 -0.013192819195782149 0.058103869082058356
-0.0026371684465514144 -0.012706452560926715 0.05852342086801547
-0.0023889558015045215 -0.012231486929512345 0.058568730578460744
-0.0021327168228690513 -0.011747719549317987 0.05890296397919235
-0.0018814496211718877 -0.01126940437351368 0.0590582332786203
-0.0016252104017224463 -0.010785636552311299 0.05939246759134025
-0.0013787631800049023 -0.010312607115656377 0.05937423687335846
-0.0011225241755184493 -0.009828839707113034 0.05970847120462207
-0.0008734038484519242 -0.009352878771979219 0.05978645771862385
-0.000624283505228535 -0.008876917819127287 0.05986444481420812
-0.00038060368388984685 -0.00840692315510501 0.059746596802729805
-0.0001341563417653173 -0.007933893497946078 0.05972836654074219
0.00010717574197646913 -0.007466473435598685 0.059526009357927366
0.00035538821656442773 -0.006991508131410038 0.059571319083077175
0.0006066555006272638 -0.006513192813447789 0.059726589074971415
0.0008603951362043246 -0.0060321662017052595 0.059970852235429764
0.0011017272231774828 -0.005564746135814244 0.05976849516893144
0.0013472843491976038 -0.005092692761404801 0.05971822262380138
0.0015909641167955449 -0.004622698200547285 0.05960037461695898
0.0018422314453624376 -0.00414438279715172 0.059755644605014105
0.0020895583468709695 -0.003670388676425535 0.05976907884408537
0.002336885232222638 -0.0031963945734174667 0.059782512501574125
0.002582442522696373 -0.002724340885970123 0.05973224005885283
0.0028315627422814045 -0.0022483801571658267 0.05981022658212644
0.0030674696628524003 -0.0017869095408073001 0.059412587144572496
0.0033212094188364446 -0.00130588270856076 0.05965685076102502
0.0035685363203449773 -0.0008318885878345751 0.05967028500009628
0.0038198035414303754 -0.00035357339076852934 0.05982555499742324
0.00409733933753802 0.0001535487382725055 0.06092638871969541
0.004343786773410711 0.0006265785867005588 0.060908157954090845
0.00459290723865677 0.0011025397618283127 0.06098614556382754
0.004849146427509153 0.0015863075494770111 0.06132037877517563
-0.005344019424530183 -0.016734127890181933 0.05813006492922616
-0.004863716240732529 -0.015801876627847045 0.05764035295146191
-0.00461096471619224 -0.015321933874620134 0.05784905969786589
-0.0043655648452655 -0.014850052818317722 0.057793120780541045
-0.004116517840428166 -0.01437417220214664 0.05786846410912988
-0.0038651235053003023 -0.013895717784813388 0.058028317460358025
-0.00361972384933655 -0.013423837141170012 0.057972378561576846
-0.003366972109833272 -0.012943893975284067 0.05818108528943716
-0.0031206927643844164 -0.012471048636938558 0.058156811696658525
-0.002879233209803168 -0.012003488653432384 0.0579590371373945
-0.0026177479232770634 -0.011513968009713172 0.05848211665661852
-0.0023505738828628374 -0.011018208902501414 0.05920996858211855
-0.0020937540374613055 -0.010533804348918588 0.05956510310878592
-0.0018474747178634301 -0.010060959038922065 0.05954082858547529
-0.001596080167772576 -0.009582504208929777 0.05970068191815978
-0.001347033302730465 -0.009106623834524446 0.05977602409285544
-0.0011016335134342373 -0.008634742956202566 0.05972008611533443
-0.000853546943273849 -0.008159915715101782 0.059760863450956804
-0.0006133151980241766 -0.007693702273752284 0.05951889654056818
-0.0003697088096275489 -0.0072237881385658845 0.05939840523663224
-0.00012342944552561682 -0.006750942743136045 0.05937413070948249
0.0001364387280211963 -0.006263195423701335 0.05983899835147475
0.000370556189620762 -0.005803687094944936 0.05937694166390289
0.0006196030203103609 -0.005327806802442625 0.059452284541133466
0.000865882393648985 -0.004854961389281344 0.05942801001318691
0.001114929177060582 -0.004379081192856547 0.059503353127686405
0.0013639760614909298 -0.003903200797189477 0.05957869600028107
0.0016075823961468104 -0.0034332867651678364 0.05945820470098104
0.0018603341388814592 -0.0029533435957382658 0.059666911545157846
0.002101793690231334 -0.002485783615775715 0.059469136869577326
0.0023489631818869893 -0.002011962115563592 0.059476904982994544
0.002597049678918395 -0.0015371349988893058 0.05951768162535384
0.0028451364103010243 -0.0010623074482942444 0.059558458947068474
0.00309230590195668 -0.0005884859480821208 0.05956622706048569
0.0033464262343862444 -0.00010704194085645177 0.059824197664449574
0.003591825900044114 0.00036483871341779417 0.05976825911461789
0.0038653746615059425 0.0008675887138532229 0.06072556776648522
0.004129613151218879 0.0013601287822800883 0.061347743841588115
0.004363730716109252 0.0018196373127703698 0.06088568699389646
0.0046226974513501285 0.002306395858316064 0.061318116487970996
-0.006003545441184382 -0.01689450115438335 0.06031742115898224
-0.005561436564509943 -0.016004135304610045 0.058452882271577584
-0.005327676730993975 -0.015545019073411184 0.05797794852399216
-0.0050839971815903945 -0.015075024928756328 0.05786010041937691
-0.0048393569288061366 -0.014603976893207377 0.057776818284548545
-0.0045937996383324 -0.014131923205760035 0.05772654584182725
-0.004345587442599723 -0.013656958420925479 0.05777185489146083
-0.004100947378927471 -0.01318591076968658 0.05768857370570812
-0.003841229220203039 -0.012698328012979924 0.058148043685960556
-0.0036053222705496905 -0.012236857364728789 0.05775040529525511
-0.0033456038774740335 -0.011749274174101357 0.05820987595486289
-0.003096483644963513 -0.011273313431122568 0.05828786294340249
-0.0028378744480720454 -0.010786946796267136 0.05870741472935961
-0.0025685994385989414 -0.01028888352446898 0.0595108853886244
-0.0023099902352447287 -0.009802516882526303 0.05993043740721452
-0.0020549992837929146 -0.009320118127548658 0.06021974681676606
-0.001802504266301433 -0.008840456402500427 0.060419208699951606
-0.001555177257311407 -0.008366462075444725 0.060432642929751035
-0.0012730578153136952 -0.007854313334296792 0.06169846764757175
-0.0010665225560149419 -0.007425052501825478 0.060243561902612444
-0.0008306155817031985 -0.006963581782302192 0.059845922460422585
-0.000596855925108909 -0.006504465885416297 0.0593709884949087
-0.00035317609776490313 -0.0060344712072062014 0.059253140366317084
-0.00010672878149135291 -0.005561441578396253 0.059234909173797465
0.0001414837281842763 -0.005086476228127176 0.05928021982868248
0.0003896962120089262 -0.004611510906207086 0.05932552955303549
0.000640963413706089 -0.004133195730402778 0.05948079885246344
0.0008882904259274876 -0.003659201399803452 0.059494233198579376
0.0011347376734960144 -0.003186171934799545 0.05947600341112959
0.0013829500906544258 -0.0027112067302187057 0.059521312674852514
0.0016285073811281607 -0.002239153042771362 0.05947104023213121
0.0018758342664798298 -0.0017651589397632938 0.05948447388961998
0.002124046696563732 -0.0012901937210079615 0.05952978361860891
0.0023713738098038793 -0.0008161991911663636 0.05954321772282001
0.002616013854087896 -0.0003451515611892042 0.059459935839168296
0.0028633407523650555 0.0001288425559933565 0.05947336996192307
0.0031146079734504536 0.0006071577530594031 0.05962863995925002
0.0033592482294660855 0.0010782057921519756 0.059545357940738154
0.0036129879886815028 0.00155923262794214 0.05978962167350717
0.0038822629836134295 0.0020572958837939887 0.06059309180934771
-0.0064914968856171155 -0.016663952822440223 0.05979143825525405
-0.006225853777517644 -0.016169872759887446 0.060464190491766955
-0.00603358717540336 -0.015756259289816603 0.058495666231146014
-0.005794599924600908 -0.01529141051111377 0.05820889861579526
-0.005555613129575413 -0.014826562586077997 0.05792213010699982
-0.0053110988098436515 -0.014355652652610093 0.05783431488554182
-0.005066584464260907 -0.013884742690793204 0.05774650059461582
-0.004821185023260144 -0.013412862459808864 0.057690561714378294
-0.004575785367296391 -0.012940981816165488 0.057634622815597114
-0.00432769885087675 -0.012466154678229466 0.05767540015585541
-0.004084092542071852 -0.011996240674556808 0.05755490792602338
-0.003832697789943498 -0.011517785446079974 0.05771476077489822
-0.003579946011663751 -0.011037842237670549 0.05792346889855653
-0.0033143026853699204 -0.010543761758915113 0.05859622123284226
-0.0030339834066500813 -0.01003358699981189 0.059797241449302235
-0.0027750164515739128 -0.009546828036264039 0.06022967110021658
-0.002525969677856432 -0.009070947850470112 0.060305013865766574
-0.002271849225019884 -0.00858950362274043 0.06056298492572462
-0.002016366816496345 -0.008106565832272958 0.06086998094769567
-0.0017854982080178295 -0.007650620340581788 0.060290980470091085
-0.0015327463254879601 -0.007170676929386468 0.06049968846816107
-0.001284659761790317 -0.00669584969537293 0.06054046557115045
-0.0010516513670089968 -0.006237557655431056 0.06003848918260148
-0.0008151637251947461 -0.005775450150359652 0.059661751116727245
-0.000573704284557738 -0.005307890380270243 0.059463976334102046
-0.00033471721436576386 -0.004843041932323426 0.05917720803476004
-7.923485958297085e-05 -0.004360104245020714 0.059484204061367
0.0001585007561316163 -0.003896628224997929 0.05915239034105505
0.0004030149748446305 -0.003425718490772298 0.059064575361501885
0.000655766701422417 -0.002945775339060843 0.059273281624096195
0.0009038532436930384 -0.0024709481727758333 0.05931405989488648
0.001137970816005471 -0.002011439634146292 0.05885200331435929
0.0014008881240703919 -0.0015203485913087272 0.059426629886261156
0.0016462877735713994 -0.0010484679547525968 0.05937069075484698
0.0018953347784087305 -0.0005725873385815168 0.05944603408343581
0.0021443815682830746 -9.67071350694731e-05 0.05952137743056829
0.0024012012019529903 0.0003876970093979375 0.059876512092095824
0.002635318543145571 0.0008472051176503259 0.05941445494852978
0.002880718414072311 0.0013190861739527386 0.05935851603120495
0.003143635979108065 0.0018101776755164427 0.05993314409667765
0.003396387940037076 0.002290121261148673 0.060141851038627306
0.003667466322656906 0.0027901618138780502 0.06101025143714444
-0.0067025291332916915 -0.015926958052236127 0.06034411658435143
-0.006478520431877477 -0.015478535214146574 0.05951818104908791
-0.00625607802199585 -0.015031830019804127 0.05863586527794746
-0.006040364283250641 -0.014592504048225994 0.05751135974806839
-0.005785373116835841 -0.014110104880589312 0.057800669139076256
-0.005541693137506282 -0.013640109910616382 0.0576828209973737
-0.005300361335393723 -0.013172690378267278 0.057480463372472444
-0.005053914107213432 -0.012699660934525108 0.057462232887123654
-0.004808357057553666 -0.012227607688085788 0.05741195953241402
-0.004561030146351018 -0.011753613556728732 0.057425394120434785
-0.0043137030331108685 -0.011279619026887134 0.05743882822464589
-0.004057464060938144 -0.010795851653780024 0.0577730613927445
-0.003794574219540219 -0.010304790731739155 0.05834669927439819
-0.0034904311100079693 -0.009768490022788422 0.0604052821940642
-0.0032384448535884213 -0.009289386309331939 0.06058643458997387
-0.002982205850717655 -0.008805618902560406 0.06092066886307923
-0.0024760777594307884 -0.00784504742471587 0.06136055810843058
-0.0022296304839724956 -0.007372017884896188 0.061342327385812884
-0.001977135472135916 -0.0068923561660493 0.06154178906544456
-0.001738529199815193 -0.0064279253128278965 0.061241313564501854
-0.0014929720959572534 -0.005955871970324389 0.06119104055490259
-0.0012582372007209747 -0.0054956865813707515 0.060751210616639066
-0.0010209928238837504 -0.005032749180635133 0.060401710381680435
-0.000791853287331942 -0.004578699842706788 0.05976047022452224
-0.0005445263320826631 -0.004104705618815844 0.05977390445895758
-0.00031076671999243034 -0.003645589807363266 0.05929897049728282
-6.431940371888056e-05 -0.0031725601785533176 0.05928073930476321
0.00019067154773293312 -0.0026901614235756727 0.05957004871431473
0.0004353116049424389 -0.0022191137794240214 0.05948676729592902
0.0006865790377594536 -0.001740798173242561 0.05964203715839582
0.0009378462426879891 -0.0012624829938946308 0.059797306574140265
0.001185173144196521 -0.0007884888731684459 0.059810740813211534
0.0014333857892434116 -0.0003135232417540773 0.0598560505236568
0.0016815982031704517 0.00016144195928313905 0.05990135967106322
0.0019298106623367073 0.0006364072099310789 0.05994667044690065
0.002171142695569119 0.0011038271726573354 0.05974431338503824
0.0024202631301171386 0.0015797883141206687 0.05982229988976819
0.0026639431256035586 0.0020497833018117157 0.059704452329648126
0.0029385976466081167 0.0025537459123678346 0.060701563906159474
-0.0074383362848305865 -0.016170983234639533 0.05978566423027391
-0.007176116660882149 -0.0156806574707106 0.060335184718456294
-0.006978772777514561 -0.015261476096954154 0.05854942229285699
-0.00675613366752076 -0.014814555195183876 0.05767418693969147
-0.0064954293989788105 -0.014325891216870477 0.05816916068898304
-0.006257693594152216 -0.013862414812537641 0.05783734601959543
-0.006012293697374492 -0.013390533727886242 0.05778140803280259
-0.005772062255181068 -0.01292432088426356 0.05753944184812845
-0.0055266625992173146 -0.012452440240620184 0.057483502949347266
-0.005283056290412415 -0.01198252623694753 0.057363010719515245
-0.00503588679875676 -0.011508704736735405 0.05737077883293247
-0.004790486927830018 -0.011036823680432992 0.05731483991560763
-0.004543317423248873 -0.010563002166046376 0.05732260849429085
-0.00429427064630002 -0.010087121976708826 0.05739795137615734
-0.004035303482723607 -0.009600362607589183 0.05783038077589503
-0.0037156681277324697 -0.009047072799947129 0.0604466303775103
-0.0034453837684101964 -0.008547902820804604 0.06128644135408068
-0.003183163833175613 -0.008057576450123689 0.06183596141279215
-0.0009951195674432491 -0.003833188785113792 0.0605926752223426
-0.000740999239860745 -0.003351744783203557 0.06085064565183173
-0.0005175473581072766 -0.0029039326592409133 0.06000467071214929
-0.00027303323395026693 -0.0024330231171703076 0.05991685620713394
-2.5863739063239095e-05 -0.0019592016134145616 0.059924624436867656
0.00021953612863212946 -0.0014873205606557717 0.059868685403226325
0.00046858291850647264 -0.0010114403571437288 0.059944028750358806
0.0007139825712388524 -0.0005395597170439756 0.05988808973526113
0.0009630295599193212 -6.367911859101122e-05 0.05996343248226746
0.0012185118609613662 0.0004192584655469424 0.06027042851351034
0.0014630259560360222 0.0008901679757249393 0.0601826129616465
0.0017171463013910763 0.001371611997125102 0.060440584030876376
0.0019652330570089998 0.0018464395742973367 0.06048136222496476
0.0022115125754130016 0.002319285279234781 0.06045708710152797
0.002471380915486542 0.0028070329063786302 0.06092195525383353
-0.007650457799864693 -0.015435183656782613 0.06029911842071927
-0.007425674851884291 -0.014985911755957638 0.05950105266775381
-0.007209082008378995 -0.014545621377056967 0.058408175883409026
-0.006969107415067094 -0.014079690201863261 0.05815696416543296
-0.006730500987986877 -0.013615259046234826 0.0578564884179495
-0.006493256506899529 -0.013152321442713312 0.05750698805740254
-0.006251924691861479 -0.012684901896189715 0.057304630897767286
-0.00600459779358432 -0.012210907779007154 0.05731806502052205
-0.005759040730999063 -0.01173885451839334 0.05726779213107842
-0.005515360966632497 -0.011268859961079446 0.057149944007919506
-0.005261621207417078 -0.010787833125289283 0.057394207740688534
-0.005015174018013259 -0.010314803724070593 0.057375975859541746
-0.004773841975086729 -0.009847383750713468 0.05717361914662883
-0.004522574526112852 -0.00936906812681389 0.057328889590678125
-0.004254132191346097 -0.008871918168781079 0.058102395044444886
-0.0002169754057850127 -0.0012003616321209468 0.06119433369319624
3.0351467449009264e-05 -0.0007263675424014652 0.06120776691449813
0.000274031233431264 -0.0002563729833157595 0.06108991884949748
0.0005302704500532536 0.00022739483478595056 0.06142415306044048
0.0007784828793545584 0.0007023600526830614 0.061469462761259
-0.008361699410715578 -0.015652269507344493 0.06062492736130951
-0.008130831067709423 -0.015196324527933494 0.060045927023201
-0.007913484849073487 -0.014755207974559268 0.058980168732882164
-0.0076793672767610545 -0.014295699435929727 0.058518112152354966
-0.007445250140837344 -0.013836191729705507 0.05805605537628209
-0.007203790592718844 -0.01336863175328658 0.057858280584385066
-0.00696233103167485 -0.012901071762693159 0.057660506257754034
-0.0067208719005568355 -0.012433512597417812 0.05746273196821032
-0.006476357782862572 -0.011962603062434452 0.05737491723056198
-0.006230958126898819 -0.011490722418791077 0.057318978331780804
-0.005984678787912708 -0.011017877087532815 0.05729470450636917
-0.005730558230826036 -0.01053643265701724 0.05755267544073889
-0.00549282262803694 -0.010072956651168948 0.05722086125516094
-0.0052563350588942445 -0.009610849277624615 0.05684412284576991
-0.00499411501471395 -0.009120522699008475 0.05739364294791547
-0.0047487153587501985 -0.0086486420553651 0.05733770404913428
-0.004500628842330557 -0.008173814917429075 0.05737848138939258
-0.004234985382704252 -0.007679734203995136 0.05805123464493849
-0.008586373606183214 -0.014930235587162046 0.06068653521982693
-0.008370659482751248 -0.014490908839876564 0.05956202802442953
-0.008163205794618763 -0.014060640741473044 0.058140178169034995
-0.007911938794959099 -0.01358232596415328 0.05829544795227261
-0.0076772037267333485 -0.013122140260403259 0.057855618756955385
-0.00743587149469481 -0.012654719902736082 0.057653261094966816
-0.007195896933696636 -0.012188788762978606 0.057402048213825746
-0.006951256882949874 -0.011717741125914201 0.05731876656280703
-0.006705699794513637 -0.011245687836951403 0.057268494603895395
-0.006459252566333348 -0.010772658393209233 0.057250264118546605
-0.006210132105934345 -0.010296697223396914 0.05732825155380856
-0.0059610118863493156 -0.009820736494592619 0.057406238077082165
-0.005713684975146665 -0.009346742363235565 0.05741967266510292
-0.0054663578877574975 -0.00887274786174295 0.057433105838782035
-0.005227751662714778 -0.00840831710459906 0.057132630575108236
-0.0049795392132426395 -0.007933351864581991 0.05717794100199616
-0.004712827746199551 -0.007438099941176515 0.05788913825651911
-0.009296780017272408 -0.015146405698844949 0.06104240429749495
-0.009057793193164559 -0.014681557741916564 0.06075563683554801
-0.008838987508942417 -0.014238840693432647 0.0597424134739397
-0.008620181834414393 -0.0137961236555796 0.05872918976338189
-0.008376575721184245 -0.013326210043304244 0.05860869824999253
-0.008152291306135338 -0.012877484849113819 0.05779268730375668
-0.007908684769441957 -0.012407570418607634 0.05767219552064701
-0.0076672256512494335 -0.011940011267506781 0.057474420765837295
-0.00742182599528568 -0.011468130623863405 0.05741848186705611
-0.007195810800606364 -0.011017507580113424 0.05666477982723492
-0.006930167448461554 -0.010523427073009002 0.05733753309205265
-0.006684767577534811 -0.010051546016706589 0.05728159417472782
-0.006445780567546329 -0.009586697679011779 0.05699482564738872
-0.006190298253578794 -0.009103760080699333 0.0573018221438976
-0.00594578390799605 -0.008632850118882443 0.0572140078529716
-0.005698614416340396 -0.00815902861867032 0.05722177596638882
-0.005445862676837118 -0.007679085452784374 0.05743048269424914
-0.0052056309121992096 -0.007212871990173136 0.057188516481759516
-0.004956584027768863 -0.006736991594506066 0.057263859354354164
-0.004702463644829924 -0.00625554748765926 0.05752182983736563
-0.009757934871330129 -0.014886471229940901 0.061480995278003
-0.009303806671656034 -0.013982924618754262 0.060049103986337726
-0.009079797970241816 -0.01353450178066471 0.0592231684510742
-0.008856569512974734 -0.013086934936291327 0.05836916275727082
-0.008615237261547963 -0.01261951455736241 0.058166805793181245
-0.008380502238561426 -0.012159328903223111 0.05772697496943303
-0.008128007543514428 -0.011679667797163437 0.057926436880434064
-0.00789750081849082 -0.011224119202294602 0.05733441198371843
-0.007653821054124252 -0.010754124644980708 0.05721656386055953
-0.0074073738000929815 -0.010281095172889554 0.05719833430574274
-0.007159161187359815 -0.009806129576911416 0.05724364285302301
-0.0069127139333285455 -0.009333100104820264 0.05722541329820622
-0.006687931235856228 -0.00888382865563418 0.05642734628430292
-0.00642403394127142 -0.008391662752339525 0.05703724069829503
-0.006175821478873793 -0.007916697498147964 0.05708255159044895
-0.005924554270713884 -0.00743838231525641 0.057237821122509906
-0.005680874398865822 -0.006968387551612997 0.057119972990079176
-0.005435317202948091 -0.006496334056320679 0.057069701021895694
-0.0051767079523158755 -0.006009967318300486 0.05748925280321691
-0.004909119387348498 -0.005513753542178639 0.058232022077909576
-0.01001212961646048 -0.014196810123690055 0.06047998875357783
-0.00976672971968276 -0.013724929039038658 0.06042405076678499
-0.009544885659831867 -0.013278880013849581 0.05952019678569579
-0.009317968545516439 -0.01282726807405017 0.05879896800482832
-0.009086042696900993 -0.01237016304742665 0.058258018129890746
-0.008851925131051304 -0.011910654515884354 0.05779596131673056
-0.00861169370178337 -0.011444441686436164 0.05755399466679042
-0.00836808736712749 -0.010974527654414524 0.05743350336749039
-0.008124481032471608 -0.010504613622392883 0.05731301206819037
-0.007879081376507857 -0.010032732978749508 0.05725707316940919
-0.007634567043850603 -0.00956182303110711 0.05716925841321718
-0.007396831453986997 -0.009098347039433312 0.056837443762373235
-0.007140011817085708 -0.00861394289142228 0.05719257854021726
-0.006876424540386987 -0.008122116963331759 0.05779131354921997
-0.00665378562596794 -0.007675196452958778 0.056916078912497114
-0.006402391101728067 -0.007196741651315474 0.05707593131464961
-0.006162159337090159 -0.006730528188704237 0.05683396510215998
-0.005903192293920731 -0.006243769040088605 0.057266394045903495
-0.005656912888268382 -0.005770923591491091 0.05724212068112195
-0.005408826277292738 -0.0052960962614000415 0.05728289754684242
-0.005154705881428309 -0.0048146521403787425 0.057540868495119885
-0.010234373095569687 -0.01347211007867253 0.06062908100735853
-0.010009590176671636 -0.013022838209740165 0.05983101420754457
-0.009782507176613033 -0.012571044354503192 0.059115756650510075
-0.009552697741325037 -0.01211626025220477 0.058498624353506126
-0.009322888306037036 -0.011661476149906346 0.057881492056502185
-0.009081556503924478 -0.011194056617557242 0.05767913443160093
-0.008846821657124459 -0.010733871333553503 0.05723930502219436
-0.008597701437539428 -0.010257910604749208 0.057317291545467976
-0.008354021673172861 -0.009787916047435312 0.057199443422309065
-0.008108464369773633 -0.009315862345813476 0.05714917144485377
-0.007863824344877854 -0.008844814737098057 0.05706588886330306
-0.007618267282292598 -0.008372761476484244 0.057015615973859415
-0.0073718198132983375 -0.00789973159173405 0.05699738640049897
-0.007125372559267067 -0.007426702119642898 0.05697915684568218
-0.00687716016149689 -0.006951736936323798 0.05702446541150612
-0.006628947630394239 -0.006476771518326194 0.05706977489859021
-0.006381620624635586 -0.0060027771948141136 0.05708320901207314
-0.006130353323958459 -0.005524461866234323 0.057238479935296176
-0.005893108989129078 -0.005061524511565806 0.05688897818822305
-0.005619929789709627 -0.0045591799169912494 0.05783298990069217
-0.005363690766570098 -0.004075412451363575 0.058167223297584655
-0.010721941001747391 -0.013241140985017434 0.06011690754862371
-0.010477426649701901 -0.0127702310161133 0.060029093490330705
-0.010257126946979896 -0.012325875934573642 0.05906966433694692
-0.010025201117752684 -0.011868770929211861 0.058528713764110354
-0.009800062780183685 -0.011419109297170231 0.05774344061610778
-0.00955289354226749 -0.010945288252140622 0.05775120735227066
-0.009319885153213754 -0.010486996255108587 0.05724923236335881
-0.009073605853004114 -0.010014150966373803 0.05722495714214919
-0.008827326488167022 -0.009541305606766555 0.05720068424726955
-0.008580156807399358 -0.00906748372224438 0.05720845141161112
-0.008336550498594459 -0.008597569718571726 0.05708795918177909
-0.008092036380900194 -0.008126660183588368 0.05700014444413075
-0.007842989376062863 -0.007650779567417285 0.05707548777271958
-0.0076015300299818594 -0.007183219989482902 0.056877713464632204
-0.00735792372117696 -0.006713305985810247 0.05675722123480019
-0.007101104002645159 -0.006228901659818679 0.05711235507284038
-0.006857497573433274 -0.005758987435642012 0.05699186329900252
-0.006608450729818183 -0.00528310712896521 0.0570672066414991
-0.006357056098096817 -0.0048046521209923875 0.05722705903437977
-0.006090648440280485 -0.00430973340841416 0.05792732230992581
-0.005860811695858932 -0.003854919498370268 0.05731117918314058
-0.005602819886664129 -0.0033692298581283896 0.057708505206886015
-0.005336412220346267 -0.002874311091996127 0.05840876684936515
-0.010946038093120013 -0.012518473673767823 0.060199277052277705
-0.010715531583059396 -0.012062925491558024 0.05960725217410574
-0.010489212398542846 -0.01161196890622478 0.0588644847972527
-0.010258705458556248 -0.011156419898696908 0.058272459881993414
-0.010027464438118158 -0.010700066229685449 0.057706874442121636
-0.00978613242104261 -0.01023264628467731 0.05750451679867672
-0.00954480039104157 -0.009765226325494676 0.05730215962049782
-0.009300160327369321 -0.009294178674255776 0.0572188784347451
-0.00905648034803976 -0.008824183704282847 0.057101030293042546
-0.008812800583673194 -0.008354189146968954 0.056983182169883635
-0.008564588134201056 -0.007879223906951883 0.057028492596771556
-0.008328680988972954 -0.007417752867303449 0.05663085348962346
-0.008072442016800227 -0.006933985494196337 0.05696508665772206
-0.00782688495421497 -0.006461932233582524 0.05691481376827843
-0.007582244795986716 -0.0059908843901885995 0.05683153210798789
-0.007329749791420724 -0.005511222679314862 0.05703099352590743
-0.007082422839402817 -0.005037228458967541 0.057044427644026285
-0.006828683213519876 -0.004556201857855882 0.05728869045553514
-0.006582235931598837 -0.0040831723109489544 0.05727045996555044
-0.006333115641658769 -0.0036072114683623566 0.05734844741551692
-0.006084903129209193 -0.0031322461074490835 0.05739375783697214
-0.005824102094676501 -0.002643475747170866 0.0578922031407008
-0.011626418683799706 -0.012701716728787272 0.06163597490330971
-0.011389930917466571 -0.01223960896207383 0.06125923583563427
-0.011183374748070869 -0.011810325464329318 0.05980509440513142
-0.010965302271983047 -0.011368412474566934 0.05876547848077233
-0.01073647257593822 -0.01091470278463033 0.058113079486299485
-0.010502355446477256 -0.010455195085493354 0.0576510224775936
-0.010254268942983105 -0.009980367961731823 0.05769179935258589
-0.010017781347989429 -0.009518260559838506 0.05731506187372687
-0.009781293765921245 -0.00905615317211968 0.056938323929601846
-0.009528541824380468 -0.008576209607749187 0.057147030173652504
-0.009284935489724588 -0.008106295575727548 0.057026538874352474
-0.009036848986230438 -0.0076314684519660165 0.05706731574934477
-0.008797861761278966 -0.007166619701612167 0.05678054720346201
-0.008548814971404623 -0.006690739498100124 0.0568558905505945
-0.008302535671194981 -0.006217894209365341 0.056831615329384876
-0.008056256198876396 -0.005745048643428575 0.056807342425233415
-0.007804861567155028 -0.005266593635455752 0.05696719481811407
-0.007553466989174408 -0.004788138730647689 0.05712704721563065
-0.007308067238654652 -0.004316257894849288 0.05707110784231164
-0.007059020395039562 -0.003840377588172485 0.05714645118480822
-0.006807625826295633 -0.003361922701095865 0.05730630358312159
-0.006562226081503461 -0.0028900419082073013 0.05725036560943969
-0.006305406337120679 -0.002405637553866749 0.05760550037801189
-0.00605635953228206 -0.0019297572897134237 0.05768084232471047
-0.0057964913324268395 -0.0014420099490303018 0.05814571124698102
-0.011642611084521168 -0.011548287089668565 0.060312744352626
-0.011432369429515895 -0.011114961620547942 0.058991250163232714
-0.011208360721638931 -0.010666538775371144 0.058165314860602196
-0.010968386121864286 -0.01020060759309019 0.057914103375259124
-0.010741302919768185 -0.009748813339368674 0.057198845334414966
-0.010485063934669967 -0.00926504595208707 0.05753307896777958
-0.010249157004404855 -0.008803575325097674 0.05713543987917513
-0.010004516790397065 -0.008332527332072202 0.057052156348548766
-0.009760836987254027 -0.00786253273223483 0.05693430962118786
-0.009513510114827848 -0.007388538643401255 0.05694774281341062
-0.00926983010964731 -0.006918543645079337 0.05682989560224006
-0.009024273021211074 -0.006446490356116539 0.05677962364332841
-0.008776060597589917 -0.005971525144448453 0.05682493313968435
-0.008522320971706975 -0.005490498543336794 0.0570691959511932
-0.00828098883422444 -0.005023078377824642 0.056866838763742454
-0.008027249262082245 -0.004542051879877741 0.05711110157988722
-0.007783569338532222 -0.004072057059536359 0.05699325530852049
-0.007532302076631567 -0.0035937417734800458 0.05714852483594553
-0.007286744969542254 -0.0031216884274329155 0.05709825194266277
-0.007031753942187512 -0.0026392895373845756 0.057387561812047586
-0.006782633615120987 -0.0021633286022507605 0.057465548326049366
-0.006534421124833592 -0.0016883632732434231 0.05751085828303538
-0.006275811874201377 -0.0012019965352232306 0.05793041006435658
-0.006006537053840282 -0.0007039336477351291 0.05873388167269703
-0.012140002356712032 -0.011328090430829104 0.059446972806887474
-0.011895488043443016 -0.010857180504448448 0.059359157352796475
-0.011677415535041466 -0.010415267479249831 0.05831954259160239
-0.011439680160140847 -0.009951791900235069 0.05798772795930209
-0.011207754552339369 -0.009494687314619568 0.05744677717237619
-0.010964148243534469 -0.009024773310946914 0.057326284942544166
-0.010717868904548358 -0.00855192797968865 0.05730201111713253
-0.010474262367854977 -0.008082013549182466 0.05718151933402285
-0.01023065605905008 -0.007612099545509812 0.05706102710419082
-0.009992920443335492 -0.007148623525487027 0.056729213383878874
-0.00974664090231188 -0.00667577779574422 0.05670493907465759
-0.009488649207796478 -0.006190088333096515 0.057102263242771734
-0.009252161625728292 -0.00572798094537769 0.05672552529864671
-0.009003114728372456 -0.005252100535536128 0.05680086863650737
-0.008758600529047677 -0.0047811908225722346 0.056713052959055196
-0.008500608716164074 -0.0042955011858873075 0.05711037944886343
-0.008259149262601576 -0.003827941401623406 0.05691260513150423
-0.008006397482283042 -0.0033479981467471917 0.05712131138946263
-0.007779480095575079 -0.002896385694680934 0.056400083051478374
-0.0075107619777334475 -0.002398933252563802 0.0571835133214731
-0.007249276544949376 -0.0019094123599915943 0.057706594227223296
-0.007012788909140444 -0.00144730486910801 0.057329856278462356
-0.006758668513276015 -0.0009658607480867115 0.057587827226739816
-0.006507273989036142 -0.00048740594644340737 0.05774767962889231
-0.006249282167651009 -1.7162562044447261e-06 0.05814500448563363
-0.012362703074862608 -0.01060389164649188 0.059579609882949414
-0.012137150358998422 -0.010153775594393157 0.05880925269761331
-0.011905128509688185 -0.009696565644285938 0.05827177397674965
-0.011678809533671876 -0.009245609464524485 0.05752900685107327
-0.011433252445235638 -0.008773556175561687 0.05747873489216163
-0.011193277643423495 -0.008307624594796188 0.057227522923008894
-0.010942010194449615 -0.007829308970896611 0.05738279336705819
-0.01070476595417624 -0.007366371808383121 0.05703329209452289
-0.01046615972913352 -0.006901941051239231 0.05673281683084909
-0.010217947090549373 -0.006426975426912107 0.05677812630866136
-0.009968826870964342 -0.00595101469810781 0.056856112831934966
-0.00972418680729209 -0.005479967046868914 0.05677283164618226
-0.009471691802726098 -0.005000305335995176 0.056972293064101814
-0.009228011930878036 -0.004530310572351763 0.05685444493167107
-0.00897674466897738 -0.00405199528629545 0.05700971445909611
-0.00873118747305965 -0.0035799417910031333 0.05695944249091264
-0.00847619648079258 -0.003097542947035221 0.05724875143056226
-0.008230639347852287 -0.0026254895726391062 0.0571984794678115
-0.00798331241244867 -0.0021514953629093274 0.05721191265460156
-0.007735099868420528 -0.001676529930737231 0.05725722260695165
-0.007485979556318278 -0.0012005690562446973 0.05733521052138734
-0.0072347122814921325 -0.0007222537560138919 0.057490480514078374
-0.0069855920619071015 -0.00024629302720959533 0.05756846703735199
-0.006731852416635924 0.00023473359516380343 0.05781273054675984
-0.006482732177662657 0.0007106943452298389 0.05789071776793245
-0.006213457396078033 0.0012087571901944624 0.05869418798047489
-0.012832964250501898 -0.01035394361855 0.059690405961006304
-0.012606948873173316 -0.009903320197577213 0.05893670273947646
-0.012372831737249608 -0.00944381249135299 0.05847464596340358
-0.01214591440797119 -0.008992200138894542 0.05775341716399244
-0.011908178805182093 -0.00852872413304625 0.0574216029784145
-0.01166671942032462 -0.008061164512588388 0.05722383006612512
-0.011421319562323366 -0.007589283470460468 0.057167890683534284
-0.011177713279369448 -0.007119369495136798 0.05704739752317026
-0.010933199122898713 -0.006648459917629962 0.05695958418131991
-0.010687799264897463 -0.006176578875502041 0.05690364479872907
-0.010443285134277709 -0.0057056693263441895 0.05681583052634673
-0.010199678799621827 -0.005235755294322549 0.05669533922704671
-0.009951592201571675 -0.004760927978405991 0.05673611562750117
-0.009705312780955048 -0.004288082469167195 0.05671184086228571
-0.009452560974785532 -0.003808139185941996 0.05692054805077611
-0.009205391375648384 -0.0033343174794003548 0.056928316154921506
-0.008956344557884275 -0.0028584372010725372 0.05700365856688608
-0.008712738178724339 -0.00238852308361758 0.05688316726374693
-0.008457255827630345 -0.0019055853927579171 0.05719016282429111
-0.008205861182983488 -0.001427130370610602 0.05735001568243777
-0.00796225479458686 -0.0009572162354242022 0.05722952437850183
-0.007713207976822751 -0.0004813359570963846 0.057304866790466404
-0.007464161212799389 -5.455781933326161e-06 0.05738020920706689
-0.007210040776119702 0.000475988428078239 0.05763817968544245
-0.006962871284464047 0.0009498099282903621 0.05764594779885967
-0.006699284209802824 0.0014416354578963362 0.05824468329167203
-0.006453884345338829 0.0019135165071115028 0.058188744141714197
-0.013067465754666496 -0.009642686609272087 0.05939824703278644
-0.012838326470661562 -0.00918863776944942 0.05875700748039032
-0.012606304374074607 -0.008731427371246936 0.05821952990414799
-0.012373445946559931 -0.008273299826677624 0.05771215689911411
-0.01213753902922031 -0.0078118292138627185 0.05731451734524366
-0.01189289876351056 -0.007340781164139277 0.0572312356756813
-0.011649218986218502 -0.006870786592650891 0.05711338801778839
-0.011401892113792323 -0.006396792503817315 0.057126821210011156
-0.011157251873933554 -0.005925744482442857 0.05704353860991679
-0.010915919843932514 -0.005458324523260224 0.05684118143173788
-0.010664652609921626 -0.004980009312019686 0.056996451894330835
-0.010420972738073563 -0.004510014548376273 0.0568786037619001
-0.01016970542243216 -0.0040316991591552 0.057033873284689215
-0.009922378470414253 -0.0035577049388078796 0.05704730740280807
-0.009669883465848263 -0.003078043227934143 0.05724676882072762
-0.009417388527948507 -0.002598381634399658 0.05744622977801709
-0.009178782271327221 -0.0021339508059969436 0.057145754045238174
-0.008932334954318513 -0.0016609212130095877 0.05712752448498867
-0.00868412242321586 -0.0011859557950119836 0.05717283397207277
-0.008435002111113612 -0.0007099949205194502 0.057250821886508464
-0.00818588182486234 -0.00023403407437590186 0.057328808870412154
-0.007937669414166675 0.00024093112311769117 0.057374117901502084
-0.007686402085599783 0.0007192465265132559 0.05752938788955721
-0.0074381896232021535 0.0011942117807048193 0.05757469878171113
-0.0071890694036171226 0.0016701725095091158 0.057652685304984734
-0.006937801967568736 0.0021484881192341994 0.05780795528376803
-0.006679192770677269 0.0026348547540896326 0.05822750706972515
-0.0135511089676225 -0.009407413069353774 0.0590273581121364
-0.013305709533084482 -0.008935532845456682 0.05897141899926587
-0.01308307061220269 -0.008488612327996454 0.05809618459517601
-0.01284533500941359 -0.008025136322148163 0.057764370409598066
-0.012611217652064148 -0.007565628196177657 0.05730231384761453
-0.012366703345257874 -0.007094718276884246 0.057214498160890526
-0.012122189214638122 -0.006623808727726395 0.05712668388850818
-0.011878582892907733 -0.006153894709879247 0.05700619212394216
-0.01163318302198099 -0.005682013653576833 0.05695025320661732
-0.011388668891361236 -0.005211104104418982 0.056862438934234975
-0.011141499425556561 -0.004737282632555845 0.0568702061171202
-0.010894329826419412 -0.004263460926014203 0.056877974221265594
-0.010652870398707895 -0.003795901170099285 0.05668019897337439
-0.010398749989917975 -0.003314457034903494 0.056938170386917855
-0.010149703118413119 -0.0028385766534109176 0.05701351279424652
-0.00990161653532724 -0.0023637493981356413 0.05705429059513489
-0.00965710237312892 -0.001892839777718966 0.05696647585364743
-0.00940805552027714 -0.0014169594533107203 0.05704181919534721
-0.009161776112586003 -0.0009441139582464179 0.057017543964865754
-0.008912729268970913 -0.0004682336515696153 0.057092887307362325
-0.008664642711736016 6.593575356675981e-06 0.0571336641777187
-0.008411890972232739 0.00048653674124262336 0.05734237090557902
-0.008126617777217085 0.0010021440297408426 0.05872171618976465
-0.007914532810031023 0.0014374907550969039 0.05746658162889103
-0.0076673633183753686 0.001911312255309027 0.05747434974230825
-0.007418316326463527 0.002387192857305615 0.057549692605631086
-0.007161496689562239 0.0028715970053166486 0.05790482738347511
-0.006893552871570115 0.0033682002744330262 0.058660388225554
-0.013769667748459627 -0.00867867279631013 0.059309096458611966
-0.013543348778906061 -0.008227716623635924 0.058566329100302586
-0.013313539571506543 -0.007772932948171029 0.057949196356576305
-0.013082298316717228 -0.0073165788452387946 0.05738361159605987
-0.012838618298611198 -0.006846583832742387 0.057265764850155304
-0.012589498079026169 -0.0063706231039380905 0.05734375137342891
-0.012353591161686545 -0.005909152491123188 0.05694611181955846
-0.012106264048446398 -0.0054351579612815885 0.056959545923769575
-0.01185805158604877 -0.004960192707090026 0.057004856815923495
-0.01161160439664495 -0.004487163305871335 0.056986624934776714
-0.011367924524796888 -0.004017168542227922 0.05686877680234598
-0.011105034556529232 -0.003526107392595796 0.057442415372626836
-0.010870299668913959 -0.0030659220196017902 0.05700258549331836
-0.010622972689006287 -0.0025919277244386956 0.0570160186762693
-0.010376525381234267 -0.002118898149182783 0.0569977891168166
-0.010128312913109054 -0.001643932852081381 0.057043098609333404
-0.00987704564197171 -0.0011656175482936252 0.057198368135961644
-0.009632405483743452 -0.0006945697048997015 0.05711508647567111
-0.009362317803106332 -0.00019561536545647856 0.057947815866465635
-0.009135234521418503 0.00025617901977878195 0.05723255875151756
-0.008886114301833472 0.0007321397485830785 0.05731054527479117
-0.008639666940320706 0.0012051694270037508 0.057292315710702556
-0.008381057743429237 0.001691536061859184 0.05771186749665967
-0.008142451518386516 0.0021559668190030746 0.05741139223298587
-0.007888711772096591 0.0026369936406187454 0.0576556555004889
-0.007626853804907173 0.0031269229774820396 0.05819215003426615
-0.007346661540210673 0.0036369582721541777 0.059388606009818205
-0.014235034105530163 -0.008423356958906923 0.059596086444213624
-0.014019127064384348 -0.007983818829012593 0.05847853127191906
-0.013788258477332851 -0.00752787340504995 0.057899531962115384
-0.013555250101204609 -0.007069581422192406 0.057397556507937535
-0.013311643551585739 -0.006599666977511729 0.05727706519009385
-0.01306803725570633 -0.006129752988013567 0.057156572494995825
-0.012823523125086576 -0.005658843438855716 0.05706875822261348
-0.012574476120249244 -0.005182962822684633 0.05714410155120231
-0.01232730662859359 -0.0047091413224725105 0.057151869664619534
-0.012085847308363566 -0.004241581772887113 0.05695409442600017
-0.011838677735077397 -0.003767760094694456 0.05696186159961356
-0.01159239828860979 -0.003294914557106676 0.056937587764930096
-0.011346118908808423 -0.0028220691368581476 0.056913313469616554
-0.011099839462340817 -0.0023492235992703682 0.056889039634933095
-0.010850792631651215 -0.001873343306768058 0.05696438251216367
-0.010603623121342484 -0.0013995217494716036 0.05697214969120978
