ply
format ascii 1.0
element vertex 631
property float x
property float y
property float z
property uchar red
property uchar green
property uchar blue
end_header
0.00849516092053007 0.0037261098778555313 -0.00022187825067828106 33 221 0
0.00849516092053007 0.004304888673506785 0.000907274876748936 0 133 121
0.007916382262870402 -0.00727068406571182 0.0017047552938174466 0 25 229
0.007916382262870402 -0.006691905408052152 0.0009514653019849065 0 127 127
0.007916382262870402 -0.006113126750392484 0.00025307443436414323 0 220 34
0.007916382262870402 -0.005534348092732816 0.0002215748192334117 0 225 29
0.007916382262870402 -0.004955569435073148 -0.00042520719553245214 63 191 0
0.007916382262870402 -0.00437679077741348 -0.00062178228024189 93 161 0
0.007916382262870402 -0.003798012119753812 -0.0006185013923128042 92 162 0
0.007916382262870402 -0.003219233462094144 -0.0008150770289885828 122 132 0
0.007916382262870402 -0.0026404553564008167 -0.0010646811759475261 160 94 0
0.007916382262870402 -0.0020616766987411484 -0.0011320089262527122 170 84 0
0.007916382262870402 -0.0014828980410814805 -0.0011635085413834439 174 80 0
0.007916382262870402 -0.0009041193834218126 -0.0012308368436549709 185 69 0
0.007916382262870402 -0.00032534072576214464 -0.001158587761456156 174 80 0
0.007916382262870402 0.00025343793189752336 -0.0012259160637276827 184 70 0
0.007916382262870402 0.0008322165895571914 -0.0010343147477142396 155 99 0
0.007916382262870402 0.0014109952472168594 -0.001065814362844971 160 94 0
0.007916382262870402 0.0019897739048765272 -0.0008262460678925281 124 130 0
0.007916382262870402 0.0025685525625361956 -0.0006346447518790849 95 159 0
0.007916382262870402 0.0031473312201958635 -0.0005269285204926291 79 175 0
0.007916382262870402 0.0037261098778555313 0.00011877881580790328 0 239 15
0.007916382262870402 0.004304888673506785 0.0010139517555158646 0 118 136
0.007337603605210734 -0.007849462723371487 0.001007366245105043 0 119 135
0.007337603605210734 -0.00727068406571182 0.0013104415793523875 0 78 176
0.007337603605210734 -0.006691905408052152 0.000515424036096054 0 185 69
0.007337603605210734 -0.006113126750392484 0.00012957086170115446 0 237 17
0.007337603605210734 -0.005534348092732816 -0.0002075188463251239 31 223 0
0.007337603605210734 -0.004955569435073148 -0.0005933720207200236 89 165 0
0.007337603605210734 -0.00437679077741348 -0.000596651804716428 89 165 0
0.007337603605210734 -0.003798012119753812 -0.0008848488862503626 133 121 0
0.007337603605210734 -0.003219233462094144 -0.0009224979583827672 138 116 0
0.007337603605210734 -0.0026404553564008167 -0.0010302147417355636 154 100 0
0.007337603605210734 -0.0020616766987411484 -0.0011024638239343785 165 89 0
0.007337603605210734 -0.0014828980410814805 -0.0014883158943965968 223 31 0
0.007337603605210734 -0.0009041193834218126 -0.0011320276931082959 170 84 0
0.007337603605210734 -0.00032534072576214464 -0.0016961190784084343 255 0 0
0.007337603605210734 0.00025343793189752336 -0.0012417861999553198 186 68 0
0.007337603605210734 0.0008322165895571914 -0.0010452094593468599 157 97 0
0.007337603605210734 0.0014109952472168594 -0.0010484903472759456 157 97 0
0.007337603605210734 0.0019897739048765272 -0.0009811620450044186 147 107 0
0.007337603605210734 0.0025685525625361956 -0.0006780867107570742 101 153 0
0.007337603605210734 0.0031473312201958635 -0.00037501192847607046 56 198 0
0.007337603605210734 0.0037261098778555313 0.00032337949111103345 0 211 43
0.007337603605210734 0.004304888673506785 0.00043927310383487246 0 195 59
0.007337603605210734 0.004883667331166452 0.0012224217148672605 0 90 164
0.0067588249475510655 -0.007849462723371487 0.000927383562506763 0 130 124
0.0067588249475510655 -0.00727068406571182 0.0012644749264320635 0 85 169
0.0067588249475510655 -0.006691905408052152 0.0005915263953192545 0 175 79
0.0067588249475510655 -0.006113126750392484 -0.00010686502426784938 16 238 0
0.0067588249475510655 -0.005534348092732816 -3.461704600171583e-05 5 249 0
0.0067588249475510655 -0.004955569435073148 -0.0007075650251481839 106 148 0
0.0067588249475510655 -0.00437679077741348 -0.0007748933274197109 116 138 0
0.0067588249475510655 -0.003798012119753812 -0.0008422216296912378 126 128 0
0.0067588249475510655 -0.003219233462094144 -0.0010387967144006758 156 98 0
0.0067588249475510655 -0.0026404553564008167 -0.0011436438247482035 171 83 0
0.0067588249475510655 -0.0020616766987411484 -0.001105994200649458 166 88 0
0.0067588249475510655 -0.0014828980410814805 -0.001302569285358896 195 59 0
0.0067588249475510655 -0.0009041193834218126 -0.0012992900533288323 195 59 0
0.0067588249475510655 -0.00032534072576214464 -0.0011915721660433545 179 75 0
0.0067588249475510655 0.00025343793189752336 -0.000999971401996252 150 104 0
0.0067588249475510655 0.0008322165895571914 -0.0008922546186434556 134 120 0
0.0067588249475510655 0.0014109952472168594 -0.0007845383872569998 117 137 0
0.0067588249475510655 0.0019897739048765272 -0.001034140878316921 155 99 0
0.0067588249475510655 0.0025685525625361956 4.256661528290447e-05 0 249 5
0.0067588249475510655 0.0031473312201958635 4.584584731296819e-05 0 248 6
0.0067588249475510655 0.0037261098778555313 0.0006915531836135006 0 162 92
0.006180046289891398 -0.008428241381031156 0.0011662536200382275 0 98 156
0.006180046289891398 -0.007849462723371487 0.0009746528559911251 0 124 130
0.006180046289891398 -0.00727068406571182 0.00045286417104178336 0 194 60
0.006180046289891398 -0.006691905408052152 0.00038061619277564984 0 203 51
0.006180046289891398 -0.006113126750392484 -0.0003044446877173506 45 209 0
0.006180046289891398 -0.005534348092732816 -0.0004960460037307939 74 180 0
0.006180046289891398 -0.004955569435073148 -0.000687647319744237 103 151 0
0.006180046289891398 -0.00437679077741348 -0.0007252969438429823 109 145 0
0.006180046289891398 -0.003798012119753812 -0.0009168977078900849 137 117 0
0.006180046289891398 -0.003219233462094144 -0.0010246144912428815 154 100 0
0.006180046289891398 -0.0026404553564008167 -0.0015464031761922232 232 22 0
0.006180046289891398 -0.0020616766987411484 -0.000986079513133663 148 106 0
0.006180046289891398 -0.0014828980410814805 -0.0010583269394334556 159 95 0
0.006180046289891398 -0.0009041193834218126 -0.0013465240209673904 202 52 0
0.006180046289891398 -0.00032534072576214464 -0.0011499489362579525 172 82 0
0.006180046289891398 0.00025343793189752336 -0.0011875985603566979 178 76 0
0.006180046289891398 0.0008322165895571914 -0.0011560989452259662 173 81 0
0.006180046289891398 0.0014109952472168594 -0.00115937817725603 174 80 0
0.006180046289891398 0.0019897739048765272 -0.0007508391862586024 112 142 0
0.006180046289891398 0.0025685525625361956 9.233134859354474e-05 0 242 12
0.006180046289891398 0.0031473312201958635 0.0003954061308745485 0 201 53
0.006180046289891398 0.0037261098778555313 -0.0002896547496184519 43 211 0
0.006180046289891398 0.004304888673506785 0.0002027820212317991 0 227 27
0.00560126763223173 -0.007849462723371487 0.0007983846129558235 0 147 107
0.00560126763223173 -0.00727068406571182 0.0004420964116675226 0 195 59
0.00560126763223173 -0.006691905408052152 0.0005143454938663375 0 185 69
0.00560126763223173 -0.006113126750392484 -0.00023894449796620264 35 219 0
0.00560126763223173 -0.005534348092732816 -0.0004355195826756405 65 189 0
0.00560126763223173 -0.004955569435073148 -0.0007918077839639415 119 135 0
0.00560126763223173 -0.00437679077741348 -0.0008966543423451285 134 120 0
0.00560126763223173 -0.003798012119753812 -0.0010932299790209071 164 90 0
0.00560126763223173 -0.003219233462094144 -0.0008050328974869723 121 133 0
0.00560126763223173 -0.0026404553564008167 -0.0011613205468089325 174 80 0
0.00560126763223173 -0.0020616766987411484 -0.0011928201619396642 179 75 0
0.00560126763223173 -0.0014828980410814805 -0.001389395246649102 208 46 0
0.00560126763223173 -0.0009041193834218126 -0.0014208948617798335 213 41 0
0.00560126763223173 -0.00032534072576214464 -0.0009424360865413202 141 113 0
0.00560126763223173 0.00025343793189752336 -0.001139011171250758 171 83 0
0.00560126763223173 0.0008322165895571914 -0.0010312949398643024 155 99 0
0.00560126763223173 0.0014109952472168594 -0.0008396936238508591 126 128 0
0.00560126763223173 0.0019897739048765272 -0.00031790604283419866 47 207 0
0.00560126763223173 0.0025685525625361956 1.9185321091101793e-05 0 252 2
0.00560126763223173 0.0031473312201958635 0.00100761849372274 0 119 135
0.00560126763223173 0.0037261098778555313 0.0016926796501989109 0 27 227
0.005022488974572061 -0.008428241381031156 0.000740211224411049 0 155 99
0.005022488974572061 -0.007849462723371487 0.0007717097356090992 0 151 103
0.005022488974572061 -0.00727068406571182 0.0004835137580078458 0 190 64
0.005022488974572061 -0.006691905408052152 5.0549827693324845e-06 0 254 0
0.005022488974572061 -0.006113126750392484 -0.00033203638115596797 49 205 0
0.005022488974572061 -0.005534348092732816 -0.0006202334626899026 93 161 0
0.005022488974572061 -0.004955569435073148 -0.0007279496940763584 109 145 0
0.005022488974572061 -0.00437679077741348 -0.0008356675813618362 125 129 0
0.005022488974572061 -0.003798012119753812 -0.000943383812748292 141 113 0
0.005022488974572061 -0.003219233462094144 -0.0010156317910144255 152 102 0
0.005022488974572061 -0.0026404553564008167 -0.0010878808732132405 163 91 0
0.005022488974572061 -0.0020616766987411484 -0.0011955971045996962 179 75 0
0.005022488974572061 -0.0014828980410814805 -0.0011282688023281692 169 85 0
0.005022488974572061 -0.0009041193834218126 -0.0006006232025377223 90 164 0
0.005022488974572061 -0.00032534072576214464 -0.0012463305388382548 187 67 0
0.005022488974572061 0.00025343793189752336 -0.001214830923707523 182 72 0
0.005022488974572061 0.0008322165895571914 -0.001147503173402337 172 82 0
0.005022488974572061 0.0014109952472168594 -0.00108017487113081 162 92 0
0.005022488974572061 0.0019897739048765272 -0.0010486752560000783 157 97 0
0.005022488974572061 0.0025685525625361956 0.000148821239799202 0 234 20
0.005022488974572061 0.0031473312201958635 0.001346318839531164 0 74 180
0.005022488974572061 0.0037261098778555313 0.0012740708612650304 0 83 171
0.004443710316912393 -0.007849462723371487 0.0007816771437893533 0 149 105
0.004443710316912393 -0.00727068406571182 0.0003731381527919258 0 204 50
0.004443710316912393 -0.006691905408052152 1.6850503469965564e-05 0 252 2
0.004443710316912393 -0.006113126750392484 -5.047779880156139e-05 7 247 0
0.004443710316912393 -0.005534348092732816 -0.00045901678979898893 69 185 0
0.004443710316912393 -0.004955569435073148 -0.0008153049910872899 122 132 0
0.004443710316912393 -0.00437679077741348 -0.0006237036750738466 93 161 0
0.004443710316912393 -0.003798012119753812 -0.0008202787597832845 123 131 0
0.004443710316912393 -0.003219233462094144 -0.001016854396459063 152 102 0
0.004443710316912393 -0.0026404553564008167 -0.001213429481168501 182 72 0
0.004443710316912393 -0.0020616766987411484 -0.0012807577834400277 192 62 0
0.004443710316912393 -0.0014828980410814805 -0.0010891564674265846 163 91 0
0.004443710316912393 -0.0009041193834218126 -0.0012857315521360225 193 61 0
0.004443710316912393 -0.00032534072576214464 -0.001213483573869889 182 72 0
0.004443710316912393 0.00025343793189752336 -0.0014100592105456675 211 43 0
0.004443710316912393 0.0008322165895571914 -0.0007643513222787944 114 140 0
0.004443710316912393 0.0014109952472168594 -0.0004761558966438818 71 183 0
0.004443710316912393 0.0019897739048765272 -0.00018795881510994705 28 226 0
0.004443710316912393 0.0025685525625361956 0.0006746900599389545 0 164 90
0.004443710316912393 0.0031473312201958635 -0.00010845855109343357 16 238 0
0.003864931659252725 -0.007849462723371487 0.0007518610259977387 0 153 101
0.003864931659252725 -0.00727068406571182 0.00023007344498107842 0 224 30
0.003864931659252725 -0.006691905408052152 -5.812363655285628e-05 8 246 0
0.003864931659252725 -0.006113126750392484 -0.00039521334457913465 59 195 0
0.003864931659252725 -0.005534348092732816 -0.0005029312318646126 75 179 0
0.003864931659252725 -0.004955569435073148 -0.0005751786581644053 86 168 0
0.003864931659252725 -0.00437679077741348 -0.0008147469531168482 122 132 0
0.003864931659252725 -0.003798012119753812 -0.0008869949313829818 133 121 0
0.003864931659252725 -0.003219233462094144 -0.001126562674369084 169 85 0
0.003864931659252725 -0.0026404553564008167 -0.001095063611204693 164 90 0
0.003864931659252725 -0.0020616766987411484 -0.0011673121414371673 175 79 0
0.003864931659252725 -0.0014828980410814805 -0.0011705919254335717 175 79 0
0.003864931659252725 -0.0009041193834218126 -0.001278309260752709 192 62 0
0.003864931659252725 -0.00032534072576214464 -0.0010817330721105897 162 92 0
0.003864931659252725 0.00025343793189752336 -0.0011894504074297268 178 76 0
0.003864931659252725 0.0008322165895571914 -0.0009928742187876075 149 105 0
0.003864931659252725 0.0014109952472168594 -0.0007432711757613457 111 143 0
0.003864931659252725 0.0019897739048765272 -0.00028893829730823123 43 211 0
0.003864931659252725 0.0025685525625361956 0.0007732143958538311 0 151 103
0.0032861530015930573 -0.007849462723371487 0.0015770697481741884 0 43 211
0.0032861530015930573 -0.00727068406571182 0.0003795729763917376 0 203 51
0.0032861530015930573 -0.006691905408052152 -2.8966014605689945e-05 4 250 0
0.0032861530015930573 -0.006113126750392484 -0.00027857016156463316 41 213 0
0.0032861530015930573 -0.005534348092732816 -0.000475145246274071 71 183 0
0.0032861530015930573 -0.004955569435073148 -0.0006717203309835088 100 154 0
0.0032861530015930573 -0.00437679077741348 -0.0008682954156929467 130 124 0
0.0032861530015930573 -0.003798012119753812 -0.0009731425260404744 146 108 0
0.0032861530015930573 -0.003219233462094144 -0.001077989636388002 162 92 0
0.0032861530015930573 -0.0026404553564008167 -0.001109488699552393 166 88 0
0.0032861530015930573 -0.0020616766987411484 -0.0013590917425786548 204 50 0
0.0032861530015930573 -0.0014828980410814805 -0.0013214421184799094 198 56 0
0.0032861530015930573 -0.0009041193834218126 -0.0012137258870934537 182 72 0
0.0032861530015930573 -0.00032534072576214464 -0.0011760762629947086 176 78 0
0.0032861530015930573 0.00025343793189752336 -0.0008878802853934551 133 121 0
0.0032861530015930573 0.0008322165895571914 -0.0005996832038595205 90 164 0
0.0032861530015930573 0.0014109952472168594 0.00035831123294820043 0 206 48
0.0032861530015930573 0.0019897739048765272 0.0006954020449071603 0 161 93
0.0027073743439333894 -0.008428241381031156 0.0013311339695154982 0 76 178
0.0027073743439333894 -0.007849462723371487 0.0011395329294852255 0 101 153
0.0027073743439333894 -0.00727068406571182 0.0003797628528129363 0 203 51
0.0027073743439333894 -0.006691905408052152 -0.0001843285324872021 27 227 0
0.0027073743439333894 -0.006113126750392484 -0.00037592984850064534 56 198 0
0.0027073743439333894 -0.005534348092732816 -0.00048364718381978245 72 182 0
0.0027073743439333894 -0.004955569435073148 -0.0006752484998332257 101 153 0
0.0027073743439333894 -0.00437679077741348 -0.0010611005702954438 159 95 0
0.0027073743439333894 -0.003798012119753812 -0.0009562534599479161 143 111 0
0.0027073743439333894 -0.003219233462094144 -0.0008889257096427299 133 121 0
0.0027073743439333894 -0.0026404553564008167 -0.001128493452628832 169 85 0
0.0027073743439333894 -0.0020616766987411484 -0.001166141972794896 175 79 0
0.0027073743439333894 -0.0014828980410814805 -0.0012738598600803737 191 63 0
0.0027073743439333894 -0.0009041193834218126 -0.0010772842234045951 161 93 0
0.0027073743439333894 -0.00032534072576214464 -0.001114932743570659 167 87 0
0.0027073743439333894 0.00025343793189752336 -0.0010476044412991322 157 97 0
0.0027073743439333894 0.0008322165895571914 -0.0008510293565896943 127 127 0
0.0027073743439333894 0.0014109952472168594 -0.0004424903655922668 66 188 0
0.0027073743439333894 0.0019897739048765272 0.0005231587404282 0 184 70
0.002707374343933389 0.0025685525625361956 0.0017902154143976043 0 14 240
0.0021285956172779285 -0.007849462723371487 0.0012373093510084615 0 88 166
0.0021285956172779285 -0.00727068406571182 0.0005905278882089382 0 175 79
0.0021285956172779285 -0.006691905408052152 6.288173645215066e-05 0 246 8
0.0021285956172779285 -0.006113126750392484 -0.0002934064648361503 44 210 0
0.0021285956172779285 -0.005534348092732816 -0.0004899815495455882 73 181 0
0.0021285956172779285 -0.004955569435073148 -0.00041773357127945456 62 192 0
0.0021285956172779285 -0.00437679077741348 -0.0008720670016989098 131 123 0
0.0021285956172779285 -0.003798012119753812 -0.001068643190341029 160 94 0
0.0021285956172779285 -0.003219233462094144 -0.0008290754473549268 124 130 0
0.0021285956172779285 -0.0026404553564008167 -0.0013567210471453737 203 51 0
0.0021285956172779285 -0.0020616766987411484 -0.0013882206622761054 208 46 0
0.0021285956172779285 -0.0014828980410814805 -0.0008664319773267635 130 124 0
0.0021285956172779285 -0.0009041193834218126 -0.0010630081659688828 159 95 0
0.0021285956172779285 -0.00032534072576214464 -0.0007748110844349481 116 138 0
0.0021285956172779285 0.00025343793189752336 -0.000771530748472203 115 139 0
0.0021285956172779285 0.0008322165895571914 -0.0005319624535197601 79 175 0
0.0021285956172779285 0.0014109952472168594 0.00036320993422186054 0 206 48
0.0021285956172779285 0.0019897739048765272 0.0014399177038048562 0 61 193
0.0015498169941161567 -0.008428241381031156 0.0012566673625429446 0 86 168
0.0015498169941161567 -0.007849462723371487 0.0014532424472523825 0 59 195
0.0015498169941161569 -0.00727068406571182 0.00029133729306739893 0 215 39
0.0015498169941161569 -0.006691905408052152 -0.00027275409223273946 41 213 0
0.0015498169941161569 -0.006113126750392484 -0.0002760349801618253 41 213 0
0.0015498169941161569 -0.005534348092732816 -0.0004676362961752685 70 184 0
0.0015498169941161569 -0.004955569435073148 -0.000659237060222371 99 155 0
0.0015498169941161569 -0.00437679077741348 -0.0006625168442187754 99 155 0
0.001549816994116157 -0.003798012119753812 -0.0014222863689247237 213 41 0
0.001549816994116157 -0.003219233462094144 -0.0008946402171679361 134 120 0
0.001549816994116157 -0.0026404553564008167 -0.0008979211050970219 134 120 0
0.001549816994116157 -0.0020616766987411484 -0.0012350119170559818 185 69 0
0.001549816994116157 -0.0014828980410814805 -0.001038436832346544 156 98 0
0.001549816994116157 -0.0009041193834218126 -0.0014242889028087621 214 40 0
0.001549816994116157 -0.00032534072576214464 -0.0010157499118113344 152 102 0
0.001549816994116157 0.00025343793189752336 -0.000984250296680603 147 107 0
0.0015498169941161569 0.0008322165895571914 -0.00042392663362204256 63 191 0
0.0015498169941161569 0.0014109952472168594 0.0004799624065718195 0 190 64
0.0015498169941161567 0.0019897739048765272 0.0014145788609857821 0 64 190
0.0015498169941161567 0.0025685525625361956 0.0014819068872741386 0 55 199
0.000971038332144252 -0.007849462723371487 0.0011200639727162625 0 104 150
0.000971038332144252 -0.00727068406571182 0.0005924178209594748 0 175 79
0.0009710383321442521 -0.006691905408052152 -0.0002507527138926723 37 217 0
0.0009710383321442521 -0.006113126750392484 -0.0002474734818626086 37 217 0
0.0009710383321442521 -0.005534348092732816 -0.00027897254502699944 41 213 0
0.0009710383321442521 -0.004955569435073148 -0.0003838196553745272 57 197 0
0.0009710383321442522 -0.00437679077741348 -0.0008381525338276416 126 128 0
0.0009710383321442522 -0.003798012119753812 -0.001141227868074986 171 83 0
0.0009710383321442522 -0.003219233462094144 -0.0011035782439762407 165 89 0
0.0009710383321442522 -0.0026404553564008167 -0.0010659286198774953 160 94 0
0.0009710383321442522 -0.0020616766987411484 -0.0008743278558303929 131 123 0
0.0009710383321442522 -0.0014828980410814805 -0.0011239314508229954 168 86 0
0.0009710383321442522 -0.0009041193834218126 -0.0008357343692890607 125 129 0
0.0009710383321442522 -0.00032534072576214464 -0.0007980852971566561 119 135 0
0.0009710383321442521 0.00025343793189752336 -0.00031962596995180207 48 206 0
0.000971038332144252 0.0008322165895571914 0.0004753910213381908 0 191 63
0.0009710383321442519 0.0014109952472168594 0.0014638236420034885 0 58 196
0.0009710383321442519 0.0019897739048765272 0.001849676816398388 0 6 248
0.0003922596442989247 -0.008428241381031156 0.0009462586034931379 0 127 127
0.0003922596442989247 -0.007849462723371487 0.0008385423721066822 0 142 112
0.0003922596442989248 -0.00727068406571182 0.00019283503580614983 0 229 25
0.0003922596442989248 -0.006691905408052152 -0.0001442563281191506 21 233 0
0.0003922596442989248 -0.006113126750392484 -0.0002165037544189435 32 222 0
0.00039225964429892487 -0.005534348092732816 -0.0003242205377717399 48 206 0
0.00039225964429892487 -0.004955569435073148 -0.0005158218537851833 77 177 0
0.0003922596442989249 -0.00437679077741348 -0.0008040189353191179 120 134 0
0.0003922596442989249 -0.003798012119753812 -0.0010435866783052201 156 98 0
0.0003922596442989249 -0.003219233462094144 -0.0010120870631744885 152 102 0
0.0003922596442989249 -0.0026404553564008167 -0.0009805880000100977 147 107 0
0.0003922596442989249 -0.0020616766987411484 -0.0010182376241088431 153 101 0
0.0003922596442989249 -0.0014828980410814805 -0.0009867380089781115 148 106 0
0.0003922596442989249 -0.0009041193834218126 -0.00095523839384738 143 111 0
0.00039225964429892487 0.00025343793189752336 -0.0006203896691643197 93 161 0
0.00039225964429892476 0.0008322165895571914 0.00040880732166026013 0 200 54
0.00039225964429892465 0.0014109952472168594 0.0013744567036638974 0 70 184
0.0003922596442989247 0.0019897739048765272 0.0010373656157217671 0 115 139
-0.0001865189443649507 -0.007849462723371487 0.000813498555296709 0 145 109
-0.00018651894436495065 -0.00727068406571182 0.00045721035400840803 0 193 61
-0.00018651894436495057 -0.006691905408052152 -0.00032593825702398 49 205 0
-0.00018651894436495062 -0.006113126750392484 0.00023815312827615834 0 222 32
-0.00018651894436495057 -0.005534348092732816 -0.00025428309060775194 38 216 0
-0.0001865189443649506 -0.004955569435073148 -1.4715347621649816e-05 2 252 0
-0.00018651894436495052 -0.00437679077741348 -0.0006614968104211729 99 155 0
-0.0001865189443649505 -0.003798012119753812 -0.0009110998534474348 136 118 0
-0.0001865189443649505 -0.003219233462094144 -0.0008734513332813708 131 123 0
-0.0001865189443649505 -0.0026404553564008167 -0.0008012022510825559 120 134 0
-0.00018651894436495052 -0.0020616766987411484 -0.000728954824782763 109 145 0
-0.00018651894436495052 -0.0014828980410814805 -0.0007604527840144725 114 140 0
-0.00018651894436495054 -0.0009041193834218126 -0.00037460071355225423 56 198 0
-0.00018651894436495057 -0.00032534072576214464 -0.0002668844821657985 40 214 0
-0.00018651894436495065 0.00025343793189752336 0.00037882285413473393 0 204 50
-0.00018651894436495076 0.0008322165895571914 0.0013672565787327129 0 71 183
-0.00018651894436495081 0.0014109952472168594 0.0018457156299543965 0 6 248
-0.0007652976020246187 -0.008428241381031156 0.0009315034392737029 0 129 125
-0.0007652976020246187 -0.007849462723371487 0.0005944126273147431 0 175 79
-0.0007652976020246186 -0.00727068406571182 0.00020856055685252492 0 226 28
-0.0007652976020246186 -0.006691905408052152 -0.00012853080707277554 19 235 0
-0.0007652976020246186 -0.006113126750392484 -0.00016618043117152083 24 230 0
-0.0007652976020246186 -0.005534348092732816 -0.0002384278574713137 35 219 0
-0.0007652976020246185 -0.004955569435073148 -0.0005266249390052484 79 175 0
-0.0007652976020246185 -0.00437679077741348 -0.0006343428262907262 95 159 0
-0.0007652976020246186 -0.003798012119753812 -0.000437766637648607 65 189 0
-0.0007652976020246185 -0.003219233462094144 -0.0008236198120435066 123 131 0
-0.0007652976020246185 -0.0026404553564008167 -0.000792120196912775 119 135 0
-0.0007652976020246186 -0.0020616766987411484 -0.00043583199562447416 65 189 0
-0.0007652976020246185 -0.0014828980410814805 -0.0008216840660866924 123 131 0
-0.0007652976020246185 -0.0009041193834218126 -0.0005186092838056885 77 177 0
-0.0007652976020246186 -0.00032534072576214464 0.00010092049682108495 0 241 13
-0.0007652976020246188 0.0014109952472168594 0.0018035412617778113 0 12 242
-0.0013440762596842867 -0.007849462723371487 0.0007319698149781444 0 156 98
-0.0013440762596842867 -0.00727068406571182 0.00032343027201437623 0 211 43
-0.0013440762596842867 -0.006691905408052152 -3.2857377307583994e-05 4 250 0
-0.0013440762596842867 -0.006113126750392484 -0.00022943411791604394 34 220 0
-0.0013440762596842867 -0.005534348092732816 -3.7832801902600705e-05 5 249 0
-0.0013440762596842867 -0.004955569435073148 -0.0005302690207865111 79 175 0
-0.0013440762596842867 -0.00437679077741348 -0.0006351161311340389 95 159 0
-0.0013440762596842867 -0.003798012119753812 -0.0005628670489352239 84 170 0
-0.0013440762596842867 -0.003219233462094144 -0.0005943666640659554 89 165 0
-0.0013440762596842867 -0.0026404553564008167 -0.0006616949663374824 99 155 0
-0.0013440762596842867 -0.0020616766987411484 -0.0002758428958752641 41 213 0
-0.0013440762596842867 -0.0014828980410814805 -0.00030734085510697353 46 208 0
-0.0013440762596842867 -0.0009041193834218126 -0.00023509342880718065 35 219 0
-0.0013440762596842867 -0.00032534072576214464 0.00015075864165503753 0 234 20
-0.001344076259684287 0.0008322165895571914 0.0018642122980142264 0 4 250
-0.0019228549173439548 -0.008428241381031156 0.0008756433416627773 0 137 117
-0.0019228549173439548 -0.007849462723371487 0.0006840431295820154 0 163 91
-0.0019228549173439548 -0.00727068406571182 0.00020558325041082073 0 227 27
-0.0019228549173439548 -0.006691905408052152 1.3983038330058877e-05 0 253 1
-0.0019228549173439548 -0.006113126750392484 -0.00046447684084113583 69 185 0
-0.0019228549173439548 -0.005534348092732816 -0.00021487324584853337 32 222 0
-0.0019228549173439548 -0.004955569435073148 -0.0004064740098956359 61 193 0
-0.0019228549173439548 -0.00437679077741348 -0.0005141907932484323 77 177 0
-0.0019228549173439548 -0.003798012119753812 -0.0004826922820503822 72 182 0
-0.0019228549173439548 -0.003219233462094144 -0.00028611609340826295 43 211 0
-0.0019228549173439548 -0.0026404553564008167 -0.0006232069053672227 93 161 0
-0.0019228549173439548 -0.0020616766987411484 -0.0005183603469860357 77 177 0
-0.0019228549173439548 -0.0014828980410814805 -0.0002152850127386912 32 222 0
-0.0019228549173439548 -0.0009041193834218126 -0.00018378705350698176 27 227 0
-0.0019228549173439548 -0.00032534072576214464 0.0002705474808451548 0 218 36
-0.001922854917343955 0.00025343793189752336 0.0011439685309990427 0 101 153
-0.001922854917343955 0.0008322165895571914 0.0012112968332705697 0 92 162
-0.002501633575003623 -0.007849462723371487 0.0007619940240802005 0 152 102
-0.002501633575003623 -0.00727068406571182 0.00040570637475824026 0 200 54
-0.002501633575003623 -0.006691905408052152 4.941817346993934e-05 0 248 6
-0.002501633575003623 -0.006113126750392484 0.00033761415107119263 0 209 45
-0.002501633575003623 -0.005534348092732816 3.453881682384819e-05 0 250 4
-0.002501633575003623 -0.004955569435073148 -3.278948544767876e-05 4 250 0
-0.002501633575003623 -0.00437679077741348 -0.00044132847644510635 66 188 0
-0.002501633575003623 -0.003798012119753812 -0.0005086562267502926 76 178 0
-0.002501633575003623 -0.003219233462094144 -0.00043640769651781834 65 189 0
-0.002501633575003623 -0.0026404553564008167 -0.0007394824787988221 111 143 0
-0.002501633575003623 -0.0020616766987411484 -0.00026102370356030874 39 215 0
-0.002501633575003623 -0.0014828980410814805 -0.0002925233186910403 43 211 0
-0.002501633575003623 -0.0009041193834218126 0.00018593600851381378 0 230 24
-0.002501633575003623 -0.00032534072576214464 0.0009809529998038068 0 123 131
-0.003080412232663291 -0.008428241381031156 0.0010391423953724612 0 115 139
-0.003080412232663291 -0.007849462723371487 0.0007020515834135014 0 160 94
-0.003080412232663291 -0.00727068406571182 0.0003161995129512832 0 212 42
-0.003080412232663291 -0.006691905408052152 0.00020848162566580535 0 226 28
-0.003080412232663291 -0.006113126750392484 1.6880309652362126e-05 0 252 2
-0.003080412232663291 -0.005534348092732816 -0.00017472100636108112 26 228 0
-0.003080412232663291 -0.004955569435073148 -0.00028243723774753685 42 212 0
-0.003080412232663291 -0.00437679077741348 -0.0004740385537609801 71 183 0
-0.003080412232663291 -0.003798012119753812 -0.0006656398697744233 100 154 0
-0.003080412232663291 -0.003219233462094144 -0.0009538369513083579 143 111 0
-0.003080412232663291 -0.0026404553564008167 -0.0006507616170610135 97 157 0
-0.003080412232663291 -0.0020616766987411484 -0.0005834333147894865 87 167 0
-0.003080412232663291 -0.0014828980410814805 -0.00028035742857580143 42 212 0
-0.003080412232663291 -0.0009041193834218126 0.0001281804584889447 0 237 17
-0.003080412232663291 -0.00032534072576214464 0.0006885046735138459 0 162 92
-0.003080412232663291 0.00025343793189752336 0.0015316760363155038 0 49 205
-0.0036591908903229587 -0.00727068406571182 9.904712306076879e-05 0 241 13
-0.0036591908903229587 -0.006691905408052152 0.0002067639064135652 0 227 27
-0.0036591908903229587 -0.006113126750392484 1.0188821704127346e-05 0 253 1
-0.0036591908903229587 -0.005534348092732816 -5.7139480567399605e-05 8 246 0
-0.0036591908903229587 -0.004955569435073148 -0.00016198659091492737 24 230 0
-0.0036591908903229587 -0.00437679077741348 -0.0004650613731959311 69 185 0
-0.0036591908903229587 -0.003798012119753812 -0.0007146644162221929 107 147 0
-0.0036591908903229587 -0.003219233462094144 -0.0007461640313529244 112 142 0
-0.0036591908903229587 -0.0026404553564008167 -0.0007085144072541791 106 148 0
-0.0036591908903229587 -0.0020616766987411484 -0.00010312379641062597 15 239 0
-0.0036591908903229587 -0.0014828980410814805 8.847751960281726e-05 0 243 11
-0.0036591908903229587 -0.0009041193834218126 0.00047432959006503547 0 191 63
-0.0036591908903229587 -0.00032534072576214464 0.001269347133321369 0 84 170
-0.004237969547982627 -0.007849462723371487 0.0007023303264155517 0 160 94
-0.004237969547982627 -0.00727068406571182 0.0003652389624902513 0 205 49
-0.004237969547982627 -0.006691905408052152 0.0001736381984431488 0 231 23
-0.004237969547982627 -0.006113126750392484 0.00013598967827708488 0 236 18
-0.004237969547982627 -0.005534348092732816 9.834005417833956e-05 0 241 13
-0.004237969547982627 -0.004955569435073148 -0.00028751312021656005 43 211 0
-0.004237969547982627 -0.00437679077741348 -0.00039522990356935647 59 195 0
-0.004237969547982627 -0.003798012119753812 -0.0007323207155283162 110 144 0
-0.004237969547982627 -0.003219233462094144 -0.0007008211003975847 105 149 0
-0.004237969547982627 -0.0026404553564008167 -0.0005042460156881468 75 179 0
-0.004237969547982627 -0.0020616766987411484 -9.570702469071927e-05 14 240 0
-0.004237969547982627 -0.0014828980410814805 -6.420740955998776e-05 9 245 0
-0.004237969547982627 -0.0009041193834218126 0.0005266234331487361 0 184 70
-0.004237969547982627 -0.00032534072576214464 0.0008296987673960806 0 143 111
-0.004237969547982627 0.00025343793189752336 0.0016427934842933169 0 34 220
-0.004816748205642294 -0.00727068406571182 0.0007437592640490296 0 155 99
-0.004816748205642294 -0.006691905408052152 0.00018343670492315054 0 230 24
-0.004816748205642294 -0.006113126750392484 0.0005692887753853688 0 178 76
-0.004816748205642294 -0.005534348092732816 0.0005019604731138419 0 187 67
-0.004816748205642294 -0.004955569435073148 0.00025235743008758 0 221 33
-0.004816748205642294 -0.00437679077741348 -0.0003079662329709804 46 208 0
-0.004816748205642294 -0.003798012119753812 -0.0003394652961353712 51 203 0
-0.004816748205642294 -0.003219233462094144 -5.1268214601436486e-05 7 247 0
-0.004816748205642294 -0.0026404553564008167 2.097921169835638e-05 0 252 2
-0.004816748205642294 -0.0020616766987411484 0.0002125805277117996 0 226 28
-0.004816748205642294 -0.0014828980410814805 0.00010773341736427185 0 240 14
-0.004816748205642294 -0.0009041193834218126 0.000753441305631145 0 153 101
-0.004816748205642294 -0.00032534072576214464 0.0004503659713838005 0 194 60
-0.005395526863301962 -0.00727068406571182 0.0009140138338024687 0 132 122
-0.005395526863301962 -0.006691905408052152 0.00043555505856395535 0 196 58
-0.005395526863301962 -0.006113126750392484 0.0004670530177956648 0 192 62
-0.005395526863301962 -0.005534348092732816 0.0005343824239998731 0 183 71
-0.005395526863301962 -0.004955569435073148 0.0004967327999011278 0 188 66
-0.005395526863301962 -0.00437679077741348 0.00030513203585402527 0 213 41
-0.005395526863301962 -0.003798012119753812 0.0003018511479249395 0 214 40
-0.005395526863301962 -0.003219233462094144 0.00029857191589487575 0 214 40
-0.005395526863301962 -0.0026404553564008167 0.00026092229179613046 0 219 35
-0.005395526863301962 -0.0020616766987411484 0.00022327266769738517 0 224 30
-0.005395526863301962 -0.0014828980410814805 0.0002906009699689121 0 215 39
-0.005395526863301962 -0.0009041193834218126 0.00025295134587016683 0 221 33
-0.005395526863301962 -0.00032534072576214464 0.001006241337702707 0 119 135
-0.005395526863301962 0.00025343793189752336 0.001597072180411431 0 40 214
-0.00597430552096163 -0.006691905408052152 0.0010720947859118994 0 110 144
-0.00597430552096163 -0.006113126750392484 0.0005444486341551116 0 181 73
-0.00597430552096163 -0.005534348092732816 0.0011498397969650054 0 100 154
-0.00597430552096163 -0.004955569435073148 0.0011531201329277505 0 100 154
-0.00597430552096163 -0.00437679077741348 0.001260836916280547 0 85 169
-0.00597430552096163 -0.003798012119753812 0.00016536035923175898 0 232 22
-0.00597430552096163 -0.003219233462094144 0.0009603790064207739 0 125 129
-0.00597430552096163 -0.0026404553564008167 0.0007107748594618308 0 159 95
-0.00597430552096163 -0.0020616766987411484 0.000605927749114303 0 173 81
-0.00597430552096163 -0.0014828980410814805 0.0005385994468427761 0 182 72
-0.00597430552096163 -0.0009041193834218126 0.0006463173341282538 0 168 86
-0.00597430552096163 -0.00032534072576214464 0.001292023566496105 0 81 173
-0.00597430552096163 0.00025343793189752336 0.0013997411777984124 0 66 188
-0.00597430552096163 0.0008322165895571914 0.0017368311618078613 0 21 233
-0.006553084178621298 -0.006113126750392484 0.0009844579860672138 0 122 132
-0.006553084178621298 -0.005534348092732816 0.0012340610290934755 0 89 165
-0.006553084178621298 -0.004955569435073148 0.001265560644224207 0 84 170
-0.006553084178621298 -0.00437679077741348 0.0012622814121941433 0 85 169
-0.006553084178621298 -0.003798012119753812 0.0015118841792372347 0 51 203
-0.006553084178621298 -0.003219233462094144 0.001033425128015551 0 116 138
-0.006553084178621298 -0.0026404553564008167 0.0008418238120021079 0 141 113
-0.006553084178621298 -0.0020616766987411484 0.0006022560690160057 0 174 80
-0.006553084178621298 -0.0014828980410814805 0.000598976836985942 0 174 80
-0.006553084178621298 -0.0009041193834218126 0.0005613272128871967 0 179 75
-0.006553084178621298 -0.00032534072576214464 0.0008109302559134586 0 146 108
-0.006553084178621298 0.00025343793189752336 0.0008424293190778493 0 141 113
-0.006553084178621298 0.0008322165895571914 0.000804779694979104 0 146 108
-0.006553084178621298 0.0014109952472168594 0.0008015004629490403 0 147 107
-0.006553084178621298 0.0019897739048765272 0.0008688287652205673 0 138 116
-0.006553084178621298 0.0025685525625361956 0.001488357993881 0 54 200
-0.006553084178621298 0.0031473312201958635 0.0013806403825786925 0 69 185
-0.006553084178621298 0.005462445988826121 0.0016276872694811998 0 36 218
-0.006553084178621298 0.0060412246260026625 0.001624408037451136 0 36 218
-0.006553084178621298 0.0066200032696475605 0.0015521592312354915 0 46 208
-0.006553084178621298 0.007198781961805125 0.0013605579152220484 0 72 182
-0.006553084178621298 0.007777560619464792 0.0016636329734862224 0 31 223
-0.006553084178621298 0.008356339277124461 0.0018602094381115122 0 4 250
-0.006553084178621298 0.009513896454452213 0.001865183482790677 0 4 250
-0.006553084178621298 0.010092675112111881 0.0018966828219382382 0 0 254
-0.006553084178621298 0.011829011085090884 0.0012096712923972248 0 92 162
-0.006553084178621298 0.012407789742750553 0.0008725804804382652 0 137 117
-0.006553084178621298 0.012986568400410221 0.0007648636970854687 0 152 102
-0.006553084178621298 0.013565347058069888 0.0012191971275049237 0 91 163
-0.006553084178621298 0.014722904373389224 0.0011426769297618177 0 101 153
-0.0071318628362809664 -0.004955569435073148 0.0018251424645208745 0 9 245
-0.0071318628362809664 -0.00437679077741348 0.0018973901668038378 0 0 255
-0.0071318628362809664 -0.003798012119753812 0.0018300618645323108 0 9 245
-0.0071318628362809664 -0.003219233462094144 0.001633486779822873 0 35 219
-0.0071318628362809664 -0.0026404553564008167 0.0011791525214539067 0 96 158
-0.0071318628362809664 -0.0020616766987411484 0.0012868701327562143 0 82 172
-0.0071318628362809664 -0.0014828980410814805 0.0007944336378891335 0 148 106
-0.0071318628362809664 -0.0009041193834218126 0.0001476521750896104 0 235 19
-0.0071318628362809664 -0.00032534072576214464 0.00048474298704857013 0 189 65
-0.0071318628362809664 0.00025343793189752336 0.00037989642866738307 0 203 51
-0.0071318628362809664 0.0008322165895571914 0.00018332079199160451 0 230 24
-0.0071318628362809664 0.0014109952472168594 0.00018660057598800893 0 229 25
-0.0071318628362809664 0.0019897739048765272 0.00029431791130714606 0 215 39
-0.0071318628362809664 0.0025685525625361956 0.00036656588957327963 0 205 49
-0.0071318628362809664 0.0031473312201958635 1.0277688284978672e-05 0 253 1
-0.0071318628362809664 0.0037261098778555313 0.00105799646163789 0 112 142
-0.0071318628362809664 0.004304888673506785 0.0006036624792520942 0 173 81
-0.0071318628362809664 0.004883667331166452 0.000891859560786029 0 135 119
-0.0071318628362809664 0.005462445988826121 0.00039942278993577795 0 201 53
-0.0071318628362809664 0.0060412246260026625 0.00040270367786486377 0 200 54
-0.0071318628362809664 0.0066200032696475605 0.000297856567517336 0 214 40
-0.0071318628362809664 0.007198781961805125 0.00026635695238660446 0 219 35
-0.0071318628362809664 0.007777560619464792 0.0003040065764853498 0 214 40
-0.0071318628362809664 0.008356339277124461 0.0004117233598381462 0 199 55
-0.0071318628362809664 0.008935117796792543 0.0006512911028242484 0 167 87
-0.0071318628362809664 0.009513896454452213 0.0003482163205432446 0 208 46
-0.0071318628362809664 0.010092675112111881 0.00015163957993478465 0 234 20
-0.0071318628362809664 0.010671453769771548 0.0007973474682016578 0 147 107
-0.0071318628362809664 0.011250232427431216 0.00017781768757488424 0 231 23
-0.0071318628362809664 0.011829011085090884 7.297112919369718e-05 0 245 9
-0.0071318628362809664 0.012407789742750553 0.00014522021139251213 0 235 19
-0.0071318628362809664 0.012986568400410221 0.00043341674096010615 0 196 58
-0.0071318628362809664 0.013565347058069888 0.0007216127185613595 0 158 96
-0.0071318628362809664 0.014144125715729556 0.0010098098000952942 0 119 135
-0.0071318628362809664 0.014722904373389224 0.0010474594241940394 0 114 140
-0.0071318628362809664 0.015301683031048893 0.001287027443163312 0 82 172
-0.0071318628362809664 0.0158804622406749 0.0016241174271727607 0 36 218
-0.007710641493940634 -0.003798012119753812 0.00170852080819366 0 25 229
-0.007710641493940634 -0.003219233462094144 0.0016708711840949146 0 30 224
-0.007710641493940634 -0.0026404553564008167 0.0012850191136326964 0 82 172
-0.007710641493940634 -0.0020616766987411484 0.0010934177976192532 0 108 146
-0.007710641493940634 -0.0014828980410814805 0.0008538500546331509 0 140 114
-0.007710641493940634 -0.0009041193834218126 0.0006142828636133895 0 172 82
-0.007710641493940634 -0.00032534072576214464 0.0002771920516544298 0 217 37
-0.007710641493940634 0.00025343793189752336 -0.00010866001880778841 16 238 0
-0.007710641493940634 0.0008322165895571914 -0.00030026133482123163 45 209 0
-0.007710641493940634 0.0014109952472168594 -0.0005398296297736745 81 173 0
-0.007710641493940634 0.0019897739048765272 -0.0006475458611601303 97 157 0
-0.007710641493940634 0.0025685525625361956 -0.0006160473499620801 92 162 0
-0.007710641493940634 0.0031473312201958635 -0.0005487195996568938 82 172 0
-0.007710641493940634 0.0037261098778555313 -0.0005519988316869576 82 172 0
-0.007710641493940634 0.004304888673506785 -0.0006242479138857726 93 161 0
-0.007710641493940634 0.004883667331166452 -0.0006964953401855654 104 150 0
-0.007710641493940634 0.005462445988826121 -0.0006291675898803792 94 160 0
-0.007710641493940634 0.0060412246260026625 -0.00032609225563303465 49 205 0
-0.007710641493940634 0.0066200032696475605 -0.00039834023389916817 59 195 0
-0.007710641493940634 0.007198781961805125 -0.00043598985799791346 65 189 0
-0.007710641493940634 0.007777560619464792 -0.00040449024286718196 60 194 0
-0.007710641493940634 0.008356339277124461 -0.000337161940595655 50 204 0
-0.007710641493940634 0.008935117796792543 -0.0003748115646944003 56 198 0
-0.007710641493940634 0.009513896454452213 -0.00030748326242287336 46 208 0
-0.007710641493940634 0.010092675112111881 -0.00027598364729214186 41 213 0
-0.007710641493940634 0.010671453769771548 -0.0005155519422445847 77 177 0
-0.007710641493940634 0.011250232427431216 -0.00021247660799724024 31 223 0
-0.007710641493940634 0.011829011085090884 -0.00018097754483284943 27 227 0
-0.007710641493940634 0.012407789742750553 1.5598091842929135e-05 0 252 2
-0.007710641493940634 0.012986568400410221 0.0004241370828403567 0 197 57
-0.007710641493940634 0.013565347058069888 0.0006207121675497945 0 171 83
-0.007710641493940634 0.014144125715729556 0.0010292511585472221 0 116 138
-0.007710641493940634 0.014722904373389224 0.00122582624325666 0 90 164
-0.007710641493940634 0.015301683031048893 0.0014754303902156031 0 56 198
-0.007710641493940634 0.0158804622406749 0.0016720057509082115 0 30 224
-0.008289420703566643 -0.003219233462094144 0.0018328561941320745 0 8 246
-0.008289420703566643 -0.0026404553564008167 0.0015297811358679003 0 49 205
-0.008289420703566643 -0.0020616766987411484 0.0012801783688248089 0 82 172
-0.008289420703566643 -0.0014828980410814805 0.0010305742218658658 0 116 138
-0.008289420703566643 -0.0009041193834218126 0.000833999137156428 0 142 112
-0.008289420703566643 -0.00032534072576214464 0.00013560771756932405 0 236 18
-0.008289420703566643 0.00025343793189752336 6.827941529779709e-05 0 245 9
-0.008289420703566643 0.0008322165895571914 -0.0006850100245684023 102 152 0
-0.008289420703566643 0.0014109952472168594 -0.0002991568501735028 44 210 0
-0.008289420703566643 0.0019897739048765272 -0.0012337744085201467 185 69 0
-0.008289420703566643 0.0025685525625361956 -0.0015368497427674912 231 23 0
-0.008289420703566643 0.0031473312201958635 -0.001058390967528978 159 95 0
-0.008289420703566643 0.0037261098778555313 -0.0010898900306933687 163 91 0
-0.008289420703566643 0.004304888673506785 -0.0010176415004608944 152 102 0
-0.008289420703566643 0.004883667331166452 -0.00101436171646449 152 102 0
-0.008289420703566643 0.005462445988826121 -0.0010458602276625403 157 97 0
-0.008289420703566643 0.0060412246260026625 -0.00011892880061006172 17 237 0
-0.008289420703566643 0.0066200032696475605 -0.0007918773317228705 119 135 0
-0.008289420703566643 0.007198781961805125 -0.0007885975477264661 118 136 0
-0.008289420703566643 0.007777560619464792 -0.0007163490174939918 107 147 0
-0.008289420703566643 0.008356339277124461 -0.0006086322341411955 91 163 0
-0.008289420703566643 0.008935117796792543 -0.0006053518981784503 91 163 0
-0.008289420703566643 0.009513896454452213 -0.0006726802004499773 101 153 0
-0.008289420703566643 0.010092675112111881 -0.0005649634170971808 84 170 0
-0.008289420703566643 0.010671453769771548 -0.0005273137929984355 79 175 0
-0.008289420703566643 0.011250232427431216 -0.00019022408497215723 28 226 0
-0.008289420703566643 0.011829011085090884 -8.250619768667943e-05 12 242 0
-0.008289420703566643 0.012407789742750553 0.00015706044136674138 0 233 21
-0.008289420703566643 0.012986568400410221 0.0004941518052920419 0 188 66
-0.008289420703566643 0.013565347058069888 0.0007823488868259766 0 149 105
-0.008289420703566643 0.014144125715729556 0.0010219166298120787 0 117 137
-0.008289420703566643 0.014722904373389224 0.0014077689762574672 0 65 189
-0.008868199361226311 -0.003219233462094144 0.001878582189727856 0 2 252
-0.008868199361226311 -0.0026404553564008167 0.0016869808737144127 0 28 226
-0.008868199361226311 -0.0020616766987411484 0.0015792643663447867 0 42 212
-0.008868199361226311 -0.0014828980410814805 0.001100805315123103 0 107 147
-0.008868199361226311 -0.0009041193834218126 0.0009092045510760005 0 132 122
-0.008868199361226311 -0.00032534072576214464 -4.878988573172042e-05 7 247 0
-0.008868199361226311 0.00025343793189752336 -0.0006944977739985935 104 150 0
-0.008868199361226311 0.0008322165895571914 -0.0010315885859575533 155 99 0
-0.008868199361226311 0.0014109952472168594 -0.001271156880909996 191 63 0
-0.008868199361226311 0.0019897739048765272 -0.001510723519963417 227 27 0
-0.008868199361226311 0.0025685525625361956 -0.0014058769615822298 211 43 0
-0.008868199361226311 0.0031473312201958635 -0.001409157297544975 211 43 0
-0.008868199361226311 0.0037261098778555313 -0.0013043101871974471 196 58 0
-0.008868199361226311 0.004304888673506785 -0.0012728111240330564 191 63 0
-0.008868199361226311 0.004883667331166452 -0.0012413126128350063 186 68 0
-0.008868199361226311 0.005462445988826121 -0.0011739843105634793 176 78 0
-0.008868199361226311 0.0060412246260026625 -0.000817695005342497 122 132 0
-0.008868199361226311 0.0066200032696475605 -0.0009254128926279748 139 115 0
-0.008868199361226311 0.007198781961805125 -0.0008205657822804471 123 131 0
-0.008868199361226311 0.007777560619464792 -0.0007532380319752608 113 141 0
-0.008868199361226311 0.008356339277124461 -0.0005566623952994823 83 171 0
-0.008868199361226311 0.009513896454452213 -0.00044582755408810476 67 187 0
-0.008868199361226311 0.010092675112111881 -0.0003784992518165778 56 198 0
-0.008868199361226311 0.010671453769771548 -0.00018192306317445857 27 227 0
-0.008868199361226311 0.011250232427431216 1.465202153497929e-05 0 253 1
-0.008868199361226311 0.011829011085090884 0.0002642550645612411 0 219 35
-0.008868199361226311 0.012407789742750553 0.00046083014927067895 0 193 61
-0.008868199361226311 0.013565347058069888 0.0008472540568618562 0 141 113
-0.008868199361226311 0.014144125715729556 0.001407577995903587 0 65 189
-0.008868199361226311 0.014722904373389224 0.0018161169869010145 0 10 244
-0.00944697801888598 -0.0014828980410814805 0.0017452905979453387 0 20 234
-0.00944697801888598 -0.0009041193834218126 0.0014422155396811645 0 61 193
-0.00944697801888598 -0.00032534072576214464 0.0005990436249131655 0 174 80
-0.00944697801888598 0.00025343793189752336 -0.0003048454152806964 45 209 0
-0.00944697801888598 0.0008322165895571914 -0.0006611330646026567 99 155 0
-0.00944697801888598 0.0014109952472168594 -0.0010174212658909576 152 102 0
-0.00944697801888598 0.0019897739048765272 -0.0013737094671792585 206 48 0
-0.00944697801888598 0.0025685525625361956 -0.0015702845518886963 236 18 0
-0.00944697801888598 0.0031473312201958635 -0.0012331937399297367 185 69 0
-0.00944697801888598 0.0037261098778555313 -0.0013380402983109237 201 53 0
-0.00944697801888598 0.004304888673506785 -0.0012303240669244678 184 70 0
-0.00944697801888598 0.004883667331166452 -0.0010387227509110247 156 98 0
-0.00944697801888598 0.005462445988826121 -0.0010354424149482796 155 99 0
-0.00944697801888598 0.0060412246260026625 -0.0006983510510229792 104 150 0
-0.00944697801888598 0.0066200032696475605 -0.0006950718189929155 104 150 0
-0.00944697801888598 0.007198781961805125 -0.00040687473745898076 61 193 0
-0.00944697801888598 0.007777560619464792 -0.0003346256552601658 50 204 0
-0.00944697801888598 0.008356339277124461 2.4640527661125565e-06 0 254 0
-0.00944697801888598 0.008935117796792543 -2.9033906465596877e-05 4 250 0
