ply
format ascii 1.0
element vertex 632
property float x
property float y
property float z
property uchar red
property uchar green
property uchar blue
end_header
0.005647468536694807 -0.0031813945970111794 0.00033742254745874217 0 230 24
0.005647468536694807 -0.0026289940332602517 0.0005202910217433691 0 217 37
0.005647468536694807 -0.0020765934695093236 0.0008885587666576278 0 190 64
0.005647468536694807 -0.0015241929057583955 0.0008916890730443923 0 190 64
0.005647468536694807 -0.0009717923420074677 0.0012599568179586511 0 163 91
0.005647468536694807 -0.0004193917782565397 0.0013627638343465844 0 155 99
0.005647468536694807 0.00013300878549438828 0.0014655713775447478 0 148 106
0.005647468536694807 0.0006854094809478738 0.001365502720732446 0 155 99
0.005647468536694807 0.0012378100446988017 0.0013686335539294405 0 155 99
0.005647468536694807 0.0017902106084497298 0.0011810174658518947 0 169 85
0.005647468536694807 0.002342611141332871 0.0012499727104793577 0 164 90
0.005647468536694807 0.0028950117030259463 0.0014328417115742147 0 150 104
0.005647468536694807 0.0034474122997025136 0.0017079035565426106 0 130 124
0.005647468536694807 0.003999812863453442 0.001520287468465065 0 144 110
0.005647468536694807 0.004552213427204369 0.0014902239890686511 0 146 108
0.005647468536694807 0.00510461385925274 0.001390155332256349 0 153 101
0.005647468536694807 0.005657014423003668 0.0015730243333512064 0 140 114
0.005647468536694807 0.006209414986754596 0.0016089580591407064 0 137 117
0.005647468536694807 0.006761815550505524 0.0016448912581199762 0 135 119
0.005647468536694807 0.007314216114256452 0.0016148277787235623 0 137 117
0.005647468536694807 0.00786661667800738 0.0017176347951114957 0 130 124
0.005647468536694807 0.008419017241758309 0.001327715149743514 0 158 96
0.005647468536694807 0.008971417805509236 0.0016027775215221398 0 138 116
0.005647468536694807 0.009523818369260166 0.0016387112473116399 0 135 119
0.005647468536694807 0.010076218933011093 0.0018215802484064971 0 122 132
0.005647468536694807 0.010628619496762021 0.0029840096737802075 0 37 217
0.005647468536694807 0.011181020060512949 0.002987139980166972 0 37 217
0.005647468536694807 0.011733421151074107 0.0030899480501753655 0 30 224
0.005647468536694807 0.012285821714825035 0.0034582147291220494 0 3 251
0.005095067972943878 -0.009257800271461156 -0.0007112769782178503 80 174 0
0.005095067972943878 -0.008152999143959302 -0.0011745633770794623 132 122 0
0.005095067972943878 -0.007600598580208374 -0.0009363361033938964 105 149 0
0.005095067972943878 -0.007048198016457445 -0.0009722698291833964 109 145 0
0.005095067972943878 -0.0064957974527065174 -0.0008722011723710945 98 156 0
0.005095067972943878 -0.00594339741576582 -0.0006845840306730889 77 177 0
0.005095067972943878 -0.005390996852014891 -0.0007205177564625889 81 173 0
0.005095067972943878 -0.004838596288263964 -0.0004822904827770231 54 200 0
0.005095067972943878 -0.004286195724513035 -0.0004854202623535576 54 200 0
0.005095067972943878 -0.0037337951607621074 -0.0006682892634484146 75 179 0
0.005095067972943878 -0.0031813945970111794 -0.00010438632513528259 11 243 0
0.005095067972943878 -0.0026289940332602517 0.000671650976170644 0 206 48
0.005095067972943878 -0.0020765934695093236 0.0010615706215386257 0 177 77
0.005095067972943878 -0.0015241929057583955 0.0010584397883416311 0 178 76
0.005095067972943878 -0.0009717923420074677 0.0012460569300396368 0 164 90
0.005095067972943878 -0.0004193917782565397 0.0013461245332314787 0 157 97
0.005095067972943878 0.00013300878549438828 0.0013101918610624386 0 159 95
0.005095067972943878 0.0006854094809478738 0.0013744516461097547 0 155 99
0.005095067972943878 0.0012378100446988017 0.0011458017824059088 0 171 83
0.005095067972943878 0.0017902106084497298 0.0010429947660179754 0 179 75
0.005095067972943878 0.002342611141332871 0.0010398639328209809 0 179 75
0.005095067972943878 0.0028950117030259463 0.001543461850483539 0 142 112
0.005095067972943878 0.0034474122997025136 0.0010868090460383086 0 175 79
0.005095067972943878 0.003999812863453442 0.0011868771760403804 0 168 86
0.005095067972943878 0.004552213427204369 0.001183746342843386 0 168 86
0.005095067972943878 0.00510461385925274 0.0012838149996556877 0 161 93
0.005095067972943878 0.005657014423003668 0.0013838831296577596 0 154 100
0.005095067972943878 0.006209414986754596 0.0012810761132698264 0 161 93
0.005095067972943878 0.006761815550505524 0.0015193033869553923 0 144 110
0.005095067972943878 0.007314216114256452 0.0013364343858605352 0 157 97
0.005095067972943878 0.00786661667800738 0.0013664983920671791 0 155 99
0.005095067972943878 0.008419017241758309 0.001430757650304265 0 150 104
0.005095067972943878 0.008971417805509236 0.0014950174353515811 0 146 108
0.005095067972943878 0.009523818369260166 0.001525081441558225 0 144 110
0.005095067972943878 0.010076218933011093 0.0018143434562767453 0 123 131
0.005095067972943878 0.010628619496762021 0.0017784102572974752 0 125 129
0.005095067972943878 0.011181020060512949 0.00279215434378171 0 51 203
0.005095067972943878 0.011733421151074107 0.0034587165158661407 0 3 251
0.005095067972943878 0.012285821714825035 0.0030020634603629102 0 36 218
0.005095067972943878 0.012838222278575962 0.0034720569313208766 0 2 252
0.004542667409192951 -0.009810200835212085 0.001526875757201665 0 143 111
0.004542667409192951 -0.00870539970771023 -0.0003606673854035514 40 214 0
0.004542667409192951 -0.008152999143959302 -0.0008306606053035174 93 161 0
0.004542667409192951 -0.007600598580208374 -0.0009307292621158192 104 150 0
0.004542667409192951 -0.007048198016457445 -0.000994989047163135 112 142 0
0.004542667409192951 -0.0064957974527065174 -0.001025052526559549 115 139 0
0.004542667409192951 -0.00594339741576582 -0.0009560978087423164 107 147 0
0.004542667409192951 -0.005390996852014891 -0.0010203570669794024 114 140 0
0.004542667409192951 -0.004838596288263964 -0.000522350713098251 58 196 0
0.004542667409192951 -0.004286195724513035 -0.0009122693048457727 102 152 0
0.004542667409192951 -0.0037337951607621074 -0.0004142624241543913 46 208 0
0.004542667409192951 -0.0031813945970111794 -0.00031145488095622796 35 219 0
0.004542667409192951 -0.0026289940332602517 0.00014519792348900246 0 244 10
0.004542667409192951 -0.0020765934695093236 0.0009995729596190054 0 182 72
0.004542667409192951 -0.0015241929057583955 0.0014562257640642357 0 149 105
0.004542667409192951 -0.0009717923420074677 0.00177795351282805 0 125 129
0.004542667409192951 -0.0004193917782565397 0.002006603376531896 0 109 145
0.004542667409192951 0.00013300878549438828 0.002042537102321396 0 106 148
0.004542667409192951 0.0006854094809478738 0.0033758895635512647 0 9 245
0.004542667409192951 0.0012378100446988017 0.001890690902051815 0 117 137
0.004542667409192951 0.0017902106084497298 0.0015007712566838334 0 145 109
0.004542667409192951 0.002342611141332871 0.0010307780367838674 0 180 74
0.004542667409192951 0.0028950117030259463 0.0009307093799715654 0 187 67
0.004542667409192951 0.0034474122997025136 0.0009338391595480999 0 187 67
0.004542667409192951 0.003999812863453442 0.001002795457796023 0 182 72
0.004542667409192951 0.004552213427204369 0.0010717507024234857 0 177 77
0.004542667409192951 0.00510461385925274 0.0012546191767081128 0 163 91
0.004542667409192951 0.005657014423003668 0.0012905529024976128 0 161 93
0.004542667409192951 0.006209414986754596 0.0012936842625048373 0 160 94
0.004542667409192951 0.006761815550505524 0.0013626389803220703 0 155 99
0.004542667409192951 0.007314216114256452 0.0013325755009256563 0 158 96
0.004542667409192951 0.00786661667800738 0.0013685086999049262 0 155 99
0.004542667409192951 0.008419017241758309 0.001437463944532389 0 150 104
0.004542667409192951 0.008971417805509236 0.0014733976703218891 0 147 107
0.004542667409192951 0.009523818369260166 0.001409137885274573 0 152 102
0.004542667409192951 0.010076218933011093 0.001445071611064073 0 149 105
0.004542667409192951 0.010628619496762021 0.0016279406121589303 0 136 118
0.004542667409192951 0.011181020060512949 0.0015636808271116142 0 141 113
0.004542667409192951 0.011733421151074107 0.0018387431988902403 0 121 133
0.004542667409192951 0.012285821714825035 0.002693117708210013 0 59 195
0.003990266845442023 -0.009810200835212085 0.0009761509767924229 0 183 71
0.003990266845442023 -0.009257800271461156 0.001695107862865713 0 131 123
0.003990266845442023 -0.00870539970771023 -0.00032217599594731606 36 218 0
0.003990266845442023 -0.008152999143959302 -0.0005972373141054819 67 187 0
0.003990266845442023 -0.007600598580208374 -0.000872299685884108 98 156 0
0.003990266845442023 -0.007048198016457445 -0.0009412559841320308 106 148 0
0.003990266845442023 -0.0064957974527065174 -0.0010102107019492638 113 141 0
0.003990266845442023 -0.00594339741576582 -0.0010461444277387638 117 137 0
0.003990266845442023 -0.005390996852014891 -0.0010820781535282639 121 133 0
0.003990266845442023 -0.004838596288263964 -0.0010178183684809478 114 140 0
0.003990266845442023 -0.004286195724513035 -0.0011206259116791112 126 128 0
0.003990266845442023 -0.0037337951607621074 -0.0009330092967913354 105 149 0
0.003990266845442023 -0.0031813945970111794 -0.0006947809694853095 78 176 0
0.003990266845442023 -0.0026289940332602517 2.4175916587980738e-05 0 253 1
0.003990266845442023 -0.0020765934695093236 0.0012903938058081473 0 161 93
0.003990266845442023 -0.0015241929057583955 0.0017603875525183433 0 126 128
0.003990266845442023 -0.0009717923420074677 0.0018604556825204152 0 119 135
0.003990266845442023 -0.0004193917782565397 0.002149718224049165 0 98 156
0.003990266845442023 0.00013300878549438828 0.0024897684326129917 0 73 181
0.003990266845442023 0.0006854094809478738 0.0019119671868115353 0 115 139
0.003990266845442023 0.0012378100446988017 0.002150195514117561 0 98 156
0.003990266845442023 0.0017902106084497298 0.0022144552991648775 0 93 161
0.003990266845442023 0.002342611141332871 0.0017164473648530359 0 130 124
0.003990266845442023 0.0028950117030259463 0.001348180673559237 0 156 98
0.003990266845442023 0.0034474122997025136 0.00116531167246438 0 170 84
0.003990266845442023 0.003999812863453442 0.0008902493006857541 0 190 64
0.003990266845442023 0.004552213427204369 0.0012302995092495805 0 165 89
0.003990266845442023 0.00510461385925274 0.0009085722872959961 0 188 66
0.003990266845442023 0.005657014423003668 0.0008396165158583033 0 193 61
0.003990266845442023 0.006209414986754596 0.0010778432627336389 0 176 78
0.003990266845442023 0.006761815550505524 0.001142104101401415 0 171 83
0.003990266845442023 0.007314216114256452 0.0006854512969561848 0 205 49
0.003990266845442023 0.00786661667800738 0.00130275435423505 0 160 94
0.003990266845442023 0.008419017241758309 0.00126682062844555 0 162 92
0.003990266845442023 0.008971417805509236 0.0013668892852578519 0 155 99
0.003990266845442023 0.009523818369260166 0.001466957942070154 0 148 106
0.003990266845442023 0.010076218933011093 0.0018568775874381355 0 119 135
0.003990266845442023 0.010628619496762021 0.0014002242561826752 0 153 101
0.003990266845442023 0.011181020060512949 0.0013642905303931751 0 155 99
0.003990266845442023 0.011733421151074107 0.0019815951681027306 0 110 144
0.003990266845442023 0.012285821714825035 0.0022198224417882967 0 93 161
0.003990266845442023 0.012838222278575962 0.003141461661707406 0 26 228
0.00343786601828598 -0.009257800271461156 0.0015648861689178944 0 141 113
0.00343786601828598 -0.00870539970771023 0.0007312716703324249 0 201 53
0.00343786601828598 -0.008152999143959302 -0.0001607502784550951 18 236 0
0.00343786601828598 -0.007600598580208374 -0.001303669813770334 146 108 0
0.00343786601828598 -0.007048198016457445 -0.0009819420650065197 110 144 0
0.00343786601828598 -0.0064957974527065174 -0.0010820107218188215 121 133 0
0.00343786601828598 -0.00594339741576582 -0.0012696273367065972 143 111 0
0.00343786601828598 -0.005390996852014891 -0.0012664970303198327 142 112 0
0.00343786601828598 -0.004838596288263964 -0.0012965610365264766 146 108 0
0.00343786601828598 -0.004286195724513035 -0.0012606273107369766 142 112 0
0.00343786601828598 -0.0037337951607621074 -0.0012246935849474765 137 117 0
0.00343786601828598 -0.0031813945970111794 -0.0008564268936536779 96 158 0
0.00343786601828598 -0.0026289940332602517 -0.00024014795546196667 27 227 0
0.0034378660182859794 -0.0020765934695093236 0.0019144653209222787 0 115 139
0.0034378660182859794 -0.0015241929057583955 0.0021241473822943414 0 100 154
0.0034378660182859794 -0.0009717923420074677 0.0024924151272086 0 73 181
0.0034378660182859794 0.00013300878549438828 0.0029921531063158194 0 37 217
0.0034378660182859794 0.0006854094809478738 0.002995283412702584 0 37 217
0.0034378660182859794 0.0012378100446988017 0.003223932996538495 0 20 234
0.0034378660182859794 0.0017902106084497298 0.0029346707348776794 0 41 213
0.0034378660182859794 0.002342611141332871 0.0029046067286710355 0 43 211
0.0034378660182859794 0.0028950117030259463 0.002470979745759414 0 75 179
0.0034378660182859794 0.0034474122997025136 0.002130930064005818 0 100 154
0.00343786601828598 0.003999812863453442 0.0014886514605320484 0 146 108
0.00343786601828598 0.004552213427204369 0.0015245851863215484 0 144 110
0.00343786601828598 0.00510461385925274 0.0010545919664215824 0 178 76
0.00343786601828598 0.005657014423003668 0.001057721745998117 0 178 76
0.00343786601828598 0.006209414986754596 0.0013794494947619313 0 154 100
0.00343786601828598 0.006761815550505524 0.0013151902365248454 0 159 95
0.00343786601828598 0.007314216114256452 0.0014980592376197025 0 146 108
0.00343786601828598 0.00786661667800738 0.0016809277119043296 0 132 122
0.00343786601828598 0.008419017241758309 0.0017168614376938296 0 130 124
0.0034378660182859794 0.008971417805509236 0.0017858166823212925 0 125 129
0.0034378660182859794 0.009523818369260166 0.0018547714001385252 0 120 134
0.0034378660182859794 0.010076218933011093 0.0019237276983864481 0 115 139
0.00343786601828598 0.010628619496762021 0.0017361116103089024 0 128 126
0.0034378660182859794 0.011181020060512949 0.0018389186266968359 0 121 133
0.00343786601828598 0.011733421151074107 0.001738850496694764 0 128 126
0.0034378660182859794 0.012285821714825035 0.0027938285466927062 0 51 203
0.0028854654545350518 -0.009810200835212085 0.0009585081021891335 0 185 69
0.0028854654545350518 -0.009257800271461156 0.0015498025384120305 0 142 112
0.0028854654545350518 -0.00870539970771023 -0.0002781483577838258 31 223 0
0.0028854654545350518 -0.008152999143959302 -0.0011628355277388109 131 123 0
0.0028854654545350518 -0.007600598580208374 -0.0006280488640285211 70 184 0
0.0028854654545350518 -0.007048198016457445 -0.0009497771396025656 106 148 0
0.0028854654545350518 -0.0064957974527065174 -0.0009857098117716054 111 143 0
0.0028854654545350518 -0.00594339741576582 -0.0012143591486652216 136 118 0
0.0028854654545350518 -0.005390996852014891 -0.0012502928744547216 140 114 0
0.0028854654545350518 -0.004838596288263964 -0.0013531004176528848 152 102 0
0.0028854654545350518 -0.004286195724513035 -0.0013230364114462409 149 105 0
0.0028854654545350518 -0.0037337951607621074 -0.001358970137235741 153 101 0
0.0028854654545350518 -0.0031813945970111794 -0.0013289061310290968 149 105 0
0.0028854654545350518 -0.0026289940332602517 -0.001228837474216795 138 116 0
0.0028854654545350518 -0.0020765934695093236 -0.0007588442543168292 85 169 0
0.0028854654545350513 -0.0015241929057583955 0.0019734859782320697 0 111 143
0.0028854654545350513 -0.0009717923420074677 0.0028655079270195898 0 46 208
0.0028854654545350513 -0.0004193917782565397 0.003456801824085142 0 3 251
0.0028854654545350513 0.004552213427204369 0.0023669631730833603 0 82 172
0.0028854654545350513 0.00510461385925274 0.0026562251878018807 0 61 193
0.0028854654545350513 0.005657014423003668 0.001801850678482108 0 123 131
0.0028854654545350518 0.006209414986754596 0.001732895433854645 0 128 126
0.0028854654545350518 0.006761815550505524 0.0017629594400612892 0 126 128
0.0028854654545350518 0.007314216114256452 0.0017270257142717892 0 129 125
0.0028854654545350513 0.00786661667800738 0.001827094371084091 0 122 132
0.0028854654545350513 0.008419017241758309 0.001791160645294591 0 124 130
0.0028854654545350513 0.008971417805509236 0.0018912287752966628 0 117 137
0.0028854654545350513 0.009523818369260166 0.0022312789838604893 0 92 162
0.0028854654545350513 0.010076218933011093 0.0021623226856125662 0 97 157
0.0028854654545350513 0.010628619496762021 0.0024515852271413167 0 76 178
0.0028854654545350513 0.011181020060512949 0.0025158460658090925 0 72 182
0.0028854654545350513 0.011733421151074107 0.002512714705801868 0 72 182
0.0028854654545350513 0.012285821714825035 0.003016313150274656 0 35 219
0.0023330648907841237 -0.009257800271461156 0.0015066088408426579 0 145 109
0.0023330648907841237 -0.00870539970771023 0.0007018661769133027 0 203 51
0.0023330648907841237 -0.008152999143959302 -0.00040828734252553204 45 209 0
0.0023330648907841237 -0.007600598580208374 -0.0006465146162110978 72 182 0
0.0023330648907841237 -0.007048198016457445 -0.000935777157739848 105 149 0
0.0023330648907841237 -0.0064957974527065174 -0.0012758268394934445 143 111 0
0.0023330648907841237 -0.00594339741576582 -0.00146344292757099 164 90 0
0.0023330648907841237 -0.005390996852014891 -0.00142750920178149 160 94 0
0.0023330648907841237 -0.004838596288263964 -0.001457573207988134 164 90 0
0.0023330648907841237 -0.004286195724513035 -0.001557641864800436 175 79 0
0.0023330648907841237 -0.0037337951607621074 -0.0012825794930218098 144 110 0
0.0023330648907841237 -0.0031813945970111794 -0.0012794502402555055 144 110 0
0.0023330648907841237 -0.0026289940332602517 -0.001467066328333051 165 89 0
0.0023330648907841237 -0.0020765934695093236 -0.001284196800427964 144 110 0
0.0023330648907841237 -0.0015241929057583955 -0.0004608640571017479 51 203 0
0.0023330648907841233 0.007314216114256452 0.0030945054854752472 0 29 225
0.0023330648907841233 0.00786661667800738 0.0031304381576442875 0 27 227
0.0023330648907841233 0.008419017241758309 0.0030303695008319855 0 34 220
0.0023330648907841233 0.008971417805509236 0.0033986372292834246 0 7 247
0.0023330648907841233 0.009523818369260166 0.0034675924780265925 0 2 252
0.0017806643270331958 -0.009810200835212085 0.0018162847519743598 0 122 132
0.0017806643270331958 -0.009257800271461156 0.0012384835061729036 0 164 90
0.001780664327033196 -0.00870539970771023 0.00015642372268044702 0 243 11
0.001780664327033196 -0.008152999143959302 -0.00030022908176478337 33 221 0
0.001780664327033196 -0.007600598580208374 -0.0007568818862100137 85 169 0
0.0017806643270331963 -0.007048198016457445 -0.0009397508873048708 105 149 0
0.0017806643270331963 -0.0064957974527065174 -0.001122619888399728 126 128 0
0.0017806643270331963 -0.00594339741576582 -0.001305488362684355 147 107 0
0.0017806643270331963 -0.005390996852014891 -0.001374443607311818 154 100 0
0.0017806643270331963 -0.004838596288263964 -0.001410377333101318 158 96 0
0.0017806643270331963 -0.004286195724513035 -0.0014135076394880823 159 95 0
0.0017806643270331963 -0.0037337951607621074 -0.0011242450979593321 126 128 0
0.0017806643270331963 -0.0031813945970111794 -0.0014459728467231467 162 92 0
0.0017806643270331963 -0.0026289940332602517 -0.0018142395380169453 204 50 0
0.0017806643270331963 -0.0020765934695093236 -0.0012229456286042785 137 117 0
0.0017806643270331963 -0.0015241929057583955 -0.0012588793543937785 141 113 0
0.0017806643270331963 -0.0009717923420074677 -0.0011946195693464624 134 120 0
0.001780664327033196 -0.0004193917782565397 -0.00047566162965271213 53 201 0
0.0012282638949848252 -0.009257800271461156 0.0018962935288480518 0 117 137
0.0012282638949848255 -0.00870539970771023 0.0007533724131021226 0 200 54
0.0012282638949848255 -0.008152999143959302 -0.0006975820194783135 78 176 0
0.0012282638949848255 -0.007600598580208374 -0.0005147130183834564 57 197 0
0.0012282638949848257 -0.007048198016457445 -0.0009483394744848478 106 148 0
0.0012282638949848257 -0.0064957974527065174 -0.0011359560893726233 127 127 0
0.0012282638949848257 -0.00594339741576582 -0.0013741844166786491 154 100 0
0.0012282638949848257 -0.005390996852014891 -0.0014384436749157352 162 92 0
0.0012282638949848257 -0.004838596288263964 -0.0014685066275019192 165 89 0
0.0012282638949848257 -0.004286195724513035 -0.0014653763211151547 165 89 0
0.0012282638949848257 -0.0037337951607621074 -0.0013625682511067612 153 101 0
0.0012282638949848257 -0.0031813945970111794 -0.001259761234718828 141 113 0
0.0012282638949848257 -0.0026289940332602517 -0.001223827508929328 137 117 0
0.0012282638949848257 -0.0020765934695093236 -0.001187894836760288 133 121 0
0.0012282638949848257 -0.0015241929057583955 -0.0014771568514788081 166 88 0
0.0012282638949848257 -0.0009717923420074677 -0.0014082005532308852 158 96 0
0.0012282638949848255 -0.0004193917782565397 -0.000649416813768265 73 181 0
0.0006758633312338973 -0.009810200835212085 0.0022371102462965535 0 92 162
0.0006758633312338974 -0.009257800271461156 0.0019620489281383874 0 112 142
0.0006758633312338975 -0.00870539970771023 0.0009344128558885887 0 187 67
0.0006758633312338976 -0.008152999143959302 -9.322374317144035e-05 10 244 0
0.0006758633312338976 -0.007600598580208374 -0.00019603075955937368 22 232 0
0.0006758633312338977 -0.007048198016457445 -0.0010193640296958198 114 140 0
0.0006758633312338977 -0.0064957974527065174 -0.0011221715728939833 126 128 0
0.0006758633312338977 -0.00594339741576582 -0.0013050405739888403 147 107 0
0.0006758633312338978 -0.005390996852014891 -0.0013409742997783404 151 103 0
0.0006758633312338978 -0.004838596288263964 -0.0020997580392409605 236 18 0
0.0006758633312338978 -0.004286195724513035 -0.0013808000995472103 155 99 0
0.0006758633312338978 -0.0037337951607621074 -0.0014167338253367103 159 95 0
0.0006758633312338978 -0.0031813945970111794 -0.0016917961971153364 190 64 0
0.0006758633312338978 -0.0026289940332602517 -0.00135174546174128 152 102 0
0.0006758633312338978 -0.0020765934695093236 -0.0014207007063687428 160 94 0
0.0006758633312338978 -0.0015241929057583955 -0.0013906367001620989 156 98 0
0.0006758633312338977 -0.0009717923420074677 -0.001152409953286763 129 125 0
0.0006758633312338978 -0.0004193917782565397 -0.001381059290180379 155 99 0
0.0006758633312338977 0.00013300878549438828 -0.001280990633368077 144 110 0
0.0006758633312338977 0.0006854094809478738 -0.0009917286186495568 111 143 0
0.00012346276748296926 -0.009810200835212085 0.0026856396369949126 0 59 195
0.00012346276748296942 -0.00870539970771023 0.0012462992627454443 0 164 90
0.00012346276748296953 -0.008152999143959302 0.0004126847641599749 0 224 30
0.00012346276748296964 -0.007600598580208374 -0.0004500091323122356 50 204 0
0.00012346276748296966 -0.007048198016457445 -0.0006376252203897812 71 183 0
0.00012346276748296972 -0.0064957974527065174 -0.0010712532569218628 120 134 0
0.0001234627674829697 -0.00594339741576582 -0.0008426033932180167 94 160 0
0.00012346276748296975 -0.005390996852014891 -0.0014338973026306835 161 93 0
0.00012346276748296977 -0.004838596288263964 -0.0015339659594429855 172 82 0
0.00012346276748296977 -0.004286195724513035 -0.0015308345994357608 172 82 0
0.00012346276748296977 -0.0037337951607621074 -0.001461880408428758 164 90 0
0.00012346276748296977 -0.0031813945970111794 -0.0014587490484215336 164 90 0
0.00012346276748296985 -0.0026289940332602517 -0.0022634927659713486 255 0 0
0.00012346276748296977 -0.0020765934695093236 -0.0016096538388100732 181 73 0
0.00012346276748296977 -0.0015241929057583955 -0.0015406975405621503 173 81 0
0.00012346276748296975 -0.0009717923420074677 -0.0013578290662775233 152 102 0
0.00012346276748296977 -0.0004193917782565397 -0.001457897723089825 164 90 0
0.00012346276748296977 0.00013300878549438828 -0.001487960675676009 167 87 0
0.00012346276748296972 0.0006854094809478738 -0.0010313078712307787 116 138 0
0.0001234627674829696 0.0012378100446988017 -0.00023981659182728603 27 227 0
-0.000428937829193598 -0.009257800271461156 0.0016648289180852215 0 133 121
-0.000428937829193598 -0.00870539970771023 0.0016288962459161814 0 136 118
-0.0004289378291935979 -0.008152999143959302 0.0007145617766464964 0 203 51
-0.0004289378291935978 -0.007600598580208374 -1.058144195789056e-05 1 253 0
-0.00042893782919359774 -0.007048198016457445 -0.0005489641122982804 61 193 0
-0.0004289378291935977 -0.0064957974527065174 -0.0010056169167435107 113 141 0
-0.00042893782919359763 -0.00594339741576582 -0.0012342667804473566 139 115 0
-0.00042893782919359763 -0.005390996852014891 -0.00133707379683529 150 104 0
-0.00042893782919359763 -0.004838596288263964 -0.0014398808132232235 162 92 0
-0.00042893782919359763 -0.004286195724513035 -0.0014758145390127235 166 88 0
-0.00042893782919359763 -0.0037337951607621074 -0.0015447697836401863 174 80 0
-0.0004289378291935976 -0.0031813945970111794 -0.0018664980592142308 210 44 0
-0.00042893782919359763 -0.0026289940332602517 -0.001476578413846249 166 88 0
-0.0004289378291935977 -0.0020765934695093236 -0.0008342998103724795 93 161 0
-0.0004289378291935976 -0.0015241929057583955 -0.0017189859267070045 193 61 0
-0.00042893782919359763 -0.0009717923420074677 -0.0015313698386294587 172 82 0
-0.0004289378291935976 -0.0004193917782565397 -0.0017600191755230748 198 56 0
-0.00042893782919359763 0.00013300878549438828 -0.0012900264824333388 145 109 0
-0.00042893782919359763 0.0006854094809478738 -0.0012931557351996434 145 109 0
-0.00042893782919359763 0.0012378100446988017 -0.0012288964769625573 138 116 0
-0.0004289378291935977 0.0017902106084497298 -0.0009396339354338072 105 149 0
-0.0009813383805974112 -0.00870539970771023 0.00183546749287999 0 121 133
-0.0009813383805974112 -0.008152999143959302 0.0010307237753301747 0 180 74
-0.000981338380597411 -0.007600598580208374 0.0003117663624466545 0 232 22
-0.000981338380597411 -0.007048198016457445 -0.000305537748452671 34 220 0
-0.0009813383805974108 -0.0064957974527065174 -0.0009228418593519964 103 151 0
-0.0009813383805974108 -0.00594339741576582 -0.0011104584742397722 125 129 0
-0.0009813383805974108 -0.005390996852014891 -0.0015440849303411635 173 81 0
-0.0009813383805974108 -0.004838596288263964 -0.0014412779139532303 162 92 0
-0.0009813383805974108 -0.004286195724513035 -0.0015413465707655321 173 81 0
-0.0009813383805974108 -0.0037337951607621074 -0.001571409523351716 177 77 0
-0.0009813383805974108 -0.0031813945970111794 -0.0016356698352092622 184 70 0
-0.0009813383805974108 -0.0026289940332602517 -0.0016657338414159063 187 67 0
-0.0009813383805974108 -0.0020765934695093236 -0.0016626024814086816 187 67 0
-0.0009813383805974108 -0.0015241929057583955 -0.001659471121401457 186 68 0
-0.0009813383805974108 -0.0009717923420074677 -0.0015905169303944543 179 75 0
-0.0009813383805974108 -0.0004193917782565397 -0.0015215616857669914 171 83 0
-0.0009813383805974108 0.00013300878549438828 -0.0014856279599774914 167 87 0
-0.0009813383805974108 0.0006854094809478738 -0.0013027584320724043 146 108 0
-0.0009813383805974108 0.0012378100446988017 -0.0016428091674464606 185 69 0
-0.000981338380597411 0.0017902106084497298 -0.0006428401148567256 72 182 0
-0.000981338380597411 0.002342611141332871 -0.0002745734235629269 30 224 0
-0.0015337389237698145 -0.00870539970771023 0.0012990487710771057 0 160 94
-0.0015337389237698145 -0.008152999143959302 0.0012300940532598728 0 165 89
-0.0015337389237698143 -0.007600598580208374 0.0002581860743822551 0 236 18
-0.0015337389237698143 -0.007048198016457445 -0.00028019712276836474 31 223 0
-0.001533738923769814 -0.0064957974527065174 -0.0010716873485513974 120 134 0
-0.001533738923769814 -0.00594339741576582 -0.0010416249227754434 117 137 0
-0.001533738923769814 -0.005390996852014891 -0.0015396312766565948 173 81 0
-0.001533738923769814 -0.004838596288263964 -0.0015427626366638194 173 81 0
-0.001533738923769814 -0.004286195724513035 -0.001545891889430124 174 80 0
-0.001533738923769814 -0.0037337951607621074 -0.00151582893684394 170 84 0
-0.001533738923769814 -0.0031813945970111794 -0.0016186370068523334 182 72 0
-0.001533738923769814 -0.0026289940332602517 -0.001687592251479796 190 64 0
-0.001533738923769814 -0.0020765934695093236 -0.0015875235946674943 178 76 0
-0.001533738923769814 -0.0015241929057583955 -0.0017703920689521213 199 55 0
-0.001533738923769814 -0.0009717923420074677 -0.0018732001389605147 211 43 0
-0.001533738923769814 -0.0004193917782565397 -0.001483281547212993 167 87 0
-0.001533738923769814 0.00013300878549438828 -0.0015860885636009264 178 76 0
-0.001533738923769814 0.0006854094809478738 -0.0014860199067886245 167 87 0
-0.001533738923769814 0.0012378100446988017 -0.0012984038187110788 146 108 0
-0.0015337389237698143 0.0017902106084497298 -0.0005509470260040668 62 192 0
-0.001533738923769814 0.002342611141332871 -0.0011672264910060081 131 123 0
-0.0015337389237698143 0.0028950117030259463 -0.0007335984544739266 82 172 0
-0.0015337389237698143 0.0034474122997025136 1.3856757802395442e-05 0 253 1
-0.0020861394875207424 -0.008152999143959302 0.001400565629211726 0 153 101
-0.0020861394875207424 -0.007600598580208374 0.0008092717197990591 0 196 58
-0.0020861394875207424 -0.007048198016457445 6.1815453902277e-05 0 250 4
-0.0020861394875207424 -0.0064957974527065174 -0.0005294784555103898 59 195 0
-0.0020861394875207424 -0.00594339741576582 -0.001093382447443982 123 131 0
-0.0020861394875207424 -0.005390996852014891 -0.0012809990623317577 144 110 0
-0.0020861394875207424 -0.004838596288263964 -0.0014686151504093032 165 89 0
-0.0020861394875207424 -0.004286195724513035 -0.0015328744086463893 172 82 0
-0.0020861394875207424 -0.0037337951607621074 -0.0016329430654586912 183 71 0
-0.0020861394875207424 -0.0031813945970111794 -0.001733011722270993 195 59 0
-0.0020861394875207424 -0.0026289940332602517 -0.0016640554240230701 187 67 0
-0.002086139487520742 -0.0020765934695093236 -0.0020539750693910524 231 23 0
-0.0020861394875207424 -0.0015241929057583955 -0.0016857083780972533 189 65 0
-0.0020861394875207424 -0.0009717923420074677 -0.0017157723843038973 193 61 0
-0.002086139487520742 -0.0004193917782565397 -0.0017800316425409834 200 54 0
-0.0020861394875207424 0.00013300878549438828 -0.0015513823056473672 174 80 0
-0.0020861394875207424 0.0006854094809478738 -0.0015154485798578672 170 84 0
-0.0020861394875207424 0.0012378100446988017 -0.0012403872616997013 139 115 0
-0.0020861394875207424 0.0017902106084497298 -0.0012372564285027068 139 115 0
-0.0020861394875207424 0.002342611141332871 -0.0011344488853045434 127 127 0
-0.0020861394875207424 0.0028950117030259463 -0.0010654925870566205 120 134 0
-0.0020861394875207424 0.0034474122997025136 -0.0005271099167162307 59 195 0
-0.002638540051271671 -0.00870539970771023 0.002861071131262381 0 46 208
-0.002638540051271671 -0.008152999143959302 0.002492803386348122 0 73 181
-0.0026385400512716705 -0.007600598580208374 0.001008396504161569 0 181 73
-0.0026385400512716705 -0.007048198016457445 -4.6581019026143074e-05 5 249 0
-0.0026385400512716705 -0.0064957974527065174 -0.0007004199461874186 78 176 0
-0.0026385400512716705 -0.00594339741576582 -0.001157073277442879 130 124 0
-0.0026385400512716705 -0.005390996852014891 -0.001092813492395563 123 131 0
-0.0026385400512716705 -0.004838596288263964 -0.0014610796568791315 164 90 0
-0.00263854005127167 -0.004286195724513035 -0.0018293463481729303 206 48 0
-0.0026385400512716705 -0.0037337951607621074 -0.0015911196012975944 179 75 0
-0.0026385400512716705 -0.0031813945970111794 -0.0016939266176855278 190 64 0
-0.0026385400512716705 -0.0026289940332602517 -0.0016296673594484417 183 71 0
-0.00263854005127167 -0.0020765934695093236 -0.0019047297312270678 214 40 0
-0.00263854005127167 -0.0015241929057583955 -0.0018046610744147657 203 51 0
-0.00263854005127167 -0.0009717923420074677 -0.0018077924344219905 203 51 0
-0.00263854005127167 -0.0004193917782565397 -0.0018109216871882948 204 50 0
-0.0026385400512716705 0.00013300878549438828 -0.0016233055991107493 182 72 0
-0.0026385400512716705 0.0006854094809478738 -0.0014356895110332036 161 93 0
-0.0026385400512716705 0.0012378100446988017 -0.0014716232368227036 165 89 0
-0.0026385400512716705 0.0017902106084497298 -0.0013715545800104018 154 100 0
-0.0026385400512716705 0.002342611141332871 -0.0011839384919328563 133 121 0
-0.0026385400512716705 0.0028950117030259463 -0.0012198711641018961 137 117 0
-0.0026385400512716705 0.0034474122997025136 -0.0008299515187339145 93 161 0
-0.0026385400512716705 0.003999812863453442 -0.0007298839155420727 82 172 0
-0.0026385400512716705 0.004552213427204369 -0.00022628494425905448 25 229 0
-0.003190940746725156 -0.007600598580208374 0.0015284677777167772 0 143 111
-0.003190940746725156 -0.007048198016457445 0.00018147723678939312 0 241 13
-0.003190940746725156 -0.0064957974527065174 -0.0006521372617960764 73 181 0
-0.003190940746725156 -0.00594339741576582 -0.0008903640086714122 100 154 0
-0.003190940746725156 -0.005390996852014891 -0.0016093219483651626 181 73 0
-0.003190940746725156 -0.004838596288263964 -0.0012410547302611338 139 115 0
-0.003190940746725156 -0.004286195724513035 -0.0016309738488188856 183 71 0
-0.003190940746725156 -0.0037337951607621074 -0.0016952352142968917 190 64 0
-0.0031909407467251554 -0.0031813945970111794 -0.0017953028174887335 202 52 0
-0.003190940746725156 -0.0026289940332602517 -0.0017593701453196935 198 56 0
-0.0031909407467251554 -0.0020765934695093236 -0.0018594377485115353 209 45 0
-0.0031909407467251554 -0.0015241929057583955 -0.0018895007010977193 212 42 0
-0.0031909407467251554 -0.0009717923420074677 -0.0018205454564702566 205 49 0
-0.003190940746725156 -0.0004193917782565397 -0.0015454841383120905 174 80 0
-0.003190940746725156 0.00013300878549438828 -0.0017331002263896362 195 59 0
-0.003190940746725156 0.0006854094809478738 -0.0014580389082314703 164 90 0
-0.003190940746725156 0.0012378100446988017 -0.001558105457802852 175 79 0
-0.003190940746725156 0.0017902106084497298 -0.001375236983518225 154 100 0
-0.003190940746725156 0.002342611141332871 -0.001405300989724869 158 96 0
-0.003190940746725156 0.0028950117030259463 -0.0010835727141508245 122 132 0
-0.003190940746725156 0.0034474122997025136 -0.0009807656977628913 110 144 0
-0.003190940746725156 0.003999812863453442 -0.0009118104531354284 102 152 0
-0.003190940746725156 0.004552213427204369 -0.00045515764869019794 51 203 0
-0.003190940746725156 0.00510461385925274 0.0003992184410602648 0 225 29
-0.003743341310476084 -0.007600598580208374 0.0006257378841939196 0 209 45
-0.003743341310476084 -0.007048198016457445 0.0005567815859459967 0 214 40
-0.003743341310476084 -0.0064957974527065174 -0.0004981948836212552 56 198 0
-0.003743341310476084 -0.00594339741576582 -0.0008199231591952997 92 162 0
-0.003743341310476084 -0.005390996852014891 -0.0013583063563459197 153 101 0
-0.003743341310476084 -0.004838596288263964 -0.0014611144263543129 164 90 0
-0.003743341310476084 -0.004286195724513035 -0.0014642447327410774 164 90 0
-0.003743341310476084 -0.0037337951607621074 -0.0015670517491290109 176 78 0
-0.003743341310476084 -0.0031813945970111794 -0.0016698598191374043 188 66 0
-0.0037433413104760835 -0.0026289940332602517 -0.0019915870410909886 224 30 0
-0.0037433413104760835 -0.0020765934695093236 -0.001994717347477753 224 30 0
-0.003743341310476084 -0.0015241929057583955 -0.0015610914181865918 175 79 0
-0.0037433413104760835 -0.0009717923420074677 -0.0019293581094803904 217 37 0
-0.0037433413104760835 -0.0004193917782565397 -0.0018292894526680886 206 48 0
-0.0037433413104760835 0.00013300878549438828 -0.0018982457509160115 213 41 0
-0.003743341310476084 0.0006854094809478738 -0.00146461771438393 165 89 0
-0.003743341310476084 0.0012378100446988017 -0.001647486188668557 185 69 0
-0.003743341310476084 0.0017902106084497298 -0.0014092594417932213 158 96 0
-0.0037433413104760835 0.002342611141332871 -0.0021344021335873782 240 14 0
-0.003743341310476084 0.0028950117030259463 -0.0013007881618121388 146 108 0
-0.003743341310476084 0.0034474122997025136 -0.0007368841698785466 83 171 0
-0.003743341310476084 0.003999812863453442 -0.0011051508611723453 124 130 0
-0.003743341310476084 0.004552213427204369 -0.000815888319643595 91 163 0
-0.003743341310476084 0.00510461385925274 -0.0006282722315660494 70 184 0
-0.003743341310476084 0.005657014423003668 -0.00019464524865442796 21 233 0
-0.004295741874227012 -0.007048198016457445 0.0007793294067555488 0 198 56
-0.004295741874227012 -0.0064957974527065174 3.2915786393922704e-06 0 254 0
-0.004295741874227012 -0.00594339741576582 -0.0005314950850708975 59 195 0
-0.004295741874227012 -0.005390996852014891 -0.0012789508241574494 144 110 0
-0.004295741874227012 -0.004838596288263964 -0.0013090137767436333 147 107 0
-0.004295741874227012 -0.004286195724513035 -0.0015472415772394292 174 80 0
-0.004295741874227012 -0.0037337951607621074 -0.0013643720493343421 153 101 0
-0.004295741874227012 -0.0031813945970111794 -0.0017044227847083984 192 62 0
-0.004295741874227012 -0.0026289940332602517 -0.0019936847994269187 224 30 0
-0.004295741874227012 -0.0020765934695093236 -0.0019247295547994557 216 38 0
-0.004295741874227012 -0.0015241929057583955 -0.0018219225384115225 205 49 0
-0.004295741874227012 -0.0009717923420074677 -0.0018861817966486084 212 42 0
-0.004295741874227012 -0.0004193917782565397 -0.0016575324597549925 186 68 0
-0.004295741874227012 0.00013300878549438828 -0.0017576011165672944 198 56 0
-0.004295741874227012 0.0006854094809478738 -0.0015747326422826673 177 77 0
-0.004295741874227012 0.0012378100446988017 -0.0016047955948688512 180 74 0
-0.004295741874227012 0.0017902106084497298 -0.0012830683729152669 144 110 0
-0.004295741874227012 0.002342611141332871 -0.0013131313255014508 147 107 0
-0.004295741874227012 0.0028950117030259463 -0.001277198653332411 143 111 0
-0.004295741874227012 0.0034474122997025136 -0.001208242881894718 136 118 0
-0.004295741874227012 0.003999812863453442 -0.0011054348118863246 124 130 0
-0.004295741874227012 0.004552213427204369 -0.0009225658107914677 103 151 0
-0.004295741874227012 0.00510461385925274 -0.0008197587944035343 92 162 0
-0.004295741874227012 0.005657014423003668 -0.0005446964226249084 61 193 0
-0.004295741874227012 0.006209414986754596 -0.000441888879426745 49 205 0
-0.004295741874227012 0.006761815550505524 0.0004124856298930277 0 224 30
-0.00484814243797794 -0.007048198016457445 0.0008882785036152573 0 190 64
-0.00484814243797794 -0.0064957974527065174 0.00012949318372194684 0 245 9
-0.00484814243797794 -0.00594339741576582 -0.0003271596207232835 36 218 0
-0.00484814243797794 -0.005390996852014891 -0.0010523028393276705 118 136 0
-0.00484814243797794 -0.004838596288263964 -0.0013740305880914848 154 100 0
-0.00484814243797794 -0.004286195724513035 -0.001556898008755652 175 79 0
-0.00484814243797794 -0.0037337951607621074 -0.001592831734545152 179 75 0
-0.00484814243797794 -0.0031813945970111794 -0.0016956408581740054 191 63 0
-0.00484814243797794 -0.0026289940332602517 -0.0017645950491810083 198 56 0
-0.00484814243797794 -0.0020765934695093236 -0.0018005287749705084 202 52 0
-0.00484814243797794 -0.0015241929057583955 -0.001869484019597971 210 44 0
-0.00484814243797794 -0.0009717923420074677 -0.001972291035985904 222 32 0
-0.00484814243797794 -0.0004193917782565397 -0.0019080317777488184 214 40 0
-0.00484814243797794 0.00013300878549438828 -0.001911163137756043 215 39 0
-0.00484814243797794 0.0006854094809478738 -0.0016729353372602473 188 66 0
-0.00484814243797794 0.0012378100446988017 -0.0016428713310536031 185 69 0
-0.00484814243797794 0.0017902106084497298 -0.0015428037278617612 173 81 0
-0.00484814243797794 0.002342611141332871 -0.0016456107442496947 185 69 0
-0.00484814243797794 0.0028950117030259463 -0.0013055610624960984 147 107 0
-0.00484814243797794 0.0034474122997025136 -0.0011179444476083226 125 129 0
-0.00484814243797794 0.003999812863453442 -0.001220751463996256 137 117 0
-0.00484814243797794 0.004552213427204369 -0.0011206833339941842 126 128 0
-0.00484814243797794 0.00510461385925274 -0.0010206157308023424 114 140 0
-0.00484814243797794 0.005657014423003668 -0.0007313537160838219 82 172 0
-0.00484814243797794 0.006209414986754596 -0.000701289709877178 79 175 0
-0.00484814243797794 0.006761815550505524 -5.901110640340846e-05 6 248 0
-0.00484814243797794 0.007314216114256452 -9.49448321929085e-05 10 244 0
-0.005400542738323753 -0.0064957974527065174 0.00060180120777261 0 211 43
-0.005400542738323753 -0.00594339741576582 -4.047686889092956e-05 4 250 0
-0.005400542738323753 -0.005390996852014891 -0.0005752624789807592 64 190 0
-0.005400542738323753 -0.004838596288263964 -0.0010788609234535474 121 133 0
-0.005400542738323753 -0.004286195724513035 -0.0014687805688215292 165 89 0
-0.005400542738323753 -0.0037337951607621074 -0.001533039827058615 172 82 0
-0.005400542738323753 -0.0031813945970111794 -0.0016331084838709172 183 71 0
-0.005400542738323753 -0.0026289940332602517 -0.001597175811701877 179 75 0
-0.005400542738323753 -0.0020765934695093236 -0.0016614361235594232 187 67 0
-0.005400542738323753 -0.0015241929057583955 -0.0018490522116369687 208 46 0
-0.005400542738323753 -0.0009717923420074677 -0.0016661826837318817 187 67 0
-0.005400542738323753 -0.0004193917782565397 -0.0017662513405441835 198 56 0
-0.005400542738323753 0.00013300878549438828 -0.0015833828662595564 178 76 0
-0.005400542738323753 0.0006854094809478738 -0.0015474491404700564 174 80 0
-0.005400542738323753 0.0012378100446988017 -0.0013187998035764405 148 106 0
-0.005400542738323753 0.0017902106084497298 -0.0010901509934930546 122 132 0
-0.005400542738323753 0.002342611141332871 -0.0013794135350218048 155 99 0
-0.005400542738323753 0.0028950117030259463 -0.00137628217501458 155 99 0
-0.005400542738323753 0.0034474122997025136 -0.0013073269303871173 147 107 0
-0.005400542738323753 0.003999812863453442 -0.001204518860378724 135 119 0
-0.005400542738323753 0.004552213427204369 -0.0011017113171805605 124 130 0
-0.005400542738323753 0.00510461385925274 -0.0010327565993633278 116 138 0
-0.005400542738323753 0.005657014423003668 -0.0008498875982684706 95 159 0
-0.005400542738323753 0.006209414986754596 -0.0007809313000205478 87 167 0
-0.005400542738323753 0.006761815550505524 -0.0006781242836326145 76 178 0
-0.005400542738323753 0.007314216114256452 -0.0004952552825377573 55 199 0
-0.005400542738323753 0.00786661667800738 -3.860247809252696e-05 4 250 0
-0.005952943302074681 -0.0064957974527065174 0.00021174669898574362 0 239 15
-0.005952943302074681 -0.00594339741576582 0.00017581297319624358 0 242 12
-0.005952943302074681 -0.005390996852014891 -0.0007088731431382814 79 175 0
-0.005952943302074681 -0.004838596288263964 -0.0010306008919020958 116 138 0
-0.005952943302074681 -0.004286195724513035 -0.0014872536963473262 167 87 0
-0.005952943302074681 -0.0037337951607621074 -0.001556209994595249 175 79 0
-0.005952943302074681 -0.0031813945970111794 -0.0016251652392227118 183 71 0
-0.005952943302074681 -0.0026289940332602517 -0.0017279722556106452 194 60 0
-0.005952943302074681 -0.0020765934695093236 -0.0017639059814001453 198 56 0
-0.005952943302074681 -0.0015241929057583955 -0.001832861226027608 206 48 0
-0.005952943302074681 -0.0009717923420074677 -0.001802798273441424 203 51 0
-0.005952943302074681 -0.0004193917782565397 -0.00177273426723478 199 55 0
-0.005952943302074681 0.00013300878549438828 -0.0019556037951398673 220 34 0
-0.005952943302074681 0.0006854094809478738 -0.001666340726800887 187 67 0
-0.005952943302074681 0.0012378100446988017 -0.001566273123609045 176 78 0
-0.005952943302074681 0.0017902106084497298 -0.001502012811751499 169 85 0
-0.005952943302074681 0.002342611141332871 -0.0015709680563789619 176 78 0
-0.005952943302074681 0.0028950117030259463 -0.00147089939956666 165 89 0
-0.005952943302074681 0.0034474122997025136 -0.0014740307595738846 166 88 0
-0.005952943302074681 0.003999812863453442 -0.0013739621027615827 154 100 0
-0.005952943302074681 0.004552213427204369 -0.0013097028445244966 147 107 0
-0.005952943302074681 0.00510461385925274 -0.0010714755708389307 120 134 0
-0.005952943302074681 0.005657014423003668 0.00037947886174150524 0 227 27
-0.005952943302074681 0.006209414986754596 -0.0008987661050299631 101 153 0
-0.005952943302074681 0.006761815550505524 -0.000868702098823319 97 157 0
-0.005952943302074681 0.007314216114256452 -0.0007686339688212472 86 168 0
-0.005952943302074681 0.00786661667800738 -0.00037871432345326536 42 212 0
-0.005952943302074681 0.008419017241758309 0.0004260283404760898 0 224 30
-0.0065053438658256085 -0.00594339741576582 0.0005198005614192214 0 217 37
-0.0065053438658256085 -0.005390996852014891 -0.0002276557044775607 25 229 0
-0.0065053438658256085 -0.004838596288263964 -0.0008449603421871162 95 159 0
-0.0065053438658256085 -0.004286195724513035 -0.0014088632805002485 158 96 0
-0.0065053438658256085 -0.0037337951607621074 -0.0015089308836920903 169 85 0
-0.0065053438658256085 -0.0031813945970111794 -0.0014061238673041569 158 96 0
-0.0065053438658256085 -0.0026289940332602517 -0.0017960435126721387 202 52 0
-0.0065053438658256085 -0.0020765934695093236 -0.0017601097868826386 198 56 0
-0.0065053438658256085 -0.0015241929057583955 -0.0016911534886347157 190 64 0
-0.0065053438658256085 -0.0009717923420074677 -0.0016880242358684114 190 64 0
-0.0065053438658256085 -0.0004193917782565397 -0.0017880928926807132 201 53 0
-0.0065053438658256085 0.00013300878549438828 -0.0011718134276787718 132 122 0
-0.0065053438658256085 0.0006854094809478738 -0.0016054404105903934 180 74 0
-0.0065053438658256085 0.0012378100446988017 -0.0015695077384213533 176 78 0
-0.0065053438658256085 0.0017902106084497298 -0.0015663763784141288 176 78 0
-0.0065053438658256085 0.002342611141332871 -0.0014974211337866659 168 86 0
-0.0065053438658256085 0.0028950117030259463 -0.0013145526595020388 148 106 0
-0.0065053438658256085 0.0034474122997025136 -0.001378811917739125 155 99 0
-0.0065053438658256085 0.003999812863453442 -0.0004941263282148298 55 199 0
-0.0065053438658256085 0.004552213427204369 -0.0012130832142881202 136 118 0
-0.0065053438658256085 0.00510461385925274 -0.0011102761979001868 125 129 0
-0.0065053438658256085 0.005657014423003668 -0.0011071448378929623 124 130 0
-0.0065053438658256085 0.006209414986754596 -0.0006504920334477317 73 181 0
-0.0065053438658256085 0.006761815550505524 -0.0009397540481662519 105 149 0
-0.0065053438658256085 0.007314216114256452 -0.0006646922031978559 74 180 0
-0.0065053438658256085 0.00786661667800738 -8.689201101685978e-05 9 245 0
-0.0065053438658256085 0.008419017241758309 0.0011745977563888989 0 169 85
-0.007057744429576537 -0.00594339741576582 0.0008112783399651954 0 195 59
-0.007057744429576537 -0.005390996852014891 -0.000324440753126163 36 218 0
-0.007057744429576537 -0.004838596288263964 -0.0009022409453071593 101 153 0
-0.007057744429576537 -0.004286195724513035 -0.0014002478259985407 157 97 0
-0.007057744429576537 -0.0037337951607621074 -0.0015030548423864741 169 85 0
-0.007057744429576537 -0.0031813945970111794 -0.0016058629123948673 180 74 0
-0.007057744429576537 -0.0026289940332602517 -0.0016748181570223303 188 66 0
-0.007057744429576537 -0.0020765934695093236 -0.0015747495002100284 177 77 0
-0.007057744429576537 -0.0015241929057583955 -0.0015446854940033843 174 80 0
-0.007057744429576537 -0.0009717923420074677 -0.0017275550219084715 194 60 0
-0.007057744429576537 -0.0004193917782565397 -0.0016974920693222874 191 63 0
-0.007057744429576537 0.00013300878549438828 -0.001700622375709052 191 63 0
-0.007057744429576537 0.0006854094809478738 -0.0017037526820958165 191 63 0
-0.007057744429576537 0.0012378100446988017 -0.001706882988482581 192 62 0
-0.007057744429576537 0.0017902106084497298 -0.0016068143316702792 181 73 0
-0.007057744429576537 0.002342611141332871 -0.0015767513790840952 177 77 0
-0.007057744429576537 0.0028950117030259463 -0.00012579747331388914 14 240 0
-0.007057744429576537 0.0034474122997025136 -0.0014276767274346367 160 94 0
