ply
format ascii 1.0
element vertex 722
property float x
property float y
property float z
end_header
0.006373161264089302 -0.006206251217989422 -0.0010233414359390725
0.00664442869634311 -0.005736402242887078 -0.0009223705274052907
0.006915696070389257 -0.005266553368603361 -0.000697804323863237
0.007186963444435404 -0.004796704494319644 -0.0006947304354980577
0.007458230796653678 -0.004326855657842911 -0.0007930118590593327
0.007729498163423867 -0.0038570067961615218 -0.0004770296509377648
0.008000765566573843 -0.0033871578714684916 -0.00044173770584165947
0.00827203294061999 -0.002917308997184774 -0.001096394844353198
0.008543300256458476 -0.002447460223719683 -0.0003842031583189954
0.008814567630504623 -0.001977611349435965 -0.00015963698388077213
0.00908583500455077 -0.0015077624751522478 -0.00015656311006750806
0.009357102378596917 -0.0010379136008685304 2.3039874577080957e-05
0.009628369636227742 -0.0005680649282220651 -0.00021093268878757848
0.002376836387955207 -0.012043018053836627 -0.003914657980203628
0.002919370903216857 -0.011103320708543698 -0.003990966361016034
0.003461905418478507 -0.010163623363250766 -0.0036021070554852477
0.0040044401665708 -0.009223925614683331 -0.003047212027013301
0.004275707657032269 -0.008754076538762362 -0.00255260826088488
0.004546974914663094 -0.008284227866115898 -0.002454326953738927
0.004818242405124563 -0.007814378790194927 -0.0022700615227222434
0.005089509662755388 -0.007344530117548462 -0.002337784739211201
0.005360777036801535 -0.006874681243264745 -0.0019119029166176904
0.0056320444108476815 -0.006404832368981027 -0.0016278065741062153
0.005903311784893828 -0.00593498349469731 -0.0012938295258209098
0.006174579217147636 -0.005465134519594966 -0.001195548684336244
0.006445846591193783 -0.004995285645311248 -0.0011986225144937624
0.00671711396523993 -0.004525436771027532 -0.0010143573163077224
0.006988381317458204 -0.004055587934550799 -0.001238922937773167
0.007259648684228393 -0.0035857390728694094 -0.0010049493284896005
0.0075309160873783705 -0.0031158901481763792 -0.0010402413317933668
0.007802183461424517 -0.0026460412738926616 -0.0009771296754479397
0.008073450777263003 -0.0021761925004275704 -0.0010124210966750969
0.00834471815130915 -0.0017063436261438528 -0.000728325336240231
0.008615985525355297 -0.0012364947518601354 -0.0008292961865663519
0.008887252899401444 -0.000766645877576418 -0.0008323716465383758
0.009158520157032269 -0.0002967972049299528 -0.0006481058662757268
0.009429787647493738 0.0001730518709910168 -0.0005498249083757391
0.009701054905124563 0.000642900543637482 -0.0005528987967409184
0.0013644531376603099 -0.012711449180878387 -0.004452768713235854
0.001906988118583247 -0.011771751029036447 -0.003874105401337146
0.002449522633844897 -0.010832053683743516 -0.004397876095026731
0.002720789891475722 -0.010362205011097051 -0.003949379082769155
0.002992057149106547 -0.009892356338450587 -0.003914087079465388
0.003263324639568016 -0.009422507262529616 -0.003643937408924102
0.00353459189719884 -0.008952658589883151 -0.0032822478096932164
0.0038058593876603088 -0.008482809513962181 -0.003181275445967912
0.004077126645291133 -0.008012960841315716 -0.003080304479226469
0.004348394135752602 -0.007543111765394747 -0.0028557383920997373
0.004619661393383427 -0.007073263092748281 -0.0027547674253582946
0.004890928767429574 -0.0066034142184645634 -0.002226000186055898
0.005162196141475721 -0.006133565344180846 -0.002125028753653168
0.005433463515521868 -0.005663716469897129 -0.0015962616307660929
0.0057047309477756755 -0.0051938674947947855 -0.001593186170794069
0.005975998321821822 -0.004724018620511068 -0.001492215320467948
0.006247265695867969 -0.00425416974622735 -0.0012220655335113398
0.006518533048086243 -0.0037843209097506176 -0.0014560380950570098
0.0067898004148564325 -0.0033144720480692284 -0.0013883142964914432
0.00706106781800641 -0.0028446231233761983 -0.0014178414130583397
0.007332335192052557 -0.0023747742490924807 -0.0013501166831701985
0.007603602507891043 -0.0019049254756273893 -0.0012491457164287558
0.00787486988193719 -0.0014350766013436719 -0.0011814220342785111
0.008146137255983336 -0.0009652277270599545 -0.0011783471563830963
0.008417404630029483 -0.0004953788527762371 -0.0012766279978677622
0.008688671887660308 -2.5530180129771858e-05 -0.0011756571475416413
0.008959939378121777 0.00044431889579119775 -0.001273938105441629
0.009231206635752602 0.000914167568437663 -0.0012708631111308924
0.00950247412621407 0.0013840166443586325 -0.0002347282425034782
0.009773741383844896 0.0018538653170050978 -0.000968834210652857
0.010045008874306365 0.0023237143929260673 -0.0002566422626841804
0.01031627613193719 0.002793563065572533 1.3507528819901395e-05
0.00035206954647769013 -0.013379879035709847 -0.004372907802462577
0.0008946040617393401 -0.012440181690416918 -0.004433750640600919
0.0011658713193701653 -0.011970333017770451 -0.004501475486904382
0.0014371390426622774 -0.011500483538574979 -0.004438362084329127
0.0017084063002931024 -0.011030634865928514 -0.004375250078737735
0.0019796735579239275 -0.010560786193282047 -0.004276970401406287
0.0022509408155547525 -0.010090937520635583 -0.004092703573405742
0.0025222080731855776 -0.009621088847989118 -0.003808607580140232
0.0027934755636470463 -0.009151239772068148 -0.0036243423819541922
0.0030647428212778704 -0.008681391099421683 -0.0033903697039932004
0.003336010311739339 -0.008211542023500712 -0.003206104040145873
0.003607277569370164 -0.007741693350854248 -0.003021837677806615
0.003878545059831633 -0.007271844274933278 -0.0029235577676445237
0.0041498123174624575 -0.006801995602286812 -0.002639460377395152
0.004421079691508604 -0.006332146728003095 -0.0025411800015717736
0.004692347065554751 -0.005862297853719377 -0.0024780684616416684
0.004963614439600898 -0.00539244897943566 -0.0025790391955524674
0.005234881871854706 -0.004922600004333317 -0.0019983057864010325
0.005506149245900853 -0.004452751130049599 -0.0015367061132565132
0.005777416619947 -0.0039829022557658815 -0.001806854852475225
0.006048683972165274 -0.003513053419289149 -0.001809930312447249
0.006319951338935463 -0.0030432045576077598 -0.0017804031958803526
0.00659121874208544 -0.0025733556329147296 -0.001750876195728778
0.006862486116131587 -0.002103506758631012 -0.002279643900692462
0.007133753431970073 -0.0016336579851659206 -0.001698909909464418
0.00740502080601622 -0.0011638091108822032 -0.0016693844227120272
0.007676288180062367 -0.0006939602365984858 -0.0015711029991507522
0.007947555554108513 -0.0002241113623147684 -0.0015415758825838557
0.008218822811739338 0.00024573731033169686 -0.001576867885887622
0.008490090302200807 0.0007155863862526664 -0.0015799421817064277
0.008761357559831632 0.0011854350588991318 -0.0016476664459332815
0.0090326250502931 0.0016552841348201012 -0.0016829574014991513
0.009303892307923925 0.0021251328074665663 -0.001619845279492437
0.009575159798385394 0.002594981883387536 -0.0014355799648910752
0.009846427056016219 0.0030648305560340016 -0.0009409762569703153
0.010117694546477688 0.003534679631954971 -0.0003346966404933474
-0.00011777912616877546 -0.013108611778079022 -0.004319541621953248
0.0004247553890928746 -0.012168914432786093 -0.004398964811116456
0.0006960226467236996 -0.011699065760139626 -0.00439589051529765
0.0009672903700158119 -0.011229216280944154 -0.00439281528815627
0.0012385576276466369 -0.010759367608297689 -0.004325091838836669
0.001509824885277462 -0.010289518935651222 -0.004257367458194493
0.001781092142908287 -0.009819670263004758 -0.004189643543213605
0.002052359400539112 -0.009349821590358293 -0.003965077456086873
0.00232362689100058 -0.008879972514437322 -0.003516580443829297
0.002594894148631405 -0.008410123841790858 -0.0034488567616790524
0.0028661616390928736 -0.007940274765869887 -0.0030871673952788106
0.0031374288967236986 -0.0074704260932234225 -0.002907564863562583
0.0034086963871851673 -0.007000577017302453 -0.002545874333009123
0.003679963644815992 -0.006530728344655987 -0.0025428000371903172
0.003951231018862139 -0.00606087947037227 -0.002181109506636857
0.004222498392908286 -0.005591030596088552 -0.0020801385398954144
0.0044937657669544325 -0.005121181721804835 -0.0019791671074926845
0.00476503319920824 -0.004651332746702492 -0.0020774486474692813
0.005036300573254387 -0.004181483872418774 -0.0020743736531585446
0.005307567947300534 -0.0037116349981350565 -0.0022586388513445846
0.005578835299518808 -0.003241786161658324 -0.00219091516919434
0.005850102666288997 -0.0027719372999769347 -0.002011312171816825
0.006121370069438975 -0.0023020883752839045 -0.0017411629669368258
0.0063926374434851215 -0.001832239501000187 -0.0019254282815381876
0.0066639047593236075 -0.0013623907275350955 -0.001954954816028475
0.006935172133369754 -0.0008925418532513782 -0.0020532363560050717
0.007206439507415901 -0.0004226929789676608 -0.001873633242212235
0.007477706881462048 4.715589531605664e-05 -0.0018383413553237906
0.007748974139092873 0.0005170045679625219 -0.0018030498176813117
0.008020241629554342 0.0009868536438834914 -0.0018325764685869208
0.008291508887185167 0.0014567023165299568 -0.0017316055018454781
0.008562776377646636 0.0019265513924509262 -0.002114561153575777
0.00883404363527746 0.0023964000650973914 -0.0018444114830344907
0.00910531112573893 0.002866249141018361 -0.0018091194797307244
0.009376578383369754 0.0033360978136648266 -0.0016295164823532096
0.009647845873831223 0.0038059468895857962 -0.0004878479812759898
0.009919113131462048 0.004275795562232261 -0.00048477359814569273
0.01019038085475416 0.004745645041427735 -0.000383801670977845
0.010461648112384985 0.005215493714074201 -2.2112197257228338e-05
-0.0005876282020897451 -0.012837344287617554 -0.004117137286812066
-4.509368682809508e-05 -0.011897646942324624 -0.004572149366140365
0.00022617357080272993 -0.011427798269678158 -0.0043381769210100165
0.0004974412940948423 -0.010957948790482685 -0.004373468924313783
0.0007687085517256672 -0.01048810011783622 -0.004275187384337186
0.0010399758093564923 -0.010018251445189754 -0.004090921021997928
0.0013112430669873173 -0.009548402772543289 -0.004126213025301694
0.0015825103246181423 -0.009078554099896824 -0.003892240347340702
0.001853777815079611 -0.008608705023975854 -0.0038953141774982205
0.002125045072710436 -0.008138856351329389 -0.004074917174875735
0.002396312563171904 -0.0076690072754084185 -0.003521085483953356
0.002667579820802729 -0.007199158602761954 -0.002758908085525035
0.0029388473112641977 -0.006729309526840984 -0.002375952433794736
0.0032101145688950223 -0.006259460854194519 -0.0023790274281054727
0.003481381942941169 -0.005789611979910801 -0.0021947610657662145
0.003752649316987316 -0.005319763105627083 -0.002096480689942836
0.004023916691033463 -0.004849914231343367 -0.002131771529093384
0.004295184123287271 -0.004380065256241023 -0.0020686595235019914
0.0045664514973334175 -0.003910216381957305 -0.0022932256106287232
0.004837718871379564 -0.003440367507673588 -0.002394196577370166
0.005108986223597838 -0.002970518671196855 -0.0023972715716809026
0.005380253590368028 -0.002500669809515466 -0.001902667805552482
0.005651520993518005 -0.002030820884822436 -0.0023511648178100577
0.005922788367564152 -0.0015609720105387182 -0.002252883976325392
0.006194055683402638 -0.0010911232370736268 -0.002255958737805485
0.006465323057448785 -0.0006212743627899096 -0.0021576774306595317
0.0067365904314949316 -0.00015142548850619208 -0.002059396356344222
0.0070078578055410784 0.00031842338577752535 -0.002160367323085665
0.0072791250631719035 0.0007882720584239906 -0.001926394761539995
0.007550392553633372 0.0012581211343449601 -0.002105997642502188
0.007821659811264196 0.0017279698069914255 -0.002076470758765935
0.008092927301725665 0.002197818882912395 -0.002013358986005186
0.00836419455935649 0.00266766755555886 -0.0019502469804137939
0.008635462049817959 0.0031375166314798297 -0.0019207198638468974
0.008906729307448784 0.0036073653041262953 -0.0016366241034120315
0.009177996797910253 0.0040772143800472645 -0.0016719155246391886
0.009449264055541078 0.00454706305269373 -0.0006762768025510006
0.00972053177883319 0.005016912531889204 -2.1619373001157512e-05
0.009991799036464015 0.005486761204535669 -0.00047011664719320763
0.01026306629409484 0.005956609877182134 -8.517215974278956e-06
-0.001328744598028323 -0.013035926509182203 -0.0019189576851204031
-0.0007862096171053856 -0.012096228357340264 -0.003772789379581808
-0.0005149423594745607 -0.011626379684693799 -0.004234388470649718
-0.00024367510184373565 -0.011156531012047333 -0.004332670010626315
2.7592621448376672e-05 -0.01068668153285186 -0.004395782016217708
0.0002988598790792017 -0.010216832860205395 -0.004425308667123317
0.0005701271367100267 -0.009746984187558929 -0.004357585683465003
0.0008413943943408517 -0.009277135514912464 -0.004420697223395108
0.0011126616519716768 -0.008807286842266 -0.003931585233658551
0.0013839291424331455 -0.008337437766345029 -0.004314539954066276
0.0016551964000639705 -0.007867589093698564 -0.0038254272658377877
0.001926463890525439 -0.007397740017777594 -0.0037244558334350577
0.0021977311481562642 -0.006927891345131129 -0.0032759588211774817
0.002468998638617733 -0.006458042269210159 -0.0024368427693843833
0.0027402658962485575 -0.005988193596563694 -0.0019883457571268073
0.0030115332702947044 -0.005518344722279976 -0.0016723640728741878
0.0032828006443408513 -0.005048495847996258 -0.001447797869332134
0.003554068018386998 -0.004578646973712542 -0.0014125059824436896
0.003825335450640806 -0.004108797998610198 -0.0001029670456773595
0.004096602824686953 -0.0036389491243264804 -0.00156164017971605
0.0043678701987331 -0.0031691002500427628 -0.0019445959478616708
0.004639137550951374 -0.00269925141356603 -0.0024061950389295808
0.004910404917721563 -0.002229402551884641 -0.0025044765789061776
0.00518167232087154 -0.0017595536271916106 -0.0025014027487486592
0.005452939694917687 -0.0012897047529078932 -0.0024336779024451962
0.005724207010756173 -0.0008198559794428019 -0.0023659542202949515
0.00599547438480232 -0.00035000710515908446 -0.002186351688578724
0.006266741758848467 0.00011984176912463295 -0.0021510596852749577
0.006538009132894614 0.0005896906434083504 -0.0021479844581335774
0.006809276390525439 0.0010595393160548155 -0.00208026124164462
0.0070805438809869075 0.0015293883919757852 -0.0021097876597195855
0.0073518111386177325 0.0019992370646222503 -0.00207449635490775
0.007623078629079201 0.00246908614054322 -0.002006772439926862
0.007894345886710025 0.002938934813189685 -0.0019714806694537393
0.008165613377171494 0.0034087838891106548 -0.0020345926750451318
0.008436880634802319 0.0038786325617571203 -0.0019993006717413655
0.008708148125263788 0.0043484816376780895 -0.0018196977907791727
0.008979415382894613 0.004818330310324555 -0.001882809912785887
0.009250683106186725 0.005288179789520029 -0.0016126601258292788
0.00952195036381755 0.005758028462166494 -0.0007735446561127895
-0.0017985936739492927 -0.012764659018720734 -0.002459846436977386
-0.0015273259506571803 -0.01229480953952526 -0.0017537301173433655
-0.0012560586930263544 -0.011824960866878795 -0.0037349855992943044
-0.0009847914353955294 -0.01135511219423233 -0.004005134105682372
-0.0007135241777647044 -0.010885263521585864 -0.004275284241884946
-0.00044225645447259213 -0.010415414042390391 -0.004343008622527122
-0.0001709891968417671 -0.009945565369743926 -0.004410732071846723
0.00010027806078905791 -0.00947571669709746 -0.004446024075150489
0.00037154531841988294 -0.009005868024450995 -0.004481316078454255
0.000642812576050708 -0.00853601935180453 -0.004418203607201575
0.0009140800665121766 -0.00806617027588356 -0.004519175272434949
0.0011853473241430017 -0.007596321603237095 -0.004334909375756978
0.0014566148146044702 -0.007126472527316126 -0.004100935999304055
0.0017278820722352944 -0.00665662385466966 -0.00339481933042407
0.0019991495626967633 -0.0061867747787486905 -0.0021512161474674936
0.002270416820327588 -0.005716926106102225 -0.0016896163579076522
0.0025416841943737348 -0.005247077231818507 -0.0015913354000076645
0.0028129515684198816 -0.00477722835753479 -0.0013072390574961894
0.0030842189424660285 -0.004307379483251073 -0.0009732621256262059
0.0033554863747198363 -0.0038375305081487293 -0.0015407438622787588
0.003626753748765983 -0.0033676816338650117 -0.0013067702529951924
0.00389802112281213 -0.002897832759581294 -0.0012436582474037998
0.004169288475030404 -0.0024279839231045614 -0.0017327717505395406
0.004440555841800593 -0.0019581350614231723 -0.0020944613497704263
0.004711823244950571 -0.0014882861367301419 -0.0022740641143172975
0.0049830906189967175 -0.0010184372624464245 -0.0025442140176892276
0.0052543579348352035 -0.0005485884889813332 -0.002210237085819244
0.00552562530888135 -7.873961469761577e-05 -0.0025262183044105764
0.005796892682927497 0.00039110925958610164 -0.0025939424522221084
0.006068160056973644 0.0008609581338698191 -0.0023599704727530475
0.006339427314604469 0.0013308068065162842 -0.0022968573030084367
0.006610694805065938 0.0018006558824372539 -0.0027453543152660127
0.006881962062696763 0.002270504555083719 -0.002139076357707381
0.0071532295531582316 0.0027403536310046887 -0.0021743681281805034
0.007424496810789057 0.003210202303651154 -0.0020760868210345502
0.007695764301250525 0.0036800513795721235 -0.0019778052810579534
0.00796703155888135 0.004149900052218589 -0.0015948496293276542
0.008238299049342819 0.004619749128139558 -0.0020433471072465177
0.008509566306973644 0.005089597800786024 -0.002078639110550284
0.008780834030265756 0.0055594472799814975 -0.0014723595231771463
0.009052101287896581 0.006029295952627963 -0.0012383869616314762
0.009323368545527407 0.006499144625274428 -0.00033320809598080754
-0.0019971750265781506 -0.012023542049063791 -0.0018816260853782292
-0.0017259077689473254 -0.011553693376417326 -0.0027003523427993055
-0.0014546405113164994 -0.011083844703770862 -0.003576442832127213
-0.0011833732536856744 -0.010613996031124395 -0.004698949865996837
-0.0009121055303935622 -0.010144146551928922 -0.004382968414574861
-0.0006408382727627372 -0.009674297879282458 -0.00448124948889017
-0.0003695710151319122 -0.009204449206635991 -0.004665515385568141
-9.830375750108715e-05 -0.008734600533989527 -0.004662441089749335
0.00017296350012973785 -0.008264751861343062 -0.004691968206316232
0.00044423099059120655 -0.007794902785422091 -0.0046566762030124656
0.0007154982482220315 -0.007325054112775627 -0.004621384199708699
0.0009867657386835001 -0.006855205036854657 -0.0042596948333084575
0.0012580329963143252 -0.006385356364208191 -0.003654422471299767
0.001529300486775793 -0.005915507288287222 -0.0015382904093712564
0.001800567744406618 -0.005445658615640756 -0.0013323532184585925
0.0020718351184527647 -0.004975809741357039 -0.0009706626879051322
0.0026143698665450584 -0.004036111992789604 -0.000479850015835836
0.002885637298798866 -0.0035662630176872606 -0.00047677560360170847
0.003156904672845013 -0.003096414143403543 -0.00025220969109795933
0.00342817204689116 -0.0026265652691198254 -0.0005363057716749603
0.003699439399109434 -0.0021567164326430927 -0.0005658328300341958
0.003970706765879623 -0.0016868675709617038 -0.0009917152347043152
0.0042419741690296 -0.0012170186462686732 -0.0013256917009130116
0.004513241543075747 -0.0007471697719849558 -0.0019564991816878314
0.004784508858914233 -0.0002773209985198645 -0.001921207294799387
0.00505577623296038 0.00019252787576385294 -0.002382806502282619
0.005327043607006527 0.0006623767500475704 -0.0023797326721251007
0.0055983109810526736 0.0011322256243312878 -0.002063750987872481
0.005869578238683499 0.001602074296977753 -0.002126862527802586
0.006140845729144967 0.0020719233728987226 -0.0019472595304250713
0.006412112986775792 0.0025417720455451877 -0.0017676569987088438
0.006683380477237261 0.0030116211214661574 -0.0017323651118203993
0.006954647734868086 0.0034814697941126225 -0.0016646413132548328
0.007225915225329555 0.003951318870033593 -0.0015969182131811972
0.00749718248296038 0.004421167542680057 -0.001529193483293056
0.0077684499734218485 0.004891016618601027 -0.001713458681479096
0.008039717231052674 0.0053608652912474925 -0.0016124878311529751
0.008310984954344786 0.005830714770442966 -0.0017107687890529628
0.008582252211975611 0.006300563443089432 -0.0006746324943378562
-0.0027382916241539793 -0.012222124154213119 -0.002477174391970038
-0.0024670239008618674 -0.011752274675017644 -0.0018964402843266721
-0.0021957566432310423 -0.01128242600237118 -0.0036917442921549077
-0.001924489385600217 -0.010812577329724715 -0.0045606307685375205
-0.001653222127969392 -0.010342728657078248 -0.004035395570099353
-0.0013819544046772799 -0.009872879177882776 -0.004351377952843904
-0.0011106871470464548 -0.00940303050523631 -0.004386668559163808
-0.0008394198894156298 -0.008933181832589844 -0.0046112341806292525
-0.0005681526317848047 -0.00846333315994338 -0.004646526183933019
-0.00029688537415397976 -0.007993484487296915 -0.004747497849166392
-2.561788369251108e-05 -0.0075236354113759445 -0.004717970732599496
0.0002456493739383139 -0.00705378673872948 -0.004753262735903262
0.0005169168643997826 -0.00658393766280851 -0.004723735619336366
0.0007881841220306077 -0.0061140889901620445 -0.004625454079359769
0.0010594516124920763 -0.005644239914241075 -0.004163854755461215
0.0013307188701229009 -0.005174391241594609 -0.0014803238445892926
0.0016019862441690477 -0.004704542367310892 -0.0006042332970537241
0.0018732536182151946 -0.004234693493027175 -2.3499867893405733e-05
0.004314659984630516 -6.053624473717844e-06 -0.00109387410338968
0.004585927358676663 0.0004637952498099996 -0.0008097782847471531
0.00485719473272281 0.000933644124093717 -0.0016488936962559815
0.005128462106768957 0.0014034929983774344 -0.001716617494821548
0.005399729364399782 0.0018733416710238996 -0.0016870903782546516
0.0056709968548612506 0.0023431907469448694 -0.0017223823815584178
0.005942264112492076 0.0028130394195913346 -0.001624100841581821
0.006213531602953544 0.0032828884955123042 -0.0016593928448855873
0.006484798860584369 0.0037527371681587694 -0.0015611118869855996
0.006756066351045838 0.004222586244079739 -0.0012271349551156159
0.007027333608676663 0.004692434916726204 -0.001294859685003757
0.007298601099138131 0.005162283992647174 -0.001010763342492282
0.007569868356768956 0.005632132665293639 -0.0009476502309553321
0.00784113608006107 0.006101982144489113 -0.000950725690927356
0.008112403337691894 0.006571830817135579 -0.0004561214591376479
-0.002936872775145585 -0.011481007300971497 -0.0019388626096770163
-0.00266560551751476 -0.011011158628325033 -0.0027292326558381315
-0.002394338259883935 -0.010541309955678568 -0.003819559002295136
-0.00212307100225311 -0.010071461283032102 -0.004053531680256128
-0.0018518032789609975 -0.009601611803836629 -0.004337627906352282
-0.0015805360213301724 -0.009131763131190164 -0.004671604372560978
-0.0013092687636993474 -0.008661914458543698 -0.004855869337916374
-0.0010380015060685224 -0.008192065785897233 -0.004820577334612608
-0.0007667342484376973 -0.007722217113250767 -0.004850104451179504
-0.0004954667579762287 -0.007252368037329798 -0.004948385991156101
-0.00022419950034540369 -0.006782519364683333 -0.004678236320614815
4.706799011606499e-05 -0.006312670288762363 -0.004675162956118584
0.00031833524774689 -0.005842821616115898 -0.004859428387135267
0.0005896027382083586 -0.005372972540194928 -0.0046798246912658215
0.0008608699958391837 -0.0049031238675484624 -0.0038711966481059785
0.005201147980577533 0.0026144581209910163 -0.0003793256182689216
0.005472415238208358 0.0030843067936374815 -0.0003440347209107127
0.005743682728669827 0.003554155869558451 -0.0004423161444719877
0.006014949986300652 0.004024004542204916 -8.062565029831564e-05
0.00628621747676212 0.0044938536181258855 -1.2901934496766962e-05
-0.0036779893727214145 -0.011679589406120825 -0.0016347174532711504
-0.003406721649429302 -0.01120973992692535 -0.002202199306339025
-0.003135454391798477 -0.010739891254278886 -0.0032649335917085405
-0.002864187134167652 -0.010270042581632421 -0.0037134306039661165
-0.002592919876536827 -0.009800193908985955 -0.004161927383393049
-0.0023216521532447147 -0.009330344429790482 -0.004341530613601208
-0.0020503848956138896 -0.008860495757144017 -0.004521133378148079
-0.0017791176379830646 -0.00839064708449755 -0.00470073614269495
-0.0015078503803522395 -0.007920798411851086 -0.004768459592014551
-0.0012365831227214145 -0.00745094973920462 -0.004803751595318317
-0.0009653156322599459 -0.006981100663283651 -0.004806825891137123
-0.0006940483746291209 -0.006511251990637186 -0.00452272966504097
-0.00042278088416765217 -0.006041402914716216 -0.004838711582124233
-0.00015151362653682718 -0.005571554242069751 -0.005200400948524475
0.00011975386392464149 -0.005101705166148781 -0.0046196673065423965
0.0003910211215554665 -0.004631856493502316 -0.004654959309846163
0.0006622884956016134 -0.004162007619218599 -0.00459184730425477
0.0009335558696477601 -0.003692158744934881 -0.003885729936882853
-0.0038765703220757677 -0.010938472669294525 -0.0015561375766992567
-0.0036053030644449422 -0.01046862399664806 -0.002678646240383386
-0.003334035806814117 -0.009998775324001596 -0.004103686660528183
-0.003062768549183292 -0.00952892665135513 -0.003924083895981312
-0.00279150082589118 -0.009059077172159657 -0.0043499656021595
-0.0025202335682603548 -0.008589228499513192 -0.004534231498837471
-0.0022489663106295297 -0.008119379826866726 -0.004768205340951681
-0.001977699052998705 -0.007649531154220261 -0.004831316880881786
-0.0017064317953678799 -0.007179682481573795 -0.004860842600464821
-0.0014351643049064112 -0.006709833405652826 -0.004857768304646015
-0.0011638970472755861 -0.006239984733006361 -0.0047567966394126415
-0.0008926295568141175 -0.005770135657085391 -0.004655825439840555
-0.0006213622991832925 -0.005300286984438926 -0.004620533436536789
-0.0003500948087218239 -0.004830437908517956 -0.004585242830216885
-7.882755109099885e-05 -0.0043605892358714905 -0.0048693385906517506
0.000192439822955148 -0.0038907403615877733 -0.004801613744348288
0.00046370719700129483 -0.003420891487304056 -0.004056381992995739
-0.004617686919651597 -0.011137054774443853 -0.00122140790335834
-0.004346419196359485 -0.010667205295248379 -0.001491556642577052
-0.00407515193872866 -0.010197356622601914 -0.0025008392985910177
-0.003803884681097835 -0.00972750794995545 -0.003510122187435627
-0.0035326174234670098 -0.009257659277308984 -0.0036110931541770697
-0.0032613497001748974 -0.00878780979811351 -0.0044197216629981995
-0.0029900824425440724 -0.008317961125467045 -0.004520693328231573
-0.0027188151849132473 -0.007848112452820579 -0.004700296092778444
-0.0024475479272824223 -0.007378263780174114 -0.0047355880960822105
-0.0021762806696515972 -0.0069084151075276485 -0.005480819847434759
-0.0019050131791901286 -0.006438566031606679 -0.004774702712893486
-0.0016337459215593035 -0.005968717358960214 -0.004809994716197252
-0.001362478431097835 -0.0054988682830392445 -0.005080144386738539
-0.00109121117346701 -0.005029019610392779 -0.004746166989207268
-0.0008199436830055413 -0.004559170534471809 -0.004813890438526869
-0.0005486764253747162 -0.0040893218618253445 -0.00478436378762126
-0.00027740905132856943 -0.003619472987541627 -0.0045503913424909115
-6.141677282422574e-06 -0.0031496241132579093 -0.004774957429617643
0.00026512569676372425 -0.002679775238974192 -0.0046766758896410465
0.0005363931290175318 -0.0022099262638718485 -0.004392580129206181
-0.005087535793935315 -0.010865787400397706 -0.0007808891823515295
-0.0045450008130123775 -0.009926089248555767 -0.002194523112848401
-0.004273733555381552 -0.009456240575909302 -0.0030132492538541555
-0.004002466297750727 -0.008986391903262838 -0.003860535565763712
-0.003731198574458615 -0.008516542424067363 -0.0040448009967803955
-0.0034599313168277896 -0.008046693751420898 -0.004470684099942446
-0.003188664059196965 -0.007576845078774433 -0.004246118012815714
-0.00291739680156614 -0.007106996406127967 -0.0048268516547977924
-0.002646129543935315 -0.006637147733481502 -0.004925133194774389
-0.002374862053473846 -0.006167298657560532 -0.004922057501971722
-0.002103594795843021 -0.005697449984914067 -0.004854334983974695
-0.0018323273053815524 -0.005227600908993098 -0.004851259291172028
-0.0015610600477507274 -0.004757752236346632 -0.005641630385071039
-0.0012897925572892587 -0.004287903160425662 -0.00499946903437376
-0.0010185252996584336 -0.0038180544877791972 -0.004931744188070297
-0.0007472579256122868 -0.00334820561349548 -0.004752141889184713
-0.00047599055156613996 -0.0028783567392117624 -0.00485042342916131
-0.00020472317751999314 -0.0024085078649280453 -0.004879949148744345
6.654425473381463e-05 -0.0019386588898257016 -0.004431452136486769
0.00033781162877996135 -0.001468810015541984 -0.0036540969740599394
-0.005286116970131576 -0.01012467053260417 -0.0017834682948887348
-0.005014849712500751 -0.009654821859957705 -0.0018187592504546046
-0.004743582454869926 -0.00918497318731124 -0.0027167636435478926
-0.004472315197239101 -0.008715124514664776 -0.003428956028074026
-0.004201047473946989 -0.008245275035469301 -0.003957723267376423
-0.003929780216316164 -0.007775426362822835 -0.004406220279633999
-0.0036585129586853386 -0.007305577690176371 -0.004630786366760731
-0.0033872457010545136 -0.006835729017529905 -0.00473175710067153
-0.0031159784434236885 -0.0063658803448834395 -0.004832728300243616
-0.00284471095296222 -0.005896031268962471 -0.004868020303547382
-0.002573443695331395 -0.005426182596316005 -0.004935743752866983
-0.002302176204869926 -0.0049563335203950355 -0.005251726135611534
-0.002030908947239101 -0.00448648484774857 -0.004868770483881235
-0.0017596414567776326 -0.0040166357718276 -0.0042379628866910934
-0.0014883741991468075 -0.0035467870991811356 -0.005106848664581776
-0.0012171068251006607 -0.003076938224897418 -0.004922583233565092
-0.0009458394510545139 -0.0026070893506137003 -0.005147148855030537
-0.000674572077008367 -0.002137240476329983 -0.004685550462454557
-0.0004033046447545593 -0.0016673915012276395 -0.0046886238269507885
-0.00013203727070841255 -0.0011975426269439221 -0.004625511821359396
0.0001392301033377343 -0.0007276937526602047 -0.004341415595263243
-0.005484698580483304 -0.009383554489549537 -0.0016158772632479668
-0.005213431322852479 -0.008913705816903072 -0.0024062483571469784
-0.004942164065221654 -0.008443857144256607 -0.003112365258857608
-0.004670896341929542 -0.007974007665061133 -0.003718644380569458
-0.004399629084298717 -0.007504158992414667 -0.004324923735111952
-0.004128361826667892 -0.007034310319768203 -0.004509189166128635
-0.0038570945690370667 -0.006564461647121737 -0.004935071337968111
-0.003585827311406242 -0.006094612974475272 -0.004834100138396025
-0.0033145598209447734 -0.005624763898554303 -0.0049323816783726215
-0.0030432925633139484 -0.005154915225907837 -0.004961907863616943
-0.0027720250728524797 -0.004685066149986867 -0.005025020334869623
-0.0025007578152216547 -0.004215217477340402 -0.00505454745143652
-0.002229490324760186 -0.0037453684014194326 -0.005051472224295139
-0.001958223067129361 -0.0032755197287729675 -0.005048396531492472
-0.001686955693083214 -0.00280567085448925 -0.004980674013495445
-0.0014156883190370672 -0.0023358219802055327 -0.004912950098514557
-0.0011444209449909203 -0.001865973105921815 -0.004877658095210791
-0.0008731535127371126 -0.0013961241308194715 -0.004698054865002632
-0.0006018861386909658 -0.0009262752565357542 -0.005032032262533903
-0.000330618764644819 -0.0004564263822520367 -0.004049922805279493
-5.9351412426545065e-05 1.3422454224696004e-05 -0.003688233206048608
-0.0059545474358635294 -0.009112287126417326 -0.002142715733498335
-0.005683280178232704 -0.008642438453770862 -0.0022104389499872923
-0.005412012920601879 -0.008172589781124397 -0.003164988709613681
-0.005140745197309767 -0.007702740301928922 -0.003693756414577365
-0.004869477939678942 -0.007232891629282457 -0.00447111064568162
-0.004598210682048117 -0.006763042956635992 -0.004441584926098585
-0.004326943424417292 -0.0062931942839895266 -0.004930696915835142
-0.004055676166786467 -0.005823345611343062 -0.00493377260863781
-0.003784408676324998 -0.005353496535422092 -0.004936845973134041
-0.003513141418694173 -0.004883647862775627 -0.004907319787889719
-0.0032418739282327044 -0.004413798786854657 -0.00500829191878438
-0.0029706066706018793 -0.003943950114208191 -0.005076015368103981
-0.0026993391801404107 -0.003474101038287222 -0.0049777342937886715
-0.002428071922509586 -0.003004252365640757 -0.005157336592674255
-0.002156804548463439 -0.0025344034913570394 -0.005258308257907629
-0.001885537174417292 -0.0020645546170733223 -0.004875354003161192
-0.0016142698003711452 -0.0015947057427896046 -0.004976324737071991
-0.0013430023681173377 -0.0011248567676872612 -0.004878043197095394
-0.0010717349940711908 -0.0006550078934035437 -0.0046937777660787106
-0.0008004676200250441 -0.00018515901911982623 -0.003959670662879944
-0.00052920026780677 0.00028468981735690636 -0.004564943257719278
-0.0002579329010365808 0.0007545386790382956 -0.004139060154557228
1.333450211339642e-05 0.001224387603731326 -0.0034049542155116796
-0.006153129052516422 -0.008371171079724715 -0.0020430118311196566
-0.005881861794885597 -0.00790132240707825 -0.0026237452402710915
-0.005610594071593485 -0.0074314729278827756 -0.0033578521106392145
-0.00533932681396266 -0.00696162425523631 -0.003938585519790649
-0.0050680595563318345 -0.006491775582589845 -0.004492418374866247
-0.0047967922987010095 -0.00602192690994338 -0.004676684271544218
-0.0045255250410701844 -0.005552078237296915 -0.004860949236899614
-0.004254257550608716 -0.005082229161375945 -0.0049240607768297195
-0.003982990292977891 -0.00461238048872948 -0.005022342316806316
-0.003711722802516422 -0.00414253141280851 -0.005120623856782913
-0.003440455544885597 -0.003672682740162045 -0.00505289901047945
-0.0031691880544241283 -0.0032028336642410753 -0.005435854662209749
-0.0028979207967933032 -0.00273298499159461 -0.005074165295809507
-0.0026266534227471564 -0.0022631361173108926 -0.005103692412376404
-0.0023553860487010095 -0.0017932872430271754 -0.005166803952306509
-0.0020841186746548626 -0.0013234383687434578 -0.0049422383308410645
-0.001812851242401055 -0.0008535893936411144 -0.004906946327537298
-0.0015415838683549082 -0.00038374051935739697 -0.004636797588318586
-0.0012703164943087613 8.610835492632048e-05 -0.004633722826838493
-0.0009990491420904873 0.0005559571914030532 -0.00453275116160512
-0.000727781775320298 0.0010258060530844422 -0.004465026315301657
-0.00045651437217032097 0.0014956549777774728 -0.00393625907599926
-0.006894245184430965 -0.008569752378325033 -0.0006085908389650287
-0.00662297792680014 -0.008099903705678568 -0.0009702813695184889
-0.006351710669169315 -0.007630055033032102 -0.002428176812827587
-0.006080442945877202 -0.007160205553836629 -0.0034643125254660845
-0.005809175688246377 -0.006690356881190163 -0.004106474108994007
-0.005537908430615551 -0.006220508208543698 -0.00455497158691287
-0.005266641172984727 -0.005750659535897233 -0.004491859581321478
-0.004995373915353902 -0.005280810863250768 -0.0048535484820604324
-0.004724106424892433 -0.0048109617873297985 -0.005215237848460674
-0.004452839167261608 -0.004341113114683333 -0.004981265868991613
-0.00418157167680014 -0.0038712640387623632 -0.005082236602902412
-0.003910304419169315 -0.003401415366115898 -0.005019125062972307
-0.0036390369287078454 -0.0029315662901949285 -0.005289274733513594
-0.003367769671077021 -0.0024617176175484633 -0.005190993659198284
-0.003096502297030874 -0.0019918687432647457 -0.0051940688863396645
-0.002825234922984727 -0.0015220198689810285 -0.0051971422508358955
-0.0025539675489385802 -0.001052170994697311 -0.005012876819819212
-0.0022827001166847724 -0.0005823220195949675 -0.004828611854463816
-0.0020114327426386256 -0.00011247314531125007 -0.004863903857767582
-0.0017401653685924787 0.00035737572897246735 -0.004765622317790985
-0.0014688980163742047 0.0008272245654492 -0.0045813568867743015
-0.0011976306496040154 0.001297073427130589 -0.004616647958755493
-0.0009263632464540384 0.0017669223518236197 -0.004233692307025194
-0.0006550958724078915 0.002236771226107337 -0.004135411698371172
-0.0003838285565694056 0.0027066199995724287 -0.0036408070009201765
-0.006821559543453031 -0.0073587876589859555 -0.0019173939945176246
-0.006550291820160919 -0.006888938179790482 -0.0032403273507952694
-0.006279024562530094 -0.006419089507144017 -0.0040590534918010235
-0.006007757304899269 -0.0059492408344975515 -0.004293025936931372
-0.005736490047268445 -0.005479392161851086 -0.004999143071472645
-0.00546522278963762 -0.005009543489204621 -0.004637453239411116
-0.005193955299176151 -0.004539694413283652 -0.005020408425480127
-0.004922688041545326 -0.004069845740637186 -0.005083521828055382
-0.004651420551083857 -0.0035999966647162164 -0.005181802436709404
-0.004380153293453032 -0.0031301479920697512 -0.005146511364728212
-0.0041088858029915635 -0.0026602989161487816 -0.005244791973382235
-0.0038376185453607384 -0.0021904502435023164 -0.005274317692965269
-0.0035663511713145916 -0.001720601369218599 -0.005206594243645668
-0.0032950837972684447 -0.0012507524949348816 -0.004936445504426956
-0.003023816423222298 -0.0007809036206511641 -0.00512071093544364
-0.00275254899096849 -0.0003110546455488206 -0.004850562196224928
-0.002481281616922343 0.0001587942287348968 -0.004948841407895088
-0.0022100142428761963 0.0006286431030186142 -0.004769239109009504
-0.0019387468906579223 0.0010984919394953468 -0.0047987657599151134
-0.001667479523887733 0.001568340801176736 -0.00448278384283185
-0.0013962121207377557 0.0020381897258697663 -0.004381812643259764
-0.0011249447466916088 0.002508038600153484 -0.004314089193940163
-0.000853677430853123 0.002977887373618575 -0.003865592181682587
-0.0005824100568069761 0.0034477362479022927 -0.003026475198566914
-0.007291408417736749 -0.007087520284939809 -0.002804001327604056
-0.007020140694444637 -0.006617670805744335 -0.002871725941076875
-0.0067488734368138115 -0.00614782213309787 -0.0039078607223927975
-0.0064776061791829865 -0.005677973460451405 -0.004223843105137348
-0.006206338921552162 -0.005208124787804939 -0.004752610810101032
-0.005935071663921337 -0.004738276115158474 -0.004853582475334406
-0.005663804173459869 -0.004268427039237505 -0.004856656771153212
-0.0053925369158290435 -0.003798578366591039 -0.004957627970725298
-0.005121269425367575 -0.0033287292906700695 -0.005058599635958672
-0.004850002167736749 -0.002858880618023605 -0.005374581087380648
-0.00457873467727528 -0.002389031542102635 -0.005377655383199453
-0.004307467419644456 -0.0019191828694561696 -0.004951774142682552
-0.004036200045598308 -0.0014493339951724524 -0.005313463509082794
-0.0037649326715521623 -0.0009794851208887348 -0.005215181969106197
-0.0034936652975060154 -0.0005096362466050173 -0.00528290681540966
-0.0032223978652522077 -3.9787271502673754e-05 -0.004857023246586323
-0.002951130491206061 0.00043006160278104364 -0.005036625545471907
-0.002679863117159914 0.000899910477064761 -0.004802653566002846
-0.0024085957649416395 0.0013697593135414935 -0.005514845252037048
-0.0021373283981714506 0.0018396081752228828 -0.004696119576692581
-0.0018660609950214733 0.0023094570999159132 -0.004142287187278271
-0.0015947936209753264 0.002779305974199631 -0.004503976553678513
-0.0013235263051368407 0.003249154747664722 -0.004219880327582359
-0.0010522589310906938 0.0037190036219484396 -0.004035614896565676
-0.000780991557044547 0.004188852496232157 -0.003609732491895557
-0.007489989568728354 -0.006346403431698188 -0.002653152914717794
-0.007218722311097529 -0.005876554759051723 -0.003415330778807402
-0.006947455053466704 -0.005406706086405258 -0.003940565977245569
-0.006676187795835879 -0.004936857413758792 -0.004674672614783049
-0.006404920538205054 -0.0044670087411123275 -0.004704198334366083
-0.006133653047743585 -0.003997159665191358 -0.004938171710819006
-0.00586238579011276 -0.0035273109925448923 -0.00475856801494956
-0.005591118299651292 -0.0030574619166239226 -0.005092545412480831
-0.0053198510420204665 -0.002587613243977458 -0.005376641172915697
-0.005048583551558998 -0.002117764168056488 -0.005308917723596096
-0.004777316293928173 -0.0016479154954100227 -0.00520794652402401
-0.004506048919882026 -0.0011780666211263053 -0.005271058063954115
-0.004234781545835879 -0.0007082177468425878 -0.00504649244248867
-0.003963514171789732 -0.0002383688725588704 -0.005144773982465267
-0.003692246739535925 0.00023148010254347312 -0.004965171683579683
-0.003420979365489778 0.0007013289768271905 -0.004994697403162718
-0.003149711991443631 0.001171177851110908 -0.004678716417402029
-0.002878444639225357 0.0016410266875876405 -0.004708242602646351
-0.002607177272455168 0.00211087554926903 -0.004672951530665159
-0.0023359098693051905 0.00258072447396206 -0.0046052271500229836
-0.0020646424952590436 0.0030505733482457777 -0.00450425548478961
-0.0017933751794205579 0.003520422121710869 -0.004324652254581451
-0.001522107805374411 0.003990270995994586 -0.004223681520670652
-0.0012508404313282641 0.004460119870278304 -0.003953531850129366
-0.0009795730572821173 0.004929968744562021 -0.0038525604177266364
-0.0007083057996512922 0.005399817417208487 -0.0030134448315948252
-0.007959838443012072 -0.006075136057652041 -0.002546149538829923
-0.007688571185381247 -0.0056052873850055765 -0.003291383152827621
-0.007417303927750422 -0.005135438712359111 -0.003739880165085197
-0.007146036670119597 -0.004665590039712645 -0.004452072549611331
-0.006874769412488772 -0.004195741367066181 -0.004768054001033307
-0.006603501922027303 -0.0037258922911452106 -0.004947655368596316
-0.006332234664396478 -0.0032560436184987454 -0.0049829473719000825
-0.006060967173935009 -0.0027861945425777758 -0.005083920434117318
-0.005789699916304184 -0.0023163458699313106 -0.0051516429521143445
-0.0055184324258427155 -0.001846496794010341 -0.005186934955418111
-0.00524716516821189 -0.0013766481213638758 -0.005254658870398999
-0.0049758977941657435 -0.0009067992470801586 -0.005355629604309798
-0.004704630420119597 -0.00043695037279644093 -0.005292518064379693
-0.00443336304607345 3.2898501487276465e-05 -0.005295593291521073
-0.004162095613819642 0.00050274747658962 -0.005061620380729438
-0.0038908282397734956 0.0009725963508733374 -0.005032093264162541
-0.0036195608657273487 0.0014424452251570548 -0.004933813121169806
-0.0033482935135090747 0.0019122940616337874 -0.005034783855080605
-0.0030770261467388854 0.0023821429233151768 -0.004700807388871909
-0.002805758743588908 0.002851991848008207 -0.004516541492193938
-0.0025344913695427612 0.0033218407222919246 -0.0046175126917660245
-0.0022632240537042753 0.0037916894957570157 -0.004519231617450715
-0.0019919566796581284 0.004261538370040733 -0.004420951008796693
-0.0017206893056119818 0.0047313872443244505 -0.004136855248361827
-0.0014494219315658349 0.005201236118608168 -0.00410732813179493
-0.0011781546739350098 0.005671084791254634 -0.003476520767435432
-0.0009068871834735411 0.006140933867175603 -0.0035118125379085545
-0.008158419858027711 -0.0053340201273747515 -0.0028275104705244307
-0.007887152600396886 -0.004864171454728286 -0.0034583173692226414
-0.007615885342766061 -0.004394322782081821 -0.003983551636338235
-0.007344618085135236 -0.003924474109435356 -0.004478156100958587
-0.007073350594673768 -0.003454625033514386 -0.004861111752688886
-0.006802083337042943 -0.002984776360867921 -0.004924223292618991
-0.006530815846581474 -0.002514927284946951 -0.005022504832595588
-0.006259548588950649 -0.002045078612300486 -0.004987213760614396
-0.00598828109848918 -0.0015752295363795164 -0.005050326697528363
-0.005717013840858355 -0.0011053808637330512 -0.005234591662883759
-0.005445746466812208 -0.0006355319894493338 -0.005054988432675601
-0.005174479092766061 -0.00016568311516561635 -0.005153269972652198
-0.0049032117187199145 0.0003041657591181011 -0.0049736672081053266
-0.004631944286466107 0.0007740147342204446 -0.00493837520480156
-0.00436067691241996 0.001243863608504162 -0.004713809583336116
-0.004089409538373813 0.0017137124827878794 -0.0044892444275319585
-0.0038181421861555394 0.0021835613192646122 -0.004773340653628112
-0.00354687481938535 0.0026534101809460014 -0.0047702654264867314
-0.003275607416235373 0.0031232591056390316 -0.004702541511505843
-0.003004340042189226 0.003593107979922749 -0.0046015698462724694
-0.00273307272635074 0.00406295675338784 -0.004500598181039096
-0.002461805352304593 0.004532805627671558 -0.004432875197380782
-0.0021905379782584463 0.0050026545019552756 -0.004253272432833911
-0.0019192706042122996 0.005472503376238992 -0.004185547586530448
-0.0016480033465814746 0.005942352048885458 -0.0040845763869583615
-0.0013767358561200059 0.0064122011248064275 -0.00390497362241149
-0.0011054685984891817 0.006882049797452893 -0.003456476610153914
-0.008628268933948682 -0.005062752636913283 -0.0032105986028909688
-0.008357001676317857 -0.004592903964266817 -0.003245890606194735
-0.008085734418687032 -0.0041230552916203525 -0.004114776384085418
-0.007814467161056207 -0.003653206618973887 -0.004430757835507394
-0.007543199670594738 -0.0031833575430529172 -0.00487925484776497
-0.007271932412963913 -0.002713508870406452 -0.004946979694068433
-0.007000664922502444 -0.0022436597944854825 -0.005014703609049321
-0.006729397664871619 -0.0017738111218390173 -0.00511567434296012
-0.006458130174410151 -0.0013039620459180477 -0.005150966346263886
-0.006186862916779326 -0.0008341133732715825 -0.005218689795583487
-0.005915595542733179 -0.0003642644989878651 -0.005189164076000453
-0.005644328168687032 0.00010558437529585235 -0.0051596369594335565
-0.005373060794640885 0.0005754332495795698 -0.005339240189641715
-0.005101793362387077 0.0010452822246819133 -0.005055143497884274
-0.00483052598834093 0.0015151310989656307 -0.0049568633548915395
-0.0045592586142947835 0.0019849799732493483 -0.004893750417977572
-0.0042879912620765095 0.002454828809726081 -0.004961474332958461
-0.00401672389530632 0.00292467767140747 -0.004863192792981864
-0.003745456492156343 0.0033945265961005003 -0.004866268020123244
-0.003474189118110196 0.003864375470384218 -0.004767986945807935
-0.00320292180227171 0.004334224243849309 -0.0047048754058778295
-0.002931654428225563 0.004804073118133027 -0.004470902495086194
-0.0026603870541794163 0.005273921992416744 -0.003045862074941397
-0.0023891196801332695 0.005743770866700461 -0.004301277920603753
-0.002117852422502445 0.006213619539346927 -0.0042717508040368566
-0.001846584932040976 0.006683468615267896 -0.004173469729721547
-0.001575317674410151 0.007153317287914362 -0.0037905140779912476
-0.0013040501839486824 0.0076231663638353315 -0.0030001439154148106
-0.008826850348964322 -0.004321636706635992 -0.0029080465901643046
-0.008555583091333497 -0.0038517880339895274 -0.003642153227701784
-0.008284315833702672 -0.003381939361343062 -0.0042484328150749215
-0.008013048343241203 -0.002912090285422092 -0.004802264738827945
-0.007741781085610378 -0.002442241612775627 -0.00490054488182068
-0.007470513595148909 -0.0019723925368546574 -0.0047995741479098806
-0.007199246337518084 -0.0015025438642081923 -0.0051825297996401795
-0.006927978847056615 -0.0010326947882872226 -0.005147237796336413
-0.00665671158942579 -0.0005628461156407575 -0.00507951295003295
-0.0063854442153796435 -9.299724135704003e-05 -0.005076439585536719
-0.006114176841333497 0.0003768516329266774 -0.005174721125513316
-0.00584290946728735 0.0008467005072103948 -0.004569448530673982
-0.005571642035033542 0.0013165494823127383 -0.004995330702513457
-0.005300374660987395 0.0017863983565964557 -0.004960040096193553
-0.005029107286941248 0.0022562472308801733 -0.004956964403390885
-0.004757839934722974 0.002726096067356906 -0.004889240954071284
-0.004486572567952785 0.003195944929038295 -0.004709638189524413
-0.004215305164802808 0.0036657938537313253 -0.0047727501951158055
-0.003944037790756661 0.0041356427280150425 -0.0039038648828864106
