ply
format ascii 1.0
element vertex 719
property float x
property float y
property float z
end_header
-0.003138163387870677 -0.012446178584266207 0.0013761588684684228
-0.002195079845765972 -0.012990668121168664 0.0009366337499105608
-0.0038090020815539495 -0.011430147397431752 0.0016081309203878499
-0.0033374603667137496 -0.01170239213342888 0.0014232004396007387
-0.0028659186518735493 -0.011974636869426007 0.0007901203574902317
-0.0023943768246090444 -0.012246881670331337 0.0011072410673306356
-0.0019228351097688445 -0.012519126406328464 0.001287490887774046
-0.005894465919757823 -0.009597382002605919 6.771334660722984e-05
-0.004951382490077423 -0.010141871474600174 8.702795079452603e-05
-0.004479840775237223 -0.010414116210597301 8.394143591955859e-05
-0.004008299060397023 -0.010686360946594428 -9.630864415666433e-05
-0.003536757345556823 -0.010958605682591554 -3.296914248545773e-05
-0.003065215630716623 -0.011230850418588682 0.0003513663483854866
-0.0025936739158764228 -0.011503095154585809 0.0009341921629418365
-0.002122132088611918 -0.011775339955491139 0.001542655938833853
-0.001650590373771718 -0.012047584691488266 0.0013624061183904427
-0.009394554452785073 -0.006947882659421514 0.0003290228678075973
-0.007036846328281295 -0.008309106079774337 0.0014796794038345177
-0.006093762898600895 -0.008853595551768591 0.001621786827426768
-0.005622221183760695 -0.009125840287765717 0.0015584473257555615
-0.005150679468920495 -0.009398085023762845 -0.00028793946893589226
-0.0046791377540802955 -0.009670329759759972 -0.00010768938885966931
-0.004207596039240096 -0.0099425744957571 -0.00017102889053087595
-0.0037360543243998953 -0.010214819231754227 -0.0002696639152642101
-0.0032645126095596955 -0.010487063967751353 -0.00023424480698333385
-0.0027929708947194956 -0.01075930870374848 -0.00026387825767052115
-0.0023214291798792953 -0.011031553439745607 -3.8503475516649386e-05
-0.0018498873526147902 -0.011303798240650937 0.0012757539268522945
-0.010536934861308545 -0.005659606736589933 0.0013286411307579864
-0.009593851431628145 -0.006204096208584187 0.00031389458308900693
-0.009122309716787945 -0.006476340944581314 0.001078818544080935
-0.008650768001947745 -0.006748585680578441 0.000206802279121387
-0.008179226287107546 -0.007020830416575568 0.0007626304353030216
-0.007707684572267345 -0.007293075152572695 0.0013957102577807161
-0.007236143307124368 -0.00756531962893701 0.000865036886270691
-0.006764601592284167 -0.007837564364934137 0.0008619514099269736
-0.0062930598774439675 -0.008109809100931264 0.0008588654143176311
-0.005821518162603768 -0.008382053836928392 -0.00037387741060686047
-0.005349976447763568 -0.008654298572925517 0.0001532493766844521
-0.004878434732923368 -0.008926543308922645 -0.0004912257299337472
-0.004406893018083168 -0.009198788044919772 -0.00025640914092060004
-0.003935351303242968 -0.0094710327809169 -0.0004817839230744718
-0.003463809588402768 -0.009743277516914027 -0.00048487043794943923
-0.002992267873562568 -0.010015522252911153 -0.0004215309362782326
-0.002520726158722368 -0.01028776698890828 -0.00045694900602785883
-0.002049184443882168 -0.010560011724905408 -7.261351515691451e-05
-0.0015776426166176627 -0.010832256525810737 0.0013574271399451826
-0.009793148670104031 -0.005460310207444084 0.0009873509427694002
-0.009321606955263831 -0.005732554943441211 0.0008887153987704411
-0.008850065240423631 -0.006004799679438338 0.0003058895842140913
-0.008378523525583432 -0.006277044415435465 0.0003413076539637176
-0.007906981810743232 -0.006549289151432592 -4.302783690722678e-05
-0.007435440095903032 -0.006821533887429719 -7.608728626350535e-06
-0.006963898830760055 -0.007093778363794034 0.00017264083218424738
-0.006492357115919854 -0.007366023099791161 0.0003980161336037442
-0.006020815401079654 -0.007638267835788288 0.00016320058312184702
-0.0055492736862394546 -0.007910512571785416 -0.0005735511406516285
-0.005077731971399255 -0.008182757307782541 -0.000570466183573536
-0.004606190256559055 -0.008455002043779669 -0.0006691006890412452
-0.004134648541718855 -0.008727246779776796 -0.0006660152126975277
-0.003663106826878655 -0.008999491515773924 -0.0006956486633847151
-0.003191565112038455 -0.009271736251771051 -0.0006925626677753726
-0.002720023397198255 -0.009543980987768177 -0.0006245949515885898
-0.002248481682358055 -0.009816225723765304 -0.0004443448715123669
-0.001776939967517855 -0.010088470459762432 -0.0003430091462634362
-0.0013053981402533497 -0.010360715260667761 0.0004991301324308022
-0.010463987363787303 -0.00444427902060963 0.001493556258396871
-0.009520903934106904 -0.004988768492603884 0.001685696742387031
-0.009049362219266704 -0.0052610132286010115 0.0004024615666193222
-0.008577820504426504 -0.005533257964598138 -4.765189729780305e-05
-0.008106278789586304 -0.0058055027005952655 -5.0737892907145485e-05
-0.007634737074746104 -0.006077747436592392 -0.00011870560909392827
-0.007163195359905904 -0.0063499921725895195 -0.00022004029581160895
-0.0066916540947629275 -0.006622236648953834 1.4775254670288193e-05
-0.006220112379922727 -0.006894481384950961 -2.0643853610588053e-05
-0.005748570665082527 -0.007166726120948088 -0.0005901691984483282
-0.005277028950242327 -0.007438970856945215 -0.0006915038851660088
-0.004805487235402127 -0.007711215592942342 -0.0007928390911493146
-0.004333945520561927 -0.007983460328939469 -0.0008608078458673473
-0.0038624038057217275 -0.008255705064936596 -0.0007621723018683882
-0.0033908620908815277 -0.008527949800933724 -0.0007652582974777306
-0.0029193203760413274 -0.008800194536930851 -0.0007356253660561683
-0.0024477786612011276 -0.009072439272927977 -0.000705991915368981
-0.0019762369463609277 -0.009344684008925104 -0.0005210627327459325
-0.0015046952315207276 -0.009616928744922232 -9.364481150044272e-05
-0.0010331534042562222 -0.009889173545827561 0.00049221507210275
-0.009720200912949978 -0.004244982041766558 0.0012159295938294881
-0.009248659198109778 -0.004517226777763684 0.0006888028065381755
-0.008777117483269578 -0.004789471513760812 -0.00021963734568661324
-0.008305575768429378 -0.005061716249757938 -0.00015167014876545546
-0.007834034053589178 -0.005333960985755066 -0.00038648517998172765
-0.007362492338748978 -0.005606205721752192 -0.0004161186306689149
-0.006890950623908778 -0.00587845045774932 -0.0004130326350595725
-0.006419409358765801 -0.0061506949341136345 -0.00040994767798148006
-0.0059478676439256 -0.006422939670110761 -0.00018457237656198326
-0.0054763259290854 -0.0066951844061078885 -0.000767398191118333
-0.0050047842142452005 -0.006967429142105015 -0.0008307376927895396
-0.004533242499405001 -0.0072396738781021425 -0.0013271234358155515
-0.004061700784564801 -0.007511918614099269 -0.000964130800663132
-0.003590159069724601 -0.0077841633500963965 -0.0010274703023343387
-0.003118617354884401 -0.008056408086093524 -0.0004200172769813738
-0.002647075640044201 -0.008328652822090651 -0.0007551975259934618
-0.002175533925204001 -0.008600897558087777 -0.0007521120496497444
-0.0017039922103638011 -0.008873142294084905 -0.0006841438141973365
-0.001232450495523601 -0.009145387030082032 0.00030150438601101245
-0.00991949789179305 -0.003501195590929231 0.0010446321723937956
-0.00944795617695285 -0.0037734403269263574 0.001143267716392755
-0.00897641446211265 -0.004045685062923484 0.00013034820482531848
-0.00850487274727245 -0.004317929798920612 0.0005146836956962628
-0.00803333103243225 -0.004590174534917738 -0.00038655528084110196
-0.00756178931759205 -0.004862419270914866 -0.00042197438912197817
-0.00709024760275185 -0.005134664006911992 -0.0006930969921034922
-0.00661870588791165 -0.00540690874290912 -0.0005944619673701581
-0.0061471646227686735 -0.005679153219273435 -0.0006298810756510343
-0.005675622907928473 -0.005951397955270561 -0.000600247624963847
-0.005204081193088273 -0.006223642691267689 -0.001050360569615347
-0.004732539478248073 -0.006495887427264815 -0.0010207276381937848
-0.004260997763407873 -0.006768132163261943 -0.0010886958736461925
-0.0037894560485676734 -0.007040376899259069 -0.0008538792846330455
-0.0033179143337274735 -0.007312621635256197 -0.0009552155291476012
-0.0028463726188872737 -0.007584866371253324 -0.001135465609223824
-0.0023748309040470734 -0.007857111107250452 -0.0008002853602117361
-0.0019032891892068735 -0.008129355843247577 -0.0003728679582318714
-0.0014317474743666737 -0.008401600579244705 -0.0007358616319155409
-0.0009602057595264736 -0.008673845315241832 -0.00020873328682735338
-0.0004886639322619682 -0.008946090116147162 0.0008535242480989373
-0.009647253155795923 -0.003029653876089031 0.0016037587038253954
-0.009175711440955723 -0.0033018986120861575 0.0008950966540359985
-0.008704169726115523 -0.003574143348083285 0.0002380812825741816
-0.008232628011275323 -0.003846388084080412 0.0002084478318869943
-0.007761086296435123 -0.0041186328200775385 -0.00040001620363783495
-0.0072895445815949235 -0.004390877556074666 -0.0005849453862608835
-0.006818002866754724 -0.0046631222920717925 -0.0005818588713859161
-0.006346461151914524 -0.00493536702806892 -0.0007667885732745897
-0.005874919886771546 -0.005207611504433235 -0.0010016051622877369
-0.005403378171931346 -0.005479856240430361 -0.0010649441446933185
-0.004931836457091146 -0.005752100976427489 -0.0010945775953805058
-0.0044602947422509465 -0.006024345712424615 -0.0011579170970517124
-0.003988753027410747 -0.006296590448421743 -0.0010899483423336795
-0.0035172113125705464 -0.006568835184418869 -0.0011532878440048862
-0.0030456695977303465 -0.006841079920415997 -0.0009730377639286632
-0.0025741278828901467 -0.007113324656413124 -0.0010026712146158506
-0.0021025861680499464 -0.007385569392410251 -0.0007772959131963538
-0.0016310444532097465 -0.007657814128407378 -0.0005970458331201309
-0.0011595027383695467 -0.007930058864404505 -0.0004957111464024502
-0.0006879610235293466 -0.008202303600401632 0.00011174187895051476
-0.00021641919626484121 -0.008474548401306962 0.0009538811576447531
-0.009846550134638995 -0.002285867425251703 0.0009476857994729436
-0.009375008419798795 -0.0025581121612488302 0.0012328057266418099
-0.008903466704958595 -0.002830356897245957 0.00048488823413407714
-0.008431924990118396 -0.0031026016332430842 0.00012189456045040755
-0.007960383275278196 -0.0033748463692402112 -0.0001952245915931211
-0.007488841560437996 -0.003647091105237338 -0.0005582182652767906
-0.007017299845597796 -0.003919335841234465 -0.000561303741620508
-0.006545758130757596 -0.004191580577231592 -0.0008324268638676471
-0.006074216415917396 -0.004463825313228719 -0.0008678454528828983
-0.005602675150774419 -0.004736069789593034 -0.0009691806588662039
-0.005131133435934219 -0.005008314525590161 -0.0010371494135842368
-0.004659591721094019 -0.005280559261587288 -0.0014001420487366563
-0.004188050006253819 -0.005552803997584415 -0.0010649617997245682
-0.003716508291413619 -0.005825048733581542 -0.0015956341327033434
-0.003244966576573419 -0.006097293469578669 -0.0011682177692547287
-0.002773424861733219 -0.006369538205575796 -0.0009832870288348052
-0.0023018831468930192 -0.0066417829415729235 -0.0009863735437097725
-0.001830341432052819 -0.00691402767757005 -0.000923034042038566
-0.001358799717212619 -0.0071862724135671775 -0.0006379141148696996
-0.0008872580023724191 -0.007458517149564304 -0.0003527947069664583
-0.0004157162875322191 -0.0077307618855614315 0.0003042211837609836
5.5825539732286223e-05 -0.008003006686466762 0.0004132487907129581
0.0005273672545724859 -0.008275251422463888 0.0011500005144864337
-0.00957430539864187 -0.001814325710411503 0.0008724416140831124
-0.00910276368380167 -0.0020865704464086304 0.0011895623239235162
-0.00863122196896147 -0.002358815182405757 0.0005564819821801965
-0.008159680254121268 -0.0026310599184028844 -0.00010053390854724535
-0.007688138539281069 -0.0029033046544000114 -3.2566192360462573e-05
-0.007216596824440869 -0.003175549390397138 -0.0006656460148381571
-0.0067450551096006695 -0.0034477941263942654 -0.0007289855165093637
-0.00627351339476047 -0.0037200388623913924 -0.0007923250181805703
-0.00580197167992027 -0.003992283598388519 -0.0009772542008036188
-0.005330430414777292 -0.004264528074752834 -0.001075889744802578
-0.004858888699937092 -0.004536772810749961 -0.0010404706365217016
-0.004387346985096892 -0.004809017546747088 -0.0012253998191447501
-0.0039158052702566925 -0.005081262282744215 -0.0012223148620666578
-0.0034442635554164922 -0.005353507018741342 -0.001120978617552102
-0.0029727218405762924 -0.005625751754738469 -0.0009407290567415044
-0.0025011801257360925 -0.005897996490735596 -0.0008393938507581986
-0.0020296384108958927 -0.006170241226732724 -0.0007380591640405179
-0.0015580966960556924 -0.00644248596272985 -0.0009728741952567901
-0.0010865549812154925 -0.006714730698726978 4.004479704502121e-05
-0.0006150132663752926 -0.006986975434724104 4.312975412311365e-05
-0.00014347155153509258 -0.007259220170721232 0.0006505827794760785
-0.009773602377484942 -0.001070539259574177 0.001097160044486991
-0.009302060662644742 -0.001342783995571304 0.0009169104836763932
-0.008830518947804542 -0.0016150287315684312 0.00042603466819719803
-0.008358977232964342 -0.001887273467565558 0.00035806695201041525
-0.007887435518124142 -0.0021595182035626854 -0.000286408154607784
-0.007415893803283942 -0.0024317629395598124 -0.00046665823468400693
-0.006944352088443743 -0.002704007675556939 -0.0006469083147602298
-0.006472810373603542 -0.0029762524115540664 -0.0006823274230411061
-0.006001268658763342 -0.0032484971475511934 -0.000862576983851704
-0.005529726943923142 -0.0035207418835483204 -0.0009639121898350096
-0.0050581856787801655 -0.0037929863599126348 -0.0014547880053142049
-0.004586643963939965 -0.004065231095909762 -0.0009276601794916422
-0.004115102249099765 -0.004337475831906889 -0.0009956273764128
-0.003643560534259565 -0.004609720567904016 -0.0012667504986599392
-0.0031720188194193652 -0.004881965303901143 -0.0010818213160368906
-0.0027004771045791654 -0.00515421003989827 -0.0011172404243177667
-0.0022289353897389655 -0.005426454775895397 -0.0010876069736305794
-0.0017573936748987655 -0.005698699511892525 -0.001090691930708672
-0.0012858519600585654 -0.005970944247889651 -0.0007063564398377275
-0.0008143102452183656 -0.006243188983886779 8.686126652890212e-05
-0.0003427685303781656 -0.006515433719883905 0.00037198067443214343
0.00012877318446203443 -0.006787678455881033 -0.00027249443218605585
0.0006003150117265398 -0.007059923256786362 0.00019076839515280565
-0.009029815926647615 -0.0008712422807311031 0.0007510850833968929
-0.008558274211807415 -0.0011434870167282305 0.0004159048343848049
-0.008086732496967215 -0.0014157317527253572 0.00048387358910283764
-0.007615190782127014 -0.0016879764887224847 -0.0002247884606865593
-0.007143649067286814 -0.0019602212247196117 -0.0004097176433096079
-0.006672107352446615 -0.0022324659607167383 -0.0007448978923216959
-0.006200565637606415 -0.0025047106967138657 -0.00084353291705503
-0.005729023922766215 -0.0027769554327109927 -0.0010284626189437035
-0.005257482207926015 -0.0030492001687081197 -0.0007573394966965646
-0.004785940942783038 -0.003321444645072434 -0.0010925192264430277
-0.004314399227942837 -0.003593689381069561 -0.001122152677130215
-0.0038428575131026375 -0.0038659341170666885 -0.0013070818597532635
-0.0033713157982624377 -0.004138178853063815 -0.0013367153104404507
-0.002899774083422238 -0.0044104235890609425 -0.0008866023657889506
-0.002428232368582038 -0.004682668325058069 -0.001071531548411999
-0.001956690653741838 -0.0049549130610551965 -0.0009701968616943184
-0.001485148938901638 -0.005227157797052324 -0.0007899467816180956
-0.001013607224061438 -0.0054994025330494505 -0.00029907200467015044
-0.0005420655092212382 -0.005771647269046578 1.804870517025318e-05
-7.052379438103817e-05 -0.0060438920050437045 0.0009479231038635658
0.0004010179204591619 -0.006316136741040832 0.0015923984701145776
-0.009229112905490689 -0.0001274558298937764 0.0006963581213818453
-0.008757571190650489 -0.00039970056589090327 0.0007259905335377826
-0.008286029475810287 -0.0006719453018880306 0.00045486844982189364
-0.007814487760970087 -0.0009441900378851575 4.755505170393392e-06
-0.007342946046129888 -0.0012164347738822848 -0.0003123652046700102
-0.006871404331289688 -0.0014886795098794116 -0.0005834883269171492
-0.006399862616449489 -0.0017609242458765386 -0.0006848230136348299
-0.005928320901609288 -0.002033168981873666 -0.0007861592581493856
-0.005456779186769088 -0.002305413717870793 -0.0008874939448670663
-0.004985237471928888 -0.00257765845386792 -0.000955461661053849
-0.0045136962067859115 -0.002849902930232234 -0.0010234304157718816
-0.004042154491945711 -0.003122147666229361 -0.0011247651024895624
-0.003570612777105511 -0.0033943924022264886 -0.0010614256008183557
-0.003099071062265311 -0.0036666371382236156 -0.0005650398577923439
-0.0026275293474251112 -0.003938881874220743 -0.0011724928831453086
-0.0021559876325849114 -0.004211126610217869 -0.0011428594324581214
-0.0016844459177447115 -0.004483371346214997 -0.0010795204500525398
-0.0012129042029045114 -0.004755616082212124 -0.0010161809483813333
-0.0007413624880643115 -0.005027860818209251 -0.0009865474976941458
-0.0002698207732241116 -0.005300105554206378 0.0001400044683877162
0.00020172094161608842 -0.005572350290203505 0.0012665574730008284
0.0006732626564562884 -0.005844595026200632 0.0011985897568140456
-0.008485326454653361 7.184114894929701e-05 0.0007353674321939336
-0.00801378473981316 -0.0002004035870478303 0.00035103194132298925
-0.007542243024972961 -0.0004726483230449572 1.5852211576526227e-05
-0.00707070131013276 -0.0007448930590420845 -4.748729009468038e-05
-0.00659915959529256 -0.0010171377950392113 -0.00043182278096562474
-0.006127617880452361 -0.0012893825310363383 -0.0007670030299777127
-0.005656076165612161 -0.0015616272670334655 -0.0005867529499014898
-0.005184534450771961 -0.0018338720030305925 -0.0007716821325245384
-0.004712992735931761 -0.0021061167390277196 -0.0009566118344132119
-0.004241451470788784 -0.002378361215392034 -0.0011415410170362607
-0.003769909755948584 -0.002650605951389161 -0.0012048805187074671
-0.0032983680411083835 -0.0029228506873862884 -0.0010246304386312443
-0.0028268263262681836 -0.0031950954233834154 -0.0012095596212542928
-0.002355284611427984 -0.0034673401593805424 -0.00114159190506751
-0.001883742896587784 -0.0037395848953776694 -0.0013265216069561837
-0.001412201181747584 -0.004011829631374796 -0.0007190680623375935
-0.0009406594669073841 -0.004284074367371923 -0.00044794649788732963
-0.00046911775206718404 -0.004556319103369051 -0.00017682337564019058
2.4239627730158124e-06 -0.004828563839366177 0.0006347186953668708
0.00047396567761321583 -0.005100808575363305 -0.00010203302840660479
-0.008213081718656234 0.0005433828637894969 0.0007073177416629796
-0.007741540003816033 0.00027113812779236955 0.00021644296471503443
-0.0072699982889758335 -1.1066082047573377e-06 -5.4680157532104554e-05
-0.006798456574135634 -0.0002733513442018847 -0.0003717993095756332
-0.006326914859295434 -0.0005455960801990116 -0.00047313555409018884
-0.005855373144455234 -0.0008178408161961385 -0.0005411027510113467
-0.005383831429615033 -0.0010900855521932657 -0.0007664780524308434
-0.004912289714774834 -0.0013623302881903927 -0.0008344457686176262
-0.0044407479999346335 -0.0016345750241875197 -0.001059820550771498
-0.003969206734791657 -0.0019068195005518343 -0.0010301876193499356
-0.0034976650199514563 -0.002179064236548961 -0.0010981558548023435
-0.0030261233051112565 -0.0024513089725460885 -0.0011012413311460609
-0.0025545815902710566 -0.0027235537085432155 -0.0012025770563949916
-0.002083039875430857 -0.0029957984445403425 -0.0010176468352406929
-0.0016114981605906567 -0.0032680431805374695 -0.0011189825604896236
-0.0011399564457504569 -0.0035402879165345965 -0.0009340523393353251
-0.0006684147309102569 -0.0038125326525317235 -0.000699236788853428
-0.00019687301607005682 -0.004084777388528851 -0.0002718204254048132
0.00027466869877014303 -0.0043570221245259775 0.0007274060516315175
-0.007940836982659107 0.001014924578629697 0.00148363776569385
-0.007469295267818906 0.0007426798426325698 0.0003570855399791753
-0.006997753552978707 0.00047043510663544294 -2.7249950891769072e-05
-0.006526211838138506 0.00019819037063831564 -0.0002620665399049162
-0.006054670123298306 -7.405436535881125e-05 -0.00044699572252796476
-0.0055831284084581064 -0.00034629910135593813 -0.0006319249051510133
-0.005111586693617907 -0.0006185438373530654 -0.0008168540877740619
-0.004640044978777707 -0.0008907885733501923 -0.0009154896317730211
-0.004168503263937507 -0.0011630333093473194 -0.0010141251757719801
-0.0036969619987945296 -0.001435277785711634 -0.0010437581071935423
-0.0032254202839543293 -0.001707522521708761 -0.0012785736576754396
-0.0027538785691141295 -0.001979767257705888 -0.0012431545493945633
-0.0022823368542739296 -0.002252011993703015 -0.0011418198626768827
-0.0018107951394337296 -0.0025242567297001422 -0.0011064007543960064
-0.0013392534245935297 -0.0027965014656972692 -0.0008352786706801175
-0.0008677117097533297 -0.0030687462016943962 -0.0005641555484329785
-0.00039616999491312984 -0.0033409909376915232 0.0003370834281043863
7.53717199270702e-05 -0.0036132356736886502 0.0006542036186791649
-0.008140133961502179 0.001758711029467024 0.0012522722160244163
-0.007668592246661979 0.001486466293469897 0.0010720223955810058
-0.007197050531821779 0.0012142215574727697 0.0003572641673541733
-0.0067255088169815794 0.0009419768214756428 -0.00017340816562460182
-0.006253967102141379 0.0006697320854785155 -0.0003536582457008247
-0.005782425387301179 0.0003974873494813886 -0.0004549939709497554
-0.00531088367246098 0.00012524261348426173 -0.0006352440510259783
-0.004839341957620779 -0.0001470021225128656 -0.000998236686178398
-0.004367800242780579 -0.0004192468585099925 -0.0008996011421794388
-0.0038962585279403794 -0.0006914915945071196 -0.0008362621597738571
-0.003424717262797402 -0.000963736070871434 -0.0010616369419277289
-0.0029531755479572023 -0.0012359808068685611 -0.0010970550116773553
-0.002481633833117002 -0.0015082255428656881 -0.0011983912561919108
-0.002010092118276802 -0.0017804702788628151 -0.0010134615543032374
-0.0015385504034366023 -0.0020527150148599424 -0.0010488796240528636
-0.0010670086885964025 -0.0023249597508570694 -0.000985540122381657
-0.0005954669737562025 -0.0025972044868541964 -0.0008006109397586083
-0.00012392525891600261 -0.0028694492228513234 -0.000416275448887664
0.0003476164559241974 -0.0031416939588484504 0.0004921647033371248
0.0008191581707643973 -0.0034139386948455774 0.0016841558216448588
-0.007396347478210751 0.0019580080645222498 0.0011640061469237852
-0.006924805763370551 0.0016857633285251225 0.0005555426306645809
-0.006453264048530351 0.0014135185925279957 5.9156368372944e-05
-0.00598172233369015 0.0011412738565308683 -0.00027602388063914404
-0.00551018061884995 0.0008690291205337414 -0.0004609530632621926
-0.005038638904009751 0.0005967843845366145 -0.0003929853470754098
-0.004567097189169551 0.00032453964853948724 -0.0008204022297896496
-0.004095555474329351 5.2294912542360366e-05 -0.001005332450943948
-0.003624013759489151 -0.00021994982345476674 -0.0007799576687900763
-0.0031524724943461737 -0.0004921942998190812 -0.0012763434118160883
-0.002680930779505974 -0.0007644390358162083 -0.0013059768625032755
-0.0022093890646657736 -0.0010366837718133353 -0.0008151010470240805
-0.001737847349825574 -0.0013089285078104623 -0.001000031268178379
-0.0012663056349853739 -0.0015811732438075895 -0.0007289081459312401
-0.000794763920145174 -0.0018534179798047165 -0.0007258221503218976
-0.0003232222053049741 -0.0021256627158018435 -0.0005004468489024008
0.00014831950953522586 -0.0023979074517989705 0.0003416919105262126
0.0006198612243754259 -0.0026701521877960975 0.0013546111624608364
-0.007595644473280874 0.0027017944872535 0.001182217311657968
-0.007124102758440674 0.0024295497512563735 0.0013671464942810166
-0.006652561043600474 0.002157305015259246 0.000274077294964426
-0.0061810193287602745 0.0018850602792621193 -0.00025659503801434913
-0.005709477613920075 0.0016128155432649919 -0.0002596815528893166
-0.005237935899079875 0.001340570807267865 -0.00043993163296553953
-0.004766394184239675 0.001068326071270738 -0.0006201811937761374
-0.004294852469399474 0.0007960813352736109 -0.0006232666701198548
-0.0038233107545592748 0.0005238365992764838 -0.0013380243790810625
-0.003351769039719075 0.00025159186327935686 -0.0008416381167894255
-0.0028802277745760977 -2.0652613084957613e-05 -0.0008447246316643929
-0.002408686059735898 -0.00029289734908208493 -0.0011618448222391715
-0.0019371443448956975 -0.000565142085079212 -0.000976915639616123
-0.0014656026300554977 -0.000837386821076339 -0.0013399082747685425
-0.0009940609152152978 -0.0011096315570734662 -0.0009555727838975982
-0.0005225192003750979 -0.0013818762930705932 -0.000925939333210411
-5.097748553489782e-05 -0.00165412102906772 -0.0003988115073878484
0.00042056422930530213 -0.001926365765064847 0.00045152749479067844
0.0008921059441455023 -0.002198610501061974 0.0013307734950470254
0.0013636476589857021 -0.002470855237059101 0.0013941127370854195
-0.006851858020415167 0.0029010914696098325 0.001053706858456199
-0.006380316305574966 0.0026288467336127055 0.0005573205961645621
-0.005908774590734766 0.0023566019976155785 -0.00023589711020206763
-0.005437232875894566 0.002084357261618451 -0.00023281215312397516
-0.004965691161054366 0.0018121125256213243 -0.0002624450845455375
-0.0044941494462141665 0.0015398677896241973 -0.0003610806285444966
-0.004022607731373966 0.00126762305362707 -0.0007884969919931113
-0.0035510660165337664 0.000995378317629943 -0.0010736169191619775
-0.0030795243016935665 0.0007231335816328161 -0.0010381978108811012
-0.0026079830365505893 0.0004508891052685016 -0.0010027787026002251
-0.0021364413217103894 0.00017864436927137448 -0.0008225291417896273
-0.0016648996068701892 -9.360036672575261e-05 -0.0010573452115371492
-0.0011933578920299893 -0.0003658451027228796 -0.0007862220892900103
-0.0007218161771897894 -0.0006380898387200066 -0.0007508035002747591
-0.0002502744623495894 -0.0009103345747171337 -0.0003006900363576339
0.00022126725249061057 -0.0011825793107142605 0.0004472269368844738
0.0006928089673308106 -0.0014548240467113875 0.0013771008163121616
0.0011643506821710106 -0.0017270687827085148 0.001740094489995831
-0.007051154985059569 0.0036448779450399763 0.0008901984213954242
-0.00657961327021937 0.0033726332090428493 0.0007888637346777436
-0.006108071555379169 0.0031003884730457223 0.00018141070932477872
-0.0056365298405389695 0.0028281437370485953 -0.00013571000051562488
-0.00516498812569877 0.002555899001051468 -0.00020367719743678267
-0.00469344641085857 0.002283654265054341 -0.00030501240342008836
-0.00422190469601837 0.0020114095290572143 -0.00048526248349631127
-0.0037503629811781697 0.0017391647930600869 -0.0007563856057434503
-0.0032788212663379702 0.0014669200570629599 -0.000981760387897322
-0.00280727955149777 0.0011946753210658329 -0.0009521269372101348
-0.0023357382863547927 0.0009224308447015183 -0.0009224940057885725
-0.0018641965715145929 0.0006501861087043913 -0.0009579131140694488
-0.0013926548566743928 0.0003779413727072641 -0.0009282796633822614
-0.0009211131418341929 0.00010569663671013713 -0.0008986462126950741
2.197028784620701e-05 -0.0004387928352841169 -0.0005836352790890233
0.000493512002686407 -0.0007110375712812439 0.00038458792454138473
0.0009650537175266069 -0.0009832823072783708 0.001293028336398986
0.001436595432366807 -0.001255527043275498 0.0009759078861913948
-0.006307368566676345 0.0038441748676708966 0.0007653036147404922
-0.005835826851836144 0.003571930131673769 0.0004301233657284042
-0.005364285136995944 0.003299685395676642 -0.0003066283580450713
-0.004892743422155744 0.003027440659679515 0.00022404397493370378
-0.004421201707315544 0.002755195923682388 -0.0002392183331395327
-0.003949659992475344 0.002482951187685261 -1.3843550985660943e-05
-0.003478118277635144 0.0022107064516881337 -0.0006223070672448652
-0.0030065765627949447 0.001938461715691007 -0.0008571226177267623
-0.0025350348479547444 0.00166621697969388 -0.000821704547977136
-0.002063493582811767 0.0013939725033295654 -0.0007537357932591033
-0.0015919518679715673 0.0011217277673324384 -0.0006857685963379455
-0.0011204101531313672 0.0008494830313353112 -0.0007154004892282578
-0.0006488684382911674 0.0005772382953381843 -0.00035240785407583827
-0.00017732672345096743 0.00030499355934105723 -0.0002510731673581576
0.00029421499138923253 3.274882334393027e-05 0.00035637985799480735
0.0007657567062294325 -0.00023949591265319667 0.001286254775953745
0.0012372984210696325 -0.0005117406486503237 0.0017363679802380576
-0.006506665545519417 0.004587961318508223 0.0008763174127080707
-0.006035123830679217 0.0043157165825110965 0.000559197222133292
-0.005563582115839017 0.004043471846513969 0.0001962045869808725
-0.005092040400998817 0.0037712271105168425 -0.00012091612285953115
-0.004620498686158617 0.003498982374519715 -0.00015633523114040736
-0.004148956971318417 0.003226737638522588 -0.00022430242806156515
-0.003677415256478218 0.002954492902525461 -0.0004954255503087042
-0.003205873541638017 0.0026822481665283336 -0.0005967617948232598
-0.0027343318267978177 0.002410003430531207 -0.00041183157366896133
-0.0022627901119576174 0.0021377586945340796 -0.0007748252473526308
-0.0017912488468146404 0.0018655142181697652 -0.0007451917966654435
-0.0013197071319744403 0.0015932694821726384 -0.0004100115476533555
-0.0008481654171342402 0.0013210247461755112 -0.0007730041828057751
-0.0003766237022940404 0.0010487800101783842 -0.00048788477490253375
9.491801254615963e-05 0.0007765352741812572 9.494155891944104e-05
0.0015095431570667595 -4.019893381012374e-05 0.0016966921919962887
-0.0057628790946820906 0.004787258297351296 0.0006886049663350515
-0.00529133737984189 0.004515013561354169 0.00030426895619848206
-0.00481979566500169 0.004242768825357042 -3.091077354798098e-05
-0.00434825395016149 0.003970524089359915 -0.00021584151396790451
-0.0038767122353212903 0.0036982793533627883 -3.559143389168159e-05
-0.0034051705204810904 0.0034260346173656613 -0.0004988537419649181
-0.00293362880564089 0.003153789881368534 -0.0005974892859638771
-0.0024620870908006903 0.0028815451453714073 -0.0005295205312458444
-0.0019905453759604904 0.00260930040937428 -0.0005591539819330317
-0.0015190041108175132 0.0023370559330099655 -0.0006224934836042384
-0.001047462395977313 0.0020648111970128385 -0.0002595008484518188
-0.0005759206811371131 0.0017925664610157115 -0.0002891327413421311
-0.00010437896629691325 0.0015203217250185845 -0.00022116554442097334
0.00036716274854328674 0.0012480769890214573 0.00014182709073144622
0.0013102461782236866 0.0007035875170272035 0.0017537688309644363
-0.005962176073525163 0.005531044748188624 0.0008237666929273751
-0.005490634358684963 0.005258800012191496 0.0006435176513824021
-0.005019092643844763 0.004986555276194369 0.00019340366819965192
-0.004547550929004563 0.004714310540197242 1.315462665467896e-05
-0.004076009214164363 0.004442065804200115 -0.00043695935652807123
-0.0036044674993241633 0.004169821068202988 -0.00020214328678054913
-0.0031329257844839634 0.003897576332205861 -0.00038239284759114707
-0.002661384069643763 0.0036253315962087337 -0.0004837280535744527
-0.0021898423548035633 0.003353086860211607 -0.0004540956414185154
-0.0017183006399633634 0.0030808421242144797 -0.0002691654202642169
-0.0012467593748203862 0.0028085976478501654 -0.0005862856108389955
-0.0007752176599801861 0.0025363529118530384 -0.00048765058610566135
-0.00030367594513998607 0.0022641081758559113 -0.00020253065893679505
0.00016786576970021375 0.0019918634398587843 -0.00017289876604648273
0.0006394074845404137 0.0017196187038616571 0.000254519155199007
0.0011109491993806138 0.0014473739678645303 0.0010761952141434613
0.0015824909142208136 0.0011751292318674033 0.001139534715814668
-0.0052183896226878366 0.005730341727031696 0.0007168504200066282
-0.004746847907847636 0.005458096991034569 0.0003816706902601652
-0.004275306193007436 0.005185852255037442 4.6490441248077116e-05
-0.0038037644781672357 0.004913607519040315 0.00031761252496396617
-0.003332222763327036 0.004641362783043188 3.249259779509983e-05
-0.0028606810484868364 0.004369118047046061 -3.084690387610679e-05
-0.002389139333646636 0.004096873311048933 -0.0004151823947470511
-0.0019175976188064363 0.0038246285750518066 -0.00047852137715263273
-0.0014460559039662362 0.0035523838390546796 -0.000410553141700225
-0.000974514638823259 0.003280139362690365 -0.0006956725496034663
-0.000502972923983059 0.003007894626693238 -0.00024555960495196603
-3.143120914285898e-05 0.0027356498906961108 -0.00027519305563915335
0.0004401105056973409 0.0024634051546989838 0.00017492040827797188
0.0009116522205375408 0.0021911604187018568 0.0009228373815200796
-0.005417686601530909 0.006474128177869023 0.0009775794022382517
-0.004946144886690709 0.006201883441871897 0.0006604592116634733
-0.004474603171850508 0.005929638705874769 0.0002974665765110536
-0.004003061457010309 0.005657393969877642 0.000196130331996498
-0.0035315197421701087 0.005385149233880515 1.5880251920275067e-05
-0.003059978027329909 0.005112904497883388 -0.00016436982815594786
-0.0025884363124897094 0.004840659761886261 -0.00026570451487362856
-0.002116894597649509 0.004568415025889134 -0.0004459545949498515
-0.0016453528828093093 0.004296170289892007 -0.0006262046750260744
-0.0011738111679691092 0.00402392555389488 -0.0008973277972732133
-0.000702269902826132 0.0037516810775305655 -0.0006122078701043471
-0.000230728187985932 0.0034794363415334385 -0.0005488683684331404
0.00024081352685426802 0.003207191605536311 -0.0002637479219986492
0.0007123552416944678 0.002934946869539184 0.00012058653034104517
0.001183896956534668 0.002662702133542057 0.0006477148754292328
0.0016554386713748678 0.00239045739754493 0.0014409333606942997
-0.004202358435853382 0.006401180420714969 9.317917138820931e-05
-0.003730816721013182 0.006128935684717842 0.00019451437737151497
-0.0032592750061729817 0.005856690948720715 9.585194748466426e-06
-0.002787733291332782 0.005584446212723588 -5.375430692274019e-05
-0.0023161915764925824 0.005312201476726461 -0.00015238985092169935
-0.001844649861652382 0.005039956740729334 -0.0004375092588249407
-0.0013731081468121823 0.004767712004732207 -0.0006723248093068378
-0.0009015664319719823 0.00449546726873508 -0.0007019582599940251
-0.00043002516682900504 0.004223222792370765 -0.0006665391517131488
4.1516548011194997e-05 0.003950978056373638 -9.70143261410337e-05
0.000513058262851395 0.003678733320376511 8.323575393518923e-05
0.0009845999776915948 0.003406488584379384 0.00044622838908760877
0.001456141692531795 0.003134243848382257 0.0011941458815953414
-0.004401655414696455 0.0071449668715522965 0.0006607214408040952
-0.003930113699856254 0.006872722135555169 0.0003436007309636917
-0.003458571985016055 0.0066004773995580425 0.00016335117015309377
-0.0029870302701758547 0.006328232663560915 0.00012793310040346752
-0.002515488555335655 0.0060559879275637885 9.251399212259126e-05
-0.002043946840495455 0.005783743191566661 -0.0002704796815610783
-0.0015724051256552547 0.005511498455569534 -0.00037181488754438395
-0.001100863410815055 0.005239253719572407 -0.0006889350781191626
-0.0006293216959748551 0.00496700898357528 -0.0006593016274319753
-0.00015778043083187782 0.004694764507210966 -0.0004743724448089267
0.0003137612840083222 0.004422519771213838 -9.003695393798239e-05
0.0007853029988485222 0.004150275035216712 -6.040350325079509e-05
0.001256844713688722 0.003878030299219584 0.0004954241336652146
0.0017283864285289221 0.003605785563222457 0.0007805440608340808
0.002199928143369122 0.00333354082722533 0.0015454677621931966
-0.0036578689638591274 0.007344263850395369 0.000699695960819309
-0.003186327249018928 0.0070720191143982414 0.00017256917352799644
-0.0027147855341787277 0.006799774378401115 0.000535561808680416
-0.002243243819338528 0.0065275296424039874 0.0004722223070092094
-0.0017717021044983282 0.006255284906406861 0.00023740675652731224
-0.0013001603896581277 0.005983040170409733 -0.0002897210692952503
-0.000828618674817928 0.005710795434412607 -0.0003193540007168126
-0.000357076959977728 0.005438550698415479 -4.823087846967361e-05
0.00011446430516524918 0.005166306222051165 1.9736318451484175e-05
0.0005860060200054493 0.004894061486054038 0.00019998639852770712
0.0010575477348456492 0.004621816750056911 0.00010135085452874794
0.001529089449685849 0.004349572014059784 0.0007088043991473378
0.002000631164526049 0.004077327278062657 0.00042368447197847157
-0.003385624227862001 0.007815805565235569 0.0008598639621144938
-0.0029140825130218014 0.007543560829238441 0.00040975101746299354
-0.002442540798181601 0.007271316093241315 0.00043938291035330586
-0.0019709990833414012 0.006999071357244187 0.0005027234505557625
-0.0014994573685012016 0.006726826621247061 0.0004673043422748862
-0.001027915653661001 0.006454581885249933 0.00028705478146428827
-0.0005563739388208015 0.006182337149252807 0.0002839682665893209
-8.483222398060146e-05 0.005910092413255679 0.0002808833095112284
0.00038670904116237575 0.0056378479368913645 0.0002454642012303522
0.0008582507560025758 0.005365603200894238 0.0002100450929494759
0.0013297924708427758 0.0050933584648971105 0.00027338459462068255
0.0018013341856829756 0.004821113728899984 0.00023796548633980627
0.0022728759005231757 0.0045488689929028565 0.0009466275361292031
0.0027444176153633756 0.00427662425690573 0.001502455173045213
-0.0026418377770246744 0.008015102544078641 0.0010085795600504243
-0.002170296062184474 0.007742857808081515 0.0005121932977587874
-0.0016987543473442742 0.007470613072084387 0.0010817186425965276
-0.0012272126325040746 0.007198368336087261 0.00108480463820587
-0.0007556709176638742 0.006926123600090133 0.0011861398441891757
-0.0002841292028236745 0.006653878864093007 0.00015556374357505074
0.00018741251201652553 0.006381634128095879 0.0009034822746140335
0.0006589537771595028 0.006109389651731564 0.0006686656856008863
0.0011304954919997027 0.005837144915734438 0.0005700301416019271
0.0016020372068399028 0.00556490017973731 0.0005066906399307206
0.002073578921680103 0.005292655443740184 0.0006080268844452762
0.0025451206365203027 0.005020410707743056 0.0012154788712669912
0.0030166623513605026 0.00474816597174593 0.0013168148561487343
0.0034882040662007024 0.004475921235748802 0.0016339342678250753
-0.0018980513261873464 0.008214399522921714 0.0009261347182387943
-0.0014265096113471468 0.007942154786924588 0.0011609502687206915
-0.0009549678965069472 0.0076699100509274604 0.0011905837194078788
-0.0004834261816667467 0.007397665314930333 0.0011874987623297865
-1.1884466826547057e-05 0.007125420578933206 0.001422314053178871
0.000459657248013653 0.006853175842936079 0.0009722008488945582
0.0009311985131566302 0.006580931366571764 0.0007919507688183353
0.0014027402279968302 0.006308686630574638 0.0005665759866644635
0.0018742819428370302 0.00603644189457751 0.0005634910295863711
0.0023458236576772303 0.005764197158580384 0.0005280719213054949
0.00281736537251743 0.005491952422583256 0.000762887471787392
0.00328890708735763 0.00521970768658613 0.0007925204032089543
0.00376044880219783 0.004947462950589002 0.000757101294928078
0.00423199051703803 0.004675218214591875 0.0007540163378499855
0.00470353223187823 0.004402973478594748 0.0008173558395211922
0.00517507394671843 0.004130728742597621 0.001400181654077542
0.00564661566155863 0.003858484006600494 0.001298845669195799
0.007532782633343735 0.0027695049977037828 0.0015312565005683465
0.008004324331495952 0.002497260271341467 0.001528171543490254
0.008475866034918058 0.0022250155419365793 0.0014602030484050336
0.008947407777864335 0.0019527707897124015 0.0012799529683288108
0.009418949492704535 0.0016805260537152745 0.0015650726358648645
0.009890491207544734 0.0014082813177181477 0.0017500031166519756
0.01083357452480083 0.000863791910632096 0.0017546824788316137
0.01130511623964103 0.0005915471746349687 0.0017843156698859886
0.01271974138416163 -0.00022518703335641234 0.0011380054785490588
0.01319128309900183 -0.0004974317693535396 0.00082088528797428
0.013662824813842029 -0.0007696765053506661 0.0007195500819909742
0.014134366528682229 -0.0010419212413477934 0.001146966964705214
0.015077449958362629 -0.0015864107133420472 0.0010749801325809737
-0.0006827231605098202 0.00814145176576766 0.0017170136522304486
-0.0002111814456696197 0.007869207029770533 0.001784981108784419
0.00026036026917057993 0.007596962293773406 0.0017216416071132122
0.00073190198401078 0.007324717557776279 0.0015367124244901637
0.0012034432491537573 0.007052473081411964 0.0011092947628774865
0.0016749849639939572 0.0067802283454148375 0.0012106307477592296
0.0021465266788341575 0.00650798360941771 0.0007473681800531806
0.0026180683936743573 0.0062357388734205835 0.0001389046637939764
0.003089610108514557 0.005963494137423456 0.000456024854368755
0.003561151823354757 0.0056912494014263295 0.00035738982963542086
0.004032693538194957 0.005419004665429202 0.0001724601277467473
0.004504235253035157 0.005146759929432075 0.00017554560409046476
0.004975776967875357 0.004874515193434948 0.0002768813293393954
0.0054473186827155564 0.004602270457437821 0.0003448490455261782
0.005918860397555757 0.004330025721440694 9.668796514090144e-06
0.006390402112395957 0.004057780985443567 0.000995316477456814
0.006861943939660462 0.0037855361845382366 0.0005678990754769494
0.007333485654500662 0.0035132914485411096 0.0008390221977240884
0.0078050273693408626 0.0032410467125439826 0.000375759370385227
0.00827656906749308 0.002968801986181667 0.00037884588526019446
0.008748110770915186 0.002696557256776779 0.0002802103412612353
0.009219652513861462 0.002424312504552601 0.000250576890574048
0.009691194228701662 0.0021520677685554746 0.0002859959988549242
0.010162735943541862 0.0018798230325583476 0.0003873312048382299
0.010634277545957756 0.0016075783614694233 0.0006127059869921016
0.011105819260797957 0.0013353336254722959 0.00032758657908886035
0.011577360975638157 0.0010630888894751687 0.0001426558386689368
0.012048902690478355 0.0007908441534780422 0.0007501093832875267
0.012520444405318557 0.0005185994174809149 0.00016728304946555194
0.012991986120158757 0.00024635468148378754 6.864802473221776e-05
0.013463527834998957 -2.58900545133398e-05 0.00013661677945025054
0.013935069549839156 -0.00029813479051046625 0.00040773938243176454
0.014406611264679356 -0.0005703795265075936 0.0006788614661476535
0.014878152979519558 -0.0008426242625047209 0.0009499845883947925
0.015349694694359756 -0.0011148689985018474 0.0009854036966756687
0.015821236409199958 -0.0013871137344989746 0.001210778738462353
0.016292778573737378 -0.0016593587301289138 0.0015278981501386942
0.0005326050051677066 0.008068504008613605 0.0016073011339191063
0.0010041467200079066 0.007796259272616479 0.00157188202563823
0.0014756879851508839 0.007524014796252164 0.0012088893904858105
0.0019472296999910837 0.007251770060255037 0.0010286393104095876
0.002418771414831284 0.00697952532425791 0.0008032645282557158
0.002890313129671484 0.006707280588260783 0.000577890265367469
0.0033618548445116837 0.006435035852263656 0.0002607700747926904
0.0038333965593518836 0.006162791116266529 -0.00010222256035972921
0.0043049382741920834 0.005890546380269402 -0.00028247264043595213
0.004776479989032283 0.0056183016442722744 -0.0005078479418554488
0.005248021703872483 0.005346056908275148 -0.0006091826285731295
0.005719563418712683 0.0050738121722780204 -0.0005795502164171922
0.006191105133552884 0.004801567436280894 -0.0005162112340116106
0.006662646848393084 0.004529322700283766 -0.000519296191089703
0.0071341886756575885 0.004257077899378437 -0.0005872649458077358
0.007605730390497788 0.0039848331633813095 -0.0006552321427288936
0.008077272105337988 0.0037125884273841825 -0.0005918931603233119
0.008548813803490206 0.0034403437010218666 -0.00030677323315444566
0.009020355506912311 0.003168098971616979 -0.00037474094934122844
0.009491897249858588 0.002895854219392801 -0.0004101600576221047
0.009963438964698788 0.0026236094833956745 -0.0003805266069349174
0.010434980679538988 0.0023513647473985475 -0.0003171871052637108
0.010906522281954883 0.002079120076309623 -0.000352606213544587
0.011378063996795083 0.0018068753403124957 -0.00028926671187338044
0.011849605711635285 0.0015346306043153685 -0.0002596332611861931
0.012321147426475483 0.001262385868318242 -0.0004850085626056899
0.012792689141315683 0.0009901411323211147 -0.00019988863543682358
0.013264230856155884 0.0007178963963239874 -0.0001702557040152613
0.013735772570996084 0.00044565166032686006 1.4673997873412263e-05
0.014207314285836282 0.0001734069243297336 0.00039900948874435665
0.014678856000676484 -9.883781166739371e-05 0.0005839386713674051
0.015150397715516684 -0.000371082547664521 0.0009682741622383495
0.015621939430356882 -0.0006433272836616475 0.0011532033448613981
0.016093481145197083 -0.0009155720196587748 0.0013880199338745453
0.016565023309734504 -0.001187817015288714 0.0015729493761304063
0.0012763917156378467 0.008267801437153902 0.001724270389339747
0.001747932980780824 0.007995556960789588 0.0014391507218036931
0.002219474695621024 0.00772331222479246 0.0012043354309546085
0.002691016410461224 0.007451067488795333 0.0009695188419414613
0.003162558125301424 0.007178822752798206 0.0007845896593184127
0.003634099840141624 0.006906578016801079 0.00012757376859097084
0.004105641554981824 0.006634333280803952 6.423426691976423e-05
0.0045771832698220235 0.006362088544806825 -0.0006444272636040077
0.005048724984662223 0.006089843808809697 -0.0002814335899203382
0.005520266699502423 0.005817599072812571 -0.001160680628707935
0.005991808414342623 0.005545354336815443 -0.0014458005558768013
0.006463350129182824 0.005273109600818317 -0.000995687611225301
0.006934891844023024 0.005000864864821189 -0.0010253205426468633
0.007406433671287529 0.00472862006391586 -0.0009573523071944556
0.00787797538612773 0.004456375327918732 -0.0009542668308507382
0.00834951710096793 0.004184130591921605 -0.0009838992430066754
0.008821058799120146 0.0039118858655592895 -0.00011188297804712732
0.009292600502542252 0.003639641136154402 -0.0007449633197904468
0.009764142245488529 0.003367396383930224 -0.0007418778434467294
0.010235683960328729 0.0030951516479330973 -0.0006739096079943217
0.010707225675168928 0.0028229069119359703 -0.0005725744020110159
0.011178767277584822 0.002550662240847046 -0.0005694884064016735
0.011650308992425024 0.002278417504849919 -0.0006328279080728801
0.012121850707265224 0.0020061727688527914 -0.0005314927020895745
0.012593392422105422 0.0017339280328556648 -0.0004960735938086983
0.013064934136945624 0.0014616832968585376 -0.00017895444176516955
0.013536475851785823 0.0011894385608614102 -7.76181972506139e-05
0.014008017566626023 0.000917193824864283 0.00014775554637200787
0.014479559281466223 0.0006449490888671565 0.00046487625621241145
0.014951100996306423 0.00037270435287002916 0.0007359993784595505
0.015422642711146625 0.00010045961687290186 0.0009613741606134223
0.01589418442598682 -0.0001717851191242246 0.0013243670553986543
0.0015486364516349733 0.0087393431519941 0.0017672873922455429
0.0020201777167779505 0.008467098675629786 0.0015870373121693198
0.0024917194316181504 0.008194853939632658 0.0014857023658188266
0.0029632611464583507 0.007922609203635533 0.001035589161534514
0.0034348028612985505 0.007650364467638405 0.0008553396007239161
0.00390634457613875 0.007378119731641278 -4.589937581344868e-05
0.00437788629097895 0.007105874995644151 -0.0006533529204320386
0.00484942800581915 0.006833630259647024 -0.0009704731110068171
0.00532096972065935 0.006561385523649896 -0.001195848412426314
0.00579251143549955 0.00628914078765277 -0.0014212221560489357
0.00626405315033975 0.006016896051655642 -0.0013225871313156017
0.00673559486517995 0.005744651315658516 -0.0013256731269249442
0.00720713658002015 0.005472406579661388 -0.0012270375829259849
