ply
format ascii 1.0
element vertex 751
property float x
property float y
property float z
end_header
0.006806151375023901 -0.0026007817197654833 0.06602767334148009
0.006916938226256629 -0.0021491340150591644 0.0664582206069739
0.007033903657665883 -0.0016262033278174107 0.06635669568705942
0.007148572246653313 -0.0011297718064538342 0.06645296756467221
0.007376419672425893 -0.00015409630061905097 0.06677380339663369
0.007488842806218024 0.0003164293766494278 0.06706344126198036
0.007603142507438792 0.0008086051681547805 0.06719147807946486
0.0077178110944295455 0.001305036704230916 0.06728774967362668
0.005633718497746031 -0.005229676481127914 0.06370591055287614
0.005847457007846951 -0.004416776106233701 0.06524173174812781
0.0059620622288182835 -0.003921075293394587 0.06534345607107163
0.006081261204820533 -0.0033723768257478363 0.06504959869033038
0.0061962202685126345 -0.0028725937104622638 0.06512085188920319
0.006305841190288352 -0.002434397396431371 0.06565180303206145
0.006423954333343177 -0.0018982258700575626 0.06545144754334557
0.006534974701670627 -0.001443883694429932 0.0658618810279472
0.006649223762865178 -0.0009522922877124636 0.0659942804918508
0.006763107704635608 -0.0004649134692106707 0.06615812441374372
0.006875634161885075 6.804163407492627e-06 0.06643886571274699
0.006990593275749286 0.0005065875787745638 0.06651011795396791
0.007106665576836595 0.0010192139500064174 0.06648550754348642
0.0072181879982214335 0.001479348004755268 0.06685271081688945
0.007332793258646466 0.0019750489940170562 0.06695443510519568
0.0074549763044243645 0.0025581752063796905 0.0664036004245907
0.007562147101333437 0.002968104484259458 0.06714554153876554
0.007674673507206117 0.0034398218958166327 0.06742628277819024
0.007789632634333214 0.003939605371279374 0.06749753499825055
0.007902652926588923 0.0044170204048493865 0.06773574975406818
0.008020215503994378 0.004946840397474806 0.0675828016772803
0.004681286720120453 -0.00697342015110063 0.062380680252269616
0.0049121103904443625 -0.005963405879717486 0.06244519695903901
0.005137825288441082 -0.00501233327536441 0.06294967292638767
0.0053617166050588675 -0.004082299427180503 0.0636111863886155
0.005471277165331395 -0.0036447991353734145 0.06414733107130115
0.005585190670205268 -0.003157079431599561 0.06430863141197785
0.0056981597050504975 -0.0026802553858474793 0.06455125570975523
0.005813896401961778 -0.0021715010460827983 0.064555547599768
0.0059242117907047295 -0.001725292629405998 0.06502669480183665
0.006036084371461411 -0.0012611184332773928 0.06536374011383632
0.00614740916073847 -0.0008032645085034964 0.06574796290823286
0.006261322646455477 -0.00031554483990554037 0.06590926265665846
0.006376349294516673 0.00018501762819512092 0.06597470031946052
0.006489318368145706 0.0006618418426411982 0.06621732464028868
0.006606777659786481 0.0011904699982740014 0.0660732737022534
0.006719200789698792 0.0016609955756101615 0.06636291256728695
0.006834581279611031 0.0021656404290421277 0.06639787805994335
0.006948881006711158 0.0026578163710294935 0.0665259144353775
0.00706426147766636 0.0031624610986720376 0.06656088043954582
0.007176134064452144 0.0036266353643587333 0.06689792523234997
0.007292235924060825 0.0041396026057473456 0.06687077117984244
0.007407262589539429 0.004640165274793599 0.0669362073427463
0.0075202316183555565 0.005116989250987591 0.0671788321597192
0.007634145129928433 0.005604709032048211 0.06734013192351199
0.007749171726277891 0.006105271275223544 0.06740556955557968
0.003952425564965871 -0.00779082760840555 0.061744553049125066
0.004176055930188058 -0.006863805113819224 0.0624285472777063
0.0044117941183240555 -0.005797091786867792 0.062069850864039156
0.004521861175795271 -0.005353748753067013 0.06256238756810233
0.004636466396766603 -0.004858047940227897 0.06266411189104616
0.0047484921556044815 -0.0043921065203614 0.06298796629069064
0.0048595126260156055 -0.003937763910340466 0.06339839995213782
0.00497339647414082 -0.0034503856147149042 0.06356224521245057
0.005087280441767117 -0.002963006683750447 0.06372608914971067
0.0051998068466349474 -0.0024912892837862886 0.06400683047566796
0.005313690762549508 -0.0020039105777471594 0.06417067438219368
0.005422876152612258 -0.0015707390164467552 0.06473913128702942
0.005536760011455878 -0.0010833605971623669 0.06490297562432788
0.005645945401518628 -0.0006501890358619629 0.06547143252916361
0.0057609045374191325 -0.00015040564501781124 0.06554268623564513
0.005874788453333692 0.0003369730610213175 0.06570653014217084
0.005986814248275773 0.0008029146186671041 0.06603038479561969
0.006104376857312429 0.0013327347526371953 0.0658774366922514
0.006218625923973412 0.0018243262601695105 0.06600983523001927
0.00633394309758129 0.0023282406300023433 0.06605025319874105
0.006448192158775842 0.0028198320367198116 0.06618265266264466
0.006562076047494733 0.0033072106148389234 0.06634649666917997
0.006676325069035754 0.0037988019357472437 0.06647889506395814
0.006791284184439594 0.004298585275958144 0.06655014829356533
0.0069073565001016935 0.0048112116672505935 0.0665255384145251
0.007021240364304518 0.005298590148364394 0.06668938229031644
0.007137312731678355 0.005811216764582171 0.06666477244201059
0.007252271795370456 0.006310999879867744 0.0667360256408834
0.007355884772989713 0.0066798818482780705 0.06778435466845309
0.0074789403601993295 0.007273074989609412 0.06715837670171547
0.007586111128907882 0.007683004127976146 0.06790031800243249
0.007698136989243272 0.008148945975473354 0.06822417262939987
0.0032167769222556757 -0.008686538819340266 0.0616929083824779
0.003447430833382982 -0.007678483812264183 0.06177205285016426
0.0035631677015070798 -0.007169728612235281 0.06177634344785876
0.0036774673621576626 -0.006677553065204128 0.061904381061703165
0.0037917670335266516 -0.00618537739451415 0.0620324177525333
0.0039056803476311885 -0.005697658404953367 0.06219371658575108
0.004018649469822283 -0.005220834094838869 0.06243634232951861
0.004130522054598365 -0.004756659852338204 0.06277338729538794
0.004243491089443594 -0.004279835806586122 0.0630160115931653
0.004355914288377821 -0.0038093098423644762 0.06330564945366365
0.0044688833151842475 -0.0033324858893565143 0.06354827444370173
0.004581852442734544 -0.002855661517412603 0.06379089972596214
0.004695765862942155 -0.0023679420470864598 0.0639521983898951
0.0048076384833523654 -0.0019037677651487057 0.06428924477102022
0.004921551947232908 -0.0014160481626413538 0.06445054415794828
0.005035851623961099 -0.0009238724301219622 0.06457858038727125
0.0051519534835697805 -0.00041090518873334995 0.06455142633476373
0.0052605681510632316 1.568172983879251e-05 0.06516903318813098
0.005370491248822975 0.000457364264403379 0.06567396248184543
0.0054884511901502585 0.0009917683871491373 0.06548679882081543
0.005603477835024969 0.0014923309665767057 0.06555223497147356
0.005718146420100226 0.0019887624805536566 0.06564850673058811
0.005832814996159721 0.0024851939456859012 0.06574477860051733
0.005953615385639615 0.0030523683781852984 0.06531301120356943
0.006062229996062127 0.0034789550100027 0.06593061848770944
0.00617689855075523 0.003975386507386542 0.06602688883468967
0.006290812005257167 0.00446310600169242 0.06618818902925522
0.006405480594244595 0.004959537523055998 0.06628446090686803
0.006520861045373033 0.0054641822077939675 0.06631942637647363
0.006635887750505168 0.005964744962649369 0.06638486360850293
0.006751624407762918 0.006473499216604901 0.06638915442939028
0.00686700495025662 0.0069781442120773465 0.06642412099885568
0.006981304620285809 0.007470319867309974 0.0665521578050626
0.00709427365513104 0.007947143913062055 0.06679478210283998
0.007203834318157139 0.008384644646991122 0.06733092690468277
0.007312168331361977 0.008807994199497403 0.06797269554311079
0.0027114053942921467 -0.008578547484271976 0.06175289504682893
0.0029422633785121605 -0.007568138074980699 0.06181446578426057
0.0030572226584298133 -0.007068353951792342 0.061885718298433395
0.003172181720782115 -0.006568570851964122 0.06195697161268299
0.003286430742323137 -0.006076979531055803 0.06208937000746116
0.003400679649722279 -0.005585388783656964 0.062221769263784844
0.0035149287746867736 -0.005093797012897989 0.06235416772003176
0.0036274551822342055 -0.004622079582019123 0.06263490881523548
0.0037375221362819476 -0.004178736998068998 0.06312744545782989
0.00385177125856684 -0.003687145258224729 0.0632598441448304
0.003962791628234092 -0.003232803067139746 0.06367027751405525
0.00407581197636748 -0.002755387760581698 0.06390849194185756
0.004186832335316326 -0.00230104569315554 0.06431892623409668
0.004301791454739567 -0.0018012623065725795 0.06439017911757351
0.004412811865400148 -0.0013469200142210939 0.06480061344054702
0.0045266957296029725 -0.0008595415331072924 0.06496445731633835
0.004640579638818529 -0.0003721629043549298 0.06512830179974799
0.004756651985695701 0.000140463661229596 0.06510369147456782
0.0048716111024393405 0.0006402470168978497 0.06517494458879822
0.004988627778477681 0.0011637686374168497 0.06506901010662106
0.005102876828446942 0.0016553600627171058 0.06520140875064144
0.00521589711693702 0.0021327750905911404 0.06543962337534148
0.005327922918578105 0.0025987167255236933 0.06576347745190642
0.005444939607544379 0.003122238402274025 0.06565754297741284
0.0055602567628651196 0.003626152654046113 0.06569796139995818
0.0056763290321746864 0.004138778882242648 0.06567335102867644
0.0057893493245769366 0.004616193917503307 0.06591156577187474
0.005903954597260004 0.005111894955267751 0.06601329012555293
0.006018559824930339 0.005607595845393633 0.06611501387161284
0.0061338770564788835 0.006111510419096359 0.06615543245563651
0.006247760920681708 0.00659888890021016 0.06631927633142787
0.006366959898023757 0.007147587383314263 0.06602541883530982
0.006478985654182036 0.007613528772266055 0.06634927346570789
0.006593590875153368 0.00810922958510517 0.06645099778865173
0.006706611219267354 0.008586644845291157 0.06668921256258438
0.006809065008713265 0.008942153940928737 0.06783735597490373
0.006924024181857944 0.009441937575623055 0.06790860871604976
0.007037908241184456 0.009929316821186326 0.06807245372432548
0.007148928609742185 0.01038365899947069 0.06848288718909673
0.002204396972787716 -0.008489441077773226 0.06195384260495554
0.0024393800856482694 -0.007431439838121492 0.06166017837714376
0.0025518033853263672 -0.006960913454963898 0.06194981652986442
0.0026671838364548048 -0.0064562687702259276 0.06198478199947003
0.002781097237905205 -0.00596854951630273 0.06214608227867799
0.0028940661586085567 -0.005491726044060129 0.06238870743800087
0.0030094467131604663 -0.004987080909471503 0.06242367296907523
0.0031218698059916187 -0.00451655542601522 0.0627133109988584
0.003236896405020679 -0.004015993151925179 0.0627787484001725
0.003353861938513606 -0.003493062030290123 0.06267722365710356
0.003462771993361466 -0.0030630666544546278 0.06326938653753726
0.0035693938710783303 -0.0026594708442480392 0.06405860448888731
0.0036801806705993216 -0.002207823364467049 0.06448915172364675
0.0037952073293789235 -0.001707260772707561 0.06455458846343454
0.003908176405217484 -0.0012304366256889777 0.06479721371496056
0.00402208981738629 -0.0007427172481069533 0.06495851307115422
0.004137470309508057 -0.00023807246210248148 0.06499347949450848
0.004251770055765049 0.0002541035150607821 0.06512151646219375
0.004369229374708723 0.0007827318375990363 0.06497746495952027
0.00448533122138947 0.0012956990227563168 0.06495031089932915
0.0046003578622447775 0.0017962615558118253 0.06501574739611764
0.004709918467637266 0.00223376203424291 0.06555189222179297
0.004829837225812895 0.00279076513202122 0.06519604527942198
0.004943750684334235 0.003278484672699159 0.06535734512785718
0.00505877731993757 0.003779047182910689 0.0654227816215242
0.00517269072138797 0.004266766436833888 0.06558408190073216
0.00528660417990931 0.004754485977511826 0.06574538174916734
0.00540270603951799 0.005267453218900439 0.06571822769665982
0.005515129135028745 0.005737978733271429 0.0660078654956894
0.005632094671201272 0.006260909885821191 0.06590634052186689
0.005746763208476965 0.006757341182259439 0.06600261236874531
0.005861062987288829 0.007249517349172133 0.06613064877491384
0.005975362657318017 0.00774169300440476 0.06625868558112076
0.00609003119459371 0.008238124300843008 0.06635495742799918
0.006201903885472867 0.008702299024109034 0.0666920022245837
0.006317284329902299 0.009206943631560237 0.06672696827107323
0.006421342081515124 0.009580956981388 0.06773699563876416
0.006529144963674205 0.009998177359831342 0.06842452049994954
0.006649063685117602 0.010555180312584728 0.06806867335785707
0.0067589867336254 0.010996862650602722 0.06857360240901259
0.001560475485719249 -0.009153396942548714 0.06397406415266588
0.0018108219572460938 -0.00791814781001253 0.06235738610942844
0.0019308845779386517 -0.007359484683904116 0.061989147100504946
0.002046957055434965 -0.006846857540548918 0.06196453673678393
0.0021626430561657445 -0.00633868771366181 0.061973189838503244
0.0022779601829510153 -0.005834773605267094 0.06201360847643496
0.002392209106427767 -0.0053431826723800155 0.06214600634823723
0.0025078952052228157 -0.004835012457471666 0.062154659972932416
0.0026175160833256015 -0.004396816275621981 0.06268561039279559
0.0027367149451859724 -0.0038481183814847125 0.06239175387359985
0.0028463359159938244 -0.0034099218734431986 0.06292270527794606
0.002960219774837446 -0.0029225434541588105 0.06308654961524454
0.00307028683230866 -0.00247920042035803 0.06357908631930773
0.0031760635835437053 -0.0020853541363456186 0.06444107326996723
0.0032861305879633837 -0.0016420113429275191 0.06493361005867282
0.003397653020629298 -0.0011818771957766002 0.06530081281600178
0.0035101794268369295 -0.0007101597803550878 0.06558155402658228
0.0036247846995199973 -0.0002144587425906444 0.06568327838026047
0.0037253948317040567 0.00011977942282624253 0.06699019484556984
0.0038564084555622116 0.0008047844880930636 0.06567891597745723
0.00397560736692479 0.001353482674583154 0.06538505855829801
0.0040956700200649905 0.001912145951455564 0.06501681945248637
0.00421174233449452 0.0024247723662760936 0.06499220922419434
0.004326701449028632 0.002924555789371842 0.06506346140772687
0.004440950511562984 0.0034161472115466635 0.06519586075625369
0.004555199556280272 0.0039077386140029405 0.0653282593971526
0.004668219803669789 0.004385153501625039 0.0655664735327326
0.004782825076352857 0.004880854539389482 0.0656681978864108
0.004897784185057692 0.005380637802313617 0.0657394516929019
0.0050120332119579164 0.00587222918505135 0.06587184962617294
0.0051273504448462615 0.006376143774211429 0.06591226809481983
0.005241955671176796 0.006871844648879958 0.06601399195625653
0.00535620479614129 0.007363436419638932 0.06614639041250345
0.005470810017112621 0.00785913723247805 0.06624811473544727
0.005586496019183201 0.008367307074822508 0.06625676772178979
0.005701101343578005 0.00886300833751228 0.06635849210620237
0.005814121584268518 0.009340423147847611 0.06659670681866628
0.005929807689762571 0.009848593440042727 0.06660535986647756
0.006041833654107596 0.010314535744153183 0.06692921450443634
0.006147610410701845 0.010708382089995007 0.06779120099358871
0.0010616307194543104 -0.008970106007727392 0.06347199950487958
0.001168868216604813 -0.008559407019747174 0.06420819449370617
0.0013056213557044467 -0.007808184487648055 0.062402653465164645
0.0014235812582479284 -0.007273780533596292 0.062215489781083856
0.0015415413783567613 -0.006739375556184393 0.0620283252969263
0.0016572780449931176 -0.0062306211940273875 0.06203261531017616
0.0017730146901926615 -0.005721867079188036 0.062036907169454564
0.0018883950378976253 -0.00521722284430072 0.06207187257759141
0.002003775592449536 -0.0047125777097120946 0.06210683810866577
0.002118075258459321 -0.004220402100851529 0.06223487526100304
0.0022341770743950695 -0.003707434991644125 0.06220772048550041
0.00234714620730457 -0.003230610557870801 0.062450345306253686
0.0024595692894173174 -0.0027600851980733427 0.06273998425905111
0.0025668068913310923 -0.0023493857447851162 0.06347617919396967
0.002668141120484529 -0.002006793076284886 0.06472073340853078
0.0027780642182442727 -0.0015651105417202995 0.06522566270224524
0.002891977678105413 -0.0010773909855850074 0.06538696243530363
0.0030038502588620934 -0.0006132167894564019 0.0657240077473033
0.0031151750488090527 -0.0001553628569538289 0.06610823048401146
0.0032364006653240155 0.00041671725681660947 0.06563984695314747
0.003348823800488299 0.0008872428569967485 0.06592948582130248
0.0034631235093012893 0.0013794186809233696 0.06605752265056018
0.0035834883531633242 0.001941568348360359 0.0656632604264601
0.0037024537033954045 0.002487571872391163 0.06538951676202082
0.003819419174928262 0.003010502743784265 0.06528799174978034
0.0039373791399018865 0.0035449070464201814 0.06510082717341965
0.004048703903323077 0.004002760858731414 0.06548504995244901
0.004167167190449265 0.004542972387710849 0.06525453736453421
0.004282903898078952 0.005051726851134355 0.06525882833153271
0.004395327050660645 0.005522252652260087 0.06554846569978953
0.0045096267086316266 0.006014428168376533 0.0656765035443875
0.004629545532786727 0.006571431562768856 0.0653206565250577
0.004737879561734224 0.006994781296899037 0.06596242380780849
0.004853260116286133 0.007499426431487662 0.06599738933888286
0.004967173517736533 0.007987145685410863 0.06615868961809081
0.005081086920526734 0.008474864954791413 0.06631998978192198
0.005191873823471199 0.00892651288442306 0.06675053707815017
0.005311792548222227 0.009483515875336785 0.06639468965122125
0.005427173102774138 0.009988161009925412 0.06642965518229561
0.005535507322490971 0.010411511458268664 0.06707142397250533
0.005647930416661924 0.010882036957182302 0.0673610618869117
0.005752981593435668 0.01126751224972142 0.06828553159653523
0.0006654870579907808 -0.008428447345726656 0.06409674164927472
0.00078947203517771 -0.00782453178238299 0.0633907293745051
0.0009140870523326817 -0.007213347414138378 0.06263046128236535
0.0010414086872697539 -0.006570938138086208 0.06163713105541057
0.0011529310695637326 -0.0061108042004032635 0.06200433366662838
0.0012690033402131002 -0.005598177956749377 0.061979723179969866
0.0013860198794033683 -0.0050746568929456145 0.06187378815176603
0.0015009790558975491 -0.004574873219607914 0.0619450406044701
0.001616296188042023 -0.004070959049383783 0.061985458780894676
0.0017309014090133535 -0.003575258236544667 0.06208718310383849
0.0018455067334081582 -0.003079556973854896 0.06218890748825108
0.0019565271030754098 -0.002625214782769912 0.06259934085747593
0.0020648722834434538 -0.002201737137454307 0.06324015680473338
0.0021566234536740227 -0.001969704733695712 0.06530995500561176
0.0022693545152471994 -0.0014956265700217983 0.0655730768274654
0.00238037492389808 -0.0010412843008563426 0.06598351132350408
0.0026049700082505754 -0.00010313067489760611 0.06658441542656614
0.002719929155539386 0.00039665284733404803 0.06665566815234499
0.0028324556159708804 0.0008683705166634253 0.06693640917732839
0.002950568742915744 0.0014045419500946876 0.06673605395494879
0.003065885908847661 0.0019084562865401672 0.06677647191910845
0.00318555629573518 0.0024625938562765418 0.06644201410642939
0.0033042172636942244 0.003005085760869642 0.06619448161987457
0.0034261383656952462 0.0035851899138301703 0.06566620419665052
0.0035407436138622465 0.004080890854589303 0.06576792841958476
0.0036608062345548044 0.004639553980697718 0.06539968941066125
0.0037757653620168496 0.005139337460024797 0.06547094160187739
0.0038872877933429635 0.0055994715917183635 0.06583814447458314
0.004002973791394141 0.006107641387690764 0.065846797807056
0.004115994134168327 0.006585056632419399 0.06608501269636545
0.0042290143802180425 0.007062471504584143 0.06632322694732223
0.004343619705952648 0.007558172782731267 0.06642495121635802
0.004457868726153869 0.008049764088182235 0.06655734972651298
0.004572117751714293 0.008541355455462614 0.06668974777516079
0.004686366864620581 0.009032947087105411 0.06682214726979877
0.004803383503214918 0.009556468554387767 0.06671621264919404
0.004917267469501415 0.01004384746989487 0.06688005670183092
0.005033339940298724 0.010556474535963301 0.06685544691499383
0.00513695280076155 0.010925355896085105 0.0679037770637068
5.2249554543109655e-05 -0.008738403116368825 0.06347463511844001
0.00016086413910975338 -0.008311816597014087 0.06409224238721284
0.0002955749555990125 -0.007584156450402536 0.062462575728838066
0.0004201108521598466 -0.006973884900695807 0.061709121097309555
0.0005293351872694362 -0.0065402651433285885 0.062274237705693694
0.0006477984851140308 -0.006000053490690327 0.062043724194764616
0.0007631789255240617 -0.005495408929611184 0.0620786905873845
0.0008806380812937213 -0.004966781374593031 0.061934639684768596
0.0009960186358456313 -0.0044621362400044055 0.06196960521584295
0.00111212045178138 -0.003949169130797002 0.061942450440340344
0.001226788986377471 -0.003452737865273459 0.06203872251797232
0.001342169540929381 -0.0029480927306848336 0.06207368804904669
0.0014568380808846755 -0.0024516614033318783 0.062169959665171554
0.001570751585758548 -0.0019639416995580247 0.06233126000584825
0.0016806746371657584 -0.0015222593280893532 0.0628361888073212
0.0017661940652654068 -0.001362123239185164 0.06544263722902618
0.0018715647732617403 -0.0009729618694700087 0.06633959502907297
0.001980179362433949 -0.0005463752969806188 0.06695720190123809
0.0030268713161174707 0.004090811023297876 0.06655993832499381
0.003138743902233354 0.0045549852812558946 0.06689698317548635
0.003262952869450609 0.0051614846579164835 0.0661716865096178
0.003378689571721092 0.0056702390595105776 0.06617597793812344
0.0034933581103365856 0.006166670371406179 0.06627224966962508
0.0036087386635486945 0.0066713154905374515 0.06630721531607622
0.0037226520663388957 0.0071590347599180025 0.0664685154799074
0.003838032620890805 0.007663679894506627 0.06650348101098175
0.003951946029040209 0.008151399225716595 0.06666478071330578
0.0040632707666055316 0.008609252925565162 0.06704900347696795
0.004179007532645958 0.009118007691200762 0.0670532938978169
0.004290880113402638 0.009582181887329367 0.06739033920981659
0.004405179875466993 0.010074357861025144 0.06751837705819491
0.004520206696080806 0.010574921204847381 0.06758381331330192
0.004629767250324231 0.01101242142709638 0.0681199585151831
-0.00034345555740285336 -0.008191687555574947 0.06406163116673873
-0.00021978201824261094 -0.0075913650694478816 0.06338243834082176
-9.28140322728286e-05 -0.0069530343737948625 0.06241954461734203
2.474875384273151e-05 -0.00642321345997275 0.06226659650304582
0.0001428618438460193 -0.005887042173981622 0.062066241098972366
0.00026152277034165996 -0.005344550468997226 0.06181870882012033
0.0003785393095319281 -0.004821029405193463 0.061712773791916496
0.0004931446339267323 -0.004325328142503692 0.06181449817632907
0.0006084617660712058 -0.0038214139722795616 0.061854916352753656
0.0007245340367205738 -0.003308787728625674 0.06183030586609512
0.0008365598963023255 -0.0028428458898232273 0.06215416055796195
0.0009515189800914396 -0.002343062542677356 0.062225412026182994
0.0010685357207694496 -0.0018195406410016963 0.0621194775824238
0.001181555952081358 -0.0013421259388678368 0.06235769310252521
0.0012876676087527263 -0.0009444162045510253 0.06319084419500984
0.003089202129315966 0.00661588705910615 0.06758700027706883
0.003203807362010554 0.007111588007197106 0.0676887235904658
0.0033198797350785444 0.007624214689108634 0.06766411325180861
0.0034309000924363764 0.008078556738179187 0.06807454768105767
0.0035451491129516125 0.008570148047252969 0.0682069461641712
-0.0009665744706262463 -0.008615645680748962 0.06429046107064634
-0.0008453489323487881 -0.008043565912095192 0.06382207755136918
-0.0007186839905539253 -0.007408731453340763 0.06288528044118938
-0.0005987652725018993 -0.006851728539713802 0.06252943359114439
-0.00047884634760292843 -0.00629472472638553 0.0621735868640369
-0.00036188091753347473 -0.005771794054601129 0.06207206205949921
-0.00024491548210481794 -0.005248863320987318 0.06197053679345438
-0.00012795016081804025 -0.004725933160882985 0.061869012388955064
-1.2213406835820308e-05 -0.004217178534363563 0.061873303848195074
0.00010316704429261638 -0.0037125338496255935 0.06190826931780069
0.00021819364868087962 -0.00321197151370614 0.061973706257607654
0.00033006633152123186 -0.002747796883184232 0.062310751746452876
0.00044852962132702155 -0.0022075853232900915 0.062080238927784505
0.0005674950271830105 -0.0016615815669473338 0.061806495412577836
0.0006761096184486578 -0.0012349949703058302 0.06242410210446675
0.0007914901212888311 -0.0007303500606425318 0.06245906760480673
0.0009057898443695562 -0.00023817416502722568 0.06258710432637124
0.0010130273267822507 0.00017252465292210643 0.06332330058434243
-0.0013572300805999708 -0.008010676415402653 0.06444263939728109
-0.0012299086337526337 -0.00736826782264885 0.06344930743211383
-0.0010992644515424913 -0.0066875246538129094 0.06216983850396324
-0.0009862440026652316 -0.006210108928318914 0.062408053223987875
-0.0008665736702762809 -0.005655971653408007 0.062073596075956604
-0.0007495570223033368 -0.005132450077924178 0.0619676606477144
-0.0006319945410989914 -0.0046026304518246176 0.06181471188750478
-0.0005163084423039422 -0.004094460236916267 0.06182336551219997
-0.0004009913155186718 -0.00359054612852155 0.06186378415013168
-0.00028603224780716745 -0.003090762966863917 0.06193503700287412
-0.0001721482935788778 -0.0026033841904729927 0.06209888209390207
-5.826442669645219e-05 -0.0021160056784444853 0.062262725738939845
5.634089769835163e-05 -0.001620304415754714 0.06236445012335242
0.00017094612938808895 -0.0011246034792567728 0.06246617352328198
0.0002890592684235112 -0.0005884319992550238 0.06226581838069646
0.0004033083255986598 -9.684063890961526e-05 0.062398218190730416
0.0005101162169749598 0.00030890196421346785 0.06317140863001817
-0.001980684908670151 -0.0084385100081795 0.06470039656851101
-0.0018627250047868686 -0.007904106038670384 0.06451323276905344
-0.0017366471275108396 -0.007276044574754565 0.06362699065051536
-0.001610569246215408 -0.006647983064466685 0.06274074818584695
-0.0014944672314715186 -0.00613501514830209 0.06271359422554255
-0.001370593153612976 -0.005532379036457661 0.06201713203332747
-0.0012544913430364304 -0.005019411989079671 0.06198997771933199
-0.0011375260163904491 -0.004496481767145926 0.06188845285332554
-0.0010221454618385391 -0.0039918366325573 0.061923418384399895
-0.0008989676757558684 -0.0033972336762738845 0.06128691727615442
-0.0007917301906635733 -0.002986534827409846 0.062023113303372054
-0.0006763496361116633 -0.00248188969282122 0.062058078834446424
-0.0005583897201701736 -0.0019474855841959255 0.0618709139965978
-0.0004470648872201828 -0.0014896315272408206 0.06225513751398942
-0.0003313282313022331 -0.000980877288742642 0.062259428450253555
-0.00021665964499440545 -0.0004844457982937715 0.06235570055861992
-0.00010423648973311036 -1.391996625333395e-05 0.06264533769612318
1.3222769460022625e-05 0.0005147080386154733 0.06250128685497602
0.00012713622262215934 0.0010024275174639993 0.06266258716491835
0.00023900888496584602 0.001466602097352656 0.06299963217688925
-0.002490308674468756 -0.008379575633810591 0.06512655441948353
-0.002244796936958484 -0.007200105086914962 0.06392621892456324
-0.0021208119584317535 -0.006596189508113941 0.06322020653441686
-0.0019965130962243203 -0.005988654123157755 0.062487182023749005
-0.0018794964562901806 -0.005465132640418044 0.062381247287767505
-0.0017598261024644177 -0.0049109951181894864 0.06204678829370769
-0.001647299803699661 -0.004439278198990688 0.06232752978894978
-0.0015259286140828637 -0.003865518786375038 0.06184661248957191
-0.001409856348792699 -0.0033528926045505642 0.06182200246442054
-0.0012948972864403978 -0.0028531095047223437 0.061893255778670116
-0.001180648150757497 -0.0023615176103045426 0.062025653311902774
-0.0010656890937643982 -0.001861734572305736 0.062096907087659504
-0.0009420154404622769 -0.001261411512669188 0.06141771340019701
-0.0008340755192678205 -0.0008426086208222059 0.062093419225512925
-0.0007198264567334686 -0.00035101719864738404 0.06222581857403974
-0.000606806162991418 0.00012639785207062932 0.062464033201861245
-0.0004907338923420498 0.0006390240957245169 0.06243942271520272
-0.0003754167138450427 0.001142938429044562 0.062479841383868806
-0.00026534968490929726 0.0015862813194679718 0.06297237830331837
-0.00015889455959445012 0.001987953669945149 0.06377595163417166
-0.0028690900475493823 -0.007637609990091209 0.06425616469597031
-0.0027537096084791525 -0.0071329654444694185 0.06429113120396697
-0.0026288539095154807 -0.006519004317289848 0.06351013682632235
-0.0025060387962627688 -0.0059285870235991425 0.06290488518149451
-0.0023852384625140137 -0.005361412862397133 0.06247311809994259
-0.002265319741782386 -0.004804409917855466 0.06211727101914403
-0.0021478605806535232 -0.004275782301007901 0.061973219655020985
-0.0020317586666535044 -0.003762814803779254 0.06194606540249426
-0.001915656861436162 -0.003249847818230676 0.06191891155000592
-0.0018002764103077253 -0.0027452031334927055 0.06195387701961152
-0.0016845396563255053 -0.002236448506973284 0.06195816847885154
-0.0015660763558013094 -0.0016962368234203172 0.0617276547371689
-0.0014552894528568456 -0.0012445888937886705 0.062158202033397086
-0.0013472248337259647 -0.0008243473551614921 0.06282316951065851
-0.0012226888988514021 -0.00021407573510296698 0.062069716063632215
-0.0011097198122944356 0.00026274853557444215 0.062312340392143964
-0.0009922605531013026 0.0007913765404432495 0.062168289550996805
-0.0008823374446231529 0.0012330591986666618 0.06267321792169697
-0.000767310773385691 0.0017336217483152807 0.0627386558306198
-0.0006530110449457628 0.0022257977057599998 0.06286669209067716
-0.0005411384267450814 0.0026899720551252474 0.06320373754110441
-0.0032607234455532728 -0.0070439195148054795 0.06449253046541167
-0.003137049894334823 -0.006443596889562233 0.06381333660110367
-0.003014301505839608 -0.0058539494029772885 0.0632138309508801
-0.0028926498546485322 -0.005276953546786264 0.06270875276841803
-0.0027709982007778546 -0.004699957659680535 0.06220367435520239
-0.002653981661587587 -0.004176436595876773 0.06209773932699855
-0.00253431122041596 -0.0036222988092857976 0.0617632817789289
-0.0024204273588927377 -0.003134920359086703 0.061927125885473805
-0.00230435508824337 -0.002622294115432815 0.06190251539881528
-0.002189037863393829 -0.0021183796190168552 0.06194293455972289
-0.002073351851944644 -0.0016102096684709223 0.06195158673842792
-0.0019580346163766975 -0.0011062950483961363 0.06199200497632125
-0.001843075559383599 -0.0006065120103973297 0.06206325875207798
-0.0017281164506787639 -0.00010672874747319483 0.06213451255856908
-0.0016138673667076 0.00038486292201927834 0.06226691006106735
-0.0014996183451665784 0.0008764542429275982 0.06239930845584551
-0.0013850130724835108 0.0013721552806920416 0.06250103280952371
-0.0012719927582447946 0.0018495703820433059 0.06273924791421955
-0.0011533317639598087 0.00239206249744127 0.06249171428158048
-0.0010491254883929619 0.002767789840686762 0.06348894592167237
-0.0009381050902974703 0.0032221321361636823 0.06389937954013944
-0.0037597227016593704 -0.006862408934683905 0.06400375503420883
-0.0036439860564598265 -0.006353654819844552 0.06400804689348723
-0.0035185091074432778 -0.005732527784189694 0.06317357157651556
-0.003397708768335319 -0.005165353561158272 0.0627418040334565
-0.0032741781832366697 -0.004566680343706569 0.062074921679654865
-0.003159509730627239 -0.004070249280716029 0.06217119184978955
-0.0030391448332067836 -0.003508099515137972 0.061776931283944556
-0.002924118218100114 -0.0030075370555596934 0.061842367300737264
-0.002809091624430257 -0.002506974843299066 0.06190780516355851
-0.0026944229756922866 -0.002010543004266042 0.062004076379644994
-0.002578321154397335 -0.0014975758332292253 0.06197692114263524
-0.0024625844004151154 -0.0009888212067098038 0.06198121260187526
-0.0023486709989647154 -0.0005011019527866058 0.06214251288108322
-0.0022317055171835252 2.1828943923122277e-05 0.06204098810727989
-0.00211560364953604 0.0005347962780558539 0.06201383336251166
-0.0020048168392966426 0.0009864438814956712 0.06244437967425681
-0.0018887149770083606 0.0014994111537989898 0.06241722539099571
-0.0017748014979903559 0.0019871307451101794 0.06257852571630523
-0.0016618324114333893 0.002463955015787589 0.06282115004481698
-0.001554902302162293 0.002871107374560784 0.06358381906745525
-0.0014332616705400522 0.0034479758738089764 0.0630796925311975
-0.001322946305806284 0.0038941840512388528 0.06355084134541966
-0.0012160161777779771 0.004301336626414994 0.06431350875278295
-0.0041506105452314805 -0.006260116290306232 0.0641759125859486
-0.004029239256210614 -0.005686356474211987 0.06369499569416984
-0.003906183659957343 -0.005093163228543513 0.06306901694863894
-0.00378481257644362 -0.004519404296693226 0.06258809981854589
-0.0036637370492171783 -0.003949054470228757 0.062132625515425026
-0.0035467203031799644 -0.0034255325067236854 0.0620266906101587
-0.003429703665925427 -0.0029020110548986814 0.06192075610493076
-0.003314017670553851 -0.0023938412898409866 0.06192940966815719
-0.0031979452964810097 -0.0018812145963364435 0.061904799242967434
-0.0030818730258316412 -0.0013685883526825563 0.061880188756308914
-0.0029676239115855535 -0.000876996705582407 0.062012588135570104
-0.002848425039006777 -0.0003282986877863127 0.061718730693360105
-0.0027374046229869916 0.00012604366639458638 0.06212916455482647
-0.002622087433771579 0.0006299581233734573 0.06216958230047828
-0.002506401438400002 0.0011381278884311516 0.06217823586370472
-0.0023938749737816307 0.0016098456060647578 0.06245897652813567
-0.0022792696752426947 0.0021055467562918653 0.06256070089718106
-0.002167243856654274 0.0025714884938278096 0.06288455463529924
-0.0020522847555181703 0.003071271762350025 0.06295580797259961
-0.001938400862887106 0.0035586503478557624 0.06311965209763316
-0.0018241518056047277 0.0040502417471866056 0.06325205144303851
-0.0017149664311495137 0.004483413221340971 0.06382050857094423
-0.004786143264886371 -0.006827294501300044 0.06547376573513666
-0.0046671779497257475 -0.006281291047963086 0.06520002106238179
-0.004536172711459809 -0.005596383842750642 0.06388947777020498
-0.004409799905182069 -0.00496491976712477 0.06297783787554859
-0.0042877541542767576 -0.0043833771613946675 0.062438821842782107
-0.0041678355316094005 -0.0038263746048742414 0.06208297423900765
-0.004053535756816938 -0.0033341984843336075 0.06221101099130653
-0.003934570459743625 -0.002788195239670919 0.06193726787613825
-0.0038156051573111083 -0.0022421919331788165 0.06166352429946282
-0.0037031819556972794 -0.001771665938042464 0.061953161929207606
-0.0035870801451207334 -0.0012586988906644733 0.06192600761521213
-0.003472780364969069 -0.0007665227082944263 0.06205404390600387
-0.0033548204490275796 -0.00023211859966913153 0.061866879068155245
-0.003240906995865443 0.0002556008791793948 0.06202817937809757
-0.003125880329047037 0.0007561635636830013 0.06209361542562465
-0.003010853740736383 0.0012567257141142157 0.06215905374995303
-0.0028978846541794162 0.001733549984791625 0.06240167807846478
-0.002784915541766581 0.002210374367931698 0.06264430242234373
-0.002669535038926408 0.0027150192775949955 0.0626792679226837
-0.0025556215986922053 0.0032027387002121896 0.06284056822494244
-0.0024426525327391336 0.003679562881270914 0.06308319254120846
-0.0023272720458693396 0.004184207644431407 0.06311815896144125
-0.002216485207564546 0.004635855292906394 0.06354870621925147
-0.0021025717436840034 0.005123574895413746 0.06371000560617952
-0.0019930111709536157 0.005561075145109966 0.0642461514580002
-0.005046568422797338 -0.0055463527749536265 0.064382092076242
-0.004917045691338543 -0.00487854784358045 0.06319919674697562
-0.004793060712811813 -0.004274632264779431 0.06249318435682923
-0.004675498245005474 -0.0037448127932534023 0.06234023675038746
-0.004552749954574529 -0.0031551656946896996 0.061740730577188
-0.004441729590266481 -0.002700823565434129 0.06215116440791999
-0.004322530723046907 -0.0021521256094674465 0.06185730742721711
-0.004206844602815046 -0.001643955147241445 0.061865959205883767
-0.0040907723428840834 -0.001131329027246384 0.06184134964223952
-0.003976167007770873 -0.0006356276408977868 0.06194307310363783
-0.003860094747839912 -0.00012300152090272565 0.061918463539993585
-0.003744777574702108 0.0003809127505879071 0.06195888267016681
-0.0036305285014493504 0.0008725042964215545 0.06209128109567935
-0.0035185027345726655 0.0013384458090321713 0.062415134803063134
-0.0034014860456063915 0.001861967485782503 0.06230920032856957
-0.003289460201162102 0.0023279093357811112 0.06263305408205493
-0.00317338790023781 0.002840535557042675 0.06260844547215934
-0.0030603676140644903 0.0033179506133587692 0.06284665963079011
-0.002945050450812175 0.003821864918889542 0.06288707782570332
-0.0028335280274176364 0.004281998996824422 0.06325428092604118
-0.0027196441271106118 0.004769377615717513 0.06341812505563688
-0.002605395053857854 0.00526096916155116 0.06355052348114942
-0.002495328073954243 0.005704311857963949 0.06404306013911104
-0.0023895513334376032 0.006098158018317536 0.06490504801278481
-0.005541616361754086 -0.005319254969339424 0.06355304454987129
-0.005425879697797332 -0.004810500638097124 0.06355733479387471
-0.0052995069022379986 -0.00417903668613008 0.06264569582223259
-0.005181043707816878 -0.003638825483342474 0.06241518224983475
-0.005060243267965048 -0.003071650841375103 0.06198341499899801
-0.004944141446670096 -0.0025586836703382857 0.06195625976198826
-0.004829114847641036 -0.002058121396248245 0.062021697163302365
-0.004713012933641018 -0.0015451538990195986 0.06199454291077565
-0.004596911112346065 -0.0010321867279827822 0.0619673876737659
-0.004478447724476006 -0.0004919747800673983 0.061736875378073416
-0.004363421120087743 8.587555852054493e-06 0.061802312317880394
-0.004253105728665189 0.0004547960034435618 0.062273459289195476
-0.0041341403745209365 0.0010007995348609911 0.061999715743254434
-0.004020226967711333 0.0014885188506136026 0.06216101556095524
-0.0039044902547224437 0.001997273375866522 0.06216530606644661
-0.003794174858880834 0.002443481688603041 0.06263645489915742
-0.003677209382458847 0.0029664125234833555 0.06253493058686124
-0.003564786240125486 0.0034369382992924615 0.0628245677166809
-0.0034419713106506817 0.00402735473584438 0.06221931665966491
-0.0033359705652586777 0.004423784918531206 0.06306201840846651
-0.0032270604823454205 0.004853780339401872 0.06365418223496527
-0.0031080951282011675 0.005399783870819302 0.06338043868902422
-0.00299622252292842 0.005863958163953218 0.06371748413176787
-0.002883253485403588 0.006340782240620006 0.06396010819879168
-0.0027729381046994405 0.006786990564552686 0.06443125609312103
-0.005933065704533426 -0.00472344304194013 0.06377357508323338
-0.005809701801367846 -0.004126692842889565 0.06312104652439438
-0.005688940360954195 -0.0035599666528290416 0.06269261977002843
-0.005565884669316255 -0.0029667730500540323 0.062066641778226975
-0.005450567542530985 -0.0024628589416593153 0.06210706041615868
-0.00533300496326237 -0.001933038927538513 0.06195411217892495
-0.005219984623167785 -0.0014556237137245847 0.06219232729898798
-0.005101323680594535 -0.0009131318232519486 0.06194479363561454
-0.004983210495206581 -0.0003769601801542851 0.06174443898527054
-0.004868961473665559 0.00011463114075403432 0.061876837380048705
-0.004755077555071397 0.0006020098777078701 0.062040681055820855
-0.004639391507988084 0.001110179867690892 0.06204933464978167
-0.004526865100440652 0.0015818972985697575 0.06233007574498538
-0.004410792778079547 0.002094523767148973 0.06230546528906123
-0.004297772453122425 0.002571938992159063 0.0625436794707428
-0.004182455279984621 0.003075853263649695 0.06258409860091602
-0.004070932853547638 0.0035359874318560483 0.06295130077367747
-0.003955615701013728 0.004039901613727996 0.06299171989160497
-0.003841010417505025 0.004535602814136699 0.06309344285764029
-0.0037267613678986073 0.005027194180080189 0.06322584219848353
-0.003612877460022852 0.005514572793375198 0.06338968679726995
-0.003499857197495872 0.0059919876698011345 0.0636279018712314
-0.0033859733306134464 0.006479366181829643 0.06379174551626916
-0.0032739475227434316 0.00694530779570676 0.0641156001774016
-0.003160063612188074 0.007432686439916477 0.06427944454543447
-0.003054286855593825 0.007826532785758301 0.06514143103458683
-0.0064390265538135545 -0.004622248067996463 0.06388429153933166
-0.006315848751653273 -0.004027644926224811 0.06324778904656478
-0.00619593013702472 -0.003470642462448504 0.06289194213505103
-0.006073115129875082 -0.00288022564952316 0.062286690659507996
-0.005954651834710089 -0.002340014027799606 0.062056177379332486
-0.005837686420718245 -0.0018170835415034442 0.06195465395931619
-0.005722305866166335 -0.0013124384069148184 0.06198961949039056
-0.00560620403951218 -0.0007994711740485889 0.06196246379187367
-0.005490467290889164 -0.0002907166093585804 0.06196675571262083
-0.00537508684511993 0.00021392801354997663 0.062001721643733576
-0.005259350137490244 0.0007226824769734836 0.062006012610732075
-0.005143248280561166 0.0012356496874473893 0.06197885878897812
-0.005028948603832973 0.0017278254199667809 0.06210689501830109
-0.004913921937014567 0.0022283881044703876 0.062172331065828174
-0.004801498771975013 0.00269891386348525 0.062461969603220036
-0.004686830180307982 0.0031953454157635335 0.06255824125007928
-0.004572916729355374 0.003683064962039553 0.06271954062932374
-0.004456814887670986 0.004196032144724186 0.06269238633381691
-0.004345490100966299 0.00465388607756881 0.06307660889433842
-0.00423252103269647 0.005130710230185475 0.06331923367667372
-0.004116419175767391 0.005643677440659381 0.06329207985491975
-0.004002505737742716 0.006131396930704069 0.06345337922648062
-0.0038885923255739096 0.006619116308286094 0.06361467858267429
-0.003776719689086091 0.007083290775712086 0.063951723579278
-0.00366205109741906 0.00757972232799037 0.06404799522613723
-0.0035539864782881793 0.007999963866617547 0.06471296270339866
-0.0034386059237362697 0.008504609001206174 0.064747928234473
-0.006825728904788356 -0.00397166984156256 0.06369603543459386
-0.006703807963281746 -0.003391566425207427 0.06316775838067382
-0.006583046326739554 -0.0028248394591044194 0.06273933267225965
-0.006462621209553111 -0.0022619941915050096 0.062339877320616306
-0.006343422336974334 -0.0017132961737089144 0.06204601987840629
-0.006227736238179285 -0.0012051259588005646 0.062054673503101496
-0.006111663967529917 -0.0006924997151466776 0.062030063016442975
-0.005997058632416707 -0.00019679832879808054 0.06213178647784128
-0.0058813726209675215 0.0003113716217478524 0.06214043865654631
-0.0057643559320012475 0.0008348932984981847 0.06203450418205275
-0.005651335648977603 0.0013123082255573721 0.062272719732888525
-0.005535263378328235 0.0018249344692112595 0.06224810924623
-0.005422243079226981 0.002302349581758686 0.06248632341254436
-0.005307637780688044 0.002798050731985793 0.06258804778158976
-0.0051951113160696736 0.003269768449619399 0.06286878844602072
-0.005082584859020033 0.0037414861728510863 0.06314952864126094
-0.004964471740588505 0.00427765756323415 0.0629491734864297
-0.0048495126317764405 0.004777440865143719 0.0630204268282922
-0.0047352635768108196 0.005269032292916621 0.0631528257076283
-0.004621379668935064 0.005756410906211631 0.06331667030641472
-0.0045074957869151765 0.006243789407043976 0.06348051488983394
-0.004393246760014952 0.00673538078978171 0.06361291282310498
-0.0042802264662729 0.007212795840499723 0.06385112745092648
-0.004165977409097753 0.007704387200845131 0.06398352726096043
-0.004052093542215327 0.008191765712873639 0.06414737090599822
-0.003939073199441141 0.008669180957602274 0.06438558579530766
-0.0038290062453934 0.009112523541552398 0.06487812243790209
-0.007326306810521661 -0.003808374229737699 0.06334321988724942
-0.007210926462816697 -0.0033037299948503835 0.06337818529538626
-0.0070863904735507955 -0.0026934581189518247 0.06262473164834077
-0.006967927183745006 -0.0021532465590576835 0.0623942188296724
-0.006848008463013379 -0.0015962436145160156 0.062038371748873826
-0.006732271698312754 -0.001087488864337768 0.06204266228509958
-0.006616535047754006 -0.0005787346876690023 0.06204695368287085
-0.006500433133753989 -6.576719044035576e-05 0.06201979943034412
-0.006385052682625552 0.00043887749429761397 0.06205476489994973
-0.006269315980355068 0.000947631895891708 0.062059056328455375
-0.006154647383328835 0.001444063509999404 0.06215532751380747
-0.006039978843373541 0.0019404948373523594 0.06225159912993232
-0.0059230133562331476 0.0024634257958915003 0.06215007389462186
-0.0058111406992486635 0.0029276003139507437 0.06248711936809989
-0.005697227235368121 0.0034153199164580956 0.06264841875502794
-0.005582927530574532 0.003907495694012657 0.062776455930416
-0.005467190848907944 0.004416250005988066 0.06278074734667591
-0.005353277400997782 0.004903969461992613 0.06294204765349677
-0.00523825074710731 0.005404532090264888 0.06300748369334026
-0.0051243372939451725 0.005892251569113414 0.06316878400328259
-0.005010037591361113 0.0063844274140954695 0.06329682024797277
-0.004897614498529959 0.0068549528975517535 0.06358645827775593
-0.004798272956928598 0.007174555451218227 0.06500261702919033
-0.004669491726683245 0.007833805271648767 0.06388358047315013
-0.004554823192087154 0.00833023653717231 0.06397985255078212
-0.004440909681854077 0.008817956302775576 0.06414115242995168
-0.004330122879653484 0.009269603813471274 0.06457169943395755
-0.0042238106432904874 0.009669627274771947 0.0653875821138927
-0.007719422884270434 -0.0032317853825479127 0.06370723270571424
-0.007596367187273291 -0.0026385917179434903 0.06308125425240564
-0.007474715528043411 -0.0020615957690083473 0.06257617537768287
-0.007353639910791503 -0.0014912456472667567 0.06212070228979859
-0.007237567547437068 -0.0009786190774210396 0.06209609278762311
-0.007123683680554643 -0.0004912405653925323 0.06225993643266088
-0.007004484704552394 5.745790225421786e-05 0.06196607905191963
-0.006889879483581062 0.0005531587150933333 0.06206780337486346
-0.0067756304264059136 0.0010447500754387422 0.06220020318489741
-0.006660671290905064 0.0015445336475099413 0.06227145468385283
-0.006544599020255695 0.0020571598911638287 0.062246844197194305
-0.00643625389695859 0.0024806372497246927 0.0628876605752245
-0.006316583481642832 0.003034774923853004 0.06255320301178767
-0.006201978198241358 0.0035304760852762733 0.0626549264424516
-0.0060870190971052535 0.004030259353798488 0.06272617977975198
-0.005972770049815594 0.004521850748184038 0.06285857865452593
-0.005859749755966313 0.004999265837887486 0.06309679281771884
-0.0057440637218109354 0.005507435771639176 0.06310544640399605
-0.005638613875803053 0.005897510160837805 0.06399558924353341
-0.005515865673658119 0.0064871567983546905 0.06339608394724665
-0.005401981812134897 0.006974535248553786 0.06355992805379156
-0.005287022698070858 0.007474318573307333 0.06363118139877552
-0.005176955694990982 0.007917661351268078 0.0641237183028579
-0.005058842607667296 0.008453832606344499 0.063923363129538
-0.004946816742726341 0.008919774506976359 0.06424721735989769
-0.004838056598185625 0.0093480403595585 0.06485228974871002
-0.004736671262073347 0.009691221908432298 0.06609245186132083
-0.008227352432196034 -0.0031533060609710817 0.06398750295671239
-0.008100108568932549 -0.002511793297536543 0.06300086106046607
-0.007978883041373497 -0.0019397136525415991 0.06253247846420318
-0.00785851824201731 -0.0013775642749847843 0.06213821737538229
-0.007742416328017292 -0.0008645967777561377 0.062111063122855574
