ply
format ascii 1.0
element vertex 745
property float x
property float y
property float z
end_header
-0.0006702040071773089 -0.011409719392997467 0.05917005529456631
-0.00041455825628712237 -0.010926934459963003 0.05924817568154433
-0.00015071928852580622 -0.010428178877660932 0.05975371560524988
0.00010492658016408255 -0.009945393721671225 0.05983183644771087
0.00036876554569582366 -0.009446638143715158 0.06033737625510361
0.0006225365757398463 -0.008967507526684253 0.06031768732942656
0.000878182433281866 -0.008484722392424567 0.06039580759032352
0.0011370683875388523 -0.007995621488590975 0.060642957805451654
0.0013862994246312743 -0.007525340463724264 0.060386429614263146
0.0016413085314251523 -0.007043796517615767 0.06043133210203748
0.0018944551332255814 -0.006565883067802112 0.060379069312753025
0.002149464264661136 -0.006084339074077379 0.06042397273041927
0.0024051100699920263 -0.005601554038257302 0.060502093112513165
0.002660119181361418 -0.0051200100836466065 0.060546995483364174
0.0029138901458168704 -0.004640879591131335 0.06052730598100722
0.003165719956485998 -0.004165532899255504 0.060406350015170245
0.0034213657051466125 -0.0036827479705670444 0.06048447028583546
0.003673195622467571 -0.003207401077465989 0.060363514193917424
0.003926966480271191 -0.0027282707861759413 0.06034382481764153
0.0042005226069308866 -0.0022105740054113457 0.06135628556268971
0.004440175054592111 -0.0017589640732505025 0.060600064400445235
0.004707527061436608 -0.0012533606941984802 0.061288867495534
0.004966412906899283 -0.0007642599957663489 0.06153601772497386
-0.004476961129195902 -0.017439637009739994 0.057949826152288324
-0.003970702452968352 -0.01648387739604732 0.0578435135682173
-0.00371828754606242 -0.01600739019666986 0.05775308669910133
-0.0034633664036251045 -0.015526017735798753 0.05779338282097819
-0.0032084457234682912 -0.015044646149364602 0.057833677586174415
-0.0029528515158620955 -0.01456196168725228 0.057909109053746424
-0.0026956104916369926 -0.014076067162228114 0.058070451949960473
-0.002436457550025037 -0.013586445825715908 0.05833153609985392
-0.0021792163392511544 -0.013100550950393346 0.05849287734815221
-0.0019210233539582082 -0.012612800812010461 0.05870388232234814
-0.0016637821342660314 -0.012126905919303882 0.05886522403589765
-0.0014065411189592217 -0.011641011411663732 0.059026566466860476
-0.001150946689131069 -0.011158326529716947 0.059101998147521595
-0.0008917937207642305 -0.010668705141052694 0.059363083693168686
-0.0006361993908991885 -0.01018602044729312 0.05943851584884927
-0.00038127861077926536 -0.009704648672671758 0.05947881013902603
-0.00012950031663924635 -0.009229402399566017 0.05935516664953668
0.00013533395603290005 -0.00872870671910455 0.059912626975745086
0.00039788653782445605 -0.008232458629042011 0.060351058482412394
0.0006464247530860966 -0.007763528090742144 0.06005838596919432
0.0009000779065199771 -0.007284627240512619 0.06003255154691362
0.0011543554745872767 -0.006804509248762246 0.06003929098946135
0.0014086330744504418 -0.00632439119711687 0.060046030312643696
0.0016522182472232952 -0.005865115393783534 0.05949496657878175
0.001917052422161905 -0.005364419897163273 0.060052427496322426
0.002171329965820261 -0.004884301953408755 0.060059165309880376
0.002426924315751466 -0.004401617220535145 0.0601345985123762
0.0026812018906238527 -0.003921499215936571 0.06014133795431341
0.002934237947834623 -0.003443801237208607 0.06008331536717846
0.0031878912528609084 -0.0029649000994032082 0.060057482096426
0.003440306170914708 -0.0024884128782957297 0.05996705580887404
0.003693342465954451 -0.002010714449311274 0.059909034249017834
0.003948263148340837 -0.0015293428585311194 0.059949329130526856
0.004205504361344293 -0.001043447978862552 0.060110670495137956
0.004468688923962471 -0.0005459679913517542 0.060582076982328044
0.004734012509277812 -4.4318519884561404e-05 0.06116506101447009
-0.004955382466964194 -0.017183720278469594 0.058002847843097075
-0.0044494796396119096 -0.01622865430441086 0.05787797127023475
-0.00419570879518573 -0.015749524039196838 0.05785828119608204
-0.0039419374973973425 -0.015270392916929875 0.057838592013358746
-0.003686928499368502 -0.014788849176582413 0.05788349416135239
-0.003431919483503073 -0.01430730540146692 0.057928397239848474
-0.0031769104765559395 -0.013825761643735442 0.057973299853093345
-0.002918897645274289 -0.013338362671173602 0.05817490652008949
-0.0026565958953469254 -0.01284260352264417 0.05860024689457025
-0.0024015868928589394 -0.012361059773604702 0.05864514927518951
-0.0021409476735856758 -0.011868541318623815 0.058983758448384695
-0.0018837959794590431 -0.011382820920598807 0.05914044115578823
-0.0016231567378900422 -0.010890302422157877 0.059479051492111454
-0.0013693858934638644 -0.010411172156943855 0.05945936141795873
-0.001108746760776269 -0.009918653864074154 0.0597979717640502
-0.0008531009010046761 -0.009435868725468463 0.059876092141259975
-0.0005974550323147891 -0.008953083569478755 0.059954212983720966
-0.0003456251805824002 -0.008477736800893334 0.059833256315123026
-9.185421389737436e-05 -0.00799860630403206 0.05981356692907888
0.00015832883366261215 -0.0075264695707639735 0.05960670232610717
0.00041333792461674054 -0.007044925654697882 0.05965160469878972
0.0006704897297379851 -0.006559205046565833 0.059808287862286744
0.000929375700067455 -0.006070104113069455 0.060055437493408796
0.0011795587453978683 -0.0055979673841473725 0.059848572774124274
0.0014327052766851117 -0.005120054066782118 0.05979631057373003
0.001684535073976797 -0.00464470740098231 0.05967535391001622
0.0019416868881327034 -0.004158986775656055 0.05983203718921553
0.0021960748692634183 -0.0036786535612818284 0.05984453632490074
0.002450462734824009 -0.003198320565516841 0.0598570351214158
0.0027036094272037854 -0.00272040694414075 0.059804772790056374
0.002959255178093974 -0.0022376220111062855 0.059882893177034394
0.003205633036437114 -0.0017729025625651948 0.05947751308158922
0.0034645188795831227 -0.001283801868648835 0.05972466319017279
0.003718906971824817 -0.0008034684443573767 0.05973716243240256
0.0039760586748697445 -0.00031774802894835204 0.059893845605057325
0.00425163597025546 0.0002038885218498261 0.061011747047500356
0.00450540681635382 0.0006830187903233515 0.06099205706058225
0.00476105302116361 0.0011658045814972587 0.0610701783680679
0.005021692024729452 0.0016583226293421646 0.06140878766802545
-0.005430949853607922 -0.016922239453152608 0.05820477644226371
-0.004932240264098598 -0.01598119492249603 0.057704641730422765
-0.004674047283264797 -0.015493444792805157 0.05791564647199309
-0.004421010790528407 -0.015015745991792286 0.05785762384578514
-0.004165416547249033 -0.014533061460143899 0.057933057174362014
-0.003908175531942224 -0.01404716695250375 0.058094399605324844
-0.0036551394747314546 -0.013569468973775783 0.0580363770181899
-0.003396946489438506 -0.0130817188353929 0.058247381992385834
-0.003143293175493925 -0.012602817680203486 0.05822154918688459
-0.0028930209468491985 -0.012130507103735541 0.05801934268886115
-0.0026287018385372065 -0.011630815612493486 0.05854992498215451
-0.0023603927335091243 -0.01112334659320992 0.059288669529038995
-0.0020993462246369906 -0.010630034227589133 0.059648526260042495
-0.0018456931507509584 -0.010151133527002214 0.05962269231094971
-0.001588452026562744 -0.009665238813790836 0.05978403473214429
-0.001332857696697701 -0.009182554120031263 0.059859466887824876
-0.00107982150830979 -0.008704855892272031 0.059801445454049716
-0.00082490066483087 -0.008223483997481039 0.05984174020459356
-0.0005754894555414598 -0.007752851772594684 0.059594610202460485
-0.0003237111658605891 -0.007277605508180953 0.059470966480345534
-7.005800350841362e-05 -0.006798704640567411 0.05944513252331605
0.00019312666230086872 -0.006301224458160586 0.0599165390595048
0.0004382491979277245 -0.005838951946706562 0.059445675327908544
0.0006938435367110614 -0.005356267235562972 0.05952110794884035
0.0009474966694969448 -0.004877366423498431 0.05949527422748904
0.0012030910171985758 -0.004394681694970825 0.05957070731367206
0.0014586853604410602 -0.003911996975135227 0.05964614016722947
0.0017104636501219317 -0.0034367507107214957 0.059522496445114516
0.001968656633185306 -0.002949000576684616 0.05973350130299764
0.0022189290818224166 -0.002476689584728214 0.05953129490175051
0.002473206543354252 -0.001996571794392875 0.05953803412083036
0.002728127436814726 -0.0015151998055082773 0.059578328633864475
0.002983048116971539 -0.0010338282190741266 0.0596186233990607
0.0032373258007253308 -0.000553710008904325 0.059625362831229656
0.003496478737878139 -6.40886810841278e-05 0.059886446748497496
0.003749515023999588 0.0004136097305163112 0.05982842472339007
0.004022295355073465 0.0009297943024213903 0.060800425003162656
0.0042885456848004815 0.0014332502202618015 0.06143174422635871
0.0045336680793090405 0.0018955224649732818 0.06096088024526896
0.004796220547585857 0.0023917703404330534 0.06139931151999197
-0.006122006357846141 -0.017065269099857696 0.06042348448985747
-0.005650086374941109 -0.016176444327921136 0.058525761952704924
-0.005405214905013737 -0.01571466119880546 0.058041807692464704
-0.005153385216603456 -0.015239314738576879 0.057920851038519156
-0.004900881529544994 -0.014762654510849155 0.057835032908881256
-0.004647735054928026 -0.014284741300615519 0.05778277059705833
-0.00439272606581748 -0.013803197577652073 0.05782767227980076
-0.004140222805366345 -0.013326538154825242 0.057741854654487085
-0.0038771434195414628 -0.012829263183537545 0.05820777425961126
-0.0036307655433617326 -0.012364543700228423 0.057802395094668516
-0.003367686144159411 -0.0118672687028647 0.05826831539766952
-0.0031120401665881182 -0.011384483341303767 0.058346436230362266
-0.0028497386344235633 -0.010888724603916789 0.058771776624379525
-0.002579955790856467 -0.01037838290809144 0.059587392051355284
-0.002317654258691914 -0.009882624170704464 0.06001273244537255
-0.00205789053688994 -0.009391812275489665 0.06030567419729934
-0.0017998775944973117 -0.008904413093010592 0.06050728097084004
-0.001545489613366596 -0.008424079878636366 0.06051978010652525
-0.001266697335975263 -0.007896176509864043 0.06180540415943464
-0.0010409216115059954 -0.007471615834386068 0.060325253890059306
-0.0007945438642738339 -0.007006896595762208 0.05991987368806957
-0.0005496723058803195 -0.00654511329961991 0.05943591941989265
-0.0002978425153937212 -0.006069766646668305 0.059314962756789366
-4.4071543784080826e-05 -0.005590636141874264 0.059295272205175116
0.00021093758988104724 -0.005109092143803526 0.05934017573915416
0.0004659466468097369 -0.0046275482919784445 0.05938507811488929
0.0007230984498177735 -0.00414182768838221 0.05954176081252458
0.0009774864331780634 -0.0036614944696619785 0.0595542600645226
0.0012312574043222366 -0.0031823639641086958 0.05953457091110406
0.001486266397891929 -0.0027008202324532438 0.0595794728264721
0.001739413094730853 -0.002222906602385144 0.05952721072773829
0.0019938009558322953 -0.0017425736153121648 0.05953970929162773
0.0022488101805422395 -0.0012610294464382335 0.0595846118853361
0.002503198050561977 -0.0007806964419812389 0.05959711091447675
0.0027557015198576285 -0.00030403662539596824 0.05951129280437536
0.003010089394336513 0.00017629638775303567 0.05952379206614163
0.0032672413129146765 0.0006620172099585102 0.05968047510294708
0.003519744562217945 0.0011386766110553217 0.05959465689606938
0.0037786308431191473 0.0016277781316025963 0.05984180708189276
0.004048413457775565 0.0021381193945554685 0.060657421946841
-0.0066118092133810175 -0.01683153681083522 0.05988277456097817
-0.006344573348551118 -0.016326159835333767 0.0605655073585172
-0.006128806173626698 -0.015921108352529904 0.05856323494760145
-0.005880268062787316 -0.015452178011109256 0.05827056267677723
-0.0056317299831619635 -0.014983247730532665 0.05797788877757376
-0.005379314631812118 -0.014506759691486284 0.057887462334636
-0.005126899698151302 -0.014030272439956777 0.05779703686127367
-0.0048738636409405315 -0.013552574461228813 0.057739014274138724
-0.0046208275837297625 -0.013074876482500847 0.05768099168700378
-0.004365906894654655 -0.01259350487868268 0.057721286917451216
-0.00411412850946982 -0.012118258434773748 0.05759764248769119
-0.0038568875030813065 -0.011632363944517613 0.0577589844534028
-0.0035986942866481067 -0.011144613368916251 0.05796999010593906
-0.003331458850655108 -0.010639237202661697 0.05865272329148949
-0.0030539293132558357 -0.010113795237459328 0.059872469650065735
-0.002791376838116113 -0.009617547348622014 0.06031090128281409
-0.0025357824971032027 -0.009134862633132419 0.0603863340200587
-0.002276629439921121 -0.008645241078010974 0.06064741850912231
-0.002016521075081124 -0.008153757386178698 0.0609583396616868
-0.0017736772948195138 -0.007695926748059972 0.06036859598361255
-0.0015154841828085713 -0.00720817636933783 0.060579601878542666
-0.0012605633937703541 -0.00672680457733245 0.06061989663397063
-0.0010162187884238975 -0.00626604844621461 0.06010845218347462
-0.0007694337606275262 -0.005800535314145058 0.059724319423590924
-0.0005191613914218947 -0.005328224472021073 0.05952211314598278
-0.0002706231984559906 -0.004859293977181247 0.059229439469636665
-1.0514888056696418e-05 -0.004367810388134585 0.05954036062708529
0.00023714554851208929 -0.0039005908629459463 0.05920189599550454
0.0004895605776768681 -0.003424103431921236 0.059111469814497136
0.0007477536584737784 -0.0029363531140431495 0.05932247408104799
0.0010026743609263277 -0.0024549814841489576 0.05936277000937225
0.0012477969782142377 -0.001992708818516514 0.0588919062704498
0.0015131203139953447 -0.0014910598201223332 0.0594748886646709
0.001766156593428071 -0.0010133614215599067 0.059416866290625064
0.0020217508322482977 -0.0005306768986035283 0.05949229938657633
0.0022773452932904814 -4.799195581268664e-05 0.05956773269561671
0.002538391584399805 0.000445319998665645 0.05992758944615671
0.00278351419276942 0.0009075926469140727 0.05945672524198305
0.00303655024998019 0.001385290625642036 0.059398702654848104
0.0033018740525009487 0.0018869405071651828 0.059981686638375456
0.0035600670355643224 0.0023746906412020633 0.06019269149625858
0.0038311148892416795 0.002887498175632343 0.06107431158037603
-0.006826466610913115 -0.016077009744838736 0.06043742652364697
-0.006588434801889003 -0.015628558848069424 0.05959665959047201
-0.006351501626436302 -0.015182249466536719 0.05869857894149509
-0.006119287794019945 -0.014745139280515705 0.05755429874737822
-0.005859523750032904 -0.014254326777279233 0.05784724023737464
-0.005607694052704328 -0.013778980299666637 0.057726284048680306
-0.0053575111274031875 -0.013306843798045802 0.057519418757600006
-0.005103740282977009 -0.01282771353283178 0.05749972868344729
-0.0048505938172783356 -0.012349800339982158 0.05744746590637315
-0.004596205725036641 -0.0118694669156907 0.05745996514860292
-0.004341817850557758 -0.011389133902541697 0.05747246441036919
-0.004081178631284495 -0.01089661544756081 0.05781107358356437
-0.003815874554560707 -0.010395003989949806 0.05839305126778334
-0.0035216344383460245 -0.009836988871990242 0.06048455813872242
-0.00326397838567186 -0.009350285351346044 0.06066755231448795
-0.0030033392529842644 -0.00885776705847634 0.06100616266057942
-0.0024865151122674643 -0.007881412690420716 0.06145101976816018
-0.0022327441022896044 -0.00740228211250385 0.061431329795667886
-0.00197473116547091 -0.006914882940889789 0.06163293627842657
-0.0017264600681839866 -0.006446473083213301 0.061326328706161594
-0.001473313512904386 -0.0059685597211640564 0.06127406597930716
-0.0012277578987819077 -0.005505443027891979 0.060825796943469304
-0.0009804420780307943 -0.0050388952479280096 0.06046935290880878
-0.0007388111600191219 -0.004583428782354041 0.0598163392574297
-0.0004844232333291085 -0.004103095670765429 0.05982883839799903
-0.00023955165674990507 -0.0036413123404245287 0.05934488401167776
1.421928763938431e-05 -0.0031621818870232947 0.059325193462505574
0.0002739830094413572 -0.002671369991808496 0.05961813521443236
0.0005264862698924943 -0.0021947105689816638 0.05953231758911868
0.0007836381907002309 -0.0017089897424301848 0.05968900074223694
0.0010407898848268636 -0.0012232693444051766 0.059845683449640474
0.001295177974838984 -0.0007429359244597229 0.05985818257555744
0.0015501869795565447 -0.00026139217107425073 0.0599030850724895
0.0018051961886594733 0.00022015196737765197 0.059947986852008237
0.0020602052112136233 0.0007016957555311576 0.05999289027944274
0.0023103883676550154 0.001173832694370471 0.05978602566670276
0.002566034116315629 0.00165661762305893 0.05986414593736799
0.002817864251399399 0.00213196492730244 0.05974318982591345
0.0030914201876085607 0.0026496613501631313 0.06075565201532998
-0.007571028495950023 -0.016324334427536256 0.05986486687622921
-0.007306193937696919 -0.01582363820707069 0.06042232787589382
-0.007086865440231715 -0.01541164480415622 0.058605843186465105
-0.006849794294301463 -0.014965066483199518 0.05771496020643372
-0.006586023080686554 -0.014466442964232225 0.05821697120943005
-0.006338362339769289 -0.013999222865789947 0.0578785053854165
-0.0060853262558036355 -0.013521524834909933 0.0578204841940352
-0.005835915146477334 -0.013050892798210789 0.057573354666921595
-0.005582879089266565 -0.012573194819482825 0.05751533207978665
-0.00533110092184454 -0.012097948786716346 0.057391687669563124
-0.005076823238090748 -0.011617830576546546 0.05739842710173208
-0.004823787180879979 -0.01114013259781858 0.05734040451459713
-0.004569509497126187 -0.01066001438764878 0.0573471439467661
-0.004313915253846812 -0.010177329856000393 0.05742257727534297
-0.004051362569862573 -0.009681081573404639 0.05786100842330362
-0.003746255909961826 -0.00910188479476583 0.060519414499800195
-0.003475765043728681 -0.008590162976677338 0.061371971871796584
-0.0032109308251140277 -0.008089467398254514 0.06192943222288039
-0.000948021844284786 -0.0038182851786529386 0.06065514552854938
-0.0006888687971357862 -0.003328663643088512 0.06091622949420537
-0.00045122737010635725 -0.0028809737064201873 0.0600550913522766
-0.0001988123342528585 -0.0024044862623574656 0.05996466552020761
5.5465131738124084e-05 -0.001924368463330119 0.05997140497191307
0.0003085014067117039 -0.0014466700734597003 0.05991338236524163
0.0005640956499910776 -0.0009639855418113129 0.059988815693818504
0.0008171319249646574 -0.0004862871519408943 0.059930793087147056
0.0010727261570961633 -3.602642022528142e-06 0.06000622583415991
0.001332834630817565 0.00048788125538097474 0.06031714697695616
0.00158524953995307 0.0009643684591044374 0.06022672022415299
0.0018444027060165566 0.0014539902197971094 0.06048780470344834
0.0020993234073543184 0.0019353618475182988 0.060528100573616204
0.0023529769078476782 0.002414263353006112 0.060502266120199204
0.002616161480498937 0.0029117433600739286 0.06097367313079691
-0.007786450012334582 -0.015571297332860383 0.06037964541401425
-0.00754787512821624 -0.015121787845111166 0.059567209721045095
-0.007315044974751604 -0.014683476293184465 0.058455081875375486
-0.007065814028354897 -0.014213195439690381 0.058198553575810885
-0.0068175426072107255 -0.01374478497073272 0.05789194582885015
-0.006570226922561368 -0.013278237447732785 0.057535501806399936
-0.006320043979423637 -0.012806100911343918 0.057328637445822075
-0.006065656104944753 -0.012325767898194914 0.05734113670758834
-0.00581250963924608 -0.011847854705345292 0.057288873930514204
-0.00556067973307299 -0.011372507833974258 0.05716791725703215
-0.005301793889926982 -0.010883407140057897 0.057415067365615725
-0.0050480228455745835 -0.010404276498469454 0.057395376341424074
-0.0047978399113551475 -0.009932139979464603 0.057188511515594995
-0.004540687977169968 -0.0094464191268371 0.05734519536659008
-0.004271489254412871 -0.008937216017160682 0.0581303496528272
-0.0001452201221180307 -0.0011426066453216201 0.061254958911045314
0.00010916773117990424 -0.0006622736734596551 0.06126745706783994
0.0003609976395825688 -0.00018692679774261613 0.06114650051067069
0.0006216366626920172 0.0003055912881977311 0.06148511083018266
0.0008766458835873002 0.0007871354496359212 0.06153001322488709
-0.008513781065377885 -0.015785034757518485 0.060705986941302005
-0.008270937015142334 -0.015327203609817694 0.06011624312249433
-0.008037578421505008 -0.014887861994081819 0.05903168303978418
-0.007792456021979909 -0.01442558973959183 0.05856081932039823
-0.007547333617995661 -0.013963317476409831 0.0580899558336379
-0.0072970609582844615 -0.01349100608634899 0.05788774906391585
-0.007046788725180586 -0.013018695501189038 0.05768554279851802
-0.00679651649207671 -0.012546384916029087 0.05748333653312019
-0.006544101558415896 -0.01206989766449958 0.05739291105975787
-0.006291065501205125 -0.011592199685771614 0.05733488847262292
-0.0060374121961788395 -0.011113298547966216 0.05730905520187046
-0.0057782592501077375 -0.010623677202762003 0.057570139584389515
-0.0055305987180349885 -0.010156457498078161 0.05723167424516369
-0.005283813787855787 -0.009690944550039627 0.05684754172706333
-0.00501897945628379 -0.009190248758100537 0.05740500228101322
-0.004765943399073021 -0.008712550779372573 0.05734697969387828
-0.004511022610034803 -0.008231178987367194 0.05738727444930625
-0.004243787051782956 -0.007725802589465389 0.05807000832296526
-0.008738007111793018 -0.01504916043307871 0.06076143842272437
-0.008505793310590693 -0.014612050307901752 0.05961715660022824
-0.00827937356490027 -0.014186234265195401 0.05817060943686576
-0.00802222186631449 -0.013700513858478385 0.05832729237689491
-0.0077766659053652674 -0.013237396509568402 0.057879024009018606
-0.007526482980064126 -0.012765260007947567 0.057672158717938314
-0.007277252055963156 -0.012294979197913523 0.05741562925524566
-0.00702474879551202 -0.011818319775086692 0.05732981162993198
-0.006771602303058464 -0.011340406530085022 0.05727755024861149
-0.0065178312408694745 -0.010861275853728545 0.05725786015492228
-0.006262185476601846 -0.010378490894618057 0.05733598123977712
-0.0060065395034897 -0.009895705541749131 0.05741410183984425
-0.005752151629010815 -0.009415372528600127 0.05742660110161052
-0.0054977635635240045 -0.008935039156460718 0.05743909894808664
-0.005249492568987159 -0.008466629492403947 0.05713249170545012
-0.00499448343532203 -0.007985085494333211 0.05717739523942917
-0.004726498762614402 -0.007478248882523179 0.05789920905214978
-0.009464752413472565 -0.015261756079892962 0.061118337533601894
-0.009216213871566709 -0.014792824924879412 0.060825664991079074
-0.008981831578099285 -0.01435148785875779 0.05979450946713668
-0.008747449289091007 -0.013910150801328177 0.05876335371056868
-0.008495671108291539 -0.013434904742485673 0.05863970999822198
-0.008257445472751658 -0.012986076055384231 0.05780903188229196
-0.008005667305329632 -0.012510830022617752 0.05768538747206843
-0.007755395072225757 -0.0120385194374578 0.057483181206670605
-0.007502359015014988 -0.011560821458729836 0.05742515861953566
-0.007262919647151556 -0.011109626873091673 0.05665782147167812
-0.006995683984477452 -0.01060425027831065 0.057340555102943266
-0.006742647927266683 -0.010126552299582686 0.057282532515808324
-0.006494109620960226 -0.009657621590479625 0.05698985906231956
-0.006234001356083338 -0.009166138086834561 0.057300780689903526
-0.0059815862046597125 -0.0086896504241626 0.0572103551970047
-0.0057273087475870265 -0.008209532642519269 0.057217094183458946
-0.0054691156578718205 -0.007721782307257165 0.05742809891526102
-0.00521970444858241 -0.007251150082370811 0.05718096891312794
-0.004964110096421632 -0.006768465345151195 0.057256402231936565
-0.004704956995946716 -0.006278843708974158 0.05751748613455203
-0.009935759253371021 -0.014991386103317302 0.06155817083040921
-0.009455408650452855 -0.014086127916562555 0.06010025841015142
-0.00921737683919917 -0.013637677015447238 0.05925949159328927
-0.008979892009252774 -0.013190292319510959 0.058390189756188475
-0.008729708639507719 -0.0127181549782212 0.05818332489128639
-0.008484153140839 -0.012255038503748174 0.05773505516672944
-0.00822614030955735 -0.011767639531186334 0.05793666183372559
-0.007983550491676882 -0.011310303920106003 0.05733367793487053
-0.007731720803266601 -0.010834957459877422 0.057212721280924965
-0.007477949714322728 -0.010355826731368896 0.0571930325829894
-0.007222940734130479 -0.009874283025789467 0.05723793380048061
-0.006969169645186606 -0.009395152297280942 0.05721824510254504
-0.006730594781134426 -0.00894564284864576 0.05640580836276065
-0.006464583992722232 -0.00844265384419792 0.05702464253094087
-0.0062095749679385095 -0.00796111005169841 0.057069546074688164
-0.005952423169389619 -0.007475389456794183 0.057226228539697846
-0.005700593372097933 -0.007000042790994376 0.05710527187598404
-0.0054474467707629716 -0.006522129340421478 0.0570530104848953
-0.00518514507527631 -0.0060263702946776595 0.05747835086426019
-0.004916545178470645 -0.005518334455195945 0.05823225979952844
-0.01018069177140315 -0.014295873365512456 0.06053341541308997
-0.009927655694126217 -0.013818175347670455 0.06047539387277026
-0.009691142211390686 -0.013372684053598302 0.05955541861785561
-0.009451070077143619 -0.012920256045928417 0.058821091741688654
-0.009207484568808256 -0.012460979608497387 0.05827002844377317
-0.008962362169283155 -0.011998707354007397 0.057799164724387224
-0.00871295106887515 -0.01152807533469227 0.0575520347320224
-0.008461172883616537 -0.011052829267157756 0.057428391252301314
-0.008209394707276217 -0.010577583217007261 0.057304747307329
-0.007956358432302637 -0.010099884827136843 0.05724672470065756
-0.007703943498641823 -0.009623397575607335 0.057156299227295225
-0.007456282975487368 -0.00915617788830751 0.05681783342281818
-0.007195236684378044 -0.00866286593382918 0.057177690173358185
-0.0069294433418262726 -0.008160300786466493 0.05778518058637664
-0.006692372182518579 -0.007713722439433769 0.05689429830422208
-0.006435131076166953 -0.007227827760990424 0.05705563979491422
-0.006185719857959248 -0.006757195518720054 0.056808510258032366
-0.005923167300693004 -0.006260947476463559 0.05724694048525883
-0.0056695140322708315 -0.005782046406675742 0.057221108149892924
-0.005414593243232613 -0.005300674614670363 0.0572614029053209
-0.005155440188280107 -0.004811053063894922 0.0575224872780717
-0.010403213720644493 -0.013556676803076758 0.060677799703503926
-0.010164638856592315 -0.013107167354441576 0.05986536296371953
-0.009924450365354805 -0.01265451253751117 0.05913710622017482
-0.009682349356216374 -0.012198129765203515 0.05850859929838399
-0.00944024878706271 -0.011741747823872778 0.05788009218304056
-0.009190065852843274 -0.011269611304867927 0.05767322735721149
-0.008944510336337967 -0.010806494795626866 0.05722495856315698
-0.008688864580988631 -0.010323709853900393 0.057303079182760605
-0.00843703467481554 -0.00984836298252936 0.05718212250927855
-0.00818388819128028 -0.009370449754911707 0.057129860662706845
-0.007931384730902921 -0.008893789955710453 0.05704404208735423
-0.007678238265204249 -0.008415876762860833 0.056991779310280086
-0.007424467185178671 -0.007936746051736322 0.056972090147093306
-0.007170696313997609 -0.00745761573437025 0.05695240146869423
-0.006915687224923953 -0.006976071823219594 0.0569973026764172
-0.006660678109095414 -0.006494527859916891 0.057042205279893815
-0.006406290125735125 -0.00601419464119666 0.057054704531891834
-0.006149138254908943 -0.005528473908738787 0.05721138792251982
-0.00590182247921477 -0.005061926214935657 0.056854942959798926
-0.0056293011502777796 -0.004546246510495605 0.057813425879114214
-0.005368662055842037 -0.004053728290938542 0.0581520352965348
-0.010892747261659756 -0.013322420109665582 0.06015112768340823
-0.010640332323539795 -0.012845932849444066 0.06006070244267151
-0.010404901791554512 -0.01240255250081588 0.0590842316162192
-0.010161316292137443 -0.011943276080768865 0.0585331678530525
-0.009922492130535459 -0.011493280688034352 0.05773373651314975
-0.00966821469129936 -0.011013162941159053 0.057740474569101564
-0.009423870145434587 -0.010552406920569782 0.05722903163860871
-0.009170217084925995 -0.010073506246058886 0.0572031969916391
-0.00891656376206312 -0.009594605073485455 0.057177364651389076
-0.008662286313908727 -0.00911448730922614 0.0571841031725921
-0.008410507937642187 -0.008639240882701224 0.057060458277580856
-0.00815809300398137 -0.008162753631171717 0.05697003280421853
-0.007902498551857482 -0.007680068705764892 0.05704546564800769
-0.0076522263098353135 -0.007207758103220925 0.05684325984786108
-0.0074004480335318834 -0.006732511864883217 0.0567196154278693
-0.007139401660296038 -0.006239199756985708 0.0570794707728874
-0.00688762336615602 -0.005763953483879968 0.056955827283398056
-0.006632028959554539 -0.00528126864387474 0.05703126059732255
-0.006374787853202914 -0.004795373965431397 0.0571926020880147
-0.0061070162385547366 -0.004288952657770505 0.057903301049172094
-0.005864896299581875 -0.0038325329651699284 0.05727579979902213
-0.005603027764484621 -0.0033376182550429625 0.05767854618905267
-0.005335256144911827 -0.002831196939449306 0.05838924398463996
-0.011116569384295524 -0.012585757898715192 0.06022768462733759
-0.010873979561955908 -0.012128422278942853 0.05962470096110813
-0.01063432669604826 -0.011676811558178632 0.058868478858366415
-0.010391736873708644 -0.011219475938406293 0.05826549519213695
-0.010148631854863907 -0.010761136070088967 0.05768938839081037
-0.00989844892956277 -0.010288999568468134 0.057482523099730086
-0.009648265986425038 -0.009816863032079265 0.057275658739152226
-0.009395762508211091 -0.00934020319810998 0.057189841094302044
-0.009143932819800811 -0.0088648567378814 0.05706888444035649
-0.008892102913627721 -0.008389509866510365 0.056947927766874434
-0.008637093888843997 -0.007907966074010855 0.05699283131062173
-0.008390716030500855 -0.007443246625469765 0.056587451215176554
-0.008130077028990403 -0.006950728581631331 0.05692606040790823
-0.007876930454410324 -0.006472815183210483 0.05687379762106584
-0.007624427085077783 -0.005996155554812424 0.05678797998598391
-0.007366414153833023 -0.005508756394063372 0.056989586177960586
-0.007112026116032031 -0.005028423072557528 0.05700208542507448
-0.006853140181841207 -0.0045393222078379735 0.05724923459338737
-0.006599369219615328 -0.004060191719668706 0.05722954497471762
-0.006343723366881558 -0.0035774065935315963 0.057307666051635765
-0.006088714240021517 -0.0030958626083090615 0.05735256958622533
-0.00582487524503985 -0.002597106974614184 0.05785810950748882
-0.011822253081130546 -0.012757299167108162 0.06168330660749968
-0.011575468173247082 -0.012291786262529669 0.06129917292627129
-0.011349677663410395 -0.011867196759957592 0.05981979967254358
-0.011115809221256413 -0.011426861346926387 0.05876181470024939
-0.010874395864675288 -0.010971818957046815 0.058097456954538385
-0.010629273474068482 -0.010509546719940841 0.057626592769901216
-0.010374352793911672 -0.010028175133506689 0.057666887535097446
-0.010127567854814175 -0.009562662168084138 0.0572827554822483
-0.009880782706872164 -0.00909714880890315 0.05689862294461144
-0.009622589734956659 -0.008609398696596292 0.05710962722093055
-0.009370811331935236 -0.008134152217919325 0.056985983721672955
-0.009115890660696718 -0.00765278064886919 0.05702627802161796
-0.00886735235439026 -0.007183849939766129 0.0567336045681292
-0.008611758120029182 -0.006701165425501758 0.05680903743145486
-0.00835810494172089 -0.006222264528035619 0.056783203239968216
-0.00810445172773942 -0.005743363561033415 0.05675737090948644
-0.007847210621387796 -0.00525746888259007 0.05691871240017859
-0.007589969469513763 -0.004771574118745129 0.05708005342073539
-0.007336933303421588 -0.004293875934445938 0.0570220308238322
-0.007081338951260809 -0.003811191197226323 0.05709746414264082
-0.006824097865324449 -0.0033252965573275844 0.057258805635164514
-0.006571061688200772 -0.002847598351108562 0.05720078396937427
-0.006310015260989692 -0.0023542861396661967 0.05756064070770396
-0.006054420926665503 -0.0018716014372146146 0.057636073096010154
-0.005791236290655246 -0.0013741213099771688 0.05810748056697494
-0.011819338812909167 -0.011594203691780082 0.06032983519066635
-0.011590963088238364 -0.011164574977039104 0.058985305134548784
-0.011352931276984677 -0.010716124075923785 0.05814453831768663
-0.011103700326128821 -0.010245843213737693 0.05788801025074763
-0.010863511839350462 -0.009793188405499295 0.057159753274577306
-0.010602872828921714 -0.009300670344276845 0.0574983629325602
-0.010356494961660277 -0.008835950878351739 0.057092983302366236
-0.01010399173688232 -0.008359291525060972 0.05700716381604769
-0.009852161812872639 -0.007883944618921905 0.056886208073068066
-0.009597773956230344 -0.007403611640540935 0.0568987064043319
-0.009345944032220664 -0.006928264734401867 0.05677775066135228
-0.00909279753976711 -0.006450351489400198 0.056725489280031786
-0.008837788432856864 -0.005968807543481509 0.05677039141825719
-0.008578902498666038 -0.005479706678761955 0.05701754058657008
-0.0083287194555652 -0.005007569954185876 0.056810675750972754
-0.008069833466933674 -0.004518468986680707 0.05705782491440152
-0.007818003625050514 -0.004043122233960819 0.0569368705769438
-0.0075608518265016245 -0.003557401639056591 0.05709355304195348
-0.007307705263418516 -0.003079488261796332 0.057041290722193855
-0.007047941543962483 -0.002588676370737727 0.05733423270735677
-0.006792295652511391 -0.002105891172047221 0.05741235331475009
-0.006537286545601147 -0.0016243472261285332 0.05745725545297549
-0.0062749849589958905 -0.0011285883859559413 0.05788259584210863
-0.00600520220647361 -0.0006182468609337894 0.05869821220935507
-0.012315762627602818 -0.011373377840023496 0.059443711127472494
-0.01206334728071212 -0.010896889809669122 0.05935328445190912
-0.01182947925624717 -0.010456555184154791 0.05829530044919036
-0.011581818950855525 -0.00998933590799742 0.05795683466424982
-0.011338233886964076 -0.009530060310235311 0.05740577094015613
-0.011086455719542051 -0.009054814277468832 0.0572821265299326
-0.010832802414515766 -0.008575913139663435 0.05725629325918014
-0.010581024238175448 -0.008100667089512938 0.057132649314207834
-0.010329245852990613 -0.007625420645604005 0.05700900488444781
-0.010081585529762379 -0.007158201334678601 0.056670540030009695
-0.009827932224736092 -0.006679300196873203 0.056644706759257236
-0.009566063827388336 -0.006184385749005327 0.05704745129744064
-0.00931927878832773 -0.005718872595395566 0.05666331876957203
-0.00906368443616695 -0.005236187858175951 0.05673875208838065
-0.008811269420379615 -0.004759700453227265 0.056648325209496427
-0.008549400815118277 -0.004264785610082468 0.05705107205928354
-0.0082991284642147 -0.0037924748019672735 0.056848866249368676
-0.008040935383417791 -0.0033047244840891865 0.05705987051591953
-0.007800863147327142 -0.0028522962833166556 0.05632554432969269
-0.00753147093373315 -0.002342716017215996 0.05712078734677722
-0.007267151893704769 -0.001843024654076336 0.05765137034527359
-0.007020366854644164 -0.0013775115004665745 0.057267237817404976
-0.006761213854132358 -0.0008878900524767475 0.0575283221950399
-0.006503972747780733 -0.0004019953740334037 0.05768966368573205
-0.006242104219255834 9.291932286573947e-05 0.05809240937727524
-0.012538604800573767 -0.010634805485511156 0.05957136750394425
-0.012299489982830487 -0.01018424353030177 0.058787099166439864
-0.012055837264755741 -0.009724836057392095 0.05823956483807487
-0.011816184829914565 -0.009273226150220774 0.05748334300703177
-0.011563038337461008 -0.008795312905219104 0.057431081625711276
-0.011313807186678933 -0.008325031666658591 0.057174552608733345
-0.011056655470256565 -0.007839311225173543 0.05733123647926492
-0.010809339585680987 -0.007372763325799185 0.05697479150677578
-0.01056106859114414 -0.006904353661742415 0.05666818426413926
-0.010306059375352492 -0.0064228095102525 0.05671308639259641
-0.010050413620003158 -0.005940024568526029 0.05679120701220004
-0.009797910250670614 -0.005463364940127969 0.05670538937711811
-0.009539897319425854 -0.004975965779378918 0.05690699556909479
-0.00928806752213417 -0.00450061911357911 0.05678603890538098
-0.009030915669144577 -0.0040148984158892695 0.056942721365506536
-0.008777769067809615 -0.0035369849653163732 0.056890459974417794
-0.008518005359385085 -0.003046173096177598 0.05718340102846776
-0.00826485878738368 -0.002568259701533323 0.05713113917395935
-0.008010470828665068 -0.0020879265304293267 0.05714363749606545
-0.0077554616766978834 -0.0016063824983497995 0.057188540562351224
-0.007499815803548849 -0.001123597333668084 0.05726666163743782
-0.007242664041604072 -0.000637876806781438 0.057423345037834056
-0.0069870181862916264 -0.00015509167686775542 0.05750146518241822
-0.0067281322342642134 0.00033400922261983264 0.057748615281233553
-0.0064724863655743255 0.0008167943786095396 0.05782673612369454
-0.006202703748688334 0.0013271356459084156 0.05864235110495558
-0.013015999090326405 -0.010376886267351913 0.05967797915600287
-0.012776559758136151 -0.009925691751249816 0.05891064014714047
-0.01253143735861105 -0.009463419496759827 0.05843977642775452
-0.012291365224363984 -0.009010991489089942 0.05770544955158756
-0.01204370490113575 -0.008543772178164537 0.057366984697149445
-0.011793432423514182 -0.008071461129710083 0.057164779807968774
-0.011540396366303413 -0.007593763150982119 0.057106757220833824
-0.01128861800787346 -0.007118516759225235 0.05698311139532015
-0.011036203056376056 -0.006642029472927695 0.05689268685246025
-0.010783166781402476 -0.006164331083057277 0.056834664245788806
-0.010530751856659956 -0.005687843848911786 0.05674423830717526
-0.010278973562519937 -0.005212597575806046 0.056620594817685915
-0.010024052782400015 -0.004731225801184685 0.05666088910786267
-0.009770399604091724 -0.0042523249037185445 0.05663505491637603
-0.00951220645101752 -0.0037645744482868123 0.05684606010854519
-0.009257928876145132 -0.0032844564436882383 0.0568527995504824
-0.00900233455073924 -0.002801771758620672 0.05692823147353737
-0.008750556277014484 -0.0023265255240595382 0.056804587985879576
-0.008490447927897868 -0.0018350418624594811 0.057115508673803383
-0.008233206785407596 -0.001349147115239314 0.057276850627304685
-0.007981428500185874 -0.0008739008595175907 0.05715320667256412
-0.007725834211384092 -0.0003912162424676063 0.057228639531005654
-0.007470239877059903 9.146845998397532e-05 0.05730407191931185
-0.0072110868310256895 0.0005810899933753999 0.05756515582681143
-0.006956809256153303 0.0010612079979739736 0.057571895268748646
-0.006691016135823489 0.001563772725502196 0.058179385468677985
-0.006437979856390762 0.0020414711240646227 0.05812136309463215
-0.013247119119736334 -0.009654450036115833 0.05937380683940034
-0.013005488299458197 -0.00919898375438307 0.05872079377935353
-0.012761835563546861 -0.008739576246705363 0.05817326038149097
-0.012517596208967613 -0.008279025270588219 0.057656329812898977
-0.01227121835062447 -0.007814305822047129 0.0572509497174538
-0.012018715090173335 -0.007337646399220297 0.05716513209214012
-0.011766885184000243 -0.006862299527849263 0.05704417541865806
-0.011512497327357948 -0.006381966549468291 0.0570566737499219
-0.011259993875898884 -0.005905306767651054 0.056970854709318064
-0.011009810932761157 -0.0054331702312621875 0.056763990348740204
-0.010752659116375678 -0.004947449601589927 0.05692067374425232
-0.010500829319083992 -0.004472102935790119 0.05679971708053851
-0.010243677511616808 -0.003986382323501876 0.056956400010799414
-0.009989289473815815 -0.003506049001996032 0.056968899257913305
-0.009731276542571055 -0.0030186498412469813 0.05717050544988998
-0.00947326362024459 -0.002531250697881946 0.05737211117661544
-0.009224992546159896 -0.00206284088418257 0.057065503460791006
-0.00897122158182081 -0.001583710391477489 0.057045814307982994
-0.008716212438771919 -0.0011021663767819781 0.05709071690901755
-0.008460566565622885 -0.0006193812121002625 0.057168837984104146
-0.008204920746914552 -0.00013659615020416085 0.057246959064074864
-0.007949911648922604 0.00034494777833051025 0.05729186073704905
-0.007692759841455418 0.0008306683906187538 0.05744854366730994
-0.00743775070779029 0.00131221238868949 0.05749344720128899
-0.007182104952440954 0.0017949973304159617 0.05757156782089262
-0.006924953036092365 0.0022807181482754325 0.05772825074138527
-0.006662651503927811 0.0027764768856624114 0.058153591135402534
-0.013733899794856709 -0.009414826751611465 0.05899075856758878
-0.013480863737645937 -0.0089371287728835 0.05893273598045383
-0.013243792578338243 -0.008490550425850774 0.05804185369829928
-0.012996132255110007 -0.00802333111492537 0.05770338884386116
-0.012751009637822098 -0.007561058449292927 0.057232525104938724
-0.012498594730916166 -0.007084571249915469 0.05714209823582274
-0.012246179588410837 -0.006608083604627524 0.0570516722776727
-0.011994401403152222 -0.006132837537093013 0.056928028797951606
-0.011741365128178641 -0.0056551391472225935 0.05687000619128016
-0.011488950194517827 -0.005178651895693087 0.056779580717917826
-0.011234672646400323 -0.004698533943246562 0.05678631876410139
-0.010980395071527937 -0.004218415938647987 0.056793058206038596
-0.010730122738460952 -0.0037461051653008247 0.0565908514656213
-0.010470969620149446 -0.0032564834943557544 0.0568519362987392
-0.010215375294743551 -0.0027737988092881895 0.05692736822179417
-0.009960454487868746 -0.0022924269825147776 0.05696766390772458
-0.009708039474660084 -0.001815939581342665 0.05687723796117433
-0.009452445129304394 -0.001333254856971252 0.056952671280593475
-0.00919879192377575 -0.0008543539081123062 0.056926837086664774
-0.008943197580533267 -0.0003716691882767083 0.05700226994022218
-0.008688276854854047 0.00010970248355904062 0.057042564235283054
-0.008430083756220546 0.0005974528362051599 0.057253569432336344
-0.00814907946133991 0.0011296679909470046 0.058654593260561896
-0.007919410975245122 0.0015618166453020754 0.05737752128707656
-0.007665133509254142 0.0020419344443294222 0.05738426073878202
-0.0074095390571302525 0.0025246193697362473 0.05745969358257118
-0.007148492766020928 0.0030179313242145794 0.05781955033311118
-0.006879643498457234 0.0035264532438307877 0.05858646279748796
-0.013953836786645479 -0.00867059194614602 0.059269984989837925
-0.013714184351804302 -0.008218982038974698 0.05851376315879483
-0.013472083787109786 -0.007762600106335968 0.05788525581082579
-0.01322897853266565 -0.007304259792108157 0.057309149920465145
-0.012977148817500488 -0.0068289132797275266 0.05718819466227324
-0.012721502853306636 -0.006346127944242618 0.05726631479708916
-0.012475125212726305 -0.005881408906843981 0.05686093472118048
-0.01222073712048461 -0.005401075482552524 0.05687343396341024
-0.011965728095700887 -0.004919531690053014 0.056918337507157545
-0.011711957160229894 -0.004440401254035796 0.05689864649273414
-0.011460127362938208 -0.0039650545882359885 0.05677768982902033
-0.011194823172873868 -0.003463442916361749 0.057359667736096666
-0.010949267493046453 -0.003000326098763849 0.05691139892738977
-0.010694879536441047 -0.0025199929321956674 0.05692389678363414
-0.01044110855637858 -0.0020408624092583673 0.05690420809546682
-0.0101860994698836 -0.001559318501884285 0.056949110235523764
-0.009928947669221502 -0.0010735979024442434 0.057105793166395184
-0.009676444281586902 -0.0005969382400373936 0.05701997506361997
-0.009406091409241833 -8.54854070059404e-05 0.05786533354538639
-0.009165902850186182 0.0003671695387861035 0.057137077494834355
-0.008910256994873737 0.0008499546686997861 0.05721519763941852
-0.008656486014811268 0.0013290851916370854 0.0571955089512512
-0.00839418437376531 0.0018248441345952906 0.05762084933550022
-0.008145913388146757 0.0022932537812680445 0.057314241627612485
-0.00788702732723794 0.00278235488632686 0.05756139171665956
-0.007622447037013098 0.003282555500635898 0.05810561077527191
-0.007345006428389038 0.0038078241211198425 0.05932071788134239
-0.014427797948288447 -0.00840598018126733 0.0595557074267345
-0.014195448678190222 -0.007968605992882943 0.05841849277021766
-0.013952605045643704 -0.007510775632699029 0.05782874992098542
-0.013708260290934415 -0.007050019218351321 0.05731730650570484
-0.013456482105675802 -0.006574773150816809 0.05719366302598375
-0.013204703729409262 -0.006099526724291891 0.057070018130972504
-0.012952288795748446 -0.005623039472762385 0.05697959265761018
-0.012696694334706262 -0.005140354529971542 0.057055025966650554
-0.012442416868715282 -0.0046602367309441966 0.05706176541835601
-0.01219214454456659 -0.004187925974981049 0.0568595582126875
-0.011937866987530792 -0.0037078080051505084 0.05686629672412228
-0.011684213800304207 -0.0032289070903003527 0.05684046299788685
-0.011430560549718624 -0.0027500060552805676 0.056814629732018514
-0.011176907353573743 -0.0022711051230463962 0.056788796471034304
-0.010921313001412964 -0.0017884203858267813 0.05686422978984293
-0.010667035473710725 -0.0013083024719248615 0.05687096783785804
-0.010386031190094323 -0.0007760873387232274 0.0582719914340685
-0.010156807231472297 -0.00034480518272730996 0.05697172784812446
-0.00990377106538012 0.00013289300157188133 0.05691370525122126
-0.009648176767660045 0.000615577636005882 0.056989138574914014
-0.009390935652390126 0.0011014723318332423 0.057150480530857375
-0.009135341309147641 0.0015841570516688407 0.05722591338441478
-0.00888106374319355 0.002064275038883398 0.057232652361100776
-0.008626786277202567 0.0025443928379107446 0.05723939181280624
-0.008362467177808868 0.0030440843117687847 0.05776997364084838
-0.00810235891739113 0.0035355678067218415 0.05808089503580673
-0.00783512325025788 0.004040944410194874 0.058763628899697495
-0.007582087193047109 0.004518642388922838 0.058705606312562546
-0.007291641196963106 0.005069261805275595 0.060599180835039956
-0.014651537906041418 -0.007669158320179847 0.05963654002947157
-0.01442185501876262 -0.0072369815876015 0.0583602250294838
-0.014179264987578492 -0.006779645574070724 0.05775724087846662
-0.013934393539946854 -0.006317862488415088 0.05727328545509836
-0.013681246838648783 -0.005839948849654981 0.05722102358899016
-0.013426858982006488 -0.005359615871274009 0.05723352192025399
-0.013180481123663348 -0.004894896422732919 0.05682814182480881
-0.0129101283334448 -0.004383443743120646 0.05767350171209712
-0.01265994530818055 -0.003911307053312599 0.05746663594599736
-0.01241438969171213 -0.003448190355884329 0.05701836667692338
-0.012162559894420444 -0.0029728436900845205 0.056897410013209575
-0.011908788859917273 -0.0024937130643616083 0.05687772132015813
-0.011655642285337196 -0.0020157996659407604 0.056825458533315734
-0.011398490460033422 -0.001530079018884484 0.05698214239407907
-0.01114348139137503 -0.001048535146278434 0.05702704360363358
-0.010894250329524565 -0.0005782540739853008 0.05677051599278807
-0.010639241195393969 -9.671007667380648e-05 0.0568154181285714
-0.010382089387926785 0.0003890105356144369 0.056972101058832304
-0.010119009920906318 0.0008862856618397962 0.057438022054826
-0.009859246185726901 0.0013770975831306192 0.05773096450462961
-0.00961097511798183 0.001845507383222552 0.05742435539121998
-0.00935382330159635 0.002331228012894811 0.0575810387867321
-0.009096671603010571 0.002816948419611827 0.05773772172676125
-0.008834369853083206 0.0033127075681412604 0.05816306210124201
-0.008565770051781505 0.003820743228127772 0.05891697174415533
-0.008285279109916274 0.004351957721087026 0.06029120918907137
-0.008009409016984437 0.004874165021833179 0.06142439672693515
-0.01489592624873012 -0.0069725853938618024 0.05864018393456518
-0.014650803640360505 -0.006510312745613377 0.058169319730391515
-0.014412578409132213 -0.006061484819952785 0.05733864328191376
-0.014162305976102118 -0.005589173858418413 0.057136436066476996
-0.013906711750659332 -0.005106489361538058 0.05721186846455144
-0.013651117298535444 -0.004623804436131232 0.0572873013083406
