ply
format ascii 1.0
element vertex 718
property float x
property float y
property float z
end_header
0.0052544644746567015 0.0027628152029162416 -0.0007439752807840698
0.004980923176706996 0.002920744344921983 -0.0009669282007962459
0.004707381878757292 0.003078673486927725 -0.0009651380241848522
0.0044338405808075874 0.0032366026289334664 -0.0006803816650062793
0.004160299282857882 0.0033945317709392084 -0.0008457796648144715
0.003886757984908178 0.00355246091294495 -0.0006352076889015728
0.0036132167877770995 0.0037103899967430307 -0.0005957790417596691
0.0033396753890087686 0.003868319196956433 -0.0005369948339648538
0.0030661341414683773 0.004026248309858344 -0.0004062546358909452
0.002792592868723329 0.004184177437312171 -0.0004044650704599911
0.0025190516133064824 0.004342106554761555 -0.0004616835212800646
0.0022455103484378893 0.004500035677667908 -0.00027772184694185793
0.001971969050488185 0.00465796481967365 -0.0002571752411313349
0.0016984278029477933 0.004815893932575561 -0.0006383100408129388
0.0014248865049980887 0.0049738230745813026 -0.0002236792061012232
0.0011513453078670101 0.005131752158379383 -9.29390444071026e-05
0.0008778040099173055 0.005289681300385125 -9.114946442423327e-05
0.0006042628127862269 0.0054476103841832055 1.3413582564681452e-05
0.00033072151483652234 0.005605539526188947 -0.00012280288501642582
0.007011324131439709 0.0013837703453942406 -0.002279074396938085
0.0064642415355403 0.001699628629405724 -0.0023235003463923927
0.005917159342915395 0.0020154866805865636 -0.0020971102640032764
0.005370076545378734 0.0023313450810133686 -0.0017740561161190265
0.005096535449066282 0.0024892741066037884 -0.0014861028175801032
0.0048229941511165764 0.00264720324860953 -0.0014288843376561993
0.004549452853166872 0.0028051323906152716 -0.0013216069201007479
0.004275911555217168 0.002963061532621013 -0.0013610346941277378
0.004002370257267462 0.003120990674626755 -0.0011130905477330082
0.003728828959317758 0.003278919816632497 -0.0009476925479248161
0.0034552877621866797 0.0034368489004305775 -0.0007532545132562513
0.003181746363418349 0.00359477810064398 -0.0006960363825783128
0.0029082051158779575 0.003752707213545891 -0.0006978259771130974
0.002634663843132909 0.0039106363409997175 -0.000590548559557646
0.0023611225877160627 0.004068565458449102 -0.0007212884374894196
0.0020875813228474695 0.004226494581355455 -0.0005850713932886714
0.0018140400248977651 0.004384423723361197 -0.0006056179990991945
0.0015404987773573735 0.004542352836263108 -0.0005688750534318382
0.001266957479407669 0.004700281978268849 -0.0005894213682040567
0.0009934162822765903 0.00485821106206693 -0.00042402365943416893
0.0007198749843268857 0.005016140204072672 -0.0004828078963328147
0.00044633378719580717 0.005174069287870752 -0.0004845983930863434
0.00017279248924610254 0.005331998429876494 -0.00037732068449258745
-0.00010074880870360207 0.0054899275718822355 -0.00032010252471081853
-0.0003742901066533067 0.005647856713887977 -0.0003218921192456031
0.007400477468918055 0.000794370561795801 -0.002592357108369469
0.006853394873018646 0.0011102288458072842 -0.002255465136840939
0.006306312277119237 0.0014260871298187676 -0.0025603990070521827
0.006032771180806784 0.0015840161554091874 -0.002299288753420114
0.005759230084494331 0.0017419451809996072 -0.002278742147609591
0.005485688584907375 0.0018998744394206706 -0.00212146365083754
0.005212147286957671 0.002057803581426412 -0.0019108916167169805
0.004938606190645218 0.002215732607016832 -0.0018521064193919297
0.004665064892695513 0.0023736617490225736 -0.0017933222698047753
0.004391523594745809 0.002531590891028315 -0.0016625820426270361
0.004117982296796104 0.0026895200330340568 -0.00160379777662456
0.0038444409988463994 0.002847449175039799 -0.0012959549203515048
0.0035708997008966946 0.0030053783170455404 -0.0012371703051030631
0.0032973585037656163 0.003163307400843621 -0.000929327390622347
0.0030238171049972854 0.0033212366010570236 -0.0009275369229726488
0.002750275857456894 0.0034791657139589347 -0.0008687526569701726
0.0024767345847118457 0.003637094841412761 -0.0007114742184057826
0.0022031933292949992 0.0037950239588621457 -0.0008476906805299217
0.0019296520644264063 0.003952953081768499 -0.0008082626154646272
0.0016561107664767017 0.00411088222377424 -0.0008254529675468797
0.00138256951893631 0.004268811336676151 -0.0007860243204049761
0.0011090282209866055 0.004426740478681893 -0.0007272400544024998
0.0008354870238555269 0.004584669562479974 -0.0006878119893372053
0.0005619457259058223 0.004742598704485715 -0.0006860218127258117
0.00028840452877474374 0.004900527788283796 -0.000743240001611411
1.486323082503913e-05 0.0050584569302895375 -0.0006844557356089348
-0.0002586780671246655 0.005216386072295279 -0.0007416739244945342
-0.0005322193650743702 0.005374315214301021 -0.0007398836896754796
-0.0008057606630240748 0.005532244356306762 -0.00013665641017723774
-0.0010793019609737792 0.005690173498312504 -0.0005640455055981869
-0.001352843258923484 0.005848102640318246 -0.00014941453991923427
-0.0016263843552359364 0.006006031665908666 7.863946848374863e-06
0.00778963063595254 0.00020497141430250907 -0.0025458629243075843
0.007242548443327636 0.0005208294654833487 -0.0025812848471105094
0.006969006943740678 0.0006787587239044121 -0.002620713552460074
0.006695465847428226 0.0008366877494948319 -0.002583969617262482
0.0064219243478412695 0.0009946170079158953 -0.0025472263805568214
0.006148383251528817 0.0011525460335063153 -0.002490008948370814
0.005874842155216364 0.001310475059096735 -0.002382730599492788
0.005601301058903912 0.0014684040846871548 -0.0022173328325152393
0.005327759559316955 0.0016263333431082183 -0.002110055414959788
0.005054218261367251 0.0017842624851139599 -0.0019738390110433097
0.0047806771650547985 0.0019421915107043796 -0.0018665613606572147
0.004507135867105093 0.0021001206527101212 -0.0017592833610251542
0.004233594569155389 0.002258049794715863 -0.0017020658124238248
0.0039600532712056845 0.0024159789367216044 -0.0015366672305390234
0.0036865119732559797 0.0025739080787273464 -0.0014794493326917286
0.003412970675306275 0.002731837220733088 -0.0014427064452320333
0.0031394294781751965 0.0028897663045311687 -0.0015014905948191877
0.0028658880794068657 0.0030476955047445712 -0.0011633934918791051
0.0025923468318664743 0.0032056246176464824 -0.000894654775038361
0.002318805559121426 0.0033635537451003087 -0.0010519326897338028
0.0020452643037045795 0.0035214828625496934 -0.001053723157383501
0.0017717230388359865 0.0036794119854560462 -0.0010365328053012486
0.001498181740886282 0.003837341127461788 -0.001019342453218996
0.0012246404933458903 0.003995270240363699 -0.0013271856587380166
0.0009510991953961856 0.004153199382369441 -0.0009890882065519686
0.0006775579982651072 0.004311128466167521 -0.0009718987275846297
0.0004040167003154025 0.004469057608173263 -0.0009146803058683867
0.00013047550318432397 0.0046269866919713435 -0.0008974899537861342
-0.00014306579476538065 0.004784915833977085 -0.0009180365595966572
-0.0004166070927150853 0.004942844975982827 -0.0009198264451697463
-0.0006901483906647899 0.005100774117988568 -0.0009592548012733454
-0.0009636896886144945 0.00525870325999431 -0.0009798008250072594
-0.001237230986564199 0.0054166324020000515 -0.0009430575883015985
-0.0015107722845139038 0.005574561544005794 -0.0008357801707461471
-0.0017843133808263562 0.005732490569596214 -0.0005478268722072238
-0.002057854880413313 0.005890419828017277 -0.00019485701341181945
0.007631701493946799 -6.85698836471953e-05 -0.0025147935375571247
0.007084619301321894 0.0002472881675336443 -0.0025610327720642086
0.006811077801734937 0.00040521742595470774 -0.0025592430029064413
0.006537536705422484 0.0005631464515451275 -0.0025574527680873867
0.006263995205835528 0.000721075709966191 -0.002518024761229753
0.005990454109523076 0.0008790047355566108 -0.002478596288710832
0.005716913013210623 0.0010369337611470307 -0.0024391682818531986
0.005443371916898171 0.0011948627867374505 -0.0023084280546754594
0.005169830417311214 0.0013527920451585139 -0.002047317801043391
0.004896289119361509 0.0015107211871642555 -0.0020078895613551135
0.004622748023049057 0.0016686502127546752 -0.0017973176436498757
0.004349206725099352 0.0018265793547604166 -0.0016927549149841066
0.004075665427149647 0.001984508496766158 -0.0014821824152022596
0.0038021241291999425 0.0021424376387718996 -0.0014803925296291705
0.003528582831250238 0.0023003667807776416 -0.0012698199134320016
0.0032550415333005333 0.0024582959227833832 -0.0012110356474295254
0.002981500336169455 0.002616225006581464 -0.0011522511485964055
0.002707958937401124 0.0027741542067948664 -0.0012094696285203095
0.0024344176898607327 0.0029320833196967776 -0.0012076793937012549
0.0021608764171156844 0.003090012447150604 -0.0013149568112567063
0.0018873351616988379 0.0032479415645999886 -0.0012755286879837509
0.001613793896830245 0.0034058706875063414 -0.0011709657264873381
0.0013402525988805403 0.003563799829512083 -0.0010136875789612527
0.0010667113513401487 0.003721728942413994 -0.0011209648801013823
0.000793170053390444 0.0038796580844197358 -0.0011381549993529911
0.0005196288562593656 0.004037587168217817 -0.001195373479276895
0.0002460875583096609 0.0041955163102235585 -0.0010908104013651605
-2.745363882141762e-05 0.004353445394021639 -0.0010702637955546375
-0.0003009949367711222 0.004511374536027381 -0.001049717422574758
-0.0005745362347208268 0.004669303678033122 -0.001066907541826367
-0.0008480775326705315 0.004827232820038864 -0.0010081232758238907
-0.001121618830620236 0.0049851619620446055 -0.0012310761958360668
-0.0013951601285699406 0.005143091104050347 -0.001073797699064016
-0.0016687014265196454 0.005301020246056089 -0.0010532510932534929
-0.0019422425228320978 0.0054589492716465085 -0.0009486880735494192
-0.0022157840224190546 0.005616878530067572 -0.0002840201777871694
-0.002489325118731507 0.005774807555657992 -0.00028223029221408026
-0.002762866618318464 0.005932736814079055 -0.0002234454586869101
-0.0030364081179054207 0.0060906660725001185 -1.287349823542126e-05
0.007473772351941057 -0.0003421111815968997 -0.0023969556204974647
0.006926690159316152 -2.6253130416060083e-05 -0.002661859150975942
0.006653148659729195 0.00013167612800500338 -0.002525642747059464
0.006379607563416743 0.0002896051535954232 -0.002546189352869987
0.006106066063829786 0.00044753441201648666 -0.002488970989361405
0.005832524967517334 0.0006054634376069064 -0.0023816928733140226
0.005558983871204882 0.0007633924631973262 -0.0024022394791245456
0.005285442774892429 0.0009213214887877461 -0.0022660230752080675
0.005011901275305472 0.0010792507472088095 -0.002267812611535191
0.004738359977355768 0.001237179889214551 -0.0023723756894469257
0.004464818881043315 0.0013951089148049709 -0.002049940405413508
0.00419127758309361 0.0015530380568107122 -0.001606208505108952
0.003917736285143906 0.0017109671988164538 -0.001383255585096776
0.003644194987194201 0.0018688963408221954 -0.0013850457035005088
0.0033706536892444965 0.0020268254828279372 -0.0012777677038684483
0.0030971123912947917 0.002184754624833679 -0.0012205499224364753
0.0028235711941637133 0.0023426837086317595 -0.0012410959461703892
0.0025500297953953825 0.002500612908845162 -0.0012043527094647284
0.002276488547854991 0.002658542021747073 -0.0013350928202271457
0.002002947275109943 0.0028164711492008995 -0.001393877086229622
0.0017294060196930963 0.002974400266650284 -0.0013956673210486765
0.0014558647548245033 0.003132329389556637 -0.0011077140225097533
0.0011823234568747987 0.0032902585315623786 -0.0013688243925571437
0.000908782209334407 0.00344818764446429 -0.0013116062618792053
0.0006352409113847024 0.0036061167864700314 -0.0013133964966982599
0.0003616997142536239 0.003764045870268112 -0.001256178016774356
8.815841630391931e-05 0.003921975012273854 -0.0011989598860964175
-0.00018538278082715922 0.004079904096071935 -0.0012577440356835719
-0.0004589240787768638 0.004237833238077676 -0.0011215276317670937
-0.0007324653767265684 0.004395762380083418 -0.0012260905932635065
-0.001006006674676273 0.00455369152208916 -0.001208900241181254
-0.0012795479726259776 0.004711620664094901 -0.0011721573537215586
-0.0015530892705756822 0.004869549806100643 -0.0011354141170158978
-0.001826630568525387 0.005027478948106384 -0.0011182237649336453
-0.0021001716648378394 0.005185407973696804 -0.0009528260561637576
-0.002373713164424796 0.0053433372321178675 -0.0009733723709359761
-0.0026472542607372486 0.005501266257708287 -0.0003937215369660403
-0.0029207957603242054 0.005659195516129351 -1.2586580851347695e-05
-0.0031943372599111623 0.005817124774550414 -0.00027369716553948776
-0.0034678783562236146 0.005975053800140834 -4.958637418894375e-06
0.007589384709522272 -0.0007735817379676684 -0.0011171977967023845
0.007042302113622863 -0.0004577234539561847 -0.0021964800544083114
0.006768761017310411 -0.0002997944283657649 -0.002465218305587768
0.0064952195177234535 -0.00014186516994470143 -0.002522436901926994
0.006221678421411001 1.6063855645718367e-05 -0.0025591801386326547
0.005948136921824045 0.00017399311406678182 -0.00257637002505362
0.005674595825511592 0.0003319221396572016 -0.00253694225102663
0.00540105472919914 0.0004898511652476214 -0.002573685254901647
0.005127513632886688 0.0006477801908380413 -0.002288929186761379
0.00485397213329973 0.0008057094492591047 -0.0025118815246969457
0.004580430835350026 0.0009636385912648463 -0.0022271252237260337
0.004306889739037574 0.001121567616855266 -0.002168340608477592
0.004033348441087869 0.0012794967588610079 -0.0019072302384302016
0.003759807143138164 0.001437425900866749 -0.0014187053311616178
0.0034862658451884593 0.0015953550428724906 -0.0011575948446989055
0.003212724547238755 0.0017532841848782322 -0.0009736334905028339
0.00293918324928905 0.0019112133268839738 -0.0008428933215327557
0.0026656420521579717 0.0020691424106820547 -0.0008223467157222326
0.002392100653389641 0.0022270716108954572 -5.99463746766556e-05
0.0021185594058492495 0.0023850007237973684 -0.0009091711835935708
0.0018450181331042014 0.0025429298512511947 -0.0011321241036057468
0.0015714768776873547 0.0027008589687005794 -0.0014008624712005253
0.0012979356128187617 0.0028587880916069322 -0.0014580809511244293
0.0010243943148690571 0.003016717233612674 -0.0014562914147973056
0.0007508530673286654 0.003174646346514585 -0.001416862709447741
0.00047731176937896083 0.0033325754885203266 -0.0013774347025901075
0.00020377057224788234 0.0034905045723184073 -0.0012728719739243384
-6.977072570182229e-05 0.003648433714324149 -0.0012523253681138154
-0.0003433119228329008 0.00380636279812223 -0.0012505347840487953
-0.0006168532207826054 0.003964291940127971 -0.0012111070100218053
-0.00089039451873231 0.004122221082133713 -0.0012282971292734142
-0.0011639358166820146 0.004280150224139454 -0.0012077507562935348
-0.0014374771146317192 0.004438079366145196 -0.0011683227494359012
-0.0017110184125814238 0.0045960085081509375 -0.0011477761436253782
-0.0019845597105311286 0.00475393765015668 -0.001184519380331039
-0.002258100806843581 0.0049118666757471 -0.001163972774520516
-0.002531642306430538 0.005069795934168163 -0.0010594096966087814
-0.00280518340274299 0.005227724959758583 -0.0010961529333144422
-0.003078724902329947 0.005385654218179646 -0.0009388744365423913
-0.003352266401916904 0.00554358347660071 -0.00045034990762360356
0.00743145556751653 -0.0010471230359173729 -0.0014320978661999102
0.007157914067929574 -0.0008891937774963093 -0.001021004049107432
0.0068843729716171215 -0.000731264751905889 -0.0021744708064943548
0.006610831875304669 -0.0005733357263154693 -0.0023317488376051183
0.006337290375717712 -0.00041540646789440584 -0.002489027334377169
0.00606374927940526 -0.000257477442303986 -0.00252845580689609
0.005790207779818303 -9.954818388292255e-05 -0.00256788358092308
0.005516666683505851 5.8380841707497246e-05 -0.002588430186733603
0.005243125587193398 0.00021630986729791706 -0.002608976792544126
0.004969584490880945 0.0003742388928883369 -0.0025722335558384653
0.004696042991293989 0.0005321681513094003 -0.002631018171086907
0.0044225016933442845 0.0006900972933151419 -0.002523740520700812
0.004148960597031832 0.0008480263189055618 -0.002387523418292403
0.0038754192990821273 0.0010059554609113035 -0.0019764297176152463
0.0036018780011324225 0.0011638846029170446 -0.0012524162884801622
0.0033283367031827177 0.0013218137449227862 -0.0009836775716394182
0.003054795405233013 0.0014797428869285278 -0.0009264594409614798
0.0027812541072833085 0.0016376720289342694 -0.0007610613829456266
0.00250771291015223 0.0017956011127323501 -0.0005666234064847228
0.0022341715113838993 0.001953530312945753 -0.0008970055496320125
0.0019606302638435075 0.002111459425847664 -0.0007607885054312643
0.0016870889910984596 0.0022693885533014903 -0.0007240452687256035
0.0014135477356816129 0.002427317670750875 -0.0010088022099807854
0.00114000647081302 0.002585246793657228 -0.001219374244101345
0.0008664651728633152 0.0027431759356629695 -0.0013239372055977579
0.0005929239253229236 0.0029011050485648806 -0.0014812157023698087
0.000319382627373219 0.003059034190570622 -0.001286777667701244
4.5841430242140516e-05 0.003216963274368703 -0.0014707387890666719
-0.0002276998677075641 0.0033748924163744445 -0.001510167145170271
-0.0005012410648386426 0.0035328215001725256 -0.0013739509740844365
-0.0007747823627883472 0.003690750642178267 -0.0013372071553021665
-0.0010483236607380518 0.0038486797841840088 -0.0015983176417648788
-0.0013218649586877564 0.00400660892618975 -0.0012453485978767271
-0.001595406256637461 0.0041645380681954915 -0.0012658952036872502
-0.0018689475545871656 0.004322467210201233 -0.0012086767237633462
-0.00214248885253687 0.004480396352206976 -0.0011514583602547641
-0.0024160299488493226 0.004638325377797395 -0.0009285053820349273
-0.0026895714484362794 0.004796254636218459 -0.001189616159535944
-0.002963112544748732 0.0049541836618088786 -0.001210162765346467
-0.0032366540443356886 0.005112112920229942 -0.0008571928483434018
-0.0035101955439226454 0.005270042178651005 -0.0007209763862192628
-0.0037837366402350982 0.005427971204241425 -0.00019399038865230942
0.006999984925923832 -0.001162735075446014 -0.001095463754609227
0.00672644382961138 -0.0010048060498555943 -0.00157211790792644
0.006452902733298928 -0.0008468770242651741 -0.0020821690559387203
0.00617936123371197 -0.0006889477658441107 -0.0027356813661754127
0.005905820137399518 -0.0005310187402536909 -0.0025517197791486974
0.0056322786378125616 -0.00037308948183262735 -0.002608938375487923
0.005358737541500109 -0.00021516045624220755 -0.0027162160258740182
0.005085196445187656 -5.7231430651787764e-05 -0.002714426256716251
0.004811655348875204 0.00010069759493863204 -0.0027316166087985034
0.004538113849288247 0.0002586268533596955 -0.0027110700029879804
0.004264572551338543 0.00041655599536543714 -0.0026905231643468137
0.0039910314550260905 0.000574485020955857 -0.0024799513630568977
0.0037174901570763857 0.0007324141629615986 -0.0021275680046528573
0.003443948859126681 0.0008903433049673397 -0.000895577133633196
0.003170407561176976 0.0010482724469730814 -0.0007756826234981414
0.0028968662632272713 0.001206201588978823 -0.0005651100655086335
0.0023497837681464885 0.0015220598147826453 -0.0002793638268485662
0.0020762423693781577 0.001679989014996048 -0.0002775739412754771
0.001802701121837766 0.0018379181278979592 -0.0001468339323764664
0.001529159849092718 0.0019958472553517855 -0.00031223180121742156
0.0012556185936758713 0.00215377637280117 -0.00032942215329967407
0.0009820773288072783 0.002311705495707523 -0.0005773666198365387
0.0007085360308575736 0.0024696346377132646 -0.000771804305259138
0.0004349947833171821 0.0026275637506151758 -0.0011390540748834608
0.00016145348536747745 0.0027854928926209174 -0.0011185074690729377
-0.00011208771176360107 0.002943421976418998 -0.0013872459530830381
-0.0003856290097133057 0.0031013511184247397 -0.0013854563003405926
-0.0006591702068443842 0.0032592802022228208 -0.001201494946144521
-0.0009327115047940888 0.0034172093442285624 -0.0012382378336042164
-0.0012062528027437934 0.003575138486234304 -0.0011336748721078036
-0.001479794100693498 0.0037330676282400456 -0.0010291121434420345
-0.0017533353986432026 0.003890996770245787 -0.0010085654212161896
-0.0020268766965929074 0.004048925912251529 -0.0009691374143585559
-0.002300417994542612 0.00420685505425727 -0.000929709640331566
-0.002573959090855064 0.00436478407984769 -0.0008902809931896624
-0.002847500590442021 0.0045227133382687535 -0.000997558352537453
-0.0031210416867544738 0.004680642363859173 -0.0009387741447426375
-0.00339458318634143 0.004838571622280237 -0.000995992333628237
-0.003668124685928387 0.0049965008807013 -0.0003927642537746575
0.007115597283505047 -0.0015942056318167823 -0.0014421858359128235
0.006842055783918091 -0.0014362763733957186 -0.0011040883837267754
0.006568514687605638 -0.0012783473478052984 -0.0021492962259799238
0.006294973591293186 -0.0011204183222148787 -0.002655153395608067
0.006021432091706229 -0.0009624890637938152 -0.0023493666667491193
0.005747890995393776 -0.0008045600382033955 -0.0025333282537758346
0.00547434949580682 -0.000646630779782332 -0.0025538741610944267
0.005200808399494368 -0.0004887017541919122 -0.002684614155441522
0.004927267303181914 -0.00033077272860149235 -0.002705160761252045
0.004653726206869462 -0.00017284370301107256 -0.002763945376500487
0.004380184707282506 -1.4914444590009096e-05 -0.0027467550244182344
0.004106643409332801 0.00014301469741573254 -0.0027673016302287574
0.0038331023130203485 0.00030094372300615237 -0.002750111278146505
0.003559561015070644 0.00045887286501189396 -0.002692892681807279
0.0032860197171209393 0.0006168020070176356 -0.0024241544306278224
0.0030124784191712345 0.0007747311490233768 -0.0008618296124041078
0.0027389371212215297 0.0009326602910291184 -0.0003517785517033187
0.0024653958232718253 0.00109058943303486 -1.3681386008101715e-05
3.524343361735852e-06 0.002511951594671213 -0.0006368424510583279
-0.0002700168537693427 0.0026698806784692937 -0.0004714447422884402
-0.0005435581517190472 0.0028278098204750353 -0.0009599693003110585
-0.0008170993488501258 0.002985738904273116 -0.000999397365376353
-0.0010906406467998304 0.0031436680462788576 -0.0009822070132941005
-0.001364181944749535 0.003301597188284599 -0.0010027536191046236
-0.0016377232426992396 0.0034595263302903407 -0.0009455351391807196
-0.0019112645406489442 0.0036174554722960823 -0.0009660818031989036
-0.002184805838598649 0.003775384614301824 -0.0009088636143133042
-0.0024583471365483534 0.003933313756307566 -0.0007144256378524003
-0.0027318882328608057 0.004091242781897986 -0.000753854284994304
-0.0030054297324477626 0.004249172040319049 -0.0005884562269784508
-0.0032789708287602154 0.004407101065909469 -0.0005517124081961808
-0.003552512328347172 0.004565030324330532 -0.0005535028758458791
-0.0038260538279341286 0.004722959582751596 -0.00026554931537248167
0.006684126641912349 -0.001709817671345423 -0.0011287862434983251
0.006410585545599897 -0.0015518886457550033 -0.0015889316564425824
0.006137044449287444 -0.0013939596201645835 -0.002223708666861057
0.005863502949700487 -0.00123603036174352 -0.002359925070777535
0.005589961853388035 -0.0010781013361531003 -0.0025253230705857273
0.005316420353801078 -0.0009201720777320365 -0.0027197608724236484
0.005042879257488626 -0.0007622430521416168 -0.0028270382899791
0.004769338161176173 -0.000604314026551197 -0.0028064916841685768
0.0044957970648637205 -0.00044638500096077713 -0.0028236820362508293
0.004222255565276764 -0.0002884557425397137 -0.0028809003997594114
0.00394871426732706 -0.00013052660053397205 -0.0027236219029873605
0.003675173171014607 2.740242505644774e-05 -0.0027218325994908805
0.0034016318730649025 0.00018533156706218936 -0.002829110017046332
0.0031280905751151977 0.000343260709067931 -0.0027245467063039537
0.002854549277165493 0.0005011898510736724 -0.002253771526739001
-0.0015221110867552766 0.0030280558903348948 -0.00022083955991547533
-0.0017956523847049812 0.0031859850323406364 -0.00020029353618156143
-0.002069193682654686 0.003343914174346378 -0.00025751200155355015
-0.0023427349806043906 0.0035018433163521196 -4.693943992606341e-05
-0.002616276278554095 0.003659772458357861 -7.5113762250109625e-06
0.006799738999493564 -0.0021412882277161913 -0.000951716036070138
0.0065261974999066075 -0.001983358969295128 -0.0012820981210097668
0.006252656403594155 -0.0018254299437047079 -0.0019008113304153083
0.005979115307281703 -0.001667500918114288 -0.002161921700462699
0.0057055738076947455 -0.0015095716596932247 -0.0024230321869254112
0.005432032711382293 -0.0013516426341028049 -0.002527595264837146
0.005158491211795337 -0.0011937133756817415 -0.0026321583427488804
0.004884950115482884 -0.0010357843500913213 -0.0027367211878299713
0.004611409019170431 -0.0008778553245009016 -0.002776149194687605
0.004337867922857979 -0.0007199262989104817 -0.002796695800498128
0.0040643264232710224 -0.0005619970404894183 -0.0027984855696558952
0.0037907851253213176 -0.00040406789848367687 -0.002633087569847703
0.0035172440290088653 -0.00024613887289325683 -0.0028170489240437746
0.003243702731059161 -8.820973088751522e-05 -0.0030276209581643343
0.002970161433109456 6.97194111182264e-05 -0.0026895238552242517
0.0026966201351597513 0.00022764855312396804 -0.0027100704610347748
0.002423078837210047 0.00038557769512970966 -0.002673327224329114
0.002149537539260342 0.000543506837135451 -0.0022622328251600266
0.006368268416108527 -0.002256900166426206 -0.0009059676085598766
0.0060947273197960745 -0.0020989711408357864 -0.0015594807919114826
0.005821186223483621 -0.0019410421152453667 -0.002389125060290098
0.005547644723896665 -0.0017831128568243032 -0.0022845619823783636
0.0052741036275842125 -0.0016251838312338835 -0.0025325061287730932
0.005000562127997255 -0.00146725457281282 -0.0026397837791591883
0.004727021031684803 -0.0013093255472223998 -0.0027760008815675974
0.0044534799353723505 -0.00115139652163198 -0.0028127438854426146
0.004179938839059898 -0.0009934674960415603 -0.002829933539032936
0.003906397339472942 -0.0008355382376204969 -0.002828143769875169
0.003632856041523237 -0.0006776090956147553 -0.0027693589217960835
0.0033593149452107846 -0.0005196800700243354 -0.002710574772208929
0.00308577364726108 -0.0003617509280185938 -0.002690028166398406
0.0028122323493113754 -0.00020382178601285216 -0.0026694820262491703
0.0025386910513616706 -4.589264400711054e-05 -0.002834879793226719
0.002265149753411966 0.00011203649799863108 -0.0027954510878771544
0.0019916084554622614 0.0002699656400043725 -0.0023615846876055002
0.006483880802793572 -0.0026883706723876614 -0.0007110913284122943
0.006210339303206616 -0.002530441413966598 -0.000868369243107736
0.005936798206894163 -0.0023725123883761782 -0.0014559633564203975
0.00566325711058171 -0.0022145833627857585 -0.002043557818979025
0.005389715610994754 -0.0020566541043646946 -0.0021023419685661793
0.005116174514682301 -0.0018987250787742748 -0.0025731173809617758
0.004842633015095344 -0.0017407958203532114 -0.0026319019962102175
0.004569091918782892 -0.0015828667947627916 -0.002736465074121952
0.004295550822470439 -0.0014249377691723719 -0.002757011679932475
0.004022009726157987 -0.001267008743581952 -0.0031908780802041292
0.00374846822657103 -0.0011090794851608885 -0.002779783681035042
0.003474926928621326 -0.000951150343155147 -0.002800330286845565
0.0032013858323088735 -0.0007932213175647271 -0.0029576087836176157
0.0029278445343591687 -0.0006352921755589855 -0.0027631705161184072
0.0026543032364094643 -0.00047736303355324386 -0.002802598522976041
0.0023807619384597595 -0.00031943389154750226 -0.0027854081708937883
0.002107220640510055 -0.0001615047495417606 -0.002649191999807954
0.0018336793425603503 -3.575607536018976e-06 -0.0027799319941550493
0.0015601381454292717 0.00015435347626206175 -0.0027227133978158236
0.001286596746660941 0.0003122826764754643 -0.0025573158636689186
0.0063259516607878305 -0.0029619119703373662 -0.0004546257841866463
0.005778869064888421 -0.0026460536863258826 -0.0012776291696354747
0.0055053279685759685 -0.002488124660735463 -0.0017542833229526877
0.005231786468989012 -0.0023301954023143994 -0.00224756496027112
0.00495824537267656 -0.0021722663767239797 -0.002354842144995928
0.0046847038730896025 -0.0020143371183029162 -0.002602787222713232
0.00441116277677715 -0.0018564080927124962 -0.0024720472283661366
0.004137621680464698 -0.0016984790671220765 -0.002810144331306219
0.0038640805841522454 -0.0015405500415316567 -0.002867362694814801
0.0035905390845652886 -0.001382620783110593 -0.002865572227165103
0.003316997786615584 -0.0012246916411048515 -0.0028261449187994003
0.003043456690303132 -0.0010667626155144317 -0.0028243542183190584
0.002769915392353427 -0.00090883347350869 -0.0032845004461705685
0.0024963740944037227 -0.0007509043315029485 -0.0029106405563652515
0.002222832796454018 -0.0005929751894972068 -0.002871211851015687
0.0019492914985043133 -0.0004350460474914652 -0.002766649005934596
0.0016757502005546087 -0.00027711690548572356 -0.002823867602273822
0.00140220900342353 -0.00011918782168764285 -0.0028410572558641434
0.0011286676046551995 3.874137852575969e-05 -0.002579946769401431
0.0008551263571148078 0.00019667049142767075 -0.0021273784805089235
0.005894481033747047 -0.0030775239846613507 -0.0010383172193542123
0.0056209399374345945 -0.002919594959070931 -0.0010588632430881262
0.005347398841122142 -0.002761665933480511 -0.0015816724626347423
0.005073857341535186 -0.0026037366750594473 -0.0019963036756962538
0.004800316245222733 -0.0024458076494690275 -0.002304146531969309
0.004526774745635776 -0.002287878391047964 -0.002565257018432021
0.004253233649323324 -0.0021299493654575443 -0.0026959972456097603
0.003979692553010871 -0.0019720203398671246 -0.0027547813951969147
0.003706151456698419 -0.0018140913142767048 -0.002813565544784069
0.0034326099571114622 -0.0016561620558556412 -0.002834112150594592
0.003159068659161758 -0.0014982329138498996 -0.0028735403902828693
0.0028855275628493055 -0.0013403038882594798 -0.0030575019773095846
0.0026119862648996007 -0.0011823747462537382 -0.0028345489408820868
0.002338444966949896 -0.0010244456042479966 -0.002467299113050103
0.0020649036690001915 -0.0008665164622422549 -0.002973155817016959
0.001791362371050487 -0.0007085873202365133 -0.002865878399461508
0.0015178210731007823 -0.0005506581782307716 -0.0029966181609779596
0.0012442798759697037 -0.00039272909443269097 -0.0027278801426291466
0.000970738477201373 -0.0002347998942192884 -0.0027296694461256266
0.0006971972296609814 -7.687078131737723e-05 -0.0026929264422506094
0.0004236559569159333 8.105834613644917e-05 -0.002527528442442417
0.005463010819075715 -0.0031931362160630685 -0.0009407475008629262
0.005189469722763263 -0.0030352071904726488 -0.0014008935540914536
0.004915928223176306 -0.0028772779320515854 -0.0018119877204298973
0.004642387126863854 -0.0027193489064611656 -0.002164957346394658
0.004368845627276897 -0.0025614196480401017 -0.002517926739528775
0.004095304530964444 -0.002403490622449682 -0.002625204622745514
0.003821763434651992 -0.002245561596859262 -0.0028731487691402435
0.0035482223383395397 -0.0020876325712688424 -0.0028143643867224455
0.003274680838752583 -0.001929703312847779 -0.0028715829830616713
0.0030011395408028785 -0.0017717741708420374 -0.002888772636651993
0.002727598444490426 -0.0016138451452516176 -0.002925516339018941
0.0024540571465407213 -0.001455916003245876 -0.0029427066911011934
0.0021805158485910165 -0.0012979868612401342 -0.0029409159906208515
0.0019069745506413121 -0.0011400577192343926 -0.0029391255229711533
0.0016334332526916075 -0.000982128577228651 -0.0028996982146054506
0.001359891954741903 -0.0008241994352229094 -0.002860270207747817
0.0010863507576108244 -0.0006662703514248287 -0.0028397233691066504
0.0008128093588424936 -0.0005083411512114261 -0.002735160058364272
0.0005392681113021021 -0.000350412038309515 -0.0029295983258634806
0.0002657268385570539 -0.00019248291085568862 -0.002357824007049203
-7.814416859792827e-06 -3.4553793406303967e-05 -0.002147252205759287
0.005305081697078857 -0.0034666774793563706 -0.0012474674731492996
0.005031540600766405 -0.003308748453765951 -0.0012868952471762896
0.004757999101179448 -0.003150819195344887 -0.001842624507844448
0.004484458004866996 -0.002992890169754467 -0.002150467596948147
0.004210916505280039 -0.002834960911333404 -0.002603035420179367
0.003937375408967586 -0.002677031885742984 -0.002585845999419689
0.003663834312655134 -0.0025191028601525643 -0.0028706020675599575
0.0033902932163426816 -0.0023611738345621445 -0.0028723925352096558
0.0031167517167557247 -0.002203244576141081 -0.0028741818387061357
0.0028432104188060203 -0.0020453154341353395 -0.002856992185115814
0.0025696693224935676 -0.0018873864085449195 -0.0029157770331948996
0.002296128024543863 -0.0017294572665391779 -0.002955205040052533
0.0020225867265941584 -0.0015715281245334363 -0.002897986676543951
0.001749045428644454 -0.0014135989825276945 -0.0030025492887943983
0.0014755041306947494 -0.0012556698405219529 -0.0030613341368734837
0.0012019628327450446 -0.0010977406985162113 -0.0028383817989379168
0.0009284216356139662 -0.0009398116147181306 -0.002897165948525071
0.0006548802368456354 -0.0007818824145047281 -0.002839947585016489
0.00038133898930524385 -0.000623953301602817 -0.0027326701674610376
0.00010779771656019573 -0.0004660241741489906 -0.002305280417203903
-0.00016574353885665097 -0.0003080950566996058 -0.002657664008438587
-0.00043928480372524393 -0.000150165933793253 -0.002409718930721283
-0.0007128261016749486 7.763208212488593e-06 -0.001982330111786723
0.0048736114878644935 -0.003582289701306342 -0.0011894209310412407
0.004600069988277537 -0.003424360442885279 -0.0015275180339813232
0.004326528891965085 -0.003266431417294859 -0.001954907551407814
0.0040529873923781275 -0.0031085021588737956 -0.0022930048871785402
0.003779446296065675 -0.0029505731332833754 -0.0026154406368732452
0.0035059051997532228 -0.0027926441076929556 -0.0027227182872593403
0.0032323641034407704 -0.002634715082102536 -0.0028299957048147917
0.0029588226038538136 -0.0024767858236814724 -0.002866738708689809
0.002685281305904109 -0.002318856681675731 -0.002923957072198391
0.0024117402095916564 -0.002160927656085311 -0.002981175435706973
0.002138198911641952 -0.0020029985140795695 -0.002941746963188052
0.0018646576136922474 -0.0018450693720738277 -0.0031646997667849064
0.0015911163157425426 -0.0016871402300680863 -0.0029541279654949903
0.001317575017792838 -0.0015292110880623445 -0.002971318317577243
0.0010440337198431334 -0.0013712819460566029 -0.0030080610886216164
0.000770492522712055 -0.0012133528622585222 -0.0028773213271051645
0.0004969511239437242 -0.0010554236620451197 -0.0028567747212946415
0.00022340987640333268 -0.0008974945491432085 -0.002699496690183878
-5.013139634171541e-05 -0.0007395654216893821 -0.002697706688195467
-0.00032367265175856216 -0.0005816363042399974 -0.0026389220729470253
-0.0005972139166271551 -0.0004237071813336445 -0.0025994933675974607
-0.0008707552145768597 -0.0002657780393279029 -0.0022916505113244057
0.004989223442171204 -0.004013760024846467 -0.0003543154743965716
0.004715682345858752 -0.003855830999256047 -0.00056488806148991
0.0044421408462717955 -0.003697901740834983 -0.0014136601239442827
0.004168599749959343 -0.0035399727152445634 -0.002016887767240405
0.003895058250372386 -0.0033820434568235 -0.002390747657045722
0.0036215171540599335 -0.00322411443123308 -0.0026518586091697216
0.003347976057747481 -0.0030661854056426604 -0.002615115372464061
0.003074434961435029 -0.0029082563800522407 -0.002825686940923333
0.002800893461848072 -0.002750327121631177 -0.003036258975043893
0.0025273521638983676 -0.002592397979625435 -0.0029000428039580584
0.002253811067585915 -0.0024344689540350154 -0.0029588269535452127
0.0019802697696362104 -0.002276539812029274 -0.0029220839496701956
0.0017067284716865058 -0.0021186106700235323 -0.0030793624464422464
0.001433187173736801 -0.0019606815280177907 -0.0030221440829336643
0.0011596458757870964 -0.001802752386012049 -0.0030239345505833626
0.000886104577837392 -0.0016448232440063075 -0.0030257238540798426
0.0006125633807063134 -0.0014868941602082268 -0.002918446436524391
0.00033902198193798264 -0.001328964959994824 -0.0028111690189689398
6.548073439759108e-05 -0.001171035847092913 -0.002831715624779463
-0.000208060538347457 -0.0010131067196390865 -0.0027744972612708807
-0.00048160179376430376 -0.0008551776021897019 -0.0026672198437154293
-0.0007551430586328967 -0.000697248479283349 -0.0026877657510340214
-0.0010286843565826013 -0.0005393193372776076 -0.002464812947437167
-0.001302225604122993 -0.0003813902243756964 -0.0024075950495898724
-0.0015757669020726975 -0.0002234610823699548 -0.002119641052559018
0.004284211704266054 -0.003971443038784688 -0.0011162874288856985
0.0040106706079536016 -0.003813514013194268 -0.001886485959403217
0.0037371291083666443 -0.003655584754773205 -0.0023631402291357517
0.003463588012054192 -0.003497655729182785 -0.0024993561673909426
0.0031900469157417396 -0.003339726703592365 -0.0029104507993906736
0.0029165058194292872 -0.003181797678001945 -0.0026998785324394703
0.0026429643198423304 -0.0030238684195808816 -0.002922831103205681
0.002369423021892626 -0.00286593927757514 -0.0029595752712339163
0.0020958819255801732 -0.0027080102519847203 -0.003016793169081211
0.0018223406276304688 -0.0025500811099789787 -0.0029962470289319754
0.0015487993296807643 -0.002392151967973237 -0.00305346492677927
0.0012752580317310594 -0.0022342228259674955 -0.0030706548132002354
0.0010017167337813548 -0.0020762936839617534 -0.003031226573511958
0.0007281754358316504 -0.001918364541956012 -0.0028739487752318382
0.00045463423870057177 -0.0017604354581579314 -0.0029812261927872896
0.00018109283993224108 -0.0016025062579445287 -0.002823948161676526
-9.244840760815051e-05 -0.0014445771450426175 -0.0028811655938625336
-0.0003659896803531986 -0.0012866480175887911 -0.0027766027487814426
-0.0006395309357700454 -0.0011287189001394065 -0.002793793100863695
-0.0009130722006386384 -0.0009707897772330539 -0.00260983151383698
-0.001186613498588343 -0.0008128606352273122 -0.002551047131419182
-0.0014601547461287345 -0.000654931522325401 -0.0025116191245615482
-0.001733696044078439 -0.0004970023803196594 -0.002250508638098836
-0.002007237241209518 -0.0003390732965215787 -0.001761983265168965
0.004126282562260312 -0.004244984336734392 -0.001632461207918823
0.0038527414659478595 -0.004087055311143973 -0.0016718899132683875
0.0035791999663609027 -0.003929126052722909 -0.0022751169744879007
0.0033056588700484503 -0.0037711970271324894 -0.0024590787943452597
0.003032117773735998 -0.0036132680015420696 -0.0027669218834489584
0.0027585766774235456 -0.00345533897595165 -0.0028257067315280437
0.002485035177836589 -0.003297409717530586 -0.0028274967335164547
0.002211493879886884 -0.0031394805755248444 -0.002886280883103609
0.0019379527835744316 -0.0029815515499344246 -0.0029450657311826944
0.001664411485624727 -0.002823622407928683 -0.0031290268525481224
0.0013908701876750224 -0.0026656932659229414 -0.0031308168545365334
0.0011173288897253178 -0.0025077641239172 -0.0028828729409724474
0.0008437875917756132 -0.0023498349819114583 -0.0030934447422623634
0.0005702462938259086 -0.0021919058399057167 -0.0030362263787537813
0.00029670509669483007 -0.002033976756107636 -0.003075655084103346
2.3163697926499357e-05 -0.0018760475558942333 -0.0028277100063860416
-0.0002503775496138922 -0.0017181184429923221 -0.002932272618636489
-0.0005239188223589403 -0.0015601893155384957 -0.0027960564475506544
-0.0007974600777757871 -0.001402260198089111 -0.0032106873113662004
-0.00107100134264438 -0.0012443310751827582 -0.0027340336237102747
-0.0013445426405940847 -0.0010864019331770169 -0.002411597641184926
-0.0016180838881344763 -0.0009284728202751056 -0.0026221696753054857
-0.001891625186084181 -0.000770543678269364 -0.0024567716754972935
-0.0021651663832152595 -0.0006126145944712832 -0.002349494257941842
-0.002438707681164964 -0.0004546854524655416 -0.002101549878716469
0.003694812323942118 -0.004360596609093677 -0.0015446388861164453
0.003421270824355161 -0.0042026673506726136 -0.001988371135666967
0.0031477297280427087 -0.004044738325082194 -0.0022941578645259146
0.0028741886317302564 -0.003886809299491774 -0.0027215471491217618
0.002600647535417804 -0.0037288802739013542 -0.0027387368027120833
0.002327106035830847 -0.003570951015480291 -0.0028749536722898488
0.0020535647378811424 -0.0034130218734745492 -0.0027703903615474705
0.00178002364156869 -0.0032550928478841295 -0.002964828629046679
0.0015064823436189854 -0.003097163705878388 -0.0031302263960242276
0.0012329410456692808 -0.0029392345638726463 -0.003090798389166594
0.0009593997477195762 -0.0027813054218669047 -0.003032014006748796
0.0006858584497698716 -0.0026233762798611626 -0.003068757010623813
0.000412317151820167 -0.002465447137855421 -0.0029380170162767176
0.00013877595468908847 -0.0023075180540573404 -0.0029952356126159434
-0.00013476544407924223 -0.002149588853843938 -0.0028906727675348525
-0.0004083066916196338 -0.0019916597409420267 -0.0029078626539558177
-0.0006818479643646819 -0.0018337306134882003 -0.0027239015325903897
-0.0009553892197815287 -0.0016758014960388157 -0.0027410911861807112
-0.0012289304846501215 -0.0015178723731324628 -0.002720545278862119
-0.001502471782599826 -0.0013599432311267212 -0.0026811168063431983
-0.001776013030140218 -0.0012020141182248103 -0.002622331958264113
-0.0020495543280899223 -0.0010440849762190685 -0.002517769113183022
-0.002323095525221001 -0.0008861558924209878 -0.002458984730765224
-0.0025966368231707055 -0.0007282267504152462 -0.002301706233993173
-0.0028701780203017843 -0.0005702976666171655 -0.002242921851575375
-0.0031437193182514886 -0.0004123685246114239 -0.0017543971771374347
0.0035368832401440372 -0.004634137806224756 -0.001482342602685094
0.0032633417405570804 -0.004476208547803692 -0.0019162100506946447
0.002989800644244628 -0.004318279522213272 -0.0021773204207420353
0.0027162595479321757 -0.004160350496622852 -0.002591951517388225
0.0024427184516197234 -0.004002421471032433 -0.0027759128715842967
0.0021691769520327665 -0.003844492212611369 -0.0028804750181734566
0.001895635654083062 -0.0036865630706056276 -0.0029010216239839797
0.0016220945577706094 -0.003528634045015208 -0.002959807170554996
0.0013485532598209048 -0.0033707049030094662 -0.0029992347117513423
0.0010750119618712002 -0.0032127757610037246 -0.0030197813175618653
0.0008014706639214956 -0.003054846618997983 -0.003059209324419499
0.000527929365971791 -0.0028969174769922414 -0.0031179934740066533
0.0002543880680220863 -0.0027389883349865 -0.0030812507029622798
-1.915312910899221e-05 -0.002581059251188419 -0.003083041170611978
-0.00029269452787732294 -0.0024231300509750166 -0.0029468243010342125
-0.0005662357754177145 -0.0022652009380731055 -0.00292963394895196
-0.0008397770481627626 -0.002107271810619279 -0.0028724160511046652
-0.0011133183035796092 -0.0019493426931698943 -0.0029312004335224633
-0.0013868595684482022 -0.0017914135702635414 -0.002736762631684542
-0.0016604008663979068 -0.0016334844282577998 -0.002629484981298447
-0.0019339421139382984 -0.0014755553153558887 -0.0026882691308856015
-0.002207483411888003 -0.0013176261733501469 -0.002631051000207663
-0.0024810246090190818 -0.0011596970895520662 -0.002573833102360368
-0.002754565906968786 -0.0010017679475463246 -0.0024084355682134633
-0.0030281071040998645 -0.0008438388637482439 -0.002391244983300567
-0.0033016484020495693 -0.0006859097217425022 -0.002023995388299227
-0.003575189699999274 -0.0005279805797367606 -0.0020445419941097502
0.003105412598551339 -0.004749749845753397 -0.0016461480408906939
0.0028318715022388865 -0.004591820820162977 -0.002013397635892034
0.002558330405926434 -0.004433891794572558 -0.002319183666259051
0.0022847893096139818 -0.004275962768982138 -0.0026071371976286177
0.002011247810027025 -0.0041180335105610736 -0.0028300902340561156
0.0017377065120773203 -0.003960104368555332 -0.0028668332379311328
0.0014641654157648678 -0.0038021753429649126 -0.002924051601439715
0.0011906241178151632 -0.003644246200959171 -0.002903505694121123
0.0009170828198654586 -0.0034863170589534294 -0.0029402491636574273
0.000643541521915754 -0.003328387916947688 -0.0030475265812128787
0.0003700002239660493 -0.003170458774941946 -0.0029429632704705004
9.645892601634472e-05 -0.0030125296329362042 -0.0030001816339790825
-0.0001770822711147338 -0.0028546005491381235 -0.0028956190217286353
-0.00045062366988306453 -0.002696671348924721 -0.0028750724159181122
-0.0007241649174234561 -0.00253874223602281 -0.0027443324215710167
-0.000997706190168504 -0.0023808131085689835 -0.0026135928928852086
-0.0012712474455853508 -0.002222883991119599 -0.002778990892693401
-0.0015447887104539438 -0.002064954868213246 -0.0027772004250437026
-0.0018183300084036484 -0.0019070257262075044 -0.002737772418186069
-0.00209187125594404 -0.0017490966133055933 -0.0026789875701069836
-0.0023654125538937446 -0.0015911674712998515 -0.002620202954858542
-0.0026389537510248234 -0.0014332383875017708 -0.002580775180831552
-0.0029124950489745277 -0.0012753092454960292 -0.0024762121029198174
-0.003186036246105606 -0.0011173801616979485 -0.0024367836304008965
-0.003459577544055311 -0.0009594510196922068 -0.0023779992479830985
-0.0037331188420050157 -0.0008015218776864652 -0.002273436170071364
-0.00400666013995472 -0.0006435927356807236 -0.0020123256836086516
0.002947483572960919 -0.0050232909420658495 -0.0018691781442612414
0.0026739424766484667 -0.00486536191647543 -0.0018897247500717644
0.0024004013803360143 -0.00470743289088501 -0.0023955812212079768
0.002126860284023562 -0.00454950386529459 -0.0025795425754040484
0.0018533187844366051 -0.004391574606873526 -0.0028406530618667607
0.0015797774864869006 -0.004233645464867784 -0.0028800817672163252
0.001306236390174448 -0.0040757164392773645 -0.002919509774073959
0.0010326950922247434 -0.003917787297271623 -0.0029782939236611132
0.0007591537942750388 -0.003759858155265882 -0.0029988405294716363
0.0004856124963253342 -0.00360192901326014 -0.0030382687691599135
0.00021207119837562957 -0.003443999871254398 -0.0030210788827389483
-6.147009957407505e-05 -0.0032860707292486566 -0.003003888530656696
-0.0003350112967051536 -0.003128141645450576 -0.003108451841399074
-0.0006085526954734843 -0.0029702124452371734 -0.002943053608760238
-0.0008820939430138759 -0.0028122833323352622 -0.0028858357109129433
-0.0011556352157589239 -0.002654354204881436 -0.002849092241376639
-0.0014291764711757706 -0.002496425087432051 -0.0028885202482342724
-0.0017027177360443636 -0.0023384959645256984 -0.0028313018847256903
-0.001976259033994068 -0.0021805668225199568 -0.0028330923523753886
-0.00224980028153446 -0.0020226377096180456 -0.002775873756036163
-0.0025233415794841643 -0.0018647085676123038 -0.0027391309849917893
-0.002796882776615243 -0.0017067794838142231 -0.0026029143482446675
-0.0030704240745649475 -0.0015488503418084815 -0.001773270196281374
-0.003343965271696026 -0.0013909212580104008 -0.0025041606277227406
-0.0036175065696457307 -0.0012329921160046592 -0.002486970275640488
-0.0038910478675954355 -0.0010750629739989177 -0.002429751912131906
-0.00416458916554514 -0.000917133831993176 -0.0022067991085350518
-0.004438130463494845 -0.0007592046899874347 -0.0017466535791754727
0.0025160133346427247 -0.005138903214425135 -0.0016930353594943885
0.0022424722383302723 -0.004980974188834714 -0.002120424993336201
0.00196893114201782 -0.004823045163244295 -0.0024733948521316056
0.0016953896424308633 -0.004665115904823231 -0.0027958301361650233
0.0014218483444811587 -0.0045071867628174896 -0.0028530478011816744
0.0011483072481687062 -0.00434925773722707 -0.00279426365159452
0.0008747659502190016 -0.004191328595221328 -0.003017216688022018
0.000601224652269297 -0.004033399453215587 -0.002996670082211495
0.0003276833543195924 -0.003875470311209845 -0.0029572413768619303
