ply
format ascii 1.0
element vertex 766
property float x
property float y
property float z
end_header
0.004194783978164196 -0.010734071023762226 0.08219999819993973
0.00440426217392087 -0.010721012018620968 0.08209999650716782
0.0046075922437012196 -0.0106948958709836 0.08190000057220459
0.004809875972568989 -0.010668777860701084 0.08169999718666077
0.005017263349145651 -0.0106557197868824 0.08159999549388885
0.005224127788096666 -0.010642661713063717 0.08150000125169754
0.00543047022074461 -0.010629602707922459 0.08139999955892563
0.005636288784444332 -0.010616544634103775 0.08129999786615372
0.00584158580750227 -0.010603485628962517 0.0811999961733818
0.006046358961611986 -0.010590426623821259 0.0810999944806099
0.006235176231712103 -0.010551251471042633 0.08079999685287476
0.006430404260754585 -0.010525135323405266 0.08060000091791153
0.00663282535970211 -0.010512077249586582 0.08049999922513962
0.006843224633485079 -0.010512077249586582 0.08049999922513962
0.007044862024486065 -0.010499018244445324 0.0803999975323677
0.007255000062286854 -0.010499018244445324 0.0803999975323677
0.00746513856574893 -0.010499018244445324 0.0803999975323677
0.007665730081498623 -0.010485959239304066 0.0802999958395958
0.007865799590945244 -0.010472902096807957 0.08020000159740448
0.008065345697104931 -0.010459843091666698 0.08009999990463257
0.008264369331300259 -0.01044678408652544 0.07999999821186066
0.008473461493849754 -0.01044678408652544 0.07999999821186066
0.008682554587721825 -0.01044678408652544 0.07999999821186066
0.00888053234666586 -0.010433726012706757 0.07989999651908875
0.009089364670217037 -0.010433726012706757 0.07989999651908875
0.009298195131123066 -0.010433726012706757 0.07989999651908875
0.009518925100564957 -0.01044678408652544 0.07999999821186066
0.009728018194437027 -0.01044678408652544 0.07999999821186066
0.009937111288309097 -0.01044678408652544 0.07999999821186066
0.010146204382181168 -0.01044678408652544 0.07999999821186066
0.010342351160943508 -0.010433726012706757 0.07989999651908875
0.010551183484494686 -0.010433726012706757 0.07989999651908875
0.01074654795229435 -0.010420667007565498 0.07979999482631683
0.01095511857420206 -0.010420667007565498 0.07979999482631683
0.011149698868393898 -0.010407608933746815 0.07970000058412552
0.011358007788658142 -0.010407608933746815 0.07970000058412552
0.011551803909242153 -0.010394550859928131 0.07959999889135361
0.011759850196540356 -0.010394550859928131 0.07959999889135361
0.011952863074839115 -0.010381491854786873 0.0794999971985817
0.012160649523139 -0.010381491854786873 0.0794999971985817
0.012368434108793736 -0.010381491854786873 0.0794999971985817
0.012560401111841202 -0.010368432849645615 0.07939999550580978
0.01276792585849762 -0.010368432849645615 0.07939999550580978
0.012942766770720482 -0.010342316702008247 0.07919999957084656
0.01314976904541254 -0.010342316702008247 0.07919999957084656
0.013339905999600887 -0.01032925769686699 0.07909999787807465
0.013546645641326904 -0.01032925769686699 0.07909999787807465
0.013735998421907425 -0.010316199623048306 0.07899999618530273
0.013942478224635124 -0.010316199623048306 0.07899999618530273
0.014148957096040249 -0.010316199623048306 0.07899999618530273
0.014561914838850498 -0.010316199623048306 0.07899999618530273
0.014768394641578197 -0.010316199623048306 0.07899999618530273
0.014993828721344471 -0.01032925769686699 0.07909999787807465
0.015200569294393063 -0.01032925769686699 0.07909999787807465
0.015426788479089737 -0.010342316702008247 0.07919999957084656
0.01563378982245922 -0.010342316702008247 0.07919999957084656
0.015860794112086296 -0.010355375707149506 0.07930000126361847
0.016047794371843338 -0.010342316702008247 0.07919999957084656
0.016295840963721275 -0.010368432849645615 0.07939999550580978
0.016503367573022842 -0.010368432849645615 0.07939999550580978
0.01671089231967926 -0.010368432849645615 0.07939999550580978
0.01691841520369053 -0.010368432849645615 0.07939999550580978
0.01714750938117504 -0.010381491854786873 0.0794999971985817
0.0173552967607975 -0.010381491854786873 0.0794999971985817
0.01756308227777481 -0.010381491854786873 0.0794999971985817
0.01777086779475212 -0.010381491854786873 0.0794999971985817
0.018001267686486244 -0.010394550859928131 0.07959999889135361
0.018209315836429596 -0.010394550859928131 0.07959999889135361
0.0184173621237278 -0.010394550859928131 0.07959999889135361
0.01862541027367115 -0.010394550859928131 0.07959999889135361
0.018880777060985565 -0.010420667007565498 0.07979999482631683
0.0190893467515707 -0.010420667007565498 0.07979999482631683
0.019322099164128304 -0.010433726012706757 0.07989999651908875
0.01953093148767948 -0.010433726012706757 0.07989999651908875
0.01973976194858551 -0.010433726012706757 0.07989999651908875
0.019948594272136688 -0.010433726012706757 0.07989999651908875
0.020132197067141533 -0.010420667007565498 0.07979999482631683
0.020315278321504593 -0.010407608933746815 0.07970000058412552
0.0222946610301733 -0.010263965465128422 0.07859999686479568
0.022500094026327133 -0.010263965465128422 0.07859999686479568
0.025514159351587296 -0.011034416034817696 0.08449999988079071
0.000336382508976385 -0.010800763964653015 0.0843999981880188
0.0005556554533541203 -0.010775169357657433 0.08419999480247498
0.0007729616481810808 -0.010736778378486633 0.08389999717473984
0.0009886997286230326 -0.010698387399315834 0.0835999995470047
0.0012043134775012732 -0.010672792792320251 0.08339999616146088
0.001422292785719037 -0.010672792792320251 0.08339999616146088
0.0016383050242438912 -0.01065999548882246 0.08329999446868896
0.001853794907219708 -0.010647199116647243 0.08320000022649765
0.0020687617361545563 -0.010634401813149452 0.08309999853372574
0.0022832059767097235 -0.010621604509651661 0.08299999684095383
0.002497127279639244 -0.01060880720615387 0.08289999514818192
0.002710526343435049 -0.010596010833978653 0.0828000009059906
0.0029198674019426107 -0.01057041622698307 0.08259999752044678
0.0031319588888436556 -0.010557618923485279 0.08249999582767487
0.0033475859090685844 -0.010557618923485279 0.08249999582767487
0.003558893920853734 -0.010544822551310062 0.08240000158548355
0.0037742597050964832 -0.010544822551310062 0.08240000158548355
0.003984782844781876 -0.010532025247812271 0.08229999989271164
0.004194783978164196 -0.01051922794431448 0.08219999819993973
0.004398897755891085 -0.010493633337318897 0.0819999948143959
0.0046075922437012196 -0.01048083696514368 0.08190000057220459
0.004809875972568989 -0.010455242358148098 0.08169999718666077
0.005017263349145651 -0.010442445054650307 0.08159999549388885
0.005224127788096666 -0.01042964868247509 0.08150000125169754
0.00543047022074461 -0.010416851378977299 0.08139999955892563
0.00564322154968977 -0.010416851378977299 0.08139999955892563
0.005848779808729887 -0.010404054075479507 0.08129999786615372
0.006046358961611986 -0.01037845853716135 0.0810999944806099
0.006242893170565367 -0.010352864861488342 0.08089999854564667
0.0064383819699287415 -0.01032727025449276 0.08069999516010284
0.00663282535970211 -0.010301676578819752 0.08049999922513962
0.006843224633485079 -0.010301676578819752 0.08049999922513962
0.007044862024486065 -0.01028887927532196 0.0803999975323677
0.007255000062286854 -0.01028887927532196 0.0803999975323677
0.007455853279680014 -0.01027608197182417 0.0802999958395958
0.007665730081498623 -0.01027608197182417 0.0802999958395958
0.007865799590945244 -0.010263285599648952 0.08020000159740448
0.008065345697104931 -0.010250488296151161 0.08009999990463257
0.008264369331300259 -0.01023769099265337 0.07999999821186066
0.008473461493849754 -0.01023769099265337 0.07999999821186066
0.008671700954437256 -0.010224893689155579 0.07989999651908875
0.00888053234666586 -0.010224893689155579 0.07989999651908875
0.009089364670217037 -0.010224893689155579 0.07989999651908875
0.009298195131123066 -0.010224893689155579 0.07989999651908875
0.00950702652335167 -0.010224893689155579 0.07989999651908875
0.009715857915580273 -0.010224893689155579 0.07989999651908875
0.009924689307808876 -0.010224893689155579 0.07989999651908875
0.01013352070003748 -0.010224893689155579 0.07989999651908875
0.010342351160943508 -0.010224893689155579 0.07989999651908875
0.010537977330386639 -0.010212096385657787 0.07979999482631683
0.01074654795229435 -0.010212096385657787 0.07979999482631683
0.010941390879452229 -0.01019930001348257 0.07970000058412552
0.011149698868393898 -0.01019930001348257 0.07970000058412552
0.011343756690621376 -0.01018650270998478 0.07959999889135361
0.011551803909242153 -0.01018650270998478 0.07959999889135361
0.011759850196540356 -0.01018650270998478 0.07959999889135361
0.011952863074839115 -0.010173705406486988 0.0794999971985817
0.012160649523139 -0.010173705406486988 0.0794999971985817
0.012368434108793736 -0.010173705406486988 0.0794999971985817
0.012560401111841202 -0.010160908102989197 0.07939999550580978
0.01276792585849762 -0.010160908102989197 0.07939999550580978
0.012942766770720482 -0.010135314427316189 0.07919999957084656
0.013133165426552296 -0.010122517123818398 0.07909999787807465
0.013339905999600887 -0.010122517123818398 0.07909999787807465
0.013546645641326904 -0.010122517123818398 0.07909999787807465
0.013735998421907425 -0.010109719820320606 0.07899999618530273
0.013942478224635124 -0.010109719820320606 0.07899999618530273
0.014148957096040249 -0.010109719820320606 0.07899999618530273
0.014355435967445374 -0.010109719820320606 0.07899999618530273
0.014768394641578197 -0.010109719820320606 0.07899999618530273
0.014974872581660748 -0.010109719820320606 0.07899999618530273
0.015181352384388447 -0.010109719820320606 0.07899999618530273
0.015426788479089737 -0.010135314427316189 0.07919999957084656
0.01563378982245922 -0.010135314427316189 0.07919999957084656
0.015840791165828705 -0.010135314427316189 0.07919999957084656
0.016047794371843338 -0.010135314427316189 0.07919999957084656
0.01627531833946705 -0.01014811173081398 0.07930000126361847
0.016503367573022842 -0.010160908102989197 0.07939999550580978
0.018001267686486244 -0.01018650270998478 0.07959999889135361
0.018440499901771545 -0.01019930001348257 0.07970000058412552
0.01862541027367115 -0.01018650270998478 0.07959999889135361
0.018880777060985565 -0.010212096385657787 0.07979999482631683
0.019113268703222275 -0.010224893689155579 0.07989999651908875
0.019322099164128304 -0.010224893689155579 0.07989999651908875
0.01955537684261799 -0.01023769099265337 0.07999999821186066
0.01973976194858551 -0.010224893689155579 0.07989999651908875
0.019948594272136688 -0.010224893689155579 0.07989999651908875
0.020132197067141533 -0.010212096385657787 0.07979999482631683
0.020679868757724762 -0.010173705406486988 0.0794999971985817
0.020936230197548866 -0.010096922516822815 0.07889999449253082
0.021115653216838837 -0.010084126144647598 0.07880000025033951
0.021472927182912827 -0.010058531537652016 0.07859999686479568
0.021650779992341995 -0.010045734234154224 0.07849999517202377
0.022266294807195663 -0.010045734234154224 0.07849999517202377
0.022500094026327133 -0.010058531537652016 0.07859999686479568
0.0003359839611221105 -0.010567635297775269 0.08429999649524689
0.0005549955531023443 -0.01054256409406662 0.08410000056028366
0.0007720403373241425 -0.010504956357181072 0.08379999548196793
0.0009875170653685927 -0.0104673495516181 0.08349999785423279
0.0012043134775012732 -0.0104548130184412 0.08339999616146088
0.001422292785719037 -0.0104548130184412 0.08339999616146088
0.0016383050242438912 -0.010442277416586876 0.08329999446868896
0.001853794907219708 -0.010429741814732552 0.08320000022649765
0.0020687617361545563 -0.010417206212878227 0.08309999853372574
0.0022832059767097235 -0.010404670611023903 0.08299999684095383
0.002494115149602294 -0.010379599407315254 0.0828000009059906
0.002710526343435049 -0.010379599407315254 0.0828000009059906
0.0029198674019426107 -0.010354527272284031 0.08259999752044678
0.0031319588888436556 -0.010341991670429707 0.08249999582767487
0.0033475859090685844 -0.010341991670429707 0.08249999582767487
0.003558893920853734 -0.010329456068575382 0.08240000158548355
0.0037742597050964832 -0.010329456068575382 0.08240000158548355
0.003984782844781876 -0.010316920466721058 0.08229999989271164
0.004194783978164196 -0.010304384864866734 0.08219999819993973
0.004398897755891085 -0.01027931272983551 0.0819999948143959
0.0046019661240279675 -0.010254241526126862 0.08179999887943268
0.004809875972568989 -0.010241705924272537 0.08169999718666077
0.005017263349145651 -0.010229169391095638 0.08159999549388885
0.005224127788096666 -0.010216634720563889 0.08150000125169754
0.00543047022074461 -0.010204099118709564 0.08139999955892563
0.00564322154968977 -0.010204099118709564 0.08139999955892563
0.005848779808729887 -0.010191562585532665 0.08129999786615372
0.006046358961611986 -0.010166490450501442 0.0810999944806099
0.0064383819699287415 -0.010116348043084145 0.08069999516010284
0.007053624372929335 -0.010091276839375496 0.08049999922513962
0.007255000062286854 -0.010078741237521172 0.0803999975323677
0.00746513856574893 -0.010078741237521172 0.0803999975323677
0.007665730081498623 -0.010066204704344273 0.0802999958395958
0.007875606417655945 -0.010066204704344273 0.0802999958395958
0.008065345697104931 -0.010041134431958199 0.08009999990463257
0.008264369331300259 -0.0100285978987813 0.07999999821186066
0.008473461493849754 -0.0100285978987813 0.07999999821186066
0.008682554587721825 -0.0100285978987813 0.07999999821186066
0.00888053234666586 -0.010016062296926975 0.07989999651908875
0.009089364670217037 -0.010016062296926975 0.07989999651908875
0.009298195131123066 -0.010016062296926975 0.07989999651908875
0.009495127946138382 -0.010003525763750076 0.07979999482631683
0.009703697636723518 -0.010003525763750076 0.07979999482631683
0.009912267327308655 -0.010003525763750076 0.07979999482631683
0.010120837949216366 -0.010003525763750076 0.07979999482631683
0.010329407639801502 -0.010003525763750076 0.07979999482631683
0.010537977330386639 -0.010003525763750076 0.07979999482631683
0.010733081959187984 -0.009990991093218327 0.07970000058412552
0.010941390879452229 -0.009990991093218327 0.07970000058412552
0.011149698868393898 -0.009990991093218327 0.07970000058412552
0.011343756690621376 -0.009978455491364002 0.07959999889135361
0.011551803909242153 -0.009978455491364002 0.07959999889135361
0.01174507662653923 -0.009965918958187103 0.0794999971985817
0.011952863074839115 -0.009965918958187103 0.0794999971985817
0.012160649523139 -0.009965918958187103 0.0794999971985817
0.012368434108793736 -0.009965918958187103 0.0794999971985817
0.012560401111841202 -0.009953383356332779 0.07939999550580978
0.01276792585849762 -0.009953383356332779 0.07939999550580978
0.012942766770720482 -0.00992831215262413 0.07919999957084656
0.01314976904541254 -0.00992831215262413 0.07919999957084656
0.013339905999600887 -0.009915776550769806 0.07909999787807465
0.013546645641326904 -0.009915776550769806 0.07909999787807465
0.013735998421907425 -0.009903240017592907 0.07899999618530273
0.013942478224635124 -0.009903240017592907 0.07899999618530273
0.014148957096040249 -0.009903240017592907 0.07899999618530273
0.014355435967445374 -0.009903240017592907 0.07899999618530273
0.014561914838850498 -0.009903240017592907 0.07899999618530273
0.014768394641578197 -0.009903240017592907 0.07899999618530273
0.014974872581660748 -0.009903240017592907 0.07899999618530273
0.015200569294393063 -0.009915776550769806 0.07909999787807465
0.015426788479089737 -0.00992831215262413 0.07919999957084656
0.01563378982245922 -0.00992831215262413 0.07919999957084656
0.015840791165828705 -0.00992831215262413 0.07919999957084656
0.016047794371843338 -0.00992831215262413 0.07919999957084656
0.01627531833946705 -0.00994084868580103 0.07930000126361847
0.016503367573022842 -0.009953383356332779 0.07939999550580978
0.01671089231967926 -0.009953383356332779 0.07939999550580978
0.01691841520369053 -0.009953383356332779 0.07939999550580978
0.01714750938117504 -0.009965918958187103 0.0794999971985817
0.0173552967607975 -0.009965918958187103 0.0794999971985817
0.01756308227777481 -0.009965918958187103 0.0794999971985817
0.01777086779475212 -0.009965918958187103 0.0794999971985817
0.018001267686486244 -0.009978455491364002 0.07959999889135361
0.018209315836429596 -0.009978455491364002 0.07959999889135361
0.0184173621237278 -0.009978455491364002 0.07959999889135361
0.01864880882203579 -0.009990991093218327 0.07970000058412552
0.018880777060985565 -0.010003525763750076 0.07979999482631683
0.019113268703222275 -0.010016062296926975 0.07989999651908875
0.019322099164128304 -0.010016062296926975 0.07989999651908875
0.01955537684261799 -0.0100285978987813 0.07999999821186066
0.01976446807384491 -0.0100285978987813 0.07999999821186066
0.019948594272136688 -0.010016062296926975 0.07989999651908875
0.020132197067141533 -0.010003525763750076 0.07979999482631683
0.020289788022637367 -0.009978455491364002 0.07959999889135361
0.02049783617258072 -0.009978455491364002 0.07959999889135361
0.020679868757724762 -0.009965918958187103 0.0794999971985817
0.020808834582567215 -0.00992831215262413 0.07919999957084656
0.020936230197548866 -0.009890704415738583 0.07889999449253082
0.021267492324113846 -0.00985309761017561 0.07859999686479568
0.021445607766509056 -0.00984056107699871 0.07849999517202377
0.021650779992341995 -0.00984056107699871 0.07849999517202377
0.02182810939848423 -0.009828026406466961 0.07840000092983246
0.022033020853996277 -0.009828026406466961 0.07840000092983246
0.022266294807195663 -0.00984056107699871 0.07849999517202377
0.022471467033028603 -0.00984056107699871 0.07849999517202377
0.023439906537532806 -0.009990991093218327 0.07970000058412552
0.025083772838115692 -0.010504956357181072 0.08379999548196793
0.0003359839611221105 -0.010347304865717888 0.08429999649524689
0.0005543356528505683 -0.010310481302440166 0.08399999886751175
0.0007701978320255876 -0.010261383838951588 0.0835999995470047
0.0009875170653685927 -0.01024910993874073 0.08349999785423279
0.0012043134775012732 -0.010236835107207298 0.08339999616146088
0.0014205873012542725 -0.010224560275673866 0.08329999446868896
0.0016383050242438912 -0.010224560275673866 0.08329999446868896
0.001853794907219708 -0.010212286375463009 0.08320000022649765
0.0020687617361545563 -0.010200012475252151 0.08309999853372574
0.002280455082654953 -0.010175462812185287 0.08289999514818192
0.002494115149602294 -0.01016318891197443 0.0828000009059906
0.0027072527445852757 -0.010150915011763573 0.08269999921321869
0.0029198674019426107 -0.01013864018023014 0.08259999752044678
0.0031319588888436556 -0.010126365348696709 0.08249999582767487
0.0033435283694416285 -0.010114091448485851 0.08240000158548355
0.003558893920853734 -0.010114091448485851 0.08240000158548355
0.0037742597050964832 -0.010114091448485851 0.08240000158548355
0.003984782844781876 -0.010101817548274994 0.08229999989271164
0.0041896807961165905 -0.01007726788520813 0.08209999650716782
0.004398897755891085 -0.010064993053674698 0.0819999948143959
0.0046019661240279675 -0.010040445253252983 0.08179999887943268
0.004809875972568989 -0.010028170421719551 0.08169999718666077
0.005017263349145651 -0.010015895590186119 0.08159999549388885
0.005224127788096666 -0.010003622621297836 0.08150000125169754
0.00543047022074461 -0.009991347789764404 0.08139999955892563
0.00564322154968977 -0.009991347789764404 0.08139999955892563
0.005848779808729887 -0.009979072958230972 0.08129999786615372
0.00605381466448307 -0.00996679812669754 0.0811999961733818
0.007053624372929335 -0.009880878031253815 0.08049999922513962
0.007264023646712303 -0.009880878031253815 0.08049999922513962
0.00746513856574893 -0.009868603199720383 0.0803999975323677
0.007675276603549719 -0.009868603199720383 0.0803999975323677
0.007875606417655945 -0.009856329299509525 0.0802999958395958
0.008085483685135841 -0.009856329299509525 0.0802999958395958
0.008285030722618103 -0.009844055399298668 0.08020000159740448
0.008484053425490856 -0.009831780567765236 0.08009999990463257
0.008693408221006393 -0.009831780567765236 0.08009999990463257
0.008891647681593895 -0.009819505736231804 0.07999999821186066
0.009100740775465965 -0.009819505736231804 0.07999999821186066
0.009298195131123066 -0.009807231836020947 0.07989999651908875
0.009495127946138382 -0.009794957004487514 0.07979999482631683
0.009703697636723518 -0.009794957004487514 0.07979999482631683
0.009912267327308655 -0.009794957004487514 0.07979999482631683
0.010120837949216366 -0.009794957004487514 0.07979999482631683
0.010329407639801502 -0.009794957004487514 0.07979999482631683
0.01052477303892374 -0.009782683104276657 0.07970000058412552
0.010733081959187984 -0.009782683104276657 0.07970000058412552
0.010941390879452229 -0.009782683104276657 0.07970000058412552
0.011135708540678024 -0.0097704092040658 0.07959999889135361
0.011343756690621376 -0.0097704092040658 0.07959999889135361
0.011551803909242153 -0.0097704092040658 0.07959999889135361
0.01174507662653923 -0.009758134372532368 0.0794999971985817
0.011952863074839115 -0.009758134372532368 0.0794999971985817
0.012160649523139 -0.009758134372532368 0.0794999971985817
0.012368434108793736 -0.009758134372532368 0.0794999971985817
0.012560401111841202 -0.009745859540998936 0.07939999550580978
0.012751846574246883 -0.009733585640788078 0.07930000126361847
0.01295910868793726 -0.009733585640788078 0.07930000126361847
0.01314976904541254 -0.009721311740577221 0.07919999957084656
0.013356770388782024 -0.009721311740577221 0.07919999957084656
0.013563771732151508 -0.009721311740577221 0.07919999957084656
0.013753386214375496 -0.009709036909043789 0.07909999787807465
0.013960126787424088 -0.009709036909043789 0.07909999787807465
0.014166868291795254 -0.009709036909043789 0.07909999787807465
0.01437360793352127 -0.009709036909043789 0.07909999787807465
0.014580348506569862 -0.009709036909043789 0.07909999787807465
0.014787089079618454 -0.009709036909043789 0.07909999787807465
0.015012784861028194 -0.009721311740577221 0.07919999957084656
0.015200569294393063 -0.009709036909043789 0.07909999787807465
0.015426788479089737 -0.009721311740577221 0.07919999957084656
0.01563378982245922 -0.009721311740577221 0.07919999957084656
0.015840791165828705 -0.009721311740577221 0.07919999957084656
0.016047794371843338 -0.009721311740577221 0.07919999957084656
0.01627531833946705 -0.009733585640788078 0.07930000126361847
0.016482582315802574 -0.009733585640788078 0.07930000126361847
0.01671089231967926 -0.009745859540998936 0.07939999550580978
0.01691841520369053 -0.009745859540998936 0.07939999550580978
0.01714750938117504 -0.009758134372532368 0.0794999971985817
0.0173552967607975 -0.009758134372532368 0.0794999971985817
0.01756308227777481 -0.009758134372532368 0.0794999971985817
0.01779322139918804 -0.0097704092040658 0.07959999889135361
0.018001267686486244 -0.0097704092040658 0.07959999889135361
0.018209315836429596 -0.0097704092040658 0.07959999889135361
0.018440499901771545 -0.009782683104276657 0.07970000058412552
0.01864880882203579 -0.009782683104276657 0.07970000058412552
0.018904438242316246 -0.009807231836020947 0.07989999651908875
0.019137190654873848 -0.009819505736231804 0.07999999821186066
0.01934628374874592 -0.009819505736231804 0.07999999821186066
0.01955537684261799 -0.009819505736231804 0.07999999821186066
0.01976446807384491 -0.009819505736231804 0.07999999821186066
0.01997356116771698 -0.009819505736231804 0.07999999821186066
0.020132197067141533 -0.009794957004487514 0.07979999482631683
0.020315278321504593 -0.009782683104276657 0.07970000058412552
0.02049783617258072 -0.0097704092040658 0.07959999889135361
0.020679868757724762 -0.009758134372532368 0.0794999971985817
0.020808834582567215 -0.009721311740577221 0.07919999957084656
0.020936230197548866 -0.009684487245976925 0.07889999449253082
0.02108885534107685 -0.00965993944555521 0.0786999985575676
0.021267492324113846 -0.009647664614021778 0.07859999686479568
0.021445607766509056 -0.009635389782488346 0.07849999517202377
0.02162320166826248 -0.009623116813600063 0.07840000092983246
0.02182810939848423 -0.009623116813600063 0.07840000092983246
0.022033020853996277 -0.009623116813600063 0.07840000092983246
0.022237932309508324 -0.009623116813600063 0.07840000092983246
0.022471467033028603 -0.009635389782488346 0.07849999517202377
0.02267664112150669 -0.009635389782488346 0.07849999517202377
0.022910961881279945 -0.009647664614021778 0.07859999686479568
0.025552278384566307 -0.010298207402229309 0.08389999717473984
0.0003355853841640055 -0.010114959441125393 0.08419999480247498
0.0005536756943911314 -0.010078920982778072 0.08389999717473984
0.0007701978320255876 -0.010042881593108177 0.0835999995470047
0.000986334402114153 -0.010018855333328247 0.08339999616146088
0.0012043134775012732 -0.010018855333328247 0.08339999616146088
0.0014205873012542725 -0.010006842203438282 0.08329999446868896
0.0016363384202122688 -0.009994830004870892 0.08320000022649765
0.0018515667179599404 -0.009982816874980927 0.08309999853372574
0.0020662720780819654 -0.009970803745090961 0.08299999684095383
0.002280455082654953 -0.009958790615200996 0.08289999514818192
0.002494115149602294 -0.009946777485311031 0.0828000009059906
0.0027072527445852757 -0.009934764355421066 0.08269999921321869
0.0029198674019426107 -0.009922751225531101 0.08259999752044678
0.0031319588888436556 -0.009910738095641136 0.08249999582767487
0.0033435283694416285 -0.009898725897073746 0.08240000158548355
0.003558893920853734 -0.009898725897073746 0.08240000158548355
0.0037696792278438807 -0.00988671276718378 0.08229999989271164
0.003979941364377737 -0.009874699637293816 0.08219999819993973
0.0041896807961165905 -0.00986268650740385 0.08209999650716782
0.004398897755891085 -0.009850673377513885 0.0819999948143959
0.0046019661240279675 -0.009826647117733955 0.08179999887943268
0.004809875972568989 -0.00981463398784399 0.08169999718666077
0.005017263349145651 -0.009802620857954025 0.08159999549388885
0.005224127788096666 -0.009790608659386635 0.08150000125169754
0.00543047022074461 -0.00977859552949667 0.08139999955892563
0.00564322154968977 -0.00977859552949667 0.08139999955892563
0.005848779808729887 -0.009766582399606705 0.08129999786615372
0.006061269901692867 -0.009766582399606705 0.08129999786615372
0.006860225927084684 -0.009694503620266914 0.08069999516010284
0.007264023646712303 -0.009670478291809559 0.08049999922513962
0.007474423851817846 -0.009670478291809559 0.08049999922513962
0.007684823125600815 -0.009670478291809559 0.08049999922513962
0.00788541417568922 -0.009658465161919594 0.0803999975323677
0.008095553144812584 -0.009658465161919594 0.0803999975323677
0.008295360021293163 -0.009646452032029629 0.0802999958395958
0.00850523728877306 -0.009646452032029629 0.0802999958395958
0.008704261854290962 -0.009634439833462238 0.08020000159740448
0.008902762085199356 -0.009622426703572273 0.08009999990463257
0.009100740775465965 -0.009610412642359734 0.07999999821186066
0.009309832938015461 -0.009610412642359734 0.07999999821186066
0.00950702652335167 -0.009598399512469769 0.07989999651908875
0.009715857915580273 -0.009598399512469769 0.07989999651908875
0.009912267327308655 -0.009586386382579803 0.07979999482631683
0.010120837949216366 -0.009586386382579803 0.07979999482631683
0.010329407639801502 -0.009586386382579803 0.07979999482631683
0.010537977330386639 -0.009586386382579803 0.07979999482631683
0.010733081959187984 -0.009574374184012413 0.07970000058412552
0.010941390879452229 -0.009574374184012413 0.07970000058412552
0.011135708540678024 -0.009562361054122448 0.07959999889135361
0.011343756690621376 -0.009562361054122448 0.07959999889135361
0.011551803909242153 -0.009562361054122448 0.07959999889135361
0.01174507662653923 -0.009550347924232483 0.0794999971985817
0.011952863074839115 -0.009550347924232483 0.0794999971985817
0.012160649523139 -0.009550347924232483 0.0794999971985817
0.012368434108793736 -0.009550347924232483 0.0794999971985817
0.012560401111841202 -0.009538334794342518 0.07939999550580978
0.01276792585849762 -0.009538334794342518 0.07939999550580978
0.01295910868793726 -0.009526322595775127 0.07930000126361847
0.01314976904541254 -0.009514309465885162 0.07919999957084656
0.013356770388782024 -0.009514309465885162 0.07919999957084656
0.013563771732151508 -0.009514309465885162 0.07919999957084656
0.013770774006843567 -0.009514309465885162 0.07919999957084656
0.013960126787424088 -0.009502296335995197 0.07909999787807465
0.014184778556227684 -0.009514309465885162 0.07919999957084656
0.014391778968274593 -0.009514309465885162 0.07919999957084656
0.014598781242966652 -0.009514309465885162 0.07919999957084656
0.01480578351765871 -0.009514309465885162 0.07919999957084656
0.015031740069389343 -0.009526322595775127 0.07930000126361847
0.015219787135720253 -0.009514309465885162 0.07919999957084656
0.01544626709073782 -0.009526322595775127 0.07930000126361847
0.01565353013575077 -0.009526322595775127 0.07930000126361847
0.01588079333305359 -0.009538334794342518 0.07939999550580978
0.016068056225776672 -0.009526322595775127 0.07930000126361847
0.016295840963721275 -0.009538334794342518 0.07939999550580978
0.016503367573022842 -0.009538334794342518 0.07939999550580978
0.01673193834722042 -0.009550347924232483 0.0794999971985817
0.01693972386419773 -0.009550347924232483 0.0794999971985817
0.01714750938117504 -0.009550347924232483 0.0794999971985817
0.0173552967607975 -0.009550347924232483 0.0794999971985817
0.01758517511188984 -0.009562361054122448 0.07959999889135361
0.01779322139918804 -0.009562361054122448 0.07959999889135361
0.018023883923888206 -0.009574374184012413 0.07970000058412552
0.01823219284415245 -0.009574374184012413 0.07970000058412552
0.018463635817170143 -0.009586386382579803 0.07979999482631683
0.01867220737040043 -0.009586386382579803 0.07979999482631683
0.018928097561001778 -0.009610412642359734 0.07999999821186066
0.01916111260652542 -0.009622426703572273 0.08009999990463257
0.019370466470718384 -0.009622426703572273 0.08009999990463257
0.019579820334911346 -0.009622426703572273 0.08009999990463257
0.01976446807384491 -0.009610412642359734 0.07999999821186066
0.01997356116771698 -0.009610412642359734 0.07999999821186066
0.020157424733042717 -0.009598399512469769 0.07989999651908875
0.02034076675772667 -0.009586386382579803 0.07979999482631683
0.02049783617258072 -0.009562361054122448 0.07959999889135361
0.020679868757724762 -0.009550347924232483 0.0794999971985817
0.020808834582567215 -0.009514309465885162 0.07919999957084656
0.020936230197548866 -0.009478269144892693 0.07889999449253082
0.02108885534107685 -0.009454243816435337 0.0786999985575676
0.021267492324113846 -0.009442230686545372 0.07859999686479568
0.021445607766509056 -0.009430217556655407 0.07849999517202377
0.021650779992341995 -0.009430217556655407 0.07849999517202377
0.021800266578793526 -0.009406192228198051 0.07829999923706055
0.02200491726398468 -0.009406192228198051 0.07829999923706055
0.022237932309508324 -0.009418205358088017 0.07840000092983246
0.022471467033028603 -0.009430217556655407 0.07849999517202377
0.02267664112150669 -0.009430217556655407 0.07849999517202377
0.02288181334733963 -0.009430217556655407 0.07849999517202377
0.02332182787358761 -0.009442230686545372 0.07859999686479568
0.025272604078054428 -0.010054894722998142 0.08370000123977661
0.00033518686541356146 -0.009883138351142406 0.08410000056028366
0.0005523558938875794 -0.00983613170683384 0.08370000123977661
0.0007692765211686492 -0.009812627919018269 0.08349999785423279
0.000986334402114153 -0.00980087649077177 0.08339999616146088
0.0012028694618493319 -0.009789125062525272 0.08329999446868896
0.0014188820496201515 -0.009777373634278774 0.08320000022649765
0.0016343715833500028 -0.009765622206032276 0.08309999853372574
0.001849338528700173 -0.009753869846463203 0.08299999684095383
0.0020637826528400183 -0.009742118418216705 0.08289999514818192
0.002277704421430826 -0.009730366989970207 0.0828000009059906
0.002491103019565344 -0.009718615561723709 0.08269999921321869
0.0027039791457355022 -0.009706863202154636 0.08259999752044678
0.002916332334280014 -0.009695111773908138 0.08249999582767487
0.0031319588888436556 -0.009695111773908138 0.08249999582767487
0.0033435283694416285 -0.00968336034566164 0.08240000158548355
0.003558893920853734 -0.00968336034566164 0.08240000158548355
0.0037696792278438807 -0.009671608917415142 0.08229999989271164
0.003979941364377737 -0.00965985655784607 0.08219999819993973
0.0041896807961165905 -0.009648105129599571 0.08209999650716782
0.004398897755891085 -0.009636352770030499 0.0819999948143959
0.0046019661240279675 -0.009612850844860077 0.08179999887943268
0.004809875972568989 -0.009601098485291004 0.08169999718666077
0.005017263349145651 -0.009589347057044506 0.08159999549388885
0.005224127788096666 -0.009577595628798008 0.08150000125169754
0.00543047022074461 -0.00956584420055151 0.08139999955892563
0.00564322154968977 -0.00956584420055151 0.08139999955892563
0.005855973809957504 -0.00956584420055151 0.08139999955892563
0.006061269901692867 -0.009554091840982437 0.08129999786615372
0.006266043521463871 -0.009542340412735939 0.0811999961733818
0.006478272844105959 -0.009542340412735939 0.0811999961733818
0.0068772281520068645 -0.00950708519667387 0.08089999854564667
0.007071148604154587 -0.0094835814088583 0.08069999516010284
0.007282070815563202 -0.0094835814088583 0.08069999516010284
0.007483708672225475 -0.009471830911934376 0.08060000091791153
0.007694369647651911 -0.009471830911934376 0.08060000091791153
0.007895221933722496 -0.009460078552365303 0.08049999922513962
0.008105622604489326 -0.009460078552365303 0.08049999922513962
0.008316021412611008 -0.009460078552365303 0.08049999922513962
0.008515829220414162 -0.009448327124118805 0.0803999975323677
0.00872596725821495 -0.009448327124118805 0.0803999975323677
0.008924990892410278 -0.009436575695872307 0.0802999958395958
0.009123492985963821 -0.009424824267625809 0.08020000159740448
0.009333107620477676 -0.009424824267625809 0.08020000159740448
0.009530824609100819 -0.00941307283937931 0.08009999990463257
0.009728018194437027 -0.009401320479810238 0.07999999821186066
0.009937111288309097 -0.009401320479810238 0.07999999821186066
0.01013352070003748 -0.00938956905156374 0.07989999651908875
0.010342351160943508 -0.00938956905156374 0.07989999651908875
0.010537977330386639 -0.009377816691994667 0.07979999482631683
0.01074654795229435 -0.009377816691994667 0.07979999482631683
0.010941390879452229 -0.009366066195070744 0.07970000058412552
0.011149698868393898 -0.009366066195070744 0.07970000058412552
0.011343756690621376 -0.00935431383550167 0.07959999889135361
0.011551803909242153 -0.00935431383550167 0.07959999889135361
0.011759850196540356 -0.00935431383550167 0.07959999889135361
0.011952863074839115 -0.009342562407255173 0.0794999971985817
0.012160649523139 -0.009342562407255173 0.0794999971985817
0.012368434108793736 -0.009342562407255173 0.0794999971985817
0.01257622055709362 -0.009342562407255173 0.0794999971985817
0.01276792585849762 -0.0093308100476861 0.07939999550580978
0.012975449673831463 -0.0093308100476861 0.07939999550580978
0.01316637173295021 -0.009319059550762177 0.07930000126361847
0.013788161799311638 -0.009319059550762177 0.07930000126361847
0.013995424844324589 -0.009319059550762177 0.07930000126361847
0.014202688820660114 -0.009319059550762177 0.07930000126361847
0.01440995093435049 -0.009319059550762177 0.07930000126361847
0.014635646715760231 -0.0093308100476861 0.07939999550580978
0.014843171462416649 -0.0093308100476861 0.07939999550580978
0.015050695277750492 -0.0093308100476861 0.07939999550580978
0.01525822002440691 -0.0093308100476861 0.07939999550580978
0.015465744771063328 -0.0093308100476861 0.07939999550580978
0.01567326858639717 -0.0093308100476861 0.07939999550580978
0.01588079333305359 -0.0093308100476861 0.07939999550580978
0.016068056225776672 -0.009319059550762177 0.07930000126361847
0.016295840963721275 -0.0093308100476861 0.07939999550580978
0.016503367573022842 -0.0093308100476861 0.07939999550580978
0.01673193834722042 -0.009342562407255173 0.0794999971985817
0.01693972386419773 -0.009342562407255173 0.0794999971985817
0.01714750938117504 -0.009342562407255173 0.0794999971985817
0.017377126961946487 -0.00935431383550167 0.07959999889135361
0.01758517511188984 -0.00935431383550167 0.07959999889135361
0.017815575003623962 -0.009366066195070744 0.07970000058412552
0.01804649643599987 -0.009377816691994667 0.07979999482631683
0.018255067989230156 -0.009377816691994667 0.07979999482631683
0.01848677359521389 -0.00938956905156374 0.07989999651908875
0.018695605918765068 -0.00938956905156374 0.07989999651908875
0.018928097561001778 -0.009401320479810238 0.07999999821186066
0.01916111260652542 -0.00941307283937931 0.08009999990463257
0.019370466470718384 -0.00941307283937931 0.08009999990463257
0.019579820334911346 -0.00941307283937931 0.08009999990463257
0.01976446807384491 -0.009401320479810238 0.07999999821186066
0.019948594272136688 -0.00938956905156374 0.07989999651908875
0.020157424733042717 -0.00938956905156374 0.07989999651908875
0.020315278321504593 -0.009366066195070744 0.07970000058412552
0.02049783617258072 -0.00935431383550167 0.07959999889135361
0.020679868757724762 -0.009342562407255173 0.0794999971985817
0.020835109055042267 -0.009319059550762177 0.07930000126361847
0.02096276544034481 -0.009283803403377533 0.07899999618530273
0.021115653216838837 -0.009260301478207111 0.07880000025033951
0.021267492324113846 -0.00923679769039154 0.07859999686479568
0.021472927182912827 -0.00923679769039154 0.07859999686479568
0.021650779992341995 -0.009225045330822468 0.07849999517202377
0.02182810939848423 -0.009213294833898544 0.07840000092983246
0.022033020853996277 -0.009213294833898544 0.07840000092983246
0.022237932309508324 -0.009213294833898544 0.07840000092983246
0.022471467033028603 -0.009225045330822468 0.07849999517202377
0.022705528885126114 -0.00923679769039154 0.07859999686479568
0.022910961881279945 -0.00923679769039154 0.07859999686479568
0.023116393014788628 -0.00923679769039154 0.07859999686479568
0.025332992896437645 -0.009859634563326836 0.08389999717473984
0.02552182227373123 -0.009847883135080338 0.08379999548196793
0.02577156573534012 -0.009859634563326836 0.08389999717473984
0.0003347882884554565 -0.009651838801801205 0.08399999886751175
0.0005516959354281425 -0.00960587803274393 0.0835999995470047
0.0007683552103117108 -0.00958289671689272 0.08339999616146088
0.000986334402114153 -0.00958289671689272 0.08339999616146088
0.0012014255626127124 -0.009559917263686657 0.08320000022649765
0.001417176565155387 -0.009548426605761051 0.08309999853372574
0.0016324048629030585 -0.009536935947835445 0.08299999684095383
0.0018471104558557272 -0.00952544528990984 0.08289999514818192
0.002061293227598071 -0.009513955563306808 0.0828000009059906
0.0022749535273760557 -0.009502464905381203 0.08269999921321869
0.00248809065669775 -0.009490975178778172 0.08259999752044678
0.0027039791457355022 -0.009490975178778172 0.08259999752044678
0.002916332334280014 -0.009479484520852566 0.08249999582767487
0.003128162818029523 -0.009467994794249535 0.08240000158548355
0.0033435283694416285 -0.009467994794249535 0.08240000158548355
0.003558893920853734 -0.009467994794249535 0.08240000158548355
0.0037696792278438807 -0.009456504136323929 0.08229999989271164
0.003979941364377737 -0.009445013478398323 0.08219999819993973
0.004184577614068985 -0.009422033093869686 0.0819999948143959
0.0043935333378612995 -0.009410543367266655 0.08190000057220459
0.0046019661240279675 -0.00939905270934105 0.08179999887943268
0.004809875972568989 -0.009387562051415443 0.08169999718666077
0.005017263349145651 -0.009376071393489838 0.08159999549388885
0.005224127788096666 -0.009364582598209381 0.08150000125169754
0.005437141750007868 -0.009364582598209381 0.08150000125169754
0.00564322154968977 -0.009353091940283775 0.08139999955892563
0.005855973809957504 -0.009353091940283775 0.08139999955892563
0.0060687256045639515 -0.009353091940283775 0.08139999955892563
0.006273760460317135 -0.00934160128235817 0.08129999786615372
0.0064862510189414024 -0.00934160128235817 0.08129999786615372
0.00669050170108676 -0.009330110624432564 0.0811999961733818
0.00689422944560647 -0.009318619966506958 0.0810999944806099
0.007097435649484396 -0.009307130239903927 0.08100000023841858
0.007309142034500837 -0.009307130239903927 0.08100000023841858
0.00751156359910965 -0.009295640513300896 0.08089999854564667
0.007713461760431528 -0.00928414985537529 0.08079999685287476
0.007914837449789047 -0.009272659197449684 0.08069999516010284
0.008125759661197662 -0.009272659197449684 0.08069999516010284
0.008326352573931217 -0.009261169470846653 0.08060000091791153
0.008526421152055264 -0.009249678812921047 0.08049999922513962
0.00873682089149952 -0.009249678812921047 0.08049999922513962
0.008947220630943775 -0.009249678812921047 0.08049999922513962
0.009146244265139103 -0.009238188154995441 0.0803999975323677
0.009356382302939892 -0.009238188154995441 0.0803999975323677
0.009554620832204819 -0.00922669842839241 0.0802999958395958
0.009764498099684715 -0.00922669842839241 0.0802999958395958
0.009961954317986965 -0.009215208701789379 0.08020000159740448
0.010158887133002281 -0.009203718043863773 0.08009999990463257
0.010355295613408089 -0.009192227385938168 0.07999999821186066
0.010564388707280159 -0.009192227385938168 0.07999999821186066
0.01076001487672329 -0.009180736728012562 0.07989999651908875
0.01095511857420206 -0.00916924700140953 0.07979999482631683
0.011163687333464622 -0.00916924700140953 0.07979999482631683
0.011358007788658142 -0.0091577572748065 0.07970000058412552
0.011566316708922386 -0.0091577572748065 0.07970000058412552
0.011759850196540356 -0.009146266616880894 0.07959999889135361
0.011967898346483707 -0.009146266616880894 0.07959999889135361
0.01257622055709362 -0.009134775958955288 0.0794999971985817
0.012784007005393505 -0.009134775958955288 0.0794999971985817
0.012975449673831463 -0.009123285301029682 0.07939999550580978
0.01318297442048788 -0.009123285301029682 0.07939999550580978
0.013390499167144299 -0.009123285301029682 0.07939999550580978
0.013598022982478142 -0.009123285301029682 0.07939999550580978
0.01380554772913456 -0.009123285301029682 0.07939999550580978
0.014013072475790977 -0.009123285301029682 0.07939999550580978
0.01422059815376997 -0.009123285301029682 0.07939999550580978
0.014428121037781239 -0.009123285301029682 0.07939999550580978
0.014635646715760231 -0.009123285301029682 0.07939999550580978
0.014843171462416649 -0.009123285301029682 0.07939999550580978
0.015050695277750492 -0.009123285301029682 0.07939999550580978
0.015277436934411526 -0.009134775958955288 0.0794999971985817
0.015465744771063328 -0.009123285301029682 0.07939999550580978
0.01567326858639717 -0.009123285301029682 0.07939999550580978
0.01588079333305359 -0.009123285301029682 0.07939999550580978
0.016088318079710007 -0.009123285301029682 0.07939999550580978
0.01631636545062065 -0.009134775958955288 0.0794999971985817
0.01652415283024311 -0.009134775958955288 0.0794999971985817
0.01673193834722042 -0.009134775958955288 0.0794999971985817
0.016961032524704933 -0.009146266616880894 0.07959999889135361
0.017169078812003136 -0.009146266616880894 0.07959999889135361
0.017377126961946487 -0.009146266616880894 0.07959999889135361
0.01760726608335972 -0.0091577572748065 0.07970000058412552
0.017837926745414734 -0.00916924700140953 0.07979999482631683
0.01804649643599987 -0.00916924700140953 0.07979999482631683
0.01827794313430786 -0.009180736728012562 0.07989999651908875
0.018509911373257637 -0.009192227385938168 0.07999999821186066
0.018719004467129707 -0.009192227385938168 0.07999999821186066
0.01895175874233246 -0.009203718043863773 0.08009999990463257
0.01916111260652542 -0.009203718043863773 0.08009999990463257
0.019370466470718384 -0.009203718043863773 0.08009999990463257
0.019604265689849854 -0.009215208701789379 0.08020000159740448
0.01978917419910431 -0.009203718043863773 0.08009999990463257
0.01997356116771698 -0.009192227385938168 0.07999999821186066
0.020157424733042717 -0.009180736728012562 0.07989999651908875
0.02034076675772667 -0.00916924700140953 0.07979999482631683
0.02049783617258072 -0.009146266616880894 0.07959999889135361
0.020679868757724762 -0.009134775958955288 0.0794999971985817
0.02086138166487217 -0.009123285301029682 0.07939999550580978
0.0210158359259367 -0.00910030584782362 0.07919999957084656
0.02116924524307251 -0.009077324531972408 0.07899999618530273
0.021321609616279602 -0.009054344147443771 0.07880000025033951
0.021472927182912827 -0.009031363762915134 0.07859999686479568
0.021678360179066658 -0.009031363762915134 0.07859999686479568
0.021855950355529785 -0.009019873104989529 0.07849999517202377
0.022061122581362724 -0.009019873104989529 0.07849999517202377
0.0222946610301733 -0.009031363762915134 0.07859999686479568
0.022500094026327133 -0.009031363762915134 0.07859999686479568
0.022705528885126114 -0.009031363762915134 0.07859999686479568
0.022910961881279945 -0.009031363762915134 0.07859999686479568
0.023116393014788628 -0.009031363762915134 0.07859999686479568
0.02552182227373123 -0.009628858417272568 0.08379999548196793
0.025802282616496086 -0.009651838801801205 0.08399999886751175
0.000333991163643077 -0.009409833699464798 0.08379999548196793
0.0005510360351763666 -0.009376146830618382 0.08349999785423279
0.0007683552103117108 -0.009364917874336243 0.08339999616146088
0.0009851516224443913 -0.009353688918054104 0.08329999446868896
0.0012014255626127124 -0.00934246089309454 0.08320000022649765
0.001417176565155387 -0.0093312319368124 0.08309999853372574
0.0016304380260407925 -0.009308773092925549 0.08289999514818192
0.0018448823830112815 -0.009297545067965984 0.0828000009059906
0.002061293227598071 -0.009297545067965984 0.0828000009059906
0.0022749535273760557 -0.009286316111683846 0.08269999921321869
0.00248809065669775 -0.009275087155401707 0.08259999752044678
0.002700705314055085 -0.009263857267796993 0.08249999582767487
0.002916332334280014 -0.009263857267796993 0.08249999582767487
0.003128162818029523 -0.009252629242837429 0.08240000158548355
0.0033435283694416285 -0.009252629242837429 0.08240000158548355
0.003558893920853734 -0.009252629242837429 0.08240000158548355
0.0037696792278438807 -0.00924140028655529 0.08229999989271164
0.003979941364377737 -0.009230171330273151 0.08219999819993973
0.004184577614068985 -0.009207713417708874 0.0819999948143959
0.0043935333378612995 -0.009196484461426735 0.08190000057220459
0.004596340470016003 -0.009174026548862457 0.08169999718666077
0.004809875972568989 -0.009174026548862457 0.08169999718666077
0.005017263349145651 -0.009162797592580318 0.08159999549388885
0.005224127788096666 -0.009151569567620754 0.08150000125169754
0.00543047022074461 -0.00914033968001604 0.08139999955892563
0.005650154780596495 -0.009151569567620754 0.08150000125169754
0.005855973809957504 -0.00914033968001604 0.08139999955892563
0.0060687256045639515 -0.00914033968001604 0.08139999955892563
0.006281477399170399 -0.00914033968001604 0.08139999955892563
0.0064862510189414024 -0.009129110723733902 0.08129999786615372
0.00669874157756567 -0.009129110723733902 0.08129999786615372
0.00691123167052865 -0.009129110723733902 0.08129999786615372
0.007114959880709648 -0.009117881767451763 0.0811999961733818
0.007327188737690449 -0.009117881767451763 0.0811999961733818
0.007530133239924908 -0.009106652811169624 0.0810999944806099
0.00773255480453372 -0.00909542478621006 0.08100000023841858
0.007944260723888874 -0.00909542478621006 0.08100000023841858
0.00815596804022789 -0.00909542478621006 0.08100000023841858
0.008357343263924122 -0.009084194898605347 0.08089999854564667
0.008558196015655994 -0.009072965942323208 0.08079999685287476
0.008758527226746082 -0.009061736986041069 0.08069999516010284
0.008969448506832123 -0.009061736986041069 0.08069999516010284
