ply
format ascii 1.0
element vertex 726
property float x
property float y
property float z
end_header
0.006408879533410073 -0.008467006497085094 -0.0040665585547685614
0.006408879533410073 -0.00796992052346468 -0.004008733201771974
0.006408879533410073 -0.007472834084182978 -0.003918686416000127
0.006408879533410073 -0.006975748110562563 -0.003749855561181902
0.006408879533410072 -0.006478661671280861 -0.0034895585849881164
0.006408879533410072 -0.005981575231999159 -0.003320729359984397
0.006408879533410072 -0.005484488792717457 -0.003106356831267475
0.006408879533410072 -0.004987402819097042 -0.002937526907771825
0.006408879533410072 -0.00449031637981534 -0.002768696751445531
0.006408879533410072 -0.003993229940533638 -0.0026786497328430406
0.006408879533410072 -0.0034961437340825796 -0.002418351359665393
0.006408879533410072 -0.0029990572948008776 -0.002328304108232259
0.006408879533410072 -0.002501971088349819 -0.0022704792208969584
0.006408879533410072 -0.002004884649068117 -0.0023629919160157433
0.006408879533410072 -0.001507798326201737 -0.001830906723625957
0.006408879533410072 -0.0010107120033353567 -0.0014079754473641506
0.006408879533410072 -0.0005136256222613156 -0.0016554936300963155
0.006408879533410072 -1.653933577472344e-05 -0.0016583114629611364
0.006408879533410072 0.0004805469943676144 -0.0016312579391524187
0.006408879533410072 0.0009776332881301641 -0.0016042042989283791
0.006408879533410072 0.0014747197274118662 -0.002088676905259489
0.006408879533410072 0.0019718059338629246 -0.0015565913636237374
0.006408879533410072 0.002468892140313983 -0.0015295392367988816
0.006408879533410072 0.002965978579595685 -0.0014394908212125293
0.006408879533410072 0.0034630647860467434 -0.0014124372974038115
0.006408879533410072 0.0039601512253284454 -0.001444772817194461
0.006408879533410072 0.0044572376646101475 -0.0014475896023213855
0.006408879533410072 0.004954323638230562 -0.0015096405986696473
0.006408879533410072 0.005451410077512264 -0.001541975187137722
0.006408879533410072 0.005948496516793966 -0.0014841499505564562
0.006408879533410072 0.006445582956075668 -0.0013153207255527368
0.006408879533410072 0.006942668929696083 -0.0008621502202004187
0.006408879533410072 0.007439755368977785 -0.00030665894155390485
0.005911793094128371 -0.010455352254211903 -0.003957691136747598
0.005911793094128371 -0.009461179375648499 -0.004030460957437753
0.005911793094128371 -0.00896409247070551 -0.004027644172310828
0.005911793094128371 -0.008467006497085094 -0.0040248269215226165
0.005911793094128371 -0.00796992052346468 -0.003962776623666286
0.005911793094128371 -0.007472834084182978 -0.0039007256273180238
0.005911793094128371 -0.006975748110562563 -0.0038386750966310492
0.005911793094128371 -0.006478661671280861 -0.003632921027019619
0.00591179309412837 -0.005981575231999159 -0.0032219947315752498
0.00591179309412837 -0.005484488792717457 -0.0031599442008882752
0.00591179309412837 -0.004987402819097042 -0.0028285537846386424
0.00591179309412837 -0.00449031637981534 -0.002663996769115328
0.00591179309412837 -0.003993229940533638 -0.002332605188712477
0.00591179309412837 -0.0034961437340825796 -0.0023297881707549086
0.00591179309412837 -0.0029990572948008776 -0.001998396823182701
0.00591179309412837 -0.002501971088349819 -0.0019058842444792383
0.00591179309412837 -0.002004884649068117 -0.0018133713165298098
0.00591179309412837 -0.001507798326201737 -0.0019034196157008403
0.00591179309412837 -0.0010107120033353567 -0.0019006022484973067
0.00591179309412837 -0.0005136256222613156 -0.0020694315899163476
0.00591179309412837 -1.653933577472344e-05 -0.002007381059229373
0.00591179309412837 0.0004805469943676144 -0.0018428235780447715
0.00591179309412837 0.0009776332881301641 -0.0015953048132359975
0.00591179309412837 0.0014747197274118662 -0.0017641341546550387
0.00591179309412837 0.0019718059338629246 -0.001791187212802469
0.00591179309412837 0.002468892140313983 -0.0018812356283888214
0.00591179309412837 0.002965978579595685 -0.0017166780307888978
0.00591179309412837 0.0034630647860467434 -0.0016843425109982484
0.00591179309412837 0.0039601512253284454 -0.0016520074568688863
0.00591179309412837 0.0044572376646101475 -0.0016790605150163167
0.00591179309412837 0.004954323638230562 -0.0015865480527281755
0.00591179309412837 0.005451410077512264 -0.0019374233670532697
0.00591179309412837 0.005948496516793966 -0.0016899041365832084
0.00591179309412837 0.006445582956075668 -0.001657568616792559
0.00591179309412837 0.006942668929696083 -0.0014930111356079572
0.00591179309412837 0.007439755368977785 -0.00044698070269077946
0.00591179309412837 0.007936841808259487 -0.00044416385935619403
0.00591179309412837 0.008433928713202477 -0.00035165040753781725
0.00591179309412837 0.008931014686822891 -2.0259847588021514e-05
0.005414706654846669 -0.010455352254211903 -0.0037722424603998652
0.005414706654846669 -0.009461179375648499 -0.004189137835055589
0.005414706654846669 -0.00896409247070551 -0.003974765539169311
0.005414706654846669 -0.008467006497085094 -0.00400710105895996
0.005414706654846669 -0.00796992052346468 -0.003917052410542964
0.005414706654846669 -0.007472834084182978 -0.0037482224870473138
0.005414706654846669 -0.006975748110562563 -0.003780558006837963
0.005414706654846669 -0.006478661671280861 -0.0035661854781210414
0.005414706654846669 -0.005981575231999159 -0.0035690017975866786
0.005414706654846669 -0.005484488792717457 -0.0037335592787712804
0.005414706654846668 -0.004987402819097042 -0.0032261223532259456
0.005414706654846668 -0.00449031637981534 -0.002527792938053607
0.005414706654846668 -0.003993229940533638 -0.002176917623728513
0.005414706654846668 -0.0034961437340825796 -0.0021797351073473683
0.005414706654846668 -0.0029990572948008776 -0.0020109047181904307
0.005414706654846668 -0.002501971088349819 -0.001920857350341975
0.005414706654846668 -0.002004884649068117 -0.0019531920552253714
0.005414706654846668 -0.001507798326201737 -0.0018953668186441057
0.005414706654846668 -0.0010107120033353567 -0.0021011210046708575
0.005414706654846668 -0.0005136256222613156 -0.0021936334669589988
0.005414706654846668 -1.653933577472344e-05 -0.0021964507177472106
0.005414706654846668 0.0004805469943676144 -0.0017432803288102143
0.005414706654846668 0.0009776332881301641 -0.0021542066242545834
0.005414706654846668 0.0014747197274118662 -0.0020641586743295184
0.005414706654846668 0.0019718059338629246 -0.0020669759251177302
0.005414706654846668 0.002468892140313983 -0.001976927509531378
0.005414706654846668 0.002965978579595685 -0.0018868796760216349
0.005414706654846668 0.0034630647860467434 -0.0019793922547250977
0.005414706654846668 0.0039601512253284454 -0.0017650197260081762
0.005414706654846668 0.0044572376646101475 -0.001929577207192778
0.005414706654846668 0.004954323638230562 -0.0019025236833840602
0.005414706654846668 0.005451410077512264 -0.0018446989124640816
0.005414706654846668 0.005948496516793966 -0.0017868737922981375
0.005414706654846668 0.006445582956075668 -0.001759820152074098
0.005414706654846668 0.006942668929696083 -0.001499523292295634
0.005414706654846668 0.007439755368977785 -0.0015318583464249962
0.005414706654846668 0.007936841808259487 -0.0006196247413754457
0.005414706654846668 0.008433928713202477 -1.9808307115453563e-05
0.005414706654846668 0.008931014686822891 -0.00043073474080301756
0.005414706654846668 0.00942810159176588 -7.803724656695769e-06
0.004917620215564966 -0.010952438227832317 -0.0017582055879756802
0.004917620215564966 -0.009958265349268913 -0.00345674087293446
0.004917620215564967 -0.009461179375648499 -0.0038796716835349794
0.004917620215564967 -0.00896409247070551 -0.003969720099121331
0.004917620215564967 -0.008467006497085094 -0.004027545452117919
0.004917620215564967 -0.00796992052346468 -0.0040545985102653495
0.004917620215564967 -0.007472834084182978 -0.003992548212409019
0.004917620215564967 -0.006975748110562563 -0.004050373099744319
0.004917620215564967 -0.006478661671280861 -0.003602234181016683
0.004917620215564967 -0.005981575231999159 -0.003953108564019202
0.004917620215564966 -0.005484488792717457 -0.003504969179630279
0.004917620215564966 -0.004987402819097042 -0.0034124562516808505
0.004917620215564966 -0.00449031637981534 -0.0030015299562364812
0.004917620215564966 -0.003993229940533638 -0.0022327073384076353
0.004917620215564966 -0.0034961437340825796 -0.0018217810429632657
0.004917620215564966 -0.0029990572948008776 -0.0015322692925110453
0.004917620215564966 -0.002501971088349819 -0.0013265151064842933
0.004917620215564966 -0.002004884649068117 -0.0012941795866936439
0.004917620215564966 -0.001507798326201737 -9.434144158149078e-05
0.004917620215564966 -0.0010107120033353567 -0.0014308207901194685
0.004917620215564966 -0.0005136256222613156 -0.0017816961044445627
0.004917620215564966 -1.653933577472344e-05 -0.0022046267986297603
0.004917620215564966 0.0004805469943676144 -0.0022946752142161127
0.004917620215564966 0.0009776332881301641 -0.0022918588947504754
0.004917620215564966 0.0014747197274118662 -0.0022298074327409263
0.004917620215564966 0.0019718059338629246 -0.002167756902053952
0.004917620215564966 0.002468892140313983 -0.0020031998865306373
0.004917620215564966 0.002965978579595685 -0.001970864366739988
0.004917620215564966 0.0034630647860467434 -0.0019680466502904888
0.004917620215564966 0.0039601512253284454 -0.0019059965852648013
0.004917620215564966 0.0044572376646101475 -0.0019330497598275536
0.004917620215564966 0.004954323638230562 -0.0019007147056981915
0.004917620215564966 0.005451410077512264 -0.001838664175011217
0.004917620215564966 0.005948496516793966 -0.0018063286552205675
0.004917620215564966 0.006445582956075668 -0.0018641538918018335
0.004917620215564966 0.006942668929696083 -0.0018318182555958622
0.004917620215564966 0.007439755368977785 -0.0016672607744112604
0.004917620215564966 0.007936841808259487 -0.0017250858945772045
0.004917620215564966 0.008433928713202477 -0.001477566780522465
0.004917620215564966 0.008931014686822891 -0.0007087443955242627
0.004420533776283264 -0.010952438227832317 -0.0022537838667631145
0.004420533776283264 -0.010455352254211903 -0.0016068192198872562
0.004420533776283264 -0.009958265349268913 -0.0034221038222312923
0.004420533776283265 -0.009461179375648499 -0.003669622121378779
0.004420533776283265 -0.00896409247070551 -0.00391714135184884
0.004420533776283265 -0.008467006497085094 -0.003979192581027745
0.004420533776283265 -0.00796992052346468 -0.004041242878884076
0.004420533776283265 -0.007472834084182978 -0.004073578398674726
0.004420533776283265 -0.006975748110562563 -0.004105913918465375
0.004420533776283265 -0.006478661671280861 -0.004048088565468787
0.004420533776283265 -0.005981575231999159 -0.004140601493418216
0.004420533776283265 -0.005484488792717457 -0.003971771802753209
0.004420533776283265 -0.004987402819097042 -0.003757398342713713
0.004420533776283264 -0.00449031637981534 -0.003110433695837855
0.004420533776283264 -0.003993229940533638 -0.001971007557585835
0.004420533776283264 -0.0034961437340825796 -0.0015480762813240285
0.004420533776283264 -0.0029990572948008776 -0.0014580284478142853
0.004420533776283264 -0.002501971088349819 -0.0011977310059592123
0.004420533776283264 -0.002004884649068117 -0.0008917314698919648
0.004420533776283264 -0.001507798326201737 -0.0014116750098764892
0.004420533776283264 -0.0010107120033353567 -0.001197301433421671
0.004420533776283264 -0.0005136256222613156 -0.0011394763132557269
0.004420533776283264 -1.653933577472344e-05 -0.0015876166289672251
0.004420533776283264 0.0004805469943676144 -0.0019190071616321798
0.004420533776283264 0.0009776332881301641 -0.0020835646428167816
0.004420533776283264 0.0014747197274118662 -0.002331083873286843
0.004420533776283264 0.0019718059338629246 -0.0020250843372195955
0.004420533776283264 0.002468892140313983 -0.0023145957384258504
0.004420533776283264 0.002965978579595685 -0.0023766465019434686
0.004420533776283264 0.0034630647860467434 -0.002162274438887834
0.004420533776283264 0.0039601512253284454 -0.0021044483873993154
0.004420533776283264 0.0044572376646101475 -0.0025153746828436847
0.004420533776283264 0.004954323638230562 -0.0019598847720772024
0.004420533776283264 0.005451410077512264 -0.0019922202918678518
0.004420533776283264 0.005948496516793966 -0.0019021718762814994
0.004420533776283264 0.006445582956075668 -0.001812123577110469
0.004420533776283264 0.006942668929696083 -0.0014612482627853747
0.004420533776283264 0.007439755368977785 -0.0018721749074757095
0.004420533776283264 0.007936841808259487 -0.001904510427266359
0.004420533776283264 0.008433928713202477 -0.0013490191195160146
0.004420533776283264 0.008931014686822891 -0.0011346465907990928
0.004420533776283264 0.00942810159176588 -0.0003052950778510416
0.003923447337001562 -0.010455352254211903 -0.0017240012530237432
0.003923447337001562 -0.009958265349268913 -0.0024741424713283773
0.003923447337001562 -0.009461179375648499 -0.0032768424134701486
0.003923447337001563 -0.00896409247070551 -0.004305316600948571
0.003923447337001563 -0.008467006497085094 -0.004015804734081029
0.003923447337001563 -0.00796992052346468 -0.004105852916836738
0.003923447337001563 -0.007472834084182978 -0.004274682607501744
0.003923447337001563 -0.006975748110562563 -0.00427186582237482
0.003923447337001563 -0.006478661671280861 -0.004298919346183538
0.003923447337001563 -0.005981575231999159 -0.004266583826392888
0.003923447337001563 -0.005484488792717457 -0.004234248306602239
0.003923447337001563 -0.004987402819097042 -0.0039028578903526063
0.003923447337001562 -0.00449031637981534 -0.003348289523273706
0.003923447337001562 -0.003993229940533638 -0.001409427030012011
0.003923447337001562 -0.0034961437340825796 -0.0012207413092255588
0.003923447337001562 -0.0029990572948008776 -0.0008893497870303686
0.003923447337001562 -0.002004884649068117 -0.0004396527074277396
0.003923447337001562 -0.001507798326201737 -0.0004368358640931542
0.003923447337001562 -0.0010107120033353567 -0.0002310819400008763
0.003923447337001562 -0.0005136256222613156 -0.0004913791199214752
0.003923447337001562 -1.653933577472344e-05 -0.0005184327019378539
0.003923447337001562 0.0004805469943676144 -0.0009086387581191953
0.003923447337001562 0.0009776332881301641 -0.0012146377703174944
0.003923447337001562 0.0014747197274118662 -0.0017926022410392757
0.003923447337001562 0.0019718059338629246 -0.0017602667212486263
0.003923447337001562 0.002468892140313983 -0.0021831975318491455
0.003923447337001562 0.002965978579595685 -0.0021803812123835082
0.003923447337001562 0.0034630647860467434 -0.001890869345515966
0.003923447337001562 0.0039601512253284454 -0.0019486941164359446
0.003923447337001562 0.0044572376646101475 -0.001784136518836021
0.003923447337001562 0.004954323638230562 -0.0016195795033127065
0.003923447337001562 0.005451410077512264 -0.001587243983522057
0.003923447337001562 0.005948496516793966 -0.0015251934528350826
0.003923447337001562 0.006445582956075668 -0.0014631435042247172
0.003923447337001562 0.006942668929696083 -0.0014010921586304899
0.003923447337001562 0.007439755368977785 -0.0015699213836342092
0.003923447337001562 0.007936841808259487 -0.001477408921346068
0.003923447337001562 0.008433928713202477 -0.0015674567548558112
0.003923447337001562 0.008931014686822891 -0.0006181182106956835
0.003426361130550504 -0.010952438227832317 -0.0022696601226925846
0.0034263611305505037 -0.010455352254211903 -0.0017375745810568328
0.003426361130550504 -0.009958265349268913 -0.0033824848942458625
0.003426361130550504 -0.009461179375648499 -0.004178584553301334
0.003426361130550504 -0.00896409247070551 -0.0036973482929170127
0.003426361130550504 -0.008467006497085094 -0.003986860625445843
0.003426361130550504 -0.00796992052346468 -0.0040191952139139175
0.003426361130550504 -0.007472834084182978 -0.004224949050694704
0.003426361130550504 -0.006975748110562563 -0.0042572845704853535
0.003426361130550504 -0.006478661671280861 -0.004349797498434782
0.003426361130550504 -0.005981575231999159 -0.004322743974626064
0.003426361130550504 -0.005484488792717457 -0.004355079494416714
0.003426361130550504 -0.004987402819097042 -0.004328025970607996
0.003426361130550504 -0.00449031637981534 -0.004237977322191
0.003426361130550504 -0.003993229940533638 -0.0038150465115904804
0.0034263611305505037 -0.0034961437340825796 -0.0013563163811340924
0.0034263611305505037 -0.0029990572948008776 -0.0005536163807846601
0.0034263611305505037 -0.002501971088349819 -2.1531272068386477e-05
0.0034263611305505037 0.0019718059338629246 -0.0010022397618740793
0.0034263611305505037 0.002468892140313983 -0.0007419427274726327
0.0034263611305505037 0.002965978579595685 -0.001510765054263174
0.0034263611305505037 0.0034630647860467434 -0.0015728154685348268
0.0034263611305505037 0.0039601512253284454 -0.001545761944726109
0.0034263611305505037 0.0044572376646101475 -0.0015780974645167585
0.0034263611305505037 0.004954323638230562 -0.001488049165345728
0.0034263611305505037 0.005451410077512264 -0.0015203846851363774
0.0034263611305505037 0.005948496516793966 -0.0014303367352113123
0.0034263611305505037 0.006445582956075668 -0.001124337199144065
0.0034263611305505037 0.006942668929696083 -0.001186388661153614
0.0034263611305505037 0.007439755368977785 -0.0009260912192985411
0.0034263611305505037 0.007936841808259487 -0.0008682651096023615
0.0034263611305505037 0.008433928713202477 -0.0008710828842595215
0.0034263611305505037 0.008931014686822891 -0.00041791191324591593
0.002929274691268802 -0.010455352254211903 -0.0017764430958777662
0.002929274691268802 -0.009958265349268913 -0.002500603441148996
0.002929274691268802 -0.009461179375648499 -0.0034995924215763803
0.002929274691268802 -0.00896409247070551 -0.003713964950293302
0.002929274691268802 -0.008467006497085094 -0.003974262624979019
0.002929274691268802 -0.00796992052346468 -0.004280261695384979
0.002929274691268802 -0.007472834084182978 -0.004449090920388699
0.002929274691268802 -0.006975748110562563 -0.004416755400598049
0.002929274691268802 -0.006478661671280861 -0.004443808924406767
0.002929274691268802 -0.005981575231999159 -0.004533857107162476
0.002929274691268802 -0.005484488792717457 -0.004286338109523058
0.002929274691268802 -0.004987402819097042 -0.004283522255718708
0.002929274691268802 -0.00449031637981534 -0.004452351480722427
0.002929274691268802 -0.003993229940533638 -0.004287793301045895
0.002929274691268802 -0.0034961437340825796 -0.0035469045396894212
0.0029292746912688017 0.0044572376646101475 -0.0003475493285804983
0.0029292746912688017 0.004954323638230562 -0.0003152147401124235
0.0029292746912688017 0.005451410077512264 -0.00040526309749111495
0.0029292746912688017 0.005948496516793966 -7.387159712379763e-05
0.0029292746912688017 0.006445582956075668 -1.1821132829936328e-05
0.0024321884848177433 -0.010952438227832317 -0.0014977763639762995
0.0024321884848177437 -0.010455352254211903 -0.0020177199039608236
0.0024321884848177437 -0.009958265349268913 -0.0029914283659309144
0.0024321884848177437 -0.009461179375648499 -0.0034023546613752838
0.0024321884848177437 -0.00896409247070551 -0.0038132807239890094
0.0024321884848177437 -0.008467006497085094 -0.003977838438004255
0.0024321884848177437 -0.00796992052346468 -0.004142395686358213
0.0024321884848177437 -0.007472834084182978 -0.0043069529347121716
0.0024321884848177437 -0.006975748110562563 -0.004369003232568502
0.0024321884848177437 -0.006478661671280861 -0.004401338752359152
0.0024321884848177437 -0.005981575231999159 -0.004404155537486076
0.0024321884848177437 -0.005484488792717457 -0.004143858328461647
0.0024321884848177437 -0.004987402819097042 -0.004433370195329189
0.0024321884848177437 -0.00449031637981534 -0.004764760844409466
0.0024321884848177437 -0.003993229940533638 -0.004232675768435001
0.0024321884848177437 -0.0034961437340825796 -0.004265011288225651
0.0024321884848177437 -0.0029990572948008776 -0.004207185935229063
0.0024321884848177437 -0.002501971088349819 -0.0035602203570306297
0.0019351022783666851 -0.010455352254211903 -0.0014257791917771099
0.0019351022783666851 -0.009958265349268913 -0.0024542547762393947
0.0019351022783666853 -0.009461179375648499 -0.0037599187344312664
0.0019351022783666853 -0.00896409247070551 -0.0035953612532466646
0.0019351022783666853 -0.008467006497085094 -0.003985567018389702
0.0019351022783666853 -0.00796992052346468 -0.0041543967090547085
0.0019351022783666853 -0.007472834084182978 -0.004368769936263561
0.0019351022783666856 -0.006975748110562563 -0.004426594823598862
0.0019351022783666856 -0.006478661671280861 -0.004453647416085005
0.0019351022783666856 -0.005981575231999159 -0.00445083063095808
0.0019351022783666853 -0.005484488792717457 -0.004358317237347364
0.0019351022783666853 -0.004987402819097042 -0.004265804775059223
0.0019351022783666853 -0.00449031637981534 -0.004233469255268574
0.0019351022783666853 -0.003993229940533638 -0.004201134666800499
0.0019351022783666856 -0.0034961437340825796 -0.004461431410163641
0.0019351022783666853 -0.0029990572948008776 -0.0043993801809847355
0.0019351022783666853 -0.002501971088349819 -0.0037165766116231676
0.001438015955500305 -0.010952438227832317 -0.001119089894928038
0.001438015955500305 -0.010455352254211903 -0.0013666081940755246
0.001438015955500305 -0.009958265349268913 -0.0022913427092134953
0.0014380159555003051 -0.009461179375648499 -0.003216077573597431
0.0014380159555003051 -0.00896409247070551 -0.0033085900358855724
0.0014380159555003051 -0.008467006497085094 -0.004049479495733976
0.0014380159555003051 -0.00796992052346468 -0.004141992423683405
0.0014380159555003051 -0.007472834084182978 -0.00430655013769865
0.0014380159555003051 -0.006975748110562563 -0.0043388856574893
0.0014380159555003053 -0.006478661671280861 -0.005021688994020224
0.0014380159555003051 -0.005981575231999159 -0.004374723415821791
0.0014380159555003051 -0.005484488792717457 -0.00440705893561244
0.0014380159555003053 -0.004987402819097042 -0.004654577933251858
0.0014380159555003051 -0.00449031637981534 -0.004348577931523323
0.0014380159555003051 -0.003993229940533638 -0.004410628695040941
0.0014380159555003051 -0.0034961437340825796 -0.0043835751712322235
0.0014380159555003051 -0.0029990572948008776 -0.004169202875345945
0.0014380159555003051 -0.002501971088349819 -0.004374956712126732
0.0014380159555003051 -0.002004884649068117 -0.004284908063709736
0.0014380159555003051 -0.001507798326201737 -0.004024611320346594
0.0009409296326339246 -0.010952438227832317 -0.0007154736667871474
0.0009409296326339247 -0.009958265349268913 -0.0020106867887079716
0.0009409296326339248 -0.009461179375648499 -0.002760827774181962
0.0009409296326339249 -0.00896409247070551 -0.003537136595696211
0.0009409296326339249 -0.008467006497085094 -0.00370596582069993
0.000940929632633925 -0.00796992052346468 -0.004096172749996185
0.0009409296326339249 -0.007472834084182978 -0.003890418680384755
0.000940929632633925 -0.006975748110562563 -0.004422503523528576
0.000940929632633925 -0.006478661671280861 -0.004512552171945572
0.000940929632633925 -0.005981575231999159 -0.004509734455496073
0.000940929632633925 -0.005484488792717457 -0.004447684623301029
0.000940929632633925 -0.004987402819097042 -0.00444486690685153
0.0009409296326339251 -0.00449031637981534 -0.005169028416275978
0.000940929632633925 -0.003993229940533638 -0.004580661188811064
0.000940929632633925 -0.0034961437340825796 -0.004518609493970871
0.000940929632633925 -0.0029990572948008776 -0.0043540527112782
0.000940929632633925 -0.002501971088349819 -0.004444100894033909
0.000940929632633925 -0.002004884649068117 -0.004471153486520052
0.000940929632633925 -0.001507798326201737 -0.004060227423906326
0.0009409296326339249 -0.0010107120033353567 -0.0033479915000498295
0.0004438432515598836 -0.010455352254211903 -0.0016340662259608507
0.0004438432515598836 -0.009958265349268913 -0.0016664008144289255
0.0004438432515598837 -0.009461179375648499 -0.002489179139956832
0.00044384325155988374 -0.00896409247070551 -0.0031417105346918106
0.0004438432515598838 -0.008467006497085094 -0.0036261826753616333
0.00044384325155988384 -0.00796992052346468 -0.004037108737975359
0.0004438432515598839 -0.007472834084182978 -0.004242863040417433
0.0004438432515598839 -0.006975748110562563 -0.004335375502705574
0.0004438432515598839 -0.006478661671280861 -0.004427887964993715
0.0004438432515598839 -0.005981575231999159 -0.004460223484784365
0.0004438432515598839 -0.005484488792717457 -0.004522274248301983
0.00044384325155988395 -0.004987402819097042 -0.004811786115169525
0.0004438432515598839 -0.00449031637981534 -0.004460910800844431
0.00044384325155988384 -0.003993229940533638 -0.0038829464465379715
0.00044384325155988395 -0.0034961437340825796 -0.004679045174270868
0.0004438432515598839 -0.0029990572948008776 -0.004510215949267149
0.00044384325155988395 -0.002501971088349819 -0.0047159697860479355
0.0004438432515598839 -0.002004884649068117 -0.004293039441108704
0.0004438432515598839 -0.001507798326201737 -0.0042958552949130535
0.0004438432515598839 -0.0010107120033353567 -0.004238030407577753
0.00044384325155988384 -0.0005136256222613156 -0.003977733198553324
-5.324306403053906e-05 -0.009958265349268913 -0.0014805144164711237
-5.324306403053897e-05 -0.009461179375648499 -0.002204675693064928
-5.324306403053889e-05 -0.00896409247070551 -0.0028516408056020737
-5.3243064030538824e-05 -0.008467006497085094 -0.0034071316476911306
-5.3243064030538757e-05 -0.00796992052346468 -0.003962622489780188
-5.3243064030538736e-05 -0.007472834084182978 -0.004131452180445194
-5.324306403053869e-05 -0.006975748110562563 -0.004521657712757587
-5.32430640305387e-05 -0.006478661671280861 -0.004429145250469446
-5.324306403053869e-05 -0.005981575231999159 -0.004519193433225155
-5.324306403053869e-05 -0.005484488792717457 -0.004546246025711298
-5.324306403053868e-05 -0.004987402819097042 -0.004604071844369173
-5.3243064030538675e-05 -0.00449031637981534 -0.004631125368177891
-5.3243064030538675e-05 -0.003993229940533638 -0.004628307651728392
-5.3243064030538675e-05 -0.0034961437340825796 -0.0046254899352788925
-5.324306403053869e-05 -0.0029990572948008776 -0.004563440568745136
-5.3243064030538696e-05 -0.002501971088349819 -0.004501389805227518
-5.3243064030538696e-05 -0.002004884649068117 -0.004469054285436869
-5.3243064030538716e-05 -0.001507798326201737 -0.004304496571421623
-5.324306403053868e-05 -0.0010107120033353567 -0.004610496573150158
-5.324306403053879e-05 -0.0005136256222613156 -0.003710658522322774
-5.324306403053883e-05 -1.653933577472344e-05 -0.0033792678732424974
-0.0005503293941728769 -0.009958265349268913 -0.0019632193725556135
-0.0005503293941728769 -0.009461179375648499 -0.002025269204750657
-0.0005503293941728767 -0.00896409247070551 -0.0028998558409512043
-0.0005503293941728766 -0.008467006497085094 -0.0033843284472823143
-0.0005503293941728765 -0.00796992052346468 -0.0040965634398162365
-0.0005503293941728765 -0.007472834084182978 -0.004069511312991381
-0.0005503293941728765 -0.006975748110562563 -0.004517650231719017
-0.0005503293941728765 -0.006478661671280861 -0.004520467948168516
-0.0005503293941728765 -0.005981575231999159 -0.004523283801972866
-0.0005503293941728765 -0.005484488792717457 -0.004496231209486723
-0.0005503293941728765 -0.004987402819097042 -0.004588744603097439
-0.0005503293941728765 -0.00449031637981534 -0.00465079490095377
-0.0005503293941728765 -0.003993229940533638 -0.004560746718198061
-0.0005503293941728765 -0.0034961437340825796 -0.004725303966552019
-0.0005503293941728765 -0.0029990572948008776 -0.004817817360162735
-0.0005503293941728765 -0.002501971088349819 -0.004466942977160215
-0.0005503293941728765 -0.002004884649068117 -0.004559455439448357
-0.0005503293941728765 -0.001507798326201737 -0.004469407256692648
-0.0005503293941728765 -0.0010107120033353567 -0.004300577566027641
-0.0005503293941728766 -0.0005136256222613156 -0.0036279670894145966
-0.0005503293941728765 -1.653933577472344e-05 -0.0041825356893241405
-0.0005503293941728766 0.0004805469943676144 -0.0037923287600278854
-0.0005503293941728766 0.0009776332881301641 -0.003119719447568059
-0.0010474156588315962 -0.009461179375648499 -0.0018718676874414089
-0.0010474156588315962 -0.00896409247070551 -0.002403952879831195
-0.001047415658831596 -0.008467006497085094 -0.003076563123613596
-0.001047415658831596 -0.00796992052346468 -0.0036086481995880604
-0.001047415658831596 -0.007472834084182978 -0.0041160862892866135
-0.001047415658831596 -0.006975748110562563 -0.00428491597995162
-0.0010474156588315957 -0.006478661671280861 -0.004453745204955339
-0.0010474156588315957 -0.005981575231999159 -0.004511569626629353
-0.0010474156588315957 -0.005484488792717457 -0.004601618275046349
-0.0010474156588315957 -0.004987402819097042 -0.004691666457802057
-0.0010474156588315957 -0.00449031637981534 -0.004629615228623152
-0.0010474156588315957 -0.003993229940533638 -0.004980490542948246
-0.0010474156588315957 -0.0034961437340825796 -0.0046490998938679695
-0.0010474156588315957 -0.0029990572948008776 -0.004676153417676687
-0.0010474156588315957 -0.002501971088349819 -0.004733978305011988
-0.0010474156588315957 -0.002004884649068117 -0.004528224468231201
-0.0010474156588315957 -0.001507798326201737 -0.004495888948440552
-0.001047415658831596 -0.0010107120033353567 -0.004248370882123709
-0.001047415658831596 -0.0005136256222613156 -0.00424555316567421
-0.001047415658831596 -1.653933577472344e-05 -0.004153040237724781
-0.001047415658831596 0.0004805469943676144 -0.0040909890085458755
-0.001047415658831596 0.0009776332881301641 -0.003606516867876053
-0.0015445019816979766 -0.009958265349268913 -0.0005576089024543764
-0.0015445019816979764 -0.009461179375648499 -0.0008890004246495666
-0.0015445019816979764 -0.00896409247070551 -0.0022247673477977514
-0.0015445019816979762 -0.008467006497085094 -0.0031741054262965918
-0.0015445019816979762 -0.00796992052346468 -0.003762472653761506
-0.0015445019816979762 -0.007472834084182978 -0.004173399414867163
-0.0015445019816979762 -0.006975748110562563 -0.004115574061870575
-0.001544501981697976 -0.006478661671280861 -0.004446964245289564
-0.001544501981697976 -0.005981575231999159 -0.004778354894369841
-0.001544501981697976 -0.005484488792717457 -0.0045639825984835625
-0.001544501981697976 -0.004987402819097042 -0.004656495060771704
-0.001544501981697976 -0.00449031637981534 -0.004598670639097691
-0.001544501981697976 -0.003993229940533638 -0.004846189636737108
-0.001544501981697976 -0.0034961437340825796 -0.0047561414539813995
-0.001544501981697976 -0.0029990572948008776 -0.004758959170430899
-0.001544501981697976 -0.002501971088349819 -0.0047617750242352486
-0.001544501981697976 -0.002004884649068117 -0.004592945799231529
-0.0015445019816979762 -0.001507798326201737 -0.00442411657422781
-0.001544501981697976 -0.0010107120033353567 -0.004456452094018459
-0.0015445019816979762 -0.0005136256222613156 -0.004366403445601463
-0.0015445019816979762 -1.653933577472344e-05 -0.004197574220597744
-0.0015445019816979762 0.0004805469943676144 -0.004229908809065819
-0.0015445019816979762 0.0009776332881301641 -0.0038790337275713682
-0.0015445019816979762 0.0014747197274118662 -0.0037889862433075905
-0.0015445019816979762 0.0019718059338629246 -0.0033358146902173758
-0.0020415885373950005 -0.00896409247070551 -0.0017567729810252788
-0.002041588537395 -0.008467006497085094 -0.0029688836075365548
-0.002041588537395 -0.00796992052346468 -0.003719024593010545
-0.002041588537395 -0.007472834084182978 -0.003933396656066179
-0.002041588537395 -0.006975748110562563 -0.004580362234264612
-0.002041588537395 -0.006478661671280861 -0.004248971119523048
-0.002041588537395 -0.005981575231999159 -0.004599845968186855
-0.002041588537395 -0.005484488792717457 -0.004657672718167305
-0.002041588537395 -0.004987402819097042 -0.004747719969600439
-0.002041588537395 -0.00449031637981534 -0.004715385381132364
-0.002041588537395 -0.003993229940533638 -0.004805433098226786
-0.002041588537395 -0.0034961437340825796 -0.004832485690712929
-0.002041588537395 -0.0029990572948008776 -0.004770434927195311
-0.002041588537395 -0.002501971088349819 -0.0045229168608784676
-0.002041588537395 -0.002004884649068117 -0.004691746085882187
-0.002041588537395 -0.001507798326201737 -0.004444228019565344
-0.002041588537395 -0.0010107120033353567 -0.004534274339675903
-0.002041588537395 -0.0005136256222613156 -0.004369717091321945
-0.002041588537395 -1.653933577472344e-05 -0.00439677108079195
-0.002041588537395 0.0004805469943676144 -0.004107258748263121
-0.002041588537395 0.0009776332881301641 -0.004014746285974979
-0.002041588537395 0.0014747197274118662 -0.003952695522457361
-0.002041588537395 0.0019718059338629246 -0.003541769459843636
-0.002041588537395 0.002468892140313983 -0.0027729456778615717
-0.0025386747438460584 -0.00896409247070551 -0.0025691087357699875
-0.0025386747438460584 -0.008467006497085094 -0.002631159964948893
-0.0025386747438460584 -0.00796992052346468 -0.0035804971121251587
-0.0025386747438460584 -0.007472834084182978 -0.0038700094446539883
-0.0025386747438460584 -0.006975748110562563 -0.004354482050985098
-0.0025386747438460584 -0.006478661671280861 -0.004446995444595814
-0.0025386747438460584 -0.005981575231999159 -0.004449812229722738
-0.0025386747438460584 -0.005484488792717457 -0.0045423246920108795
-0.0025386747438460584 -0.004987402819097042 -0.004634838085621595
-0.0025386747438460584 -0.00449031637981534 -0.00492434948682785
-0.0025386747438460584 -0.003993229940533638 -0.004927166271954775
-0.0025386747438460584 -0.0034961437340825796 -0.004536961205303669
-0.0025386747438460584 -0.0029990572948008776 -0.0048683518543839455
-0.0025386747438460584 -0.002501971088349819 -0.004778303671628237
-0.0025386747438460584 -0.002004884649068117 -0.004840354900807142
-0.0025386747438460584 -0.001507798326201737 -0.004450147971510887
-0.0025386747438460584 -0.0010107120033353567 -0.004614705219864845
-0.0025386747438460584 -0.0005136256222613156 -0.004400332923978567
-0.0025386747438460584 -1.653933577472344e-05 -0.005052864085882902
-0.0025386747438460584 0.0004805469943676144 -0.004302723333239555
-0.0025386747438460584 0.0009776332881301641 -0.0037952854763716464
-0.0025386747438460584 0.0014747197274118662 -0.004126675892621279
-0.0025386747438460584 0.0019718059338629246 -0.00386637868359685
-0.0025386747438460584 0.002468892140313983 -0.003697549225762487
-0.0025386747438460584 0.002965978579595685 -0.0033073432277888064
-0.0030357611831277605 -0.008467006497085094 -0.0024308969732373957
-0.0030357611831277605 -0.00796992052346468 -0.003129226621240378
-0.0030357611831277605 -0.007472834084182978 -0.003610462881624699
-0.0030357611831277605 -0.006975748110562563 -0.004283072892576456
-0.0030357611831277605 -0.006478661671280861 -0.004310125485062599
-0.0030357611831277605 -0.005981575231999159 -0.004524498246610165
-0.0030357611831277605 -0.005484488792717457 -0.004359940532594919
-0.0030357611831277605 -0.004987402819097042 -0.004665940534323454
-0.0030357611831277605 -0.00449031637981534 -0.004926237277686596
-0.0030357611831277605 -0.003993229940533638 -0.004864186979830265
-0.0030357611831277605 -0.0034961437340825796 -0.004771674517542124
-0.0030357611831277605 -0.0029990572948008776 -0.004829498939216137
-0.0030357611831277605 -0.002501971088349819 -0.00462374510243535
-0.0030357611831277605 -0.002004884649068117 -0.004713793750852346
-0.0030357611831277605 -0.001507798326201737 -0.004549236502498388
-0.0030357611831277605 -0.0010107120033353567 -0.004576289094984531
-0.0030357611831277605 -0.0005136256222613156 -0.004286778159439564
-0.0030357611831277605 -1.653933577472344e-05 -0.004313830751925707
-0.0030357611831277605 0.0004805469943676144 -0.004281496163457632
-0.0030357611831277605 0.0009776332881301641 -0.004219444934278727
-0.0030357611831277605 0.0014747197274118662 -0.004126931540668011
-0.0030357611831277605 0.0019718059338629246 -0.003962373826652765
-0.0030357611831277605 0.002468892140313983 -0.003869861597195268
-0.0030357611831277605 0.002965978579595685 -0.003622342366725207
-0.0030357611831277605 0.0034630647860467434 -0.0035298294387757783
-0.0030357611831277605 0.0039601512253284454 -0.002761007053777576
-0.003532847389578819 -0.008467006497085094 -0.0023328573442995553
-0.003532847389578819 -0.00796992052346468 -0.0030156623106449847
-0.003532847389578819 -0.007472834084182978 -0.0034265883732587103
-0.003532847389578819 -0.006975748110562563 -0.004079119767993689
-0.003532847389578819 -0.006478661671280861 -0.004368631634861231
-0.003532847389578819 -0.005981575231999159 -0.004533187951892614
-0.003532847389578819 -0.005484488792717457 -0.004565523471683264
-0.003532847389578819 -0.004987402819097042 -0.004658037796616554
-0.003532847389578819 -0.00449031637981534 -0.0047200871631503105
-0.003532847389578819 -0.003993229940533638 -0.00475242268294096
-0.003532847389578819 -0.0034961437340825796 -0.004814473446458578
-0.003532847389578819 -0.0029990572948008776 -0.004906985908746719
-0.003532847389578819 -0.002501971088349819 -0.004849161021411419
-0.003532847389578819 -0.002004884649068117 -0.004851978737860918
-0.003532847389578819 -0.001507798326201737 -0.004637605976313353
-0.003532847389578819 -0.0010107120033353567 -0.004610552452504635
-0.003532847389578819 -0.0005136256222613156 -0.0045205047354102135
-0.003532847389578819 -1.653933577472344e-05 -0.004613017197698355
-0.003532847389578819 0.0004805469943676144 -0.004307018127292395
-0.003532847389578819 0.0009776332881301641 -0.004138188436627388
-0.003532847389578819 0.0014747197274118662 -0.004230700898915529
-0.003532847389578819 0.0019718059338629246 -0.004140653181821108
-0.003532847389578819 0.002468892140313983 -0.004050605930387974
-0.003532847389578819 0.002965978579595685 -0.003790308721363545
-0.003532847389578819 0.0034630647860467434 -0.003763255197554827
-0.003532847389578819 0.0039601512253284454 -0.0031852908432483677
-0.003532847389578819 0.0044572376646101475 -0.003217626363039017
-0.004029933363199234 -0.00796992052346468 -0.0025906483642756943
-0.004029933363199234 -0.007472834084182978 -0.00316861248575151
-0.004029933363199233 -0.006975748110562563 -0.003649847581982613
-0.004029933363199233 -0.006478661671280861 -0.004103018436580897
-0.004029933363199233 -0.005981575231999159 -0.0044538937509059915
-0.004029933363199233 -0.005484488792717457 -0.004511718638241292
-0.004029933363199233 -0.004987402819097042 -0.004601766820997001
-0.004029933363199233 -0.00449031637981534 -0.004569432232528926
-0.004029933363199233 -0.003993229940533638 -0.004627258051186801
-0.004029933363199233 -0.0034961437340825796 -0.00479608727619052
-0.004029933363199233 -0.0029990572948008776 -0.004631529562175275
-0.004029933363199233 -0.002501971088349819 -0.0047215777449309835
-0.004029933363199233 -0.002004884649068117 -0.004557020496577025
-0.004029933363199233 -0.001507798326201737 -0.004524684976786376
-0.004029933363199233 -0.0010107120033353567 -0.004318931605666877
-0.004029933363199233 -0.0005136256222613156 -0.0041131782345473775
-0.004029933363199233 -1.653933577472344e-05 -0.004373475443571807
-0.004029933363199233 0.0004805469943676144 -0.004370657727122308
-0.004029933363199233 0.0009776332881301641 -0.004308607429265977
-0.004029933363199233 0.0014747197274118662 -0.004216094035655261
-0.004029933363199233 0.0019718059338629246 -0.004123581107705832
-0.004029933363199233 0.002468892140313983 -0.0040615308098495015
-0.004029933363199233 0.002965978579595685 -0.0038969733286648993
-0.004029933363199233 0.0034630647860467434 -0.003834922099485994
-0.004029933363199233 0.0039601512253284454 -0.003742409404367209
-0.004029933363199233 0.0044572376646101475 -0.003577851923182607
-0.004029933363199234 0.004954323638230562 -0.0031669258605688815
-0.004527019802480936 -0.00796992052346468 -0.002941645216196776
-0.004527019802480936 -0.007472834084182978 -0.0029739807359874253
-0.004527019802480935 -0.006975748110562563 -0.0037700792308896784
-0.004527019802480935 -0.006478661671280861 -0.004059591330587865
-0.004527019802480935 -0.005981575231999159 -0.0044705173932015905
-0.004527019802480935 -0.005484488792717457 -0.004532568622380496
-0.004527019802480935 -0.004987402819097042 -0.004594619385898114
-0.004527019802480935 -0.00449031637981534 -0.004687131848186255
-0.004527019802480935 -0.003993229940533638 -0.004719467367976905
-0.004527019802480935 -0.0034961437340825796 -0.004781517665833236
-0.004527019802480935 -0.0029990572948008776 -0.0047544650733470925
-0.004527019802480935 -0.002501971088349819 -0.004727411549538375
-0.004527019802480935 -0.002004884649068117 -0.0048919697292149076
-0.004527019802480935 -0.001507798326201737 -0.004631671588867904
-0.004527019802480935 -0.0010107120033353567 -0.0045416243374347695
-0.004527019802480935 -0.0005136256222613156 -0.0044837985187768945
-0.004527019802480935 -1.653933577472344e-05 -0.004545848816633225
-0.004527019802480935 0.0004805469943676144 -0.004455800633877517
-0.004527019802480935 0.0009776332881301641 -0.004458618350327016
-0.004527019802480935 0.0014747197274118662 -0.004368570167571307
-0.004527019802480935 0.0019718059338629246 -0.004310745280236007
-0.004527019802480935 0.002468892140313983 -0.0040963729843497285
-0.004527019802480936 0.002965978579595685 -0.0027907087933272128
-0.004527019802480935 0.0034630647860467434 -0.003940957598388196
-0.004527019802480935 0.0039601512253284454 -0.003913904074579478
-0.004527019802480935 0.0044572376646101475 -0.0038238561246544127
-0.004527019802480936 0.004954323638230562 -0.0034729808103293185
-0.004527019802480936 0.005451410077512264 -0.0027488204650580887
-0.005024106241762638 -0.007472834084182978 -0.0026644379831850533
-0.005024106241762638 -0.006975748110562563 -0.0033370482269674544
-0.005024106241762637 -0.006478661671280861 -0.0038925395347177987
-0.005024106241762637 -0.005981575231999159 -0.00439997622743249
-0.005024106241762637 -0.005484488792717457 -0.004490023944526912
-0.005024106241762637 -0.004987402819097042 -0.00439751148223877
-0.005024106241762637 -0.00449031637981534 -0.004748386796563865
-0.005024106241762637 -0.003993229940533638 -0.004716051276773215
-0.005024106241762637 -0.0034961437340825796 -0.004653999581933022
-0.005024106241762637 -0.0029990572948008776 -0.0046511837281286725
-0.005024106241762637 -0.002501971088349819 -0.0047412323765456685
-0.005024106241762637 -0.002004884649068117 -0.004186663310974837
-0.005024106241762637 -0.001507798326201737 -0.004576869308948518
-0.005024106241762637 -0.0010107120033353567 -0.004544534720480443
-0.005024106241762637 -0.0005136256222613156 -0.004541717004030944
-0.005024106241762637 -1.653933577472344e-05 -0.004479666706174613
-0.005024106241762637 0.0004805469943676144 -0.004315109457820655
-0.005024106241762637 0.0009776332881301641 -0.004372934345155955
-0.005024106241762637 0.0014747197274118662 -0.0035768360830843453
-0.005024106241762637 0.0019718059338629246 -0.004223800729960204
-0.005024106241762637 0.002468892140313983 -0.004131288267672063
-0.005024106241762637 0.002965978579595685 -0.004128470551222564
-0.005024106241762637 0.0034630647860467434 -0.003717544255778194
-0.005024106241762637 0.0039601512253284454 -0.00397784123197198
-0.005024106241762637 0.0044572376646101475 -0.0037303224671632056
-0.005024106241762638 0.004954323638230562 -0.003210379742085934
-0.005024106241762638 0.005451410077512264 -0.002075208351016045
-0.00552119268104434 -0.007472834084182978 -0.0024021470453590163
-0.00552119268104434 -0.006975748110562563 -0.003424141788855196
-0.005521192681044339 -0.006478661671280861 -0.003944084513932467
-0.005521192681044339 -0.005981575231999159 -0.004392223898321391
-0.005521192681044339 -0.005484488792717457 -0.004484736360609532
-0.005521192681044339 -0.004987402819097042 -0.004577249754220248
-0.005521192681044339 -0.00449031637981534 -0.004639300052076579
-0.005521192681044339 -0.003993229940533638 -0.00454925186932087
-0.005521192681044339 -0.0034961437340825796 -0.004522198345512153
-0.005521192681044339 -0.0029990572948008776 -0.004686756059527398
-0.005521192681044339 -0.002501971088349819 -0.004659703467041255
-0.005521192681044339 -0.002004884649068117 -0.004662520252168179
-0.005521192681044339 -0.001507798326201737 -0.004665337502956391
-0.005521192681044339 -0.0010107120033353567 -0.004668154288083316
-0.005521192681044339 -0.0005136256222613156 -0.00457810563966632
-0.005521192681044339 -1.653933577472344e-05 -0.004551053047180177
-0.00552119268104434 0.0004805469943676144 -0.0032453895546495923
-0.005521192681044339 0.0009776332881301641 -0.00441690580919385
-0.005521192681044339 0.0014747197274118662 -0.004449241794645787
-0.005521192681044339 0.0019718059338629246 -0.004359193146228791
-0.005521192681044339 0.002468892140313983 -0.0041903634555637845
-0.005521192681044339 0.002965978579595685 -0.004100315738469363
-0.005521192681044339 0.0034630647860467434 -0.004073262214660645
-0.005521192681044339 0.0039601512253284454 -0.00404620822519064
-0.00552119268104434 0.0044572376646101475 -0.0035387719981372365
-0.00552119268104434 0.004954323638230562 -0.003232772462069989
-0.00552119268104434 0.005451410077512264 -0.002585806883871556
-0.00552119268104434 0.005948496516793966 -0.0026181424036622056
-0.00552119268104434 0.006445582956075668 -0.0008607910713180906
-0.006018278654664755 -0.006975748110562563 -0.002306874608621002
-0.006018278654664755 -0.006478661671280861 -0.0034564293455332526
-0.006018278654664754 -0.005981575231999159 -0.003988515119999648
-0.006018278654664754 -0.005484488792717457 -0.004411446861922742
-0.006018278654664754 -0.004987402819097042 -0.004438499454408885
-0.006018278654664754 -0.00449031637981534 -0.00440616486594081
-0.006018278654664754 -0.003993229940533638 -0.004757040180265904
-0.006018278654664754 -0.0034961437340825796 -0.003960940521210433
-0.006018278654664754 -0.0029990572948008776 -0.004129770677536727
-0.006018278654664754 -0.002501971088349819 -0.004519976675510407
-0.006018278654664754 -0.002004884649068117 -0.004610025323927403
-0.006018278654664754 -0.001507798326201737 -0.004607207141816617
-0.006018278654664754 -0.0010107120033353567 -0.004634260665625335
-0.006018278654664754 -0.0005136256222613156 -0.004469702951610089
-0.006018278654664754 -1.653933577472344e-05 -0.004407653585076333
-0.006018278654664754 0.0004805469943676144 -0.004622025415301324
-0.006018278654664754 0.0009776332881301641 -0.004559975117444993
-0.006018278654664754 0.0014747197274118662 -0.004395417869091035
-0.006018278654664754 0.0019718059338629246 -0.0039472775533795365
-0.006018278654664754 0.002468892140313983 -0.0036577654536813506
-0.006018278654664754 0.002965978579595685 -0.003918063826858998
-0.006018278654664754 0.0034630647860467434 -0.0037535063456743964
-0.006018278654664754 0.0039601512253284454 -0.003588948631659151
-0.006018278654664755 0.0044572376646101475 -0.0031780225690454253
-0.006018278654664755 0.004954323638230562 -0.002465786179527641
-0.006018278654664755 0.005451410077512264 -0.00118468631990254
-0.006018278654664755 0.005948496516793966 -0.00012463804159779175
-0.006515365093946457 -0.006478661671280861 -0.0031994238961488017
-0.006515365093946456 -0.005981575231999159 -0.0036103506572544583
-0.006515365093946456 -0.005484488792717457 -0.004351238720119
-0.006515365093946456 -0.004987402819097042 -0.004515796434134246
-0.006515365093946456 -0.00449031637981534 -0.004425749182701112
-0.006515365093946456 -0.003993229940533638 -0.004335700999945403
-0.006515365093946456 -0.0034961437340825796 -0.004245652351528407
-0.006515365093946456 -0.0029990572948008776 -0.004307702649384738
-0.006515365093946456 -0.002501971088349819 -0.004340038634836675
-0.006515365093946456 -0.002004884649068117 -0.00431298464536667
-0.006515365093946456 -0.001507798326201737 -0.004315802827477456
-0.006515365093946456 -0.0010107120033353567 -0.004377853125333787
-0.006515365093946456 -0.0005136256222613156 -0.004380669910460711
