ply
format ascii 1.0
element vertex 728
property float x
property float y
property float z
end_header
0.007547004492588176 0.006415481061981362 -0.003340334158057271
0.007069051389453919 0.006691427414735942 -0.0033762337949528026
0.006591098286319661 0.006967373767490523 -0.0029866726284107337
0.006113145069232504 0.0072433201860358405 -0.0015371882091036921
0.014440354494198808 0.0017983333865029438 -0.0019122962033057168
0.013962401391064552 0.0020742797392575237 -0.00201227286040723
0.013484448287930294 0.0023502260920121045 -0.0026030231543623696
0.013006495184796036 0.0026261724447666853 -0.002567123517466838
0.012528542081661778 0.0029021187975212664 -0.002956684684008907
0.012050588978527522 0.0031780651502758463 -0.0029207839944615783
0.011572636331204863 0.003454011239867478 -0.0027380836432164975
0.011094683228070605 0.0037299575926220585 -0.00250964399240051
0.010616730124936347 0.004005903945376639 -0.0027476522480540644
0.01013877702180209 0.00428185029813122 -0.003494421328147815
0.009660823918667833 0.0045577966508858 -0.0034912944259839
0.009182870815533576 0.004833743003640381 -0.0035912700304336154
0.008704917712399318 0.005109689356394961 -0.003588142601943801
0.00822696460926506 0.005385635709149542 -0.0036181789683283044
0.007749011506130802 0.0056615820619041225 -0.0036150510135125914
0.007271058402996545 0.005937528414658703 -0.0035461591639857045
0.006793105299862288 0.006213474767413284 -0.003363458286414725
0.00631515219672803 0.006489421120167865 -0.0032607447346402006
0.005837198979640873 0.006765367538713182 -0.0024071551817847116
0.015120314347712743 0.0007684875778595244 -0.0013992081904897191
0.014164408141444228 0.001320380283368686 -0.001204455239328364
0.013686455038309972 0.001596326636123266 -0.002505138116382116
0.013208501935175714 0.001872272988877847 -0.002961371616136439
0.012730548832041454 0.0021482193416324275 -0.002964499570952152
0.012252595728907197 0.0024241656943870087 -0.003033391420479039
0.01177464262577294 0.0027001120471415885 -0.003136103919601766
0.011296689978450281 0.0029760581367332204 -0.0028980956639482122
0.010818736875316023 0.0032520044894878007 -0.002933996353495541
0.010340783772181767 0.003527950842242381 -0.0035112653358825045
0.00986283066904751 0.003803897194996962 -0.003613977835005232
0.009384877565913252 0.004079843547751543 -0.003716690860453858
0.008906924462778994 0.004355789900506123 -0.003785583762632542
0.008428971359644736 0.004631736253260703 -0.003685607105531029
0.007951018256510478 0.004907682606015284 -0.0036887350603467418
0.0074730651533762215 0.005183628958769865 -0.003658699220288137
0.006995112050241965 0.0054595753115244455 -0.003628662853903634
0.006517158947107707 0.005735521664279026 -0.003441219253659865
0.006039205843973449 0.006011468017033607 -0.003007989879958101
0.005561252626886292 0.006287414435578924 -0.002414164263777114
0.014366414891823906 0.0005664808274798475 -0.0016806096480209206
0.013888461788689646 0.0008424271802344283 -0.0022149035944567194
0.01341050868555539 0.0011183735329890082 -0.0031356954907044094
0.012932555582421132 0.0013943198857435891 -0.0030668041675034207
0.012454602479286874 0.00167026623849817 -0.0033048118968310764
0.011976649376152617 0.0019462125912527507 -0.0033348482632155796
0.01149869627301836 0.0022221589440073308 -0.0033317203083998667
0.011020743625695701 0.0024981050335989626 -0.003328593406235951
0.010542790522561444 0.002774051386353543 -0.003100153755419964
0.010064837419427188 0.003049997739108124 -0.0036909040493751035
0.00958688431629293 0.003325944091862705 -0.003755104756167269
0.009108931213158672 0.003601890444617285 -0.004258239683076732
0.008630978110024414 0.0038778367973718664 -0.003890311563621223
0.008153025006890156 0.004153783150126446 -0.003954512270413389
0.007675071903755899 0.004429729502881026 -0.003338799918062689
0.007197118800621642 0.004705675855635608 -0.003678537496060281
0.006719165697487385 0.004981622208390189 -0.0036754100675704666
0.006241212594353127 0.005257568561144769 -0.003606517691717681
0.005763259491218869 0.005533514913899349 -0.0026074679765765198
0.014568421642203582 -0.00018741862840899028 -0.0018542361407731713
0.014090468539069324 8.852772434559054e-05 -0.0017542594836716583
0.013612515435935066 0.00036447407710017135 -0.002780951308684336
0.01313456233280081 0.0006404204298547513 -0.0023913901421422673
0.012656609229666552 0.0009163667826093321 -0.003304882950827395
0.012178656126532295 0.001192313135363913 -0.0033407836403747237
0.011700703023398037 0.0014682594881184946 -0.0036155926028623086
0.01122274992026378 0.0017442058408730736 -0.003515616472086694
0.010744797272941121 0.0020201519304647066 -0.003551517161634023
0.010266844169806864 0.002296098283219286 -0.00352148079524952
0.009788891066672608 0.002572044635973867 -0.003977713768677945
0.00931093796353835 0.002847990988728448 -0.00394767792861934
0.008832984860404092 0.0031239373414830283 -0.004016570304472126
0.008355031757269834 0.0033998836942376095 -0.0037785609961667743
0.007877078654135576 0.00367583004699219 -0.0038812750742671974
0.007399125551001319 0.00395177639974677 -0.004063975951838177
0.006921172447867062 0.004227722752501351 -0.003724238373840585
0.006443219344732804 0.004503669105255931 -0.00329100952646472
0.005965266241598546 0.004779615458010512 -0.0036589386985720258
0.005487313138464288 0.005055561810765092 -0.0031246431731585308
0.005009359921377131 0.00533150822931041 -0.002047942492885049
0.014292475289449002 -0.0006653717315432481 -0.0012875073608326936
0.013814522186314744 -0.00038942537878866725 -0.002005804841438646
0.013336569083180486 -0.00011347902603408643 -0.002671753421838369
0.01285861598004623 0.00016246732672049353 -0.0027017897882228724
0.012380662876911972 0.0004384136794750743 -0.0033185268970982555
0.011902709773777713 0.0007143600322296552 -0.003505970497342025
0.011424756670643455 0.000990306384984236 -0.0035028420162004133
0.0109468035675092 0.0012662527377388167 -0.0036902861427700814
0.01046885092018654 0.0015421988273304488 -0.003928295451075432
0.009990897817052284 0.001818145180085029 -0.0039924956315416996
0.009512944713918026 0.0020940915328396094 -0.004022531997926203
0.009034991610783768 0.00237003788559419 -0.004086732704718369
0.00855703850764951 0.0026459842383487705 -0.0040178398025396845
0.008079085404515253 0.0029219305911033517 -0.00408204050933185
0.007601132301380996 0.003197876943857932 -0.0038993396317608705
0.007123179198246738 0.0034738232966125128 -0.003929375998145373
0.006645226095112481 0.0037497696493670935 -0.0037009363473293863
0.006167272991978223 0.004025716002121673 -0.003518235469758407
0.005689319888843965 0.004301662354876254 -0.0034155229706356793
0.005211366785709708 0.0045776087076308345 -0.0027998106182849794
0.004733413568622551 0.004853555126176152 -0.001946221065429491
0.01449448203982868 -0.0014192711874320859 -0.0019525006597263565
0.014016528936694422 -0.001143324834677505 -0.0016635040563145994
0.013538575833560164 -0.0008673784819229241 -0.0024215907222071512
0.013060622730425905 -0.0005914321291683434 -0.0027895198943144565
0.012582669627291649 -0.0003154857764137634 -0.003110950804904994
0.01210471652415739 -3.953942365918258e-05 -0.0034788799770122994
0.011626763421023133 0.00023640692909539823 -0.0034820074055021137
0.011148810317888875 0.0005123532818499799 -0.0037568168943155973
0.01067085721475462 0.0007882996346045599 -0.0037927170575370274
0.01019290456743196 0.0010642457241961919 -0.003895430082985653
0.009714951464297702 0.0013401920769507722 -0.003964322985164337
0.009236998361163446 0.0016161384297053525 -0.004332251104619846
0.008759045258029188 0.0018920847824599335 -0.003992513526622254
0.00828109215489493 0.0021680311352145136 -0.004530401226294076
0.007803139051760673 0.0024439774879690948 -0.004097173431570009
0.007325185948626416 0.002719923840723675 -0.0039097282523485434
0.006847232845492158 0.002995870193478256 -0.003912856733490155
0.0063692797423579 0.0032718165462328366 -0.003848656026697989
0.005891326639223643 0.003547762898987417 -0.003559659423286232
0.005413373536089385 0.003823709251741997 -0.0032706633462003735
0.004935420432955128 0.004099655604496578 -0.0026047142394747514
0.004457467215867971 0.004375602023041895 -0.002494204222163435
0.003979514112733713 0.004651548375796476 -0.0017474351420696842
0.014218535687074098 -0.0018972242905663436 -0.0020287679140711104
0.01374058258393984 -0.0016212779378117629 -0.0017073354245028774
0.013262629480805583 -0.001345331585057182 -0.002349023538929949
0.012784676377671325 -0.0010693852323026012 -0.003014972645655571
0.012306723274537069 -0.0007934388795480212 -0.0029460807961286836
0.011828770171402811 -0.0005174925267934395 -0.0035877683842298566
0.011350817068268553 -0.0002415461740388587 -0.0036519690910220225
0.010872863965134295 3.4400178715722135e-05 -0.003716169797814188
0.01039491086200004 0.0003103465314703021 -0.0039036133980579575
0.009916958214677378 0.0005862926210619341 -0.00400359005515947
0.009439005111543122 0.0008622389738165144 -0.003967689365612142
0.008961052008408864 0.0011381853265710947 -0.004155132965855911
0.008483098905274607 0.0014141316793256757 -0.004152006063691995
0.008005145802140349 0.001690078032080256 -0.004049291985591572
0.007527192699006092 0.001966024384834837 -0.003866591634346491
0.007049239595871834 0.0022419707375894173 -0.0037638786088978653
0.006571286492737576 0.002517917090343998 -0.003661166109775138
0.0060933333896033195 0.002793863443098579 -0.003899173839102794
0.005615380286469062 0.0030698097958531583 -0.0028724825404160144
0.005137427183334804 0.003345756148607739 -0.002869355638252099
0.004659474080200546 0.0036217025013623194 -0.002253643285901399
0.014420542437453774 -0.0026511237464551807 -0.0018009940655169233
0.013942589334319518 -0.0023751773937006003 -0.0019836944167620045
0.01346463623118526 -0.0020992310409460196 -0.0024812444995608277
0.012986683128051003 -0.0018232846881914388 -0.0025501363490877146
0.012508730024916743 -0.001547338335436858 -0.0032033741590348943
0.012030776921782487 -0.0012713919826822782 -0.0033860750366058743
0.011552823818648231 -0.0009954456299276972 -0.0035687759141768537
0.011074870715513972 -0.0007194992771731165 -0.003604676603724183
0.010596917612379714 -0.00044355292441853564 -0.0037873769549692637
0.010118964509245458 -0.0001676065716639557 -0.0038900899804178895
0.009641011861922798 0.00010833951792767622 -0.004387640063216712
0.00916305875878854 0.0003842858706822566 -0.0038533450641291163
0.008685105655654285 0.000660232223436837 -0.003922236387330105
0.008207152552520027 0.0009361785761914178 -0.004197045876143588
0.007729199449385769 0.0012121249289459982 -0.004009602275899819
0.007251246346251511 0.001488071281700579 -0.004045502965447147
0.006773293243117254 0.0017640176344551593 -0.004015466599062644
0.0062953401399829965 0.0020399639872097403 -0.004018593501226559
0.005817387036848739 0.002315910339964321 -0.003629032334684491
0.005339433933714481 0.0025918566927189014 -0.0028250295237190843
0.004861480830580223 0.002867803045473482 -0.002536033446633226
0.004383527727445966 0.0031437493982280624 -0.003189271256580406
0.0039055745103588092 0.0034196958167733806 -0.0027197096060944154
0.013666642981564937 -0.0028531304968348586 -0.002151774487194218
0.013188689878430679 -0.002577184144080278 -0.00249151206519181
0.012710736775296421 -0.002301237791325697 -0.0024226191630131256
0.012232783672162163 -0.0020252914385711163 -0.003140916643619078
0.011754830569027907 -0.0017493450858165364 -0.003328360243862847
0.01127687746589365 -0.0014733987330619546 -0.0036680978218604386
0.010798924362759392 -0.0011974523803073738 -0.003768073952636053
0.010320971259625134 -0.000921506027552793 -0.003955518079205721
0.009843018156490878 -0.000645559674798213 -0.0036807085903922377
0.009365065509168219 -0.00036961358520658114 -0.004020445642063931
0.00888711240603396 -9.366723245200075e-05 -0.004050482008448433
0.008409159302899703 0.00018227912030257965 -0.004237925608692203
0.007931206199765445 0.00045822547305716043 -0.004267961975076706
0.007453253096631188 0.0007341718258117409 -0.0038117290016482816
0.0069752999934969305 0.0010101181785663216 -0.003999172601892051
0.0064973468903626735 0.001286064531320902 -0.0038964601027693235
0.006019393787228416 0.001562010884075483 -0.003713759225198344
0.005541440684094158 0.0018379572368300626 -0.003216210195051318
0.0050634875809599 0.002113903589584643 -0.002894777705483085
0.004585534477825642 0.002389849942339224 -0.001952260128790671
0.0041075813746913855 0.0026657962950938042 -0.0012990220556805417
0.013868649731944613 -0.0036070299527236963 -0.0022072455526312745
0.013390696628810357 -0.003331083599969116 -0.0021772102388985686
0.012912743525676099 -0.003055137247214535 -0.002452018675060255
0.012434790422541841 -0.0027791908944599544 -0.0029082516484886796
0.011956837319407583 -0.0025032445417053737 -0.0032296841380569127
0.011478884216273327 -0.0022272981889507938 -0.0035044936268703963
0.01100093111313907 -0.0019513518361962128 -0.0036072061259931234
0.01052297801000481 -0.001675405483441632 -0.0037099202040935465
0.010045024906870552 -0.0013994591306870513 -0.003812632703216274
0.009567071803736296 -0.0011235127779324714 -0.003881524552743161
0.009089119156413637 -0.0008475666883408393 -0.003950417454921845
0.008611166053279379 -0.000571620335586259 -0.0040531299540445724
0.008133212950145123 -0.0002956739828316786 -0.0039889292472524065
0.007655259847010865 -1.9727630077097772e-05 -0.0034857943203429444
0.0071773067438766075 0.00025621872267748264 -0.004101506672693643
0.00669935364074235 0.0005321650754320634 -0.004071470306309141
0.006221400537608093 0.0008081114281866438 -0.004007270125842874
0.005743447434473835 0.0010840577809412247 -0.003943069419050708
0.005265494331339577 0.0013600041336958052 -0.0039130330526662045
0.00478754122820532 0.0016359504864503858 -0.002771163752272929
0.0043095881250710625 0.0019118968392049665 -0.0016292933992278552
0.0038316350219368047 0.002187843191959547 -0.0016981852487547423
0.013114750276055775 -0.0038090367031033733 -0.0021677058458206377
0.012636797172921517 -0.0035330903503487925 -0.0025572670123627066
0.01215884406978726 -0.0032571439975942118 -0.0028970040640344
0.011680890966653002 -0.002981197644839631 -0.0029612047708265656
0.011202937863518746 -0.002705251292085051 -0.003350765937368635
0.010724984760384488 -0.0024293049393304704 -0.0036905035153662266
0.01024703165725023 -0.0021533585865758896 -0.003507802637795247
0.009769078554115972 -0.0018774122338213086 -0.003695246238039016
0.009291125450981716 -0.0016014658810667287 -0.0038826903646086842
0.008813172803659057 -0.0013255197914750967 -0.004070133964852454
0.0083352197005248 -0.0010495734387205163 -0.004134334671644619
0.007857266597390541 -0.0007736270859659359 -0.00395163379407364
0.0073793134942562845 -0.0004976807332113551 -0.004139077394317409
0.006901360391122028 -0.00022173438045677474 -0.004070185544790522
0.006423407287987769 5.4211972297806076e-05 -0.00425762967136019
0.005945454184853512 0.0003301583250523865 -0.0036419167926835913
0.005467501081719254 0.0006061046778069672 -0.0033671088828478037
0.004989547978584997 0.0008820510305615479 -0.00309229939403432
0.0045115948754507395 0.0011579973833161284 -0.0022697230684312402
0.004033641772316482 0.0014339437360707092 -0.0030164921485249913
0.012838803923301195 -0.004286989806237631 -0.00219613691821424
0.012360850820166937 -0.00401104345348305 -0.0026936859483612657
0.01188289771703268 -0.003735097100728469 -0.0029684954371747493
0.011404944613898422 -0.0034591507479738884 -0.0032899263477652865
0.010926991510764166 -0.0031832043952193085 -0.0033926404258657096
0.010449038407629908 -0.0029072580424647277 -0.003461531749066698
0.00997108530449565 -0.002631311689710147 -0.0036899713998826853
0.009493132201361392 -0.0023553653369555658 -0.0037588632494095723
0.009015179098227135 -0.002079418984200986 -0.003987302373899661
0.008537226450904475 -0.001803472894609354 -0.0039572665338410565
0.00805927334777022 -0.0015275265418547737 -0.004026158909693843
0.0075813202446359616 -0.0012515801891001934 -0.004029286338183656
0.007103367141501704 -0.0009756338363456125 -0.004131999889958182
0.006625414038367447 -0.0006996874835910321 -0.003944555237062615
0.006147460935233188 -0.00042374113083645126 -0.004047268788837139
0.005669507832098931 -0.00014779477808187088 -0.003859824135941572
0.0051915547289646735 0.00012815157467270993 -0.0036218158802880183
0.0047136016258304166 0.0004040979274272905 -0.0031885880855639505
0.004235648522696159 0.0006800442801818712 -0.002175775474498832
0.012562857570546614 -0.004764942909371889 -0.0014092615414799492
0.012084904467412358 -0.004488996556617307 -0.0025511311050361745
0.0116069513642781 -0.0042130502038627265 -0.002940692271578244
0.01112899826114384 -0.003937103851108146 -0.003178701579883595
0.010651045158009584 -0.003661157498353566 -0.0033661451801273645
0.010173092054875326 -0.003385211145598985 -0.0035535887803711335
0.009695138951741069 -0.0031092647928444043 -0.003741032380614903
0.00921718584860681 -0.0028333184400898236 -0.0038410090377164158
0.008739232745472555 -0.0025573720873352437 -0.003940985694817929
0.008261280098149896 -0.002281425997743612 -0.003971021534876534
0.007783326995015638 -0.002005479644989031 -0.004209029790530088
0.007305373891881381 -0.001729533292234451 -0.00417312910098276
0.006827420788747123 -0.00145358693947987 -0.004070416601860032
0.006349467685612866 -0.0011776405867252896 -0.0040345159123127035
0.005871514582478608 -0.0009016942339707089 -0.0037597074761510168
0.0053935614793443505 -0.0006257478812161285 -0.003484897987337533
0.004915608376210093 -0.00034980152846154764 -0.0025714051786524055
0.004437655273075836 -7.385517570696705e-05 -0.002249973215410071
0.01276486432092629 -0.005518842365260726 -0.0016437728878628327
0.012286911217792034 -0.005242896012506146 -0.0018264735022708628
0.011808958114657776 -0.004966949659751565 -0.0025509500489270375
0.011331005011523518 -0.004691003306996984 -0.0030888377485988596
0.01085305190838926 -0.0044150569542424035 -0.0032715386261698396
0.010375098805255004 -0.004139110601487824 -0.003374252177944364
0.009897145702120747 -0.0038631642487332424 -0.0035569530555153435
0.009419192598986489 -0.0035872178959786617 -0.003924881174970852
0.008941239495852231 -0.003311271543224081 -0.0038249045178693386
0.008463286392717975 -0.003035325190469501 -0.0037607043374030718
0.007985333745395314 -0.002759379100877869 -0.0039891434618931606
0.007507380642261058 -0.0024834327481232884 -0.0040250430987886915
0.0070294275391268 -0.002207486395368708 -0.004127757176889115
0.006551474435992542 -0.0019315400426141273 -0.003940313050319447
0.006073521332858285 -0.001655593689859547 -0.003976212687214978
0.0055955682297240275 -0.0013796473371049662 -0.003912011980422813
0.005117615126589771 -0.001103700984350386 -0.0037245683801790438
0.004639662023455513 -0.000827754631595805 -0.0033350072136369745
0.004161708920321255 -0.0005518082788412244 -0.002414215317389285
0.0036837558171869977 -0.0002758619260866438 -0.0012060171114326268
0.012010964832142085 -0.005720849172616853 -0.001733239079931134
0.011533011729007827 -0.005444902819862272 -0.0023499756624806183
0.01105505862587357 -0.005168956467107692 -0.0028531111157159795
0.010577105522739312 -0.004893010114353111 -0.0031928486937135713
0.010099152419605056 -0.004617063761598531 -0.0033802922939573407
0.009621199316470798 -0.00434111740884395 -0.0033114004444304537
0.009143246213336538 -0.0040651710560893695 -0.00374462876548042
0.00866529311020228 -0.0037892247033347883 -0.003932073418375987
0.008187340007068025 -0.0035132783505802084 -0.003703634293885898
0.007709387359745365 -0.0032373322609885766 -0.00420676922079536
0.007231434256611108 -0.002961385908233996 -0.0042368055871798635
0.0067534811534768514 -0.0026854395554794155 -0.0037392555043810403
0.006275528050342594 -0.0024094932027248347 -0.003926700157276607
0.005797574947208336 -0.0021335468499702544 -0.0036518906684631235
0.005319621844074078 -0.0018576004972156736 -0.0036487627136474105
0.004841668740939821 -0.0015816541444610933 -0.0034203230628314235
0.004363715637805563 -0.0013057077917065125 -0.0025667340363018337
0.0038857625346713056 -0.0010297614389519318 -0.0015400424744521047
0.012212971598969445 -0.006474748600017466 -0.001714780304339368
0.011735018495835189 -0.006198802247262886 -0.0015273367040955987
0.011257065392700931 -0.0059228558945083045 -0.0026352679842176346
0.010779112289566673 -0.005646909541753724 -0.0031731556838894568
0.010301159186432415 -0.005370963188999143 -0.0031762841650310684
0.00982320608329816 -0.005095016836244563 -0.003358985042602048
0.009345252980163902 -0.004819070483489982 -0.003541685393847129
0.008867299877029644 -0.004543124130735402 -0.0035448128223369434
0.008389346773895386 -0.004267177777980821 -0.0042692888426672185
0.007911393670761128 -0.003991231425226241 -0.003766153389431858
0.007433441023438469 -0.0037152853356346087 -0.0037692818705734694
0.006955487920304212 -0.0034393389828800284 -0.004090713833815804
0.006477534817169955 -0.003163392630125448 -0.0039032702335720345
0.005999581714035697 -0.0028874462773708673 -0.0042711983530275425
0.0055216286109014395 -0.002611499924616287 -0.0038816371864854736
0.005043675507767182 -0.002335553571861706 -0.003851600820100971
0.004565722404632925 -0.002059607219107126 -0.0033173058210133745
0.004087769301498667 -0.0017836608663525449 -0.0024554050558922083
0.0036098161983644096 -0.0015077145135979643 -0.0015642042543187586
0.003131863095230152 -0.0012317681608433838 -0.0015000038106895422
0.011459072141024648 -0.006676755353958171 -0.0018450380693682592
0.01098111903789039 -0.0064008090012035905 -0.0023481735226036204
0.010503165934756132 -0.00612486264844901 -0.003152176333569027
0.010025212831621874 -0.005848916295694429 -0.0031490494314051114
0.009547259728487618 -0.005572969942939849 -0.003179085271463716
0.00906930662535336 -0.005297023590185268 -0.003279061928565229
0.008591353522219103 -0.005021077237430687 -0.0037122897232892966
0.008113400419084845 -0.004745130884676106 -0.004001286326701054
0.007635447315950588 -0.004469184531921526 -0.003965385637153725
0.007157494668627928 -0.004193238442329894 -0.003929484947606397
0.006679541565493671 -0.003917292089575314 -0.0037467845963613153
0.006201588462359414 -0.0036413457368207336 -0.003984793378340768
0.005723635359225156 -0.003365399384066153 -0.0037099838895272848
0.005245682256090899 -0.0030894530313115725 -0.0036740837263058543
0.0047677291529566405 -0.0028135066785569918 -0.003217850226551531
0.0042897760498223836 -0.0025375603258024114 -0.0024597640869848778
0.0038118229466881258 -0.0022616139730478307 -0.0015172470366183622
0.0033338698435538684 -0.00198566762029325 -0.0011493178645110567
0.0116610788770126 -0.007430654834774206 -0.002010769673640669
0.011183125773878344 -0.007154708482019626 -0.0021134821727633963
0.010705172670744086 -0.006878762129265045 -0.002729194525114096
0.010227219567609828 -0.006602815776510464 -0.0030506270146823293
0.00974926646447557 -0.0063268694237558825 -0.003119518337883318
0.009271313361341313 -0.006050923071001303 -0.003222231363331944
0.008793360258207055 -0.005774976718246722 -0.0034049322409029233
0.008315407155072797 -0.005499030365492141 -0.003679741729716407
0.00783745405193854 -0.00522308401273756 -0.003908180854206495
0.007359500948804283 -0.0049471376599829805 -0.0038781444878219925
0.006881548301481624 -0.004671191570391349 -0.003848108647763388
0.006403595198347366 -0.004395245217636768 -0.0038840093373107166
0.005925642095213109 -0.004119298864882188 -0.0038539729709262133
0.005447688992078851 -0.003843352512127607 -0.00382393660454171
0.0049697358889445944 -0.0035674061593730265 -0.00464651293014479
0.004491782785810337 -0.0032914598066184457 -0.0035046425770997166
0.00401382968267608 -0.003015513453863866 -0.002523254780139756
0.0035358765795418215 -0.002739567101109285 -0.0016024626207291172
0.003057923476407564 -0.0024636207483547043 -0.001923894847134401
0.01090717945401913 -0.007632661528177433 -0.0021373626314372183
0.010429226350884873 -0.007356715175422852 -0.0024771002094348105
0.009951273247750615 -0.0070807688226682715 -0.0032238692895285616
0.009473320144616357 -0.006804822469913691 -0.002685981589856739
0.008995367041482101 -0.006528876117159111 -0.003155542714016831
0.008517413938347844 -0.00625292976440453 -0.0029271035895267424
0.008039460835213586 -0.005976983411649949 -0.003543840172076227
0.007561507732079328 -0.0057010370588953686 -0.003781848427729781
0.007083554628945071 -0.005425090706140789 -0.0037459487908342495
0.006605601981622412 -0.005149144616549157 -0.003677055888655565
0.006127648878488155 -0.004873198263794576 -0.003608164565454577
0.005649695775353897 -0.004597251911039995 -0.0036381993528613837
0.005171742672219639 -0.0043213055582854145 -0.0032702712334058757
0.004693789569085382 -0.004045359205530835 -0.0031675587342831486
0.004215836465951125 -0.0037694128527762535 -0.0025518463819324488
0.0037378833628168673 -0.003493466500021673 -0.001609328278914136
0.0032599302596826095 -0.0032175201472670924 -0.0011530950423227619
0.011109186204398807 -0.00838656098406627 -0.002024839417563543
0.010631233101264551 -0.00811061463131169 -0.0023462713808058773
0.010153279998130293 -0.00783466827855711 -0.0027141995002613857
0.009675326894996035 -0.007558721925802529 -0.003035631989829619
0.009197373791861778 -0.007282775573047948 -0.0030715326793769476
0.008719420688727521 -0.007006829220293368 -0.003140424002577936
0.008241467585593262 -0.006730882867538787 -0.0034152334913914195
0.007763514482459005 -0.006454936514784206 -0.0035179475694918426
0.007285561379324747 -0.0061789901620296255 -0.0033305029165962763
0.00680760827619049 -0.005903043809275046 -0.0036984320887035816
0.006329655628867831 -0.005627097719683414 -0.0036683957223190783
0.005851702525733574 -0.005351151366928833 -0.0033286581443214866
0.005373749422599316 -0.005075205014174253 -0.003696586263776995
0.004895796319465059 -0.004799258661419672 -0.0034075901866911363
0.004417843216330802 -0.004523312308665092 -0.0028168393664100982
0.003939890113196544 -0.004247365955910511 -0.003730332175095226
0.003461937010062287 -0.00397141960315593 -0.00515268002055641
0.0029839839069280287 -0.00369547325040135 -0.0011933102884243236
0.01035528674850997 -0.008588567734445949 -0.0022151041246241086
0.009877333645375711 -0.008312621381691367 -0.0026046658174920766
0.009399380542241454 -0.008036675028936787 -0.0029444028691637696
0.008921427439107196 -0.0077607286761822054 -0.003131848048385235
0.00844347433597294 -0.0074847823234276255 -0.002949147170814255
0.007965521232838682 -0.007208835970673045 -0.0034187082949743474
0.007487568129704424 -0.006932889617918464 -0.00351868495207586
0.0070096150265701665 -0.006656943265163883 -0.003449792049897176
0.0065316619234359104 -0.006380996912409303 -0.003479828416281679
0.00605370927611325 -0.0061050508228176715 -0.0035440291230738447
0.005575756172978993 -0.005829104470063091 -0.0031761010036183363
0.0050978030698447365 -0.005553158117308511 -0.0032061357910251435
0.004619849966710479 -0.00527721176455393 -0.0031372444678241553
0.004141896863576221 -0.005001265411799349 -0.002769316348368647
0.003663943760441963 -0.004725319059044769 -0.003720029871954933
0.0031859906573077057 -0.004449372706290189 -0.0011354575982958485
0.010557293498889645 -0.009342467190334786 -0.002078104651159332
0.01007934039575539 -0.009066520837580206 -0.0022608044760785147
0.009601387292621132 -0.008790574484825625 -0.0027170385021587366
0.009123434189486874 -0.008514628132071045 -0.002899738327077919
0.008645481086352616 -0.008238681779316463 -0.0033559723531581412
0.00816752798321836 -0.007962735426561883 -0.003117963571178688
0.007689574880084101 -0.007686789073807303 -0.0033006639224237694
0.0072116217769498435 -0.007410842721052722 -0.003403376947872395
0.006733668673815586 -0.007134896368298141 -0.0033733416341396893
0.00625571557068133 -0.006858950015543561 -0.003185896981244123
0.0057777629233586696 -0.006583003925951929 -0.0035073289444864575
0.005299809820224413 -0.0063070575731973486 -0.003407352813710843
0.004821856717090156 -0.006031111220442768 -0.003118356210299086
0.004343903613955898 -0.005755164867688187 -0.0030883214228922787
0.0038659505108216406 -0.005479218514933607 -0.002655092049190515
0.0033879974076873828 -0.005203272162179026 -0.0018222439473492636
0.0029100443045531254 -0.0049273258094244465 -0.0017580432405570978
0.009803394043000808 -0.009544473940714462 -0.002186474627366713
0.00932544093986655 -0.009268527587959883 -0.0025262116790384062
0.008847487836732292 -0.008992581235205301 -0.0028659492570359984
0.008369534733598034 -0.008716634882450721 -0.002591140820874312
0.007891581630463778 -0.008440688529696141 -0.002880137424286069
0.0074136285273295206 -0.00816474217694156 -0.002944338131078235
0.006935675424195263 -0.00788879582418698 -0.003333899297620304
0.006457722321061005 -0.007612849471432398 -0.003398099478086571
0.005979769217926749 -0.007336903118677818 -0.0033292071022337855
0.005501816570604089 -0.007060957029086186 -0.0036182031793196437
0.005023863467469832 -0.0067850106763316055 -0.003161970205891219
0.004545910364335575 -0.006509064323577026 -0.0031920065722757223
0.004067957261201317 -0.006233117970822445 -0.0027357730725213985
0.00359000415806706 -0.005957171618067864 -0.0019776869329547453
0.010005400793380484 -0.0102983733966033 -0.0019222006040666277
0.009527447690246228 -0.01002242704384872 -0.002243632567308962
0.00904949458711197 -0.00974648069109414 -0.0026115606867644706
0.008571541483977712 -0.009470534338339559 -0.0027142747648648937
0.008093588380843455 -0.009194587985584979 -0.0028969756424358736
0.0076156352777091985 -0.008918641632830399 -0.003079676520006853
0.007137682174574941 -0.008642695280075817 -0.00318238901912958
0.006659729071440682 -0.008366748927321237 -0.00336508989670056
0.006181775968306425 -0.008090802574566656 -0.0035477907742715396
0.005703822865172169 -0.007814856221812076 -0.003822600263085023
0.005225870217849509 -0.007538910132220444 -0.003533603659673266
0.004747917114715251 -0.007262963779465863 -0.0034694029528811
0.004269964011580994 -0.006987017426711283 -0.0031804058231434443
0.0037920109084467364 -0.006711071073956703 -0.0027908457092531724
0.0033140578053124795 -0.006435124721202122 -0.002256550183839678
0.0028361047021782213 -0.006159178368447541 -0.001452546583385423
0.00877354823435739 -0.010224433794228398 -0.002818625716510137
0.008295595131223132 -0.009948487441473816 -0.0027159126910615114
0.007817642028088873 -0.009672541088719237 -0.002903356291305281
0.007339688924954618 -0.009396594735964657 -0.0029675569980974464
0.00686173582182036 -0.009120648383210075 -0.0030675336551989596
0.006383782718686101 -0.008844702030455495 -0.003356529732284818
0.005905829615551844 -0.008568755677700914 -0.0035945379879383722
0.005427876512417588 -0.008292809324946334 -0.0036245743543228755
0.004949923865094928 -0.008016863235354702 -0.0035886736647755464
0.00447197076196067 -0.007740916882600121 -0.0030114052087144814
0.0039940176588264134 -0.007464970529845541 -0.002828704331143502
0.0035160645556921557 -0.00718902417709096 -0.0024607762116879935
0.0030381114525578987 -0.00691307782433638 -0.001702689545795442
0.008975554984737066 -0.010978333250117236 -0.002243366772730141
0.008497601881602809 -0.010702386897362654 -0.0025647992622983744
0.00801964877846855 -0.010426440544608074 -0.0027474996135434552
0.007541695675334293 -0.010150494191853493 -0.0027833992504389866
0.007063742572200037 -0.009874547839098913 -0.0028192999399863157
0.006585789469065779 -0.009598601486344333 -0.003187229112093621
0.006107836365931521 -0.009322655133589751 -0.0032899421375422472
0.005629883262797264 -0.00904670878083517 -0.0036113741007845817
0.0051519301596630075 -0.00877076242808059 -0.0035813377344000785
0.004673977512340347 -0.00849481633848896 -0.003393894134156309
0.0041960244092060905 -0.008218869985734378 -0.0030043329676142402
0.003718071306071833 -0.007942923632979798 -0.002974296601229737
0.0032401182029375753 -0.007666977280225217 -0.002410911569723421
0.0027621650998033184 -0.007391030927470637 -0.002121914966311664
0.00228421199666906 -0.007115084574716056 -0.0013465908640751775
0.008221655528848229 -0.011180340000496912 -0.002203862329754715
0.007743702425713971 -0.010904393647742332 -0.0027381562761905134
0.007265749322579712 -0.01062844729498775 -0.0023702281567350054
0.006787796219445456 -0.01035250094223317 -0.002434428863527171
0.006309843116311198 -0.01007655458947859 -0.0026724371191807253
0.005831890013176941 -0.009800608236724009 -0.0032067321182683213
0.005353936910042683 -0.00952466188396943 -0.003236767958326926
0.004875983806908427 -0.00924871553121485 -0.0029619584695134427
0.004398031159585767 -0.008972769441623217 -0.002893067146312454
0.00392007805645151 -0.008696823088868636 -0.0027103662687414745
0.0034421249533172524 -0.008420876736114056 -0.0028103429258429873
0.0029641718501829946 -0.008144930383359474 -0.002194630047166389
0.0024862187470487376 -0.007868984030604894 -0.002483626650578146
0.007945709176093647 -0.01165829310363117 -0.002041516579988359
0.00746775607295939 -0.011382346750876588 -0.002497749553416784
0.0069898029698251315 -0.011106400398122008 -0.0024677147660099766
0.006511849866690875 -0.010830454045367428 -0.0024035130065660137
0.006033896763556618 -0.010554507692612847 -0.0024394136961133424
0.00555594366042236 -0.010278561339858267 -0.002622114047358423
0.005077990557288102 -0.010002614987103685 -0.002625242528500035
0.004600037454153846 -0.009726668634349105 -0.0026283694306639504
0.004122084806831186 -0.009450722544757473 -0.002664270120211279
0.003644131703696929 -0.009174776192002894 -0.0027001708097586083
0.0031661786005626716 -0.008898829839248312 -0.0026359701029664423
0.002688225497428414 -0.008622883486493732 -0.0026718707925137714
0.002210272394294157 -0.008346937133739152 -0.001953573311907819
0.0017323192911598989 -0.00807099078098457 -0.001390188280401503
0.007191809720204809 -0.011860299854010848 -0.0018907789479168623
0.006713856617070551 -0.011584353501256266 -0.0023939144011522234
0.006235903513936295 -0.011308407148501686 -0.0018166454187652596
0.005757950410802037 -0.011032460795747106 -0.0018135174639495467
0.005279997307667779 -0.010756514442992525 -0.001710804438500921
0.004802044204533521 -0.010480568090237945 -0.0027553929230456006
0.004324091101399265 -0.010204621737483365 -0.001997305204501251
0.003846138454076605 -0.009928675647891733 -0.0022353145128066027
0.003368185350942348 -0.009652729295137151 -0.0023352911699081155
0.002890232247808091 -0.009376782942382571 -0.0023994918767002815
0.002412279144673833 -0.00910083658962799 -0.0022967777985998584
0.001934326041539576 -0.00882489023687341 -0.0016810664989009559
0.0014563729384053181 -0.00854894388411883 -0.0015783526839634819
0.000978419835271061 -0.008272997531364248 -0.0012569215102099954
0.006437910264315971 -0.012062306604390524 -0.00197434476349828
0.005959957161181715 -0.011786360251635944 -0.0017363365078447257
0.005482004058047457 -0.011510413898881362 -0.0017063001414602224
0.005004050954913198 -0.011234467546126782 -0.001709427043624138
0.0045260978517789405 -0.0109585211933722 -0.0014714190511335332
0.0040481447486446845 -0.010682574840617621 -0.0019276522877249075
0.003570192101322025 -0.010406628751025989 -0.002110353165295887
0.003092238998187768 -0.01013068239827141 -0.0023387922897859757
0.0026142858950535105 -0.009854736045516828 -0.0023419191919498913
0.0021363327919192527 -0.009578789692762248 -0.00237781988149722
0.0016583796887849956 -0.009302843340007668 -0.002139811625843666
0.0011804265856507378 -0.009026896987253086 -0.0021097757857850615
0.0007024734825164807 -0.008750950634498506 -0.00214567647533239
0.0002245203793822228 -0.008475004281743925 -0.002148803377496306
-0.0002534327237520347 -0.008199057928989345 -0.0020846026707041403
-0.0007313858268862922 -0.007923111576234763 -0.0014938523767490006
-0.0012093389300205496 -0.007647165223480183 -0.0015965661916864744
-0.003121151456510479 -0.006543379746671124 -0.0013609953512695964
-0.0035991045427298534 -0.006267433403682356 -0.001364122253433512
-0.0040770576342907695 -0.005991487057609646 -0.001433014892449247
-0.004555010765913251 -0.005715540688407382 -0.0016157157700202266
-0.005032963869047509 -0.005439594335652801 -0.0013267194297714188
-0.005510916972181767 -0.005163647982898221 -0.0011392745137129027
-0.006466823064497382 -0.004611755343179797 -0.001134531527877164
-0.006944776167631639 -0.004335808990425216 -0.00110449542465561
-0.008378635477034413 -0.0035079699321614744 -0.0017595932703286404
-0.008856588580168669 -0.0032320235794068937 -0.002081025233570975
-0.009334541683302926 -0.002956077226652313 -0.0021837382590196006
-0.009812494786437184 -0.0026801308738977326 -0.0017505099379696344
-0.0107684009927057 -0.0021282381683885715 -0.0018234755499521192
0.005206057705292876 -0.01198836700201562 -0.00117271252438042
0.004728104602158618 -0.01171242064926104 -0.0011038209380164823
0.00425015149902436 -0.011436474296506459 -0.001168021644808648
0.0037721983958901037 -0.011160527943751879 -0.0013554652450524173
0.003294245748567444 -0.010884581854160247 -0.0017886943555912318
0.002816292645433187 -0.010608635501405667 -0.001685980540653758
0.0023383395422989298 -0.010332689148651085 -0.002155541927976799
0.001860386439164672 -0.010056742795896505 -0.0027722785105262836
0.0013824333360304148 -0.009780796443141926 -0.002450846547283949
0.000904480232896157 -0.009504850090387344 -0.0025508226780595633
0.0004265271297618999 -0.009228903737632764 -0.0027382668046292313
-5.1425973372357965e-05 -0.008952957384878182 -0.002735139376139417
-0.0005293790765066155 -0.008677011032123602 -0.0026324258243648926
-0.001007332179640873 -0.00840106467936902 -0.0025635339748380057
-0.0014852852827751304 -0.008125118326614441 -0.0029032715528355974
-0.0019632383859093877 -0.007849171973859861 -0.001904222364020335
-0.0024411916029965447 -0.007573225555314543 -0.0023374512113962
-0.0029191447061308025 -0.007297279202559962 -0.002062641722582717
-0.00339709780926506 -0.007021332849805381 -0.0025322033730687072
-0.003875050895484434 -0.006745386506816614 -0.0025290748919270956
-0.00435300398704535 -0.006469440160743904 -0.002629051549028609
-0.004830957118667832 -0.00619349379154164 -0.0026590879154131117
-0.00530891022180209 -0.005917547438787059 -0.002623187225865783
-0.0057868633249363475 -0.0056416010860324784 -0.0025204742004171572
-0.006264816314117705 -0.005365654799068635 -0.0022920350759270684
-0.006742769417251963 -0.005089708446314054 -0.002581031153012927
-0.00722072252038622 -0.004813762093559474 -0.0027684763322343925
-0.007698675623520478 -0.004537815740804893 -0.002152763453557794
-0.008176628726654735 -0.004261869388050313 -0.002743514273838832
-0.008654581829788992 -0.003985923035295732 -0.0028434904046144467
-0.00913253493292325 -0.0037099766825411514 -0.002774597502435762
-0.009610488036057508 -0.0034340303297865707 -0.0024997885399481775
-0.010088441139191764 -0.0031580839770319904 -0.0022249801037864912
-0.010566394242326022 -0.0028821376242774096 -0.0019501706149730076
-0.01104434734546028 -0.0026061912715228293 -0.001914269925425679
-0.011522300448594537 -0.0023302449187682485 -0.001685830537772641
-0.012000254007540394 -0.002054298302850719 -0.0013643993640191543
0.00397420514626978 -0.011914427399640716 -0.001283916765552064
0.0034962520431355234 -0.011638481046886136 -0.0013198174550993929
0.0030182993958128637 -0.011362534957294505 -0.001687745574554901
0.002540346292678607 -0.011086588604539923 -0.0018704464521258808
0.0020623931895443494 -0.010810642251785343 -0.0020988855766159694
0.0015844400864100916 -0.010534695899030761 -0.002327324174780159
0.0011064869832758345 -0.010258749546276182 -0.0026487561380224935
0.0006285338801415767 -0.009982803193521602 -0.003016684257478002
0.00015058077700731958 -0.00970685684076702 -0.003199385135048982
-0.0003273723261269383 -0.00943091048801244 -0.003427824785864969
-0.0008053254292611958 -0.009154964135257859 -0.003530537284987696
-0.0012832785323954534 -0.008879017782503279 -0.00350050197125499
-0.0017612316355297107 -0.008603071429748699 -0.0034363017907887232
-0.002239184738663968 -0.008327125076994117 -0.003439428692952639
-0.002717137955751125 -0.0080511786584488 -0.003508321595131323
-0.003195091058885383 -0.007775232305694219 -0.0035772129183323114
-0.00367304416201964 -0.007499285952939638 -0.0035130127378660446
-0.0041509972482390144 -0.007223339609950871 -0.0032240161344542872
-0.00462895033979993 -0.006947393263878161 -0.003292907983981174
-0.005106903471422413 -0.006671446894675897 -0.0033288086735285033
-0.0055848565745566705 -0.006395500541921316 -0.003298772307144
-0.006062809677690927 -0.006119554189166735 -0.003234571600351834
-0.006540762666872286 -0.005843607902202892 -0.0032704722898991632
-0.007018715770006543 -0.005567661549448311 -0.0032062715831069973
-0.007496668873140801 -0.0052917151966937305 -0.003176235216722494
-0.007974621976275059 -0.00501576884393915 -0.0034046748675384815
-0.008452575079409315 -0.00473982249118457 -0.003115678264126724
-0.008930528182543572 -0.004463876138429989 -0.0030856424240681196
-0.00940848128567783 -0.004187929785675408 -0.002898198297498452
-0.009886434388812088 -0.003911983432920828 -0.0025086371309563826
-0.010364387491946346 -0.0036360370801662473 -0.0023211935307126137
-0.010842340595080604 -0.0033600907274116665 -0.0019316323641705448
-0.01132029369821486 -0.003084144374657086 -0.0017441887639267754
-0.011798246801349117 -0.0028081980219025054 -0.001506179455621424
-0.012276200360294974 -0.002532251405984976 -0.0013187355922147054
0.0032203054272179937 -0.012116434605831993 -0.001165357119946702
0.002742352779895334 -0.011840488516240361 -0.0014543534601955098
0.002264399676761077 -0.01156454216348578 -0.0016923614526861148
0.0017864465736268198 -0.0112885958107312 -0.001930370760991466
0.001308493470492562 -0.011012649457976618 -0.0021178143612352357
0.0008305403673583049 -0.010736703105222038 -0.002783763467960858
0.000352587264224047 -0.010460756752467458 -0.0028479641747530234
-0.00012536583891021007 -0.010184810399712876 -0.003566261129033077
-0.000603318942044468 -0.009908864046958296 -0.0031983319569257713
-0.0010812720451787254 -0.009632917694203715 -0.004089533811151018
-0.001559225148312983 -0.009356971341449135 -0.004378530414562775
-0.0020371782514472404 -0.009081024988694555 -0.00392229744113435
-0.0025151313545814977 -0.008805078635939973 -0.003952333281192955
-0.0029930845716686547 -0.008529132217394656 -0.0038834409053401693
-0.0034710376748029125 -0.008253185864640075 -0.003880313476850355
-0.00394899077793717 -0.007977239511885495 -0.003910348790583061
-0.004426943864156544 -0.007701293168896727 -0.0030264760244965994
-0.00490489695571746 -0.0074253468228240175 -0.003668164138923671
-0.005382850087339942 -0.007149400453621753 -0.003665036710433857
-0.0058608031904742 -0.0068734541008671724 -0.003596144334581071
-0.006338756293608457 -0.006597507748112592 -0.0034934313091324453
-0.006816709282789816 -0.006321561461148748 -0.0034903033543167324
-0.007294662385924073 -0.006045615108394168 -0.0035545040611088983
-0.00777261548905833 -0.005769668755639587 -0.0034517910356602725
-0.008250568592192588 -0.005493722402885006 -0.0034158903461129434
-0.008728521695326844 -0.005217776050130426 -0.0030944594355224063
-0.009206474798461102 -0.0049418296973758455 -0.002991745357421983
-0.00968442790159536 -0.004665883344621265 -0.0027633072855836917
-0.010162381004729618 -0.004389936991866684 -0.0024418747960154585
-0.010640334107863875 -0.004113990639112104 -0.002167065307201975
-0.011118287210998133 -0.003838044286357523 -0.0019386261827118861
-0.01159624031413239 -0.0035620979336029425 -0.0015706978000934286
0.002944359074463413 -0.01259438770896625 -0.001121755229850238
0.0024664064271407533 -0.012318441619374619 -0.0013044561074212176
0.0019884533240064964 -0.012042495266620037 -0.001407168869706894
0.001510500220872239 -0.011766548913865457 -0.0018634021062982683
0.0010325471177379812 -0.011490602561110876 -0.0020461024575433493
0.0005545940146037241 -0.011214656208356296 -0.0029595952662284774
7.664091146946627e-05 -0.010938709855601716 -0.003575308144905076
-0.00040131219166479083 -0.010662763502847134 -0.0038967401081474104
-0.0008792652947990487 -0.010386817150092554 -0.004125179758963397
-0.0013572183979333062 -0.010110870797337973 -0.0043536178308016885
-0.0018351715010675638 -0.009834924444583393 -0.004253641700026074
-0.002313124604201821 -0.009558978091828813 -0.004256769654841787
-0.0027910777073360785 -0.009283031739074231 -0.0041567929977402735
-0.0032690309244232355 -0.009007085320528914 -0.004126757157681669
-0.0037469840275574933 -0.008731138967774332 -0.004096721843948964
-0.004224937130691751 -0.008455192615019752 -0.004032521137156798
-0.004702890216911125 -0.008179246272030984 -0.003692782506507409
-0.0051808433084720405 -0.007903299925958276 -0.003795496584607832
-0.005658796440094523 -0.007627353556756011 -0.003695519927506319
-0.006136749543228781 -0.00735140720400143 -0.0036313197470400523
-0.006614702646363038 -0.0070754608512468495 -0.003443875620470384
-0.007092655635544396 -0.006799514564283006 -0.004414889007641935
-0.007570608738678653 -0.006523568211528425 -0.00333818938002025
-0.00804856184181291 -0.006247621858773845 -0.0032739886732280846
-0.008526514944947168 -0.005971675506019264 -0.003086544020332518
-0.009004468048081426 -0.005695729153264684 -0.002899100420088749
-0.009482421151215684 -0.005419782800510103 -0.0026610921644351945
-0.009960374254349941 -0.0051438364477555225 -0.0024736485641914255
-0.0104383273574842 -0.004867890095000942 -0.003416165088232042
-0.010916280460618455 -0.004591943742246362 -0.0021051751711049092
-0.011394233563752713 -0.004315997389491781 -0.0015708799088543636
-0.01187218666688697 -0.0040400510367372 -0.0011813187423122945
0.0012345538681176583 -0.012244502016999715 -0.0012488550394871931
0.0007566007649834005 -0.011968555664245133 -0.0015378513797360011
0.0002786476618491434 -0.011692609311490553 -0.0023418555065161544
-0.0001993054412851145 -0.011416662958735974 -0.0032037562716373206
-0.0006772585444193716 -0.011140716605981392 -0.0035434933233090137
-0.0011552116475536294 -0.010864770253226812 -0.003883230901306606
-0.001633164750687887 -0.01058882390047223 -0.004222968479304197
-0.0021111178538221445 -0.01031287754771765 -0.004410412079547966
-0.002589070956956402 -0.01003693119496307 -0.004088980116305632
-0.0030670240600906592 -0.009760984842208489 -0.004188956247081246
-0.0035449772771778162 -0.009485038423663172 -0.004086243747958519
-0.004022930380312074 -0.00920909207090859 -0.0039035428703875397
-0.004500883483446331 -0.00893314571815401 -0.0039004149155718267
-0.004978836569665706 -0.008657199375165242 -0.0035789824260035936
-0.005456789661226621 -0.008381253029092534 -0.003575855523839678
-0.005934742792849104 -0.008105306659890269 -0.0033010460350261944
-0.006412695895983362 -0.007829360307135687 -0.00323215313284751
-0.006890648999117619 -0.007553413954381107 -0.002910722222256973
-0.007368601988298977 -0.007277467667417264 -0.00294075700966378
-0.007846555091433234 -0.007001521314662683 -0.002443208505842653
-0.008324508194567492 -0.0067255749619081024 -0.002543184636618267
-0.00880246129770175 -0.006449628609153522 -0.0025072839470709385
-0.009280414400836006 -0.006173682256398942 -0.00213935582761543
-0.009758367503970264 -0.005897735903644361 -0.0021362278727997176
-0.010236320607104521 -0.00562178955088978 -0.0019535269952287377
-0.010714273710238779 -0.0053458431981351995 -0.0017708261176577582
-0.011192226813373037 -0.00506989684538062 -0.0015423880458194667
-0.011670179916507295 -0.004793950492626039 -0.0011744588737121612
2.7013090945626116e-06 -0.012170562414624811 -0.0017744246078268695
