ply
format ascii 1.0
element vertex 767
property float x
property float y
property float z
end_header
-0.030167542894826566 -0.030788688956822557 0.08464628344030345
-0.03152366942281259 -0.03558580461682204 0.08282674275600281
-0.031362270724108396 -0.0344698181651991 0.08297992822341316
-0.031282331262853694 -0.03391014549660554 0.08304333417085741
-0.031212956106341526 -0.03332712925437951 0.08292342012402931
-0.031129055694470758 -0.03277620948675936 0.08305556050099784
-0.03102601434496878 -0.032267586171002435 0.08351985175079361
-0.030911136999644907 -0.031785116813956245 0.08418953103517417
-0.03079473084651955 -0.03130602554642745 0.08488573926197174
-0.030725355660322952 -0.030723009219118455 0.08476582545936151
-0.03271135617695572 -0.040018810001429955 0.08260635799192655
-0.03224212527864795 -0.03737409897562811 0.08412999991397922
-0.03207340445730406 -0.03627429237930681 0.08441024527289352
-0.03199705793438053 -0.03570668091863678 0.08441130448798018
-0.03202703434086976 -0.034904124741672204 0.0825673539327618
-0.031936162582091795 -0.034368610013863904 0.08282046777497662
-0.03185981599358345 -0.0338009980954088 0.0828215270445783
-0.03178557415420041 -0.033228735869268625 0.08278606394564969
-0.03170333862518485 -0.03267413717341727 0.08288931381567652
-0.03162498221698317 -0.032110967000413895 0.08292525032221859
-0.03153141965101739 -0.031581397907024744 0.08322505686805892
-0.03137292706916979 -0.0311953059458989 0.0846515857041085
-0.033454400302188006 -0.0417527711210188 0.08348293794227062
-0.03335466253876892 -0.04050053054297905 0.08256612771759564
-0.03322892678471953 -0.04004205615437267 0.08342423325533342
-0.03320080153687048 -0.03936788847979171 0.08258851354514406
-0.033087534028320084 -0.038881861529696145 0.08323025698866827
-0.03296966013840462 -0.03840601460714741 0.08395193656729133
-0.03292118063791395 -0.03777682417191633 0.08346942169394393
-0.032841241241387695 -0.037217152565709434 0.08353282868530354
-0.032761301740268284 -0.03665747998520578 0.08359623532451504
-0.032754686661115744 -0.03593578142087634 0.08238725339225343
-0.03264313067626602 -0.03544597308195768 0.0829992980595645
-0.03260143715803225 -0.034801787512610566 0.0823990268726809
-0.03250731161566667 -0.0342734627418982 0.08270860322036906
-0.03244062718125334 -0.0336845001492121 0.08254199632109896
-0.032360687772295206 -0.033124827967766925 0.08260540244461725
-0.032276787360424435 -0.03257390820014678 0.08273754282158577
-0.03219877588820452 -0.03200997581452447 0.08276749369655956
-0.03209573450591014 -0.031501352269875 0.08323178497361285
-0.031930337782827674 -0.03113051654135535 0.08477812052137668
-0.03395690785311676 -0.04107298387847558 0.08323841086289317
-0.03388266596143714 -0.04050072116518702 0.0832029475878905
-0.03383729643755152 -0.03986465975172812 0.08266646784105007
-0.033755060955472954 -0.03931006065080442 0.08276971635479989
-0.03369785533738823 -0.03870015250937864 0.08243862472431682
-0.03361561990674988 -0.03814555450020492 0.08254187451257108
-0.033524748122251806 -0.03761003922652163 0.08279498771753369
-0.033431185628086765 -0.0370804708785367 0.08309479464277963
-0.03336506413642448 -0.036490264338882875 0.08291841906734959
-0.03332887314220876 -0.03583392032400359 0.08222266434309555
-0.03324856574218263 -0.035275061300508025 0.08229245617025129
-0.03317432378406184 -0.03470279873403598 0.08225699404819406
-0.03309401635745925 -0.034143939769267016 0.08232678633652797
-0.03301565987038453 -0.033580769167841855 0.08236272312817418
-0.03293535240391723 -0.033021910291162804 0.08243251610827537
-0.03285117600871163 -0.03247160036998239 0.08256944559003017
-0.0327603042632219 -0.03193608561281079 0.0828225592016559
-0.032674138140989344 -0.0313901724351664 0.08299401617121836
-0.032543797925614015 -0.030941871571194407 0.08393202046246494
-0.034649250645245724 -0.042182664195182636 0.08367103112731242
-0.03447754641515788 -0.04108945070543298 0.08400304829393969
-0.03447394212515574 -0.04036109853144609 0.08274181942514755
-0.034420658979464225 -0.03974252402199468 0.08234266378192293
-0.034340719478344814 -0.03918285144149102 0.08240607042113444
-0.0342646488731713 -0.038614629676596186 0.08240234058594986
-0.03419056805975318 -0.03804201223055201 0.08236408430687298
-0.03409644251824396 -0.037513686855238045 0.08267365955613075
-0.03401843116476178 -0.036949754809947596 0.08270360945423312
-0.033972268401452 -0.036315445029657306 0.08218089252619065
-0.0338981875357373 -0.035742827096464744 0.0821426360710397
-0.033824106696599084 -0.035170209104545574 0.08210437915471061
-0.033748036157866736 -0.03460198719283423 0.08210064816658058
-0.03366203106867141 -0.03405571847830338 0.08226931129148503
-0.03358209156755201 -0.03349604589779973 0.08233271793069655
-0.033500201113616485 -0.03294068498331557 0.08242998029718485
-0.03341831058702387 -0.03238532392802878 0.08252724338269794
-0.03332715981519369 -0.03185042574149329 0.0827851989040113
-0.03322154943188155 -0.03134747897484694 0.08329406973902237
-0.03310649115085368 -0.030865409284724647 0.08396688850747634
-0.03514796207153011 -0.041511266538104975 0.08349237989804678
-0.03509927109543725 -0.04088254340515928 0.08301353473475385
-0.03507331779616991 -0.04020357632806845 0.08214012546858147
-0.03498914153920623 -0.03965326700547575 0.08227705417679643
-0.03492302002096747 -0.03906306052454853 0.08210067906254456
-0.034844663547180986 -0.038499889893760075 0.0821366156236017
-0.03476435614629849 -0.037941031474866105 0.08220640854918783
-0.034684048667399325 -0.03738217202294876 0.0822762006614477
-0.034590486173234285 -0.036852603674963826 0.08257600758669363
-0.03454511651817905 -0.036216541345934765 0.08203952794888329
-0.03446876999525551 -0.03564892988526474 0.08204058716396992
-0.03441824600606864 -0.03502425780434288 0.08159355113449573
-0.034316477258318226 -0.034512821789820625 0.08203575799941129
-0.034240130722106465 -0.0339452103585139 0.082036817445087
-0.034123784834659075 -0.03346598576991484 0.0827319796181118
-0.03406364815018465 -0.032862555073010245 0.0824517515049207
-0.03398334069078965 -0.03230369587934874 0.08252154382051215
-0.03389916428851176 -0.03175338627515078 0.0826584739667767
-0.0337602666793592 -0.03132399502293565 0.0837449739281868
-0.035800580787962874 -0.04197240936501091 0.08329055348201889
-0.03571457577764058 -0.04142614107890184 0.08345921632181919
-0.03569485258057555 -0.040733407208067174 0.08247769686016979
-0.03559181116548876 -0.040224783434525166 0.08294198816448062
-0.03556542860139309 -0.03954676611877721 0.08207603004509514
-0.035487417116741304 -0.03898283315791661 0.0821059800522276
-0.035423460623914264 -0.03838784257276037 0.08189203551890803
-0.03533745564016844 -0.0378415742279247 0.08206069789753016
-0.03525944415551666 -0.03727764126706411 0.08209064790466263
-0.03517755374058948 -0.03672228086909163 0.08218791067781406
-0.03512427041057541 -0.036103705561523265 0.0817887560659759
-0.03504237996992813 -0.03554834461767581 0.0818860182018751
-0.03496630945691589 -0.03498012325183945 0.0818822878509973
-0.03487218383567725 -0.0344517980527053 0.08219186448378962
-0.03479810304969197 -0.03387917994333292 0.08215360664510415
-0.03472872785417147 -0.03329616318459521 0.08203369219161293
-0.03462861762335576 -0.03278106291146547 0.08244712010019074
-0.03452300726662009 -0.03227811608609251 0.08295599047402365
-0.034464529099936726 -0.031671020525978845 0.08264698230606443
-0.03435297298927696 -0.03118121216371077 0.08325902861475665
-0.0342095071478843 -0.030761915283986828 0.08442480027617037
-0.03632952053463792 -0.04197053192667405 0.08391113345836256
-0.03629165461744974 -0.041317889628602965 0.08324444454953722
-0.036250708881303884 -0.04067205166874358 0.08263119719226782
-0.03617235240751739 -0.04010888103795512 0.08266713375332495
-0.03612851168168117 -0.03946944140585091 0.0821041249624017
-0.03605941548592464 -0.03888580813520368 0.08197936906040104
-0.03597910791400783 -0.03832694888882946 0.08204916278678454
-0.03591001187599738 -0.037743316475025795 0.0819244063145756
-0.03584389045077627 -0.037153109788555454 0.0817480295862001
-0.0357675439801493 -0.036585498815033805 0.0817490889773608
-0.03568918750636282 -0.03602232818424535 0.08178502553841792
-0.03561284097015104 -0.035454716752938625 0.08178608498409363
-0.03552866455458492 -0.03490440717810397 0.08192301536094727
-0.03545231797936481 -0.03433679523028556 0.08192407439995987
-0.03536144620729861 -0.03380128053184056 0.08217718847276378
-0.03528308973351212 -0.0332381099010521 0.08221312503382092
-0.035189527173762274 -0.032708541095282095 0.0825129320135819
-0.035098655395480134 -0.032173026109217955 0.08276604565246516
-0.035012489359192926 -0.03162711304301289 0.08293750167241373
-0.034896143491249705 -0.031147888712669665 0.08363266404877008
-0.034765803289162615 -0.030699587819334375 0.08457066810942757
-0.0370110465071234 -0.04236779896005765 0.08320768515884412
-0.03691392131286034 -0.04184610198335165 0.0835693130125456
-0.036878396197845054 -0.041188287163279644 0.08286200445218526
-0.03681991796557688 -0.0405811911453809 0.0825529963387411
-0.03675870424400542 -0.03998013979830839 0.08229145683394888
-0.03670022614290687 -0.03937304469597981 0.0819824486114746
-0.03662028661521099 -0.03881337217420276 0.08204585571186429
-0.03655633014896042 -0.03821838153031992 0.08183191071736653
-0.03647831876890178 -0.037654449543756095 0.08186186107664709
-0.036404237864178755 -0.037081831094051845 0.08182360421483302
-0.036328167443327786 -0.03651361012727395 0.08181987334826199
-0.03626968915790668 -0.035906514226828425 0.08151086615717418
-0.03616957892709097 -0.035391413953698686 0.08192429406575198
-0.03612109943903217 -0.0347622240937059 0.08144178006024591
-0.03601548911594526 -0.03425927689262388 0.0819506493083909
-0.03592433826438568 -0.033724378882268216 0.08220860621323878
-0.035844398789842746 -0.03316470624303795 0.08227201239127212
-0.035760498397476144 -0.032613786733673655 0.0824041529715722
-0.0356633732426496 -0.03209208997117854 0.08276578068272161
-0.035566248147191934 -0.03157039337884936 0.08312740790543531
-0.03544694684309397 -0.031097699740723406 0.0838738556010422
-0.035360322034487454 -0.030552799981761934 0.08405327182781315
-0.035236266116949196 -0.030090612868115665 0.08488222601519906
-0.03757781373703814 -0.04228233330074158 0.08317184948185682
-0.03747878033242044 -0.041764852938389434 0.08356659027460042
-0.03743640747808009 -0.04112216971838409 0.08297810969056674
-0.03739546178179894 -0.04047633167043479 0.08236486164153006
-0.03731128535380094 -0.039926021520361836 0.08250179115054239
-0.03726891247288412 -0.03928333835908311 0.08191331102768688
-0.03719256588437578 -0.038715726440628005 0.08191437029728857
-0.03711621929586744 -0.0381481145221729 0.08191542956689027
-0.037047123231280524 -0.03756448216709584 0.0817906735558595
-0.03697288135288915 -0.03699221942444397 0.08175521005026774
-0.036890645908962565 -0.03643762144463354 0.0818584600691111
-0.03682154971320603 -0.03585398817398632 0.08173370416711044
-0.03674124229989167 -0.03529512917985406 0.08180349622485525
-0.036655076183875056 -0.034749216289828806 0.08197495362833837
-0.03656420439937697 -0.03421370101614552 0.08222806683330097
-0.036478038336513294 -0.03366778800866706 0.08239952331442772
-0.03639187223464128 -0.03312187448467691 0.08257097938889134
-0.036325750781987326 -0.032531668461534775 0.08239460422012443
-0.036185227011893834 -0.032105870572885935 0.08350932275187133
-0.03610491961186771 -0.031547011549390366 0.08357911457902706
-0.03598857374392449 -0.031067787219047148 0.0842742769553834
-0.03820681772309419 -0.04279565836652769 0.08337980071688958
-0.038137442474420746 -0.04221264172524319 0.08325988718575471
-0.03808658985477176 -0.041588695223565904 0.0828185527566064
-0.038010519367479616 -0.041020474403604526 0.08281482304298081
-0.03796882586253409 -0.040376288804894106 0.08221455162550811
-0.03789945064043712 -0.039793272104882996 0.08209463763319506
-0.037830075562798 -0.03921025629107875 0.08197472330126282
-0.037752064078146214 -0.03864632333021815 0.0820046733083953
-0.037682688829472774 -0.038063306688933644 0.08188475977726042
-0.03760860805591936 -0.03749068915479956 0.08184650280641628
-0.03755775543627037 -0.036866742653122266 0.08140516837726795
-0.03744619945056428 -0.0363769349188052 0.08201721414300943
-0.0373701288188143 -0.03580871321263697 0.08201348476900303
-0.03730617241814853 -0.03521372302653921 0.08179953971999021
-0.037215021646318354 -0.03467882484000372 0.08205749524130357
-0.03713701018824303 -0.034114891820416514 0.08208744478725785
-0.03705511969444282 -0.03355953099402227 0.08218470784551342
-0.036975180113594006 -0.032999858589698436 0.08224811586825946
-0.03687213877738026 -0.0324912352445782 0.08271240688746616
-0.03674471577101803 -0.032036488310421204 0.08359978948123112
-0.036647590675560365 -0.03151479171809202 0.08396141670394483
-0.036605897190119 -0.030870606377637444 0.08336114548980368
-0.036498149364661246 -0.030372382613193534 0.08390710682397372
-0.038709611512848095 -0.04211524052614022 0.08313032261268723
-0.03864947476278886 -0.04151180937145056 0.0828500945540112
-0.03856529841280754 -0.04096150025440098 0.08298702487634978
-0.03852743235780563 -0.04030885705544139 0.08232033619184909
-0.03845833616204909 -0.039725223784794164 0.08219558028984843
-0.038398199556447715 -0.03912179351631136 0.0819153518915532
-0.03832395763819163 -0.0385495308617494 0.08187988907772871
-0.038254861469011574 -0.03796589753237557 0.08175513271454987
-0.038158571019972005 -0.03744235720622409 0.08210227750443437
-0.03809843424333631 -0.036838926110261024 0.0818220499069365
-0.038020077900719436 -0.03627575639504272 0.08185798635896353
-0.03795098170496291 -0.0356921231243955 0.08173323045696287
-0.03787262529676122 -0.03512895295139212 0.08176916696350493
-0.03776566163261212 -0.03462899686050438 0.08230152165583399
-0.03769656543685559 -0.03404536358985716 0.08217676575383331
-0.03761039940056838 -0.033499450523652094 0.08234822177378187
-0.03751952758949384 -0.03296393530869541 0.08260133543992267
-0.03741013330799729 -0.03246935020637348 0.08317586833543823
-0.037311099936171994 -0.031951870072913856 0.08357060910092429
-0.03717552813905202 -0.03151513000211975 0.08459939719792016
-0.03705697463697432 -0.031040783929436575 0.0853328683772576
-0.039355278811631464 -0.04259174430361404 0.08304911743619625
-0.0392733883186876 -0.0420363828726182 0.08314637939602142
-0.03920943178599586 -0.041441392375551875 0.0829324355544691
-0.03915614860043964 -0.04082281795419037 0.08253328060301174
-0.03909493497188583 -0.04022176640157474 0.0822717394840959
-0.03903097851892348 -0.039626775728328595 0.08205779425900904
-0.038956897705505374 -0.039054158282284424 0.08201953797993215
-0.038882816867223516 -0.03848153968576366 0.08198127996517265
-0.03880873593592402 -0.03790892129478602 0.08194302356453677
-0.03873266546192011 -0.037340700445461346 0.0819392936203221
-0.03865659490989953 -0.036772478563113296 0.08193556286278116
-0.03858251410976965 -0.03619986108770581 0.08189730635311518
-0.038498613651818246 -0.03564894112055643 0.08202944698793033
-0.03838889075229145 -0.035155082172717365 0.08260968235161308
-0.038344989685440374 -0.03451577527477041 0.0820477195673119
-0.03826309912605534 -0.03396041399059109 0.08214498268008252
-0.03817919878684169 -0.03340949436377358 0.08227712233802624
-0.038095298328890276 -0.0328585743966242 0.08240926297284139
-0.03801340783509006 -0.03230321357022995 0.08250652603109696
-0.037866108141932905 -0.03189238858767678 0.08373882632043983
-0.03771880841512698 -0.031481563980832676 0.08497112773547062
-0.03764273784274587 -0.03091334244483038 0.08496739787302851
-0.03983510982429117 -0.04196206733878753 0.0831981055615303
-0.039777904206206444 -0.041352159197361765 0.08286701393104723
-0.03971776756074035 -0.040748729016968854 0.08258678622451926
-0.039641420972232014 -0.04018111709851375 0.08258784549412096
-0.03958421535414728 -0.03957120895708797 0.08225675386363787
-0.0395240787485459 -0.03896777868860516 0.08197652546534265
-0.03943320692418312 -0.03843226350301178 0.08222963936207252
-0.03936411072842659 -0.03784863023236456 0.08210488346007186
-0.03929501467712791 -0.0372649978479242 0.08198012721845202
-0.039225918481371386 -0.03668136457727698 0.08185537131645133
-0.03914957203732089 -0.03611375354502872 0.08185643024643385
-0.03905870019966988 -0.035578238388798644 0.08210954437375281
-0.038989604069498154 -0.034994605575936505 0.0819847884172371
-0.038905427707084966 -0.03444429588364863 0.08212171787173438
-0.0388363315379049 -0.033860662554274806 0.08199696150855554
-0.03871998567617762 -0.03338143851155073 0.08269212431883252
-0.03862369520227432 -0.03285789703492266 0.08303926737303441
-0.038527404700938184 -0.0323343562216228 0.08338641198684488
-0.03839888901637098 -0.03188202380250709 0.08429275569079668
-0.038362698022155264 -0.031225679787627806 0.08359700096654266
-0.040399062832115355 -0.0418828203278679 0.08321110473354638
-0.040348210146025194 -0.041258873973007135 0.08276977145734352
-0.040284253810944234 -0.04066388424469445 0.08255582635381566
-0.04022304008937278 -0.04006283289762194 0.08229428684902343
-0.040148959251090924 -0.03949021430110118 0.08225602883426393
-0.04007288875051056 -0.03892199351050311 0.08225229935122742
-0.04000620434267369 -0.03833303085909041 0.08208569199077914
-0.03993013373750017 -0.03776480909419557 0.08208196215559456
-0.03986344943425645 -0.03717584741707964 0.08191535514729435
-0.0397815589014479 -0.0366204860741737 0.08201261779888679
-0.039705488454020464 -0.036052265166122414 0.08200888739349393
-0.03962554892632459 -0.035492592644345365 0.08207229449388363
-0.03955146811376283 -0.034919974593699596 0.08203403711637633
-0.039460317288779724 -0.03438507652461732 0.08229199356004605
-0.03938623641063316 -0.033812458016186465 0.08225373623705381
-0.03929508558565005 -0.03327755994710419 0.08251169268072353
-0.03920096004414082 -0.03274923457179023 0.0828212679299813
-0.03909534978663873 -0.03224628782849329 0.08333013712361124
-0.038955642498803636 -0.031818685741055744 0.084430687339383
-0.04091505157768437 -0.04190956147886965 0.08405642584605426
-0.04090210428375066 -0.04120185474598427 0.08295732497269252
-0.04084489881012377 -0.04059194749076534 0.08262623300259024
-0.040778777384902654 -0.040001740804295007 0.08244985627421476
-0.04070968117585789 -0.03941810756301108 0.08232510060280318
-0.04064058511127098 -0.038834475207934024 0.08220034459177242
-0.040571488902226206 -0.0382508419666501 0.08207558892036083
-0.04049724702383483 -0.03767857922399824 0.08204012541476909
-0.040423005276613064 -0.037106317396916534 0.08200466180014723
-0.04034464874967364 -0.03654314688358129 0.0820405992835607
-0.04027852741575743 -0.03595294120077101 0.0818642231379224
-0.04019629186723771 -0.03539834224666382 0.08196747280461766
-0.04011012583095049 -0.034852429180458756 0.08213892882456623
-0.04002789032143911 -0.03429783074286325 0.08224217889792464
-0.039931599820959326 -0.03377428932496179 0.0825893224133047
-0.0398353093196232 -0.033250748511661925 0.08293646702711516
-0.03970144498171698 -0.03281023482801225 0.08393562471129827
-0.039602411682548785 -0.032292754835355264 0.08433036475775954
-0.04157125205196055 -0.042362790344583415 0.08379244378430928
-0.041501876816575335 -0.04177977367393561 0.08367253002258533
-0.04146437428779475 -0.04112632718309622 0.08299953311238105
-0.04141589485203252 -0.04049713781025181 0.08251701928294901
-0.04134651964322379 -0.0399141210808774 0.08239710506004687
-0.041272438765077225 -0.03934150257244655 0.08235884773705464
-0.04120306367414988 -0.0387584867880056 0.08223893363571148
-0.04114458537544053 -0.03815139091692338 0.08192992667521276
-0.04105858024723687 -0.03760512168588085 0.08209858939345409
-0.040974679960319775 -0.03705420254621172 0.08223072922747188
-0.040907995512618214 -0.036465239982888926 0.08206412255879084
-0.040829984105983104 -0.03590130805505169 0.08209407337924958
-0.040755903280989485 -0.03532868942916763 0.08205581513390099
-0.04066475248258283 -0.03479379130135875 0.08231377111639251
-0.04058674101036292 -0.03422985891573645 0.08234372199136629
-0.04050284055241151 -0.03367893894858706 0.08247586262618144
-0.04041168979386957 -0.03314404073268828 0.08273381791690569
-0.040308648378782785 -0.03263541695914627 0.08319810922121652
-0.04017435469717518 -0.03219585260841769 0.0842047183372907
-0.04002315286755444 -0.03179365026255813 0.0855047319196354
-0.04205867248008964 -0.041716342881615694 0.08380973371861723
-0.042014831609795564 -0.04107690236330463 0.08324672526731318
-0.04196430769948173 -0.04045223071080454 0.08279968895273483
-0.0419041709494225 -0.03984879955611487 0.0825194608940588
-0.04183507475366597 -0.03926516628546765 0.08239470499205814
-0.04175089845683759 -0.038714857050964856 0.08253163439204037
-0.04169626177332945 -0.038099272278352476 0.08215596435654494
-0.041627165630725854 -0.03751563889025204 0.08203120753218793
-0.041533603176425515 -0.036986070454177206 0.0823310137656666
-0.0414830791083656 -0.03636139794483357 0.08188397802129653
-0.041404722765748726 -0.035798228229615266 0.08191991447332356
-0.041295328352226206 -0.03530364281632477 0.08249444857629962
-0.041226232275207414 -0.034720009886009415 0.08236969169742753
-0.04112994177387128 -0.03419646907270955 0.082716836311238
-0.04104963424181918 -0.033637609738245415 0.08278662934585423
-0.0409560716687811 -0.03310804096183871 0.08308643655620429
-0.04082573147687428 -0.032659739895330546 0.08402444016931236
-0.04068520772628495 -0.03223394226493755 0.08513915890439083
-0.042699990601749775 -0.04220245737014974 0.08380400128186188
-0.04260883977097891 -0.04166755871114753 0.08406195674239575
-0.04259389589993353 -0.04096426385858085 0.08299750222551697
-0.0425454164641713 -0.04033507448573644 0.08251498839608493
-0.04246547698962837 -0.03977540184650618 0.08257839457411825
-0.04239610178081962 -0.03919238511713177 0.08245848035121613
-0.04232672666331581 -0.03860936939141743 0.08233856671105115
-0.042246787135619926 -0.03804969686964038 0.08240197381144083
-0.042209284566974634 -0.0373962504668909 0.08172897759300383
-0.042099561706456186 -0.03690239203556352 0.08230921336334972
-0.042019622231913245 -0.03634271939633326 0.08237261954138304
-0.041958408707952574 -0.03574166881801439 0.08211107877461528
-0.04186725787053759 -0.03520677017369382 0.0823690343504437
-0.04180877965070129 -0.03459967473103338 0.08206002710484082
-0.041705738301199315 -0.03409105141527645 0.0825243183546366
-0.04162384774181429 -0.03353569013109712 0.08262158146740722
-0.041512291690523395 -0.03304588193899497 0.08323362728766373
-0.041381462518176745 -0.03259866138331011 0.08418011611806321
-0.04124890969490304 -0.0321552502196655 0.0851565163340802
-0.041165009296320505 -0.03160433042268205 0.08528865648045963
-0.04318981073691608 -0.04155070708002213 0.08377964820515255
-0.043139286695432634 -0.04092603451195189 0.08333261199960432
-0.04310646283258537 -0.040262250675603795 0.08257842894337945
-0.043026155353686195 -0.03970339122368645 0.08264822105563933
-0.042947798853323234 -0.03914022065162459 0.08268415807787463
-0.04287355709281324 -0.038567958853906195 0.08264869469384187
-0.04281892038272863 -0.03795237414002042 0.08227302511952463
-0.0427557985504643 -0.037355539187076986 0.08204459682435636
-0.04267356313311418 -0.03680094114853996 0.08214784638202154
-0.042591327558017984 -0.036246342253159376 0.08225109650989498
-0.042500455917977756 -0.03571082786568294 0.08250420937523842
-0.042434334466180175 -0.03512062123793921 0.0823278331080411
-0.04233804396484404 -0.03459708042463934 0.08267497772185156
-0.042255808508485586 -0.03404248186959063 0.0827782268728536
-0.0421488447521752 -0.03354252537964441 0.08331058208087587
-0.04202412306399399 -0.03308180958469561 0.08415108957504606
-0.041888551227865674 -0.032645068997389816 0.08517987726537879
-0.041786782492547137 -0.032133633558105855 0.08562208499813566
-0.04384196484399971 -0.04201287719522939 0.0835858814398244
-0.043767883912700214 -0.04144025880425175 0.08354762503918853
-0.04372398278026432 -0.04080095144851973 0.0829856623094024
-0.04366276928288012 -0.04019990081147426 0.08272412108145645
-0.043586698637841904 -0.03963167913466933 0.08272039193803914
-0.04351261773311887 -0.039059060684965084 0.08268213507622507
-0.043443242655479754 -0.03847604487116083 0.08256222074429284
-0.04337928618922918 -0.03788105422727799 0.08234827574979507
-0.043312601741527616 -0.0372920916639552 0.08218166908111404
-0.0432307113133122 -0.036736731295346034 0.08227893208485458
-0.043148820807080115 -0.03618136989371349 0.08237619427526884
-0.043070809453597945 -0.03561743784842305 0.0824061441733712
-0.04298891889421292 -0.03506207656424372 0.08250340728614183
-0.0429070284004127 -0.03450671573784947 0.08260067034439739
-0.04287529716347384 -0.0338405168993117 0.08182752600191168
-0.042727997357794874 -0.03342969186404582 0.0830598277020466
-0.042590138828326705 -0.03299800483597278 0.08412829718357492
-0.04245584506784607 -0.03255844005682243 0.08513490658475323
-0.04239463149158883 -0.03195738899135519 0.08487336564191143
-0.044331569330822676 -0.04136160333097357 0.08356526966758805
-0.04427143259405168 -0.0407581721469206 0.08328504137832293
-0.04423524166542077 -0.040101828589826395 0.08258928659955385
-0.04412347418589286 -0.039612486992636475 0.08320500022437262
-0.044070974967998826 -0.038992179015285476 0.08279223901157974
-0.04397741250041026 -0.03846261060857395 0.0830920454756475
-0.043933571630116186 -0.03782317009026288 0.08252903702434344
-0.0438674501384539 -0.03723296355060905 0.0823526614489134
-0.043785214787544956 -0.03667836536525551 0.08245590985363314
-0.043701038293105794 -0.036128055361999076 0.0825928405155909
-0.04361686202285388 -0.03557774606876967 0.08272976945439496
-0.04353850545604975 -0.03501457564352433 0.0827657076295757
-0.043436736787172386 -0.03450314005742385 0.08320791420938711
-0.04335057075088518 -0.03395722699121879 0.08337937022933568
-0.04323422485014955 -0.033478002431983025 0.08407453263294956
-0.043098653026453104 -0.03304126241991552 0.08510332119112358
-0.04299168929007508 -0.032541305885924354 0.08563567605326222
-0.044967353633817014 -0.04185994602021992 0.08365556490393776
-0.04490613997868673 -0.0412588945263309 0.08339402424620009
-0.04484766167997739 -0.04065179865524868 0.08308501728570136
-0.04478644818259319 -0.04005074801820321 0.08282347605775542
-0.044708436711229635 -0.0394868150279793 0.0828534258342988
-0.04463236606619141 -0.038918593351174376 0.08284969669088149
-0.04456840974439869 -0.038323603593498394 0.08263575135676453
-0.0444943288928286 -0.03775098502634094 0.08259749357259412
-0.04440317800226068 -0.03721608649947358 0.08285545007077888
-0.04434469990116212 -0.036608991397145 0.08254644184830462
-0.0442628093417771 -0.03605363011296567 0.08264370496107523
-0.044162699189834426 -0.035538530268257706 0.08305713258454892
-0.04410422089112508 -0.03493143439717548 0.08274812562405019
-0.04400709579566741 -0.034409737804846297 0.08310975284676389
-0.04389221844327124 -0.03392726876478256 0.08377943279565418
-0.04386583574800595 -0.03324925053346444 0.08291347478529881
-0.04386938907809263 -0.03250508261178683 0.08152804170105848
-0.04355633568671397 -0.03246052691730078 0.08563664493993448
-0.045460704056024516 -0.041200394919024656 0.08356995238204576
-0.04540349846451625 -0.040590486718872276 0.08323886029038449
-0.04534336181905017 -0.03998705653847937 0.08295863258385654
-0.04527426571631128 -0.03940342306228903 0.08283387506773225
-0.045183393891948496 -0.03886790787669565 0.08308698896446212
-0.04513089480522409 -0.03824760081491481 0.08267422764263915
-0.0450566529268327 -0.03767533807226295 0.08263876413704739
-0.04497247643239354 -0.037125028069006506 0.08277569479900516
-0.04489412008977666 -0.03656185835378821 0.08281163125103219
-0.044817773501268324 -0.035994246435333103 0.08281269052063388
-0.04471600489797577 -0.0354828113070177 0.08325489704593025
-0.0446376483178834 -0.03491964091113566 0.08329083545170009
-0.044553471995334916 -0.03436933113075789 0.08342776421443009
-0.04445170331316932 -0.033857895574020705 0.0838699710248306
-0.044427510319566536 -0.03317503871081993 0.08296601539146951
-0.04419533637567418 -0.03295176252659501 0.0856711286324082
-0.04609504853445437 -0.04170191945904873 0.08368523472184068
-0.04602567324591622 -0.041118902905854134 0.08356532188247308
-0.04597238999563156 -0.040500327422105964 0.08316616588710038
-0.045903014851551266 -0.03991731175511822 0.08304625270811358
-0.045849731601266604 -0.039298736271370045 0.08264709671274088
-0.04575560601989267 -0.03877041098414599 0.08295667265376594
-0.04568623090238885 -0.03818739525843165 0.08283675901360096
-0.045612149997665816 -0.0376147768087274 0.08279850215178691
-0.04553025950472197 -0.03705941537773156 0.08289576411161208
-0.045439108745323656 -0.03652451776643437 0.08315372050076676
-0.04537789507690514 -0.035923466301908645 0.08289218007361816
-0.04529189009315932 -0.03537719795707297 0.08306084245224031
-0.045194764892252146 -0.03485550099504862 0.08342247042123632
-0.045112874491469564 -0.03430013996311125 0.08351973186536826
-0.04500726414094983 -0.03379719342535743 0.08402860267312182
-0.04487814414114277 -0.03334619607355251 0.08494543244314648
-0.04479424376206441 -0.03279527653482491 0.08507757279285748
-0.04658358083806028 -0.04105301458281179 0.08368322640751483
-0.046523444074712816 -0.04044958345748543 0.08340299857942787
-0.0464633074558232 -0.03984615321836592 0.08312277041172174
-0.046367016955343426 -0.03932261180046445 0.0834699139271018
-0.046303895109790855 -0.03872577687688432 0.08324148586252263
-0.04622754866574037 -0.03815816584463607 0.08324254479250512
-0.04617034304765563 -0.0375482577032103 0.08291145316202203
-0.04609399641928259 -0.0369806458728451 0.082912513123391
-0.04600982009587774 -0.03643033669706892 0.0830494429845514
-0.04594669823703694 -0.03583350180285209 0.0828210151505613
-0.04583973463847264 -0.035333546169749416 0.08335336978837529
-0.04576137816468616 -0.03477037553896096 0.08338930634943242
-0.045654414487248815 -0.034270419477436524 0.08392166127235054
-0.0455296927990676 -0.03380970368248772 0.08476216876652073
-0.04721043775533542 -0.041571084551259685 0.08392843947296985
-0.0471492240869169 -0.04097003308673396 0.08366689904582127
-0.04709074580149579 -0.040362937186288445 0.08335789185473345
-0.04701666509438355 -0.03979031950533784 0.08331963373094385
-0.04694728987228658 -0.03920730280532673 0.08319971973863081
-0.04687791465018961 -0.03862428610531562 0.08307980574631776
-0.046803833850059734 -0.03805166862990814 0.08304154923665177
-0.04673445862796276 -0.03746865192989703 0.08292163524433874
-0.04666508341915403 -0.036885635200522626 0.0828017210214366
-0.04660112708407307 -0.03629064547220995 0.08258777591790874
-0.04650400188316589 -0.03576894851018559 0.08294940388690475
-0.04642010156967233 -0.03521802942924306 0.0830815441821007
-0.04632297634218868 -0.03469633252594532 0.0834431726122749
-0.04621993505912787 -0.034187709063371874 0.08390746270912522
-0.04610837898126051 -0.03369790092999633 0.08451950899055992
-0.04598095589559705 -0.03324315386971836 0.08540689241864423
-0.04766520786244134 -0.04026046808974857 0.08318852872347822
-0.047579041865162465 -0.03971455554005519 0.08335998515008992
-0.04750994566940594 -0.03913092226940796 0.08323522924808925
-0.047433599080897594 -0.038563310350952854 0.08323628851769095
-0.047359357320387596 -0.03799104855323446 0.08320082513365817
-0.04729623546154679 -0.03739421365901763 0.08297239729966807
-0.0472301139698845 -0.0368040071193638 0.08279602172423804
-0.04715175762726763 -0.03624083740414551 0.08283195817626507
-0.0470695220787479 -0.035686238450038314 0.08293520784296034
-0.04695543796663226 -0.03520201717220438 0.0835911238746223
-0.046864566142269484 -0.034666501986611 0.08384423777135216
-0.04676279747339212 -0.03415506640051052 0.08428644435116357
-0.04663807575199032 -0.03369435067896997 0.0851269524218065
-0.04827376975579284 -0.040818965452190804 0.08375121709424649
-0.04821255612723903 -0.040217913899575186 0.08348967597533065
-0.0481431810097352 -0.03963489817386084 0.08336976233516567
-0.04806516945864225 -0.03907096535981675 0.08339971349524358
-0.04798715798727869 -0.03850703236959285 0.08342966327178697
-0.04792867988618014 -0.03789993726726427 0.0831206550493127
-0.04785459898145711 -0.037327318817560025 0.08308239818749864
-0.04779338532632682 -0.036726267323671 0.08282085752976097
-0.04771149489811141 -0.03617090695506184 0.0829181205335015
-0.04762034406069643 -0.03563600831074127 0.0831760761093299
-0.047517302776779256 -0.03512738545276941 0.08364036730461064
-0.04743541223068247 -0.03457202413922678 0.08373763018679216
-0.047322144814293345 -0.034085997588189684 0.08437937311462314
-0.04722501967897097 -0.033564301083950414 0.08474100102910412
-0.04709928381368431 -0.033105825735728914 0.08559910632998838
-0.04875360261129061 -0.04018928393761008 0.08390016923048361
-0.04870491175972324 -0.039560561734916184 0.08342132407345514
-0.048603143011972834 -0.03904912572039393 0.08386353093837069
-0.04852679642346449 -0.03848151380193882 0.08386459020797238
-0.048460675076260055 -0.037891308148491856 0.08368821429292315
-0.04841198415996424 -0.0372625848834113 0.08320936809197933
-0.04833362764631305 -0.03669941434071274 0.08324530534480372
-0.04823733721056172 -0.036175873985197955 0.08359244990409914
-0.0481531608091402 -0.0356255637763984 0.08372937895193328
-0.04806228912923526 -0.03509004947701187 0.08398249250904398
-0.04798804723755565 -0.034517786763723315 0.0839470292340413
-0.047871701375828364 -0.03403856272099924 0.08464219204431829
-0.04780857960914884 -0.033441728225840885 0.08441376369463498
-0.04930633221710262 -0.04013483752475265 0.08410792671400927
-0.0492530490315464 -0.03951626310339114 0.0837087717625519
-0.049171158565179014 -0.03896090161366869 0.0838060332611989
-0.0490872580673629 -0.03840998173460922 0.08393817458778131
-0.04900924671388073 -0.03784604968931878 0.08396812448588367
-0.048939871465207285 -0.03726303304803428 0.0838482109547488
-0.04885993200395258 -0.03670336037944072 0.08391161690219305
-0.04877999256756162 -0.03614368886132374 0.08397502458531991
-0.04870198109619807 -0.035579755871099836 0.08400497436186329
-0.0486239697427159 -0.035015823825809395 0.08403492425996566
-0.048540069298052727 -0.03446490382929671 0.08416706466419172
-0.04846205789227398 -0.03390097129685789 0.08419701438622004
-0.04833967696640096 -0.03343508306799807 0.08499690292062251
-0.048226409484427024 -0.0329490560591759 0.08563864590296855
-0.04977962180668026 -0.0395196169692723 0.08437043352536278
-0.049729097765196816 -0.03889494440120206 0.08392339731981453
-0.04961501349533509 -0.03841072226652457 0.08457931392168476
-0.0495347060944526 -0.0378518638476306 0.08464910684727088
-0.04944853996600411 -0.03730595038236705 0.08482056338291269
-0.04942986962895046 -0.03661088998362849 0.08382077377128118
-0.04930514791333641 -0.03615017485200789 0.08466128282505996
-0.04923902650140352 -0.03555996813617425 0.08448490586609538
-0.04916478474089352 -0.03498770633845584 0.08444944248206261
-0.049088438152385186 -0.034420094420000734 0.0844505017516643
-0.04900227202308033 -0.03387418155933879 0.0846219593857365
-0.0488859262610148 -0.03339495729638994 0.08531712046659533
-0.04879976008605749 -0.03284904393389796 0.08548857780929893
-0.048700726826754005 -0.032331563853151064 0.08588331716399293
-0.05026669488943073 -0.038873936565426245 0.08439374689065052
-0.050172569334633266 -0.03834561121947558 0.08470332237049738
-0.05009067891306198 -0.037790250836184765 0.08480058525894335
-0.05001073935214551 -0.037230578387815974 0.08486399293580577
-0.04991661381728041 -0.03670225299782036 0.08517356806976902
-0.04986333065165653 -0.0360836785324139 0.08477441277242803
-0.04979395542955956 -0.035500661832402795 0.08465449878011497
-0.04972727112631584 -0.03491170015528685 0.08448789177181477
-0.049647331572043506 -0.03435202769223641 0.08455129933338264
-0.04956932015297652 -0.03378809518916089 0.08458124928600005
-0.04947519466376387 -0.03325977030099531 0.08489082471133189
-0.04939330414424355 -0.03270440892872607 0.08498808713233523
-0.04931529272517657 -0.03214047642565055 0.08501803708495265
-0.04923535317090423 -0.03158080396260011 0.08508144464652051
-0.04915145279182586 -0.03102988442387251 0.08521358499623152
-0.04903657543985787 -0.03054741508150797 0.08588326439590661
-0.048962494647228474 -0.02997479698681724 0.0858450066725157
-0.04862814208202016 -0.027768357867124015 0.08635189314510741
-0.04854820256824278 -0.02720868574778825 0.08641530078278713
-0.048472132052618105 -0.026640464180543312 0.08641157010476523
-0.04840275686331354 -0.026057447709424746 0.08629165608519467
-0.04830563173152732 -0.025535751046694248 0.08665328366742076
-0.04821448087685977 -0.025000852892529006 0.08691124035530833
-0.048053954909080904 -0.023882938249556604 0.08704928197234565
-0.04797206440242063 -0.02332757715022486 0.08714654471197511
-0.0477702334107931 -0.02156461877468002 0.08667757418874247
-0.04770901982124763 -0.020963567738576074 0.08641603347648977
-0.0476349389165246 -0.02039094928887183 0.08637777661467572
-0.0475293286191578 -0.019888002633664807 0.0868866465000729
-0.04737337422293014 -0.018759985787220136 0.08694535765777524
-0.05062156834931453 -0.03778406512594378 0.08538733251240407
-0.05053739193460476 -0.037233754946507526 0.08552426179082731
-0.05046104535274054 -0.03666614301337077 0.08552532094513446
-0.05039194928150951 -0.03608251067297536 0.08540056504939825
-0.050337312651154306 -0.035466925782909775 0.08502489409154647
-0.05025114660736661 -0.03492101333598795 0.08519635132521998
-0.050198647402760824 -0.034300705329273644 0.08478358988183803
-0.05015480658476332 -0.033661265298110955 0.084220581606608
-0.05005577328559513 -0.03314378530545396 0.08461532165306929
-0.049981531367339044 -0.03257152265089201 0.08457985883924479
-0.049912435263743796 -0.03198788977930326 0.08445510242155088
-0.049832127758268153 -0.03142903038611252 0.08452489499498894
-0.049745961668828005 -0.030883117437360667 0.08469635193729387
-0.04966178527362241 -0.03033280751618025 0.08483328141904867
-0.04960164858914799 -0.029729376819275663 0.08455305330585759
-0.049462751006571895 -0.02929998550833392 0.08563955280608951
-0.04940811437932466 -0.028684400762077907 0.08526388206519807
-0.04931182386159232 -0.028160859834331767 0.0856110266926373
-0.04925932471126527 -0.027540552084369837 0.08519826498459435
-0.04917901719977577 -0.02698169313766534 0.08526805844120605
-0.049104775351136186 -0.026409430724798233 0.08523259513042789
-0.0490264189101421 -0.025846260322902315 0.08526853166422749
-0.048944183397522746 -0.02529166174149724 0.08537178152062556
-0.048858017318262864 -0.024745748619572506 0.08554323801538107
-0.048764454785089485 -0.02421617975507589 0.08584304453396388
-0.04870133295904108 -0.023619345089751605 0.08561461667271625
-0.04863223687580636 -0.023035711871817105 0.08548985935992352
-0.048515891014079084 -0.022556487829093027 0.08618502217020053
-0.04847052139888854 -0.021920425411974063 0.08564854184062293
-0.048396279546217266 -0.021348163215197183 0.08561307897228337
-0.048312103117362906 -0.020797853669725825 0.0857500095797261
-0.04821581257701844 -0.020274312339914273 0.08609715378687344
-0.04811952214212347 -0.01975077137979789 0.08644429724773844
-0.04802323164078734 -0.01922723056649802 0.08679144186154891
-0.04794099607897938 -0.018672631641754135 0.08689469175883327
-0.04784743346693296 -0.01814306234883575 0.08719449856252022
-0.047748400142044664 -0.017625581810303773 0.08758923797172927
-0.0510301443439937 -0.03657552576497334 0.08544903052220884
-0.05095213299715565 -0.036011593705001246 0.08547898030501667
-0.05089365470509042 -0.035404497819237365 0.08516997322922339
-0.05082427962080718 -0.034821482020114765 0.08505005901258571
-0.05075759519303797 -0.03423251941274702 0.08488345199802105
-0.05069091078434474 -0.03364355736593591 0.08471684573600315
-0.05062969719479927 -0.033042506329831973 0.08445530502375044
-0.050571218896089926 -0.032435410458749744 0.08414629806325172
-0.050501843752865996 -0.03185239418716041 0.08402638378583452
-0.05043515934502914 -0.03126343153574771 0.08385977642538624
-0.050361078479314446 -0.030690813602555152 0.0838215199702353
-0.05027918801916299 -0.030135452400451845 0.08391878190280296
-0.050195287666661106 -0.029584532802997637 0.08405092179133579
-0.05011534813189293 -0.02902486059820304 0.08411432955623521
-0.05003927760955678 -0.02845663880093796 0.08411059855447643
-0.04996320701370716 -0.02788841746747184 0.08410686937017284
-0.0498793066498992 -0.027337497668984925 0.0842390090485597
-0.049782181496131096 -0.0268158010359936 0.08460063697837303
-0.049706110933997606 -0.02624757957152022 0.08459690710741295
-0.04962809948213822 -0.02568364683955216 0.08462685708728789
-0.049546208971941806 -0.025128285898711644 0.08472412015917223
-0.04946230857646724 -0.024577366245537767 0.08485626052251198
-0.04938429717068849 -0.024013433713098945 0.08488621024454032
-0.04930039675881772 -0.023462513945478804 0.08501835062150885
-0.049218506232225095 -0.022907152890192017 0.08511561370702193
-0.049151821889973045 -0.02231819069656439 0.08494900629205861
-0.04905469668906586 -0.02179649373454004 0.08531063426105462
-0.04897280623513035 -0.02124113282005588 0.08540789662754292
-0.0488816554367237 -0.020706234692247 0.08566585261003445
-0.04877861402163692 -0.020197610918704992 0.08613014391434527
-0.04868746324980674 -0.019662712732169504 0.08638809943565863
-0.048584421900304764 -0.019154089416412574 0.0868523906854544
-0.04849327107617801 -0.018619190742728706 0.08711034603069373
-0.0483991454615835 -0.01809086552891291 0.0874199225481915
-0.0483079946175244 -0.017555966899273998 0.08767787823931444
-0.051505326968762595 -0.03595612212803116 0.0856786877272597
-0.051442205116565914 -0.03535928721913268 0.08545025977797505
-0.05137608374942912 -0.03476908160973066 0.08527388420880946
-0.051309962330852124 -0.034178874908578676 0.08509750736513944
-0.0512408662006804 -0.033595242095716536 0.08497275140862372
-0.051199920556695824 -0.03294940453491562 0.08435950353566109
-0.05112357396818748 -0.032381792616460514 0.08436056280526277
-0.0510857079521939 -0.031729149934012615 0.08369387452742522
-0.05098393915129056 -0.031217714036943567 0.08413608231469713
-0.05095624514564765 -0.03054259403969238 0.0832928803952378
-0.05089312334617572 -0.029945759315641484 0.08306445207281199
-0.05078615968202662 -0.029445803224753743 0.08359680676514104
-0.05070780321445607 -0.028882632881584432 0.08363274376011881
-0.0506236267762778 -0.02833232290468436 0.08376967371668055
-0.05054331931999077 -0.027773463854832425 0.08383946624923232
-0.05046496280746538 -0.02721029368633946 0.08387540415975206
-0.05033284108257022 -0.02676592974562235 0.08484432327399738
-0.05029046814010028 -0.02612324591046831 0.08425584276321832
-0.05021016066741704 -0.025564386746170113 0.08432563530939884
-0.05012598426203119 -0.025014076998162577 0.08446256523870306
-0.05003981818277131 -0.024468163876237844 0.08463402173345856
-0.04995951071630401 -0.02390930499955879 0.08470381471355976
-0.049883164160588064 -0.023341693309996223 0.08470487395590391
-0.049796998064931985 -0.022795780073625222 0.08487633046428818
-0.049714762581997064 -0.02224118157730311 0.08497958007646841
-0.049615729270397 -0.021723701009407834 0.08537431925508839
-0.04952956314109215 -0.021177788148745883 0.08554577688916057
-0.049436000674359944 -0.020648219137432755 0.08584558225479792
-0.049336967269742245 -0.020130738775080596 0.08624032304754152
-0.04924067676840611 -0.019607197961780728 0.08658746766135196
-0.049147114235232735 -0.019077629097284114 0.08688727417993478
-0.0490453454741941 -0.018566193112125158 0.08732948127543942
-0.05206504274588766 -0.035886239174090076 0.08576522306234734
-0.051995667530434816 -0.035303222459397314 0.08564530895473974
-0.05192158673694905 -0.034730604969308174 0.08560705232977922
-0.05186830344015556 -0.03411202958833156 0.08520789714146834
-0.05179892826371105 -0.033529013390150485 0.08508798344052386
-0.051772545620742336 -0.032850995645980756 0.08422202560624253
-0.051728644528171136 -0.03221168820215882 0.08366006218468915
-0.05166743092533743 -0.03161063719541818 0.08339852170302552
-0.05160074651750057 -0.03102167454400548 0.08323191434257722
-0.05153406209551911 -0.030432712526557677 0.08306530831114843
-0.05144805700010785 -0.029886443524407686 0.08323397100213221
-0.051368117564573254 -0.029326771401689114 0.08329737758682869
-0.05128211246916199 -0.028780502399539123 0.08346604027781249
-0.05120022195274963 -0.028225141171079462 0.08356330291577616
-0.051118331495706146 -0.02766978011278573 0.08366056506530414
-0.051034431105321715 -0.02711886037302542 0.0837927052048692
-0.05093432078961911 -0.026603760117960146 0.08420613428172481
-0.050860239994377276 -0.026031141821860844 0.08416787623118982
-0.050774234872389544 -0.02548487287843746 0.0843365393833518
-0.05069033451677968 -0.024933953137173677 0.08446867905492429
-0.05059918370197684 -0.024399054894918528 0.0847266350510446
-0.050576185014137354 -0.023713559550736812 0.08380195586057557
-0.05043271924229383 -0.023294262668005928 0.08496772658600418
-0.05034881883042307 -0.022743342900385786 0.08509986696297271
-0.05025766799215172 -0.02220844486066681 0.08535782363723152
-0.05016651716802496 -0.021673546186982945 0.08561577898247083
-0.05007239167881231 -0.021145221298817362 0.08592535440780265
-0.04998124092027037 -0.02061032308291857 0.08618330969852692
-0.04995656568336247 -0.019928531843346486 0.08528772237378919
-0.0497993166437218 -0.019539692451710913 0.08669267298790177
-0.049687760579142676 -0.019049884288972068 0.08730471903874737
-0.04958471916405589 -0.018541260515430057 0.0877690103430582
-0.05239443048805172 -0.0341163683874848 0.08587729355408641
-0.05233130870808396 -0.033519533921689756 0.08564886543499217
-0.05229848485273718 -0.03285574946605842 0.08489468116504238
-0.05226906699191231 -0.032184438106775494 0.08408139200847065
-0.052208930280861425 -0.03158100746859751 0.08380116435645774
-0.05214879354409043 -0.030977576284544537 0.0835209360671926
-0.05208865687290424 -0.030374145558276645 0.08324070772341244
-0.05201956068336364 -0.029790512575248566 0.08311595225533241
-0.051920527384195454 -0.029273032582591577 0.0835106923017937
-0.05184628551202001 -0.02870077012755886 0.08347522923012259
-0.05176011942654419 -0.028154856718014983 0.08364668529095744
-0.051669247664658254 -0.02761934184639711 0.08389979891621195
-0.05158894017359665 -0.027060482798048652 0.08396959191675628
-0.0514899068028298 -0.026543002794092822 0.08436433290090625
-0.05140959938025888 -0.025984143613233632 0.08443412474680154
-0.05131330884613035 -0.025460602571041224 0.08478126938786952
-0.051229132400879784 -0.024910292911123597 0.08491820000894101
-0.05113009913846833 -0.024392812686567122 0.08531293914667469
-0.05105174263724901 -0.023829642719106866 0.08534887726734039
-0.05094234836282476 -0.023335057299802488 0.08592340949834619
-0.05086810647736108 -0.02276279487413307 0.08588794665726418
-0.05078587098113793 -0.022208196407174263 0.08599119650003349
-0.05068410224667576 -0.021696760363288707 0.08643340313435996
-0.05060379476692022 -0.021137901515972952 0.08650319634505022
-0.050512923021430484 -0.02060238675880135 0.08675630995667596
-0.05042205120371182 -0.020066871558526322 0.0870094237381113
-0.0503284887303355 -0.019537302561894846 0.08730922921904319
-0.05022671999501697 -0.019025867122610878 0.08775143695180006
-0.05282738282603937 -0.032853963380072626 0.08551597800846514
-0.0527765301399492 -0.032230017025211846 0.08507464473226228
-0.05271805197326584 -0.03162292146509818 0.08476563656430305
