ply
format ascii 1.0
element vertex 720
property float x
property float y
property float z
end_header
0.006571993231773377 -0.006089459173381329 -0.004019053187221288
0.006571993231773377 -0.005537399556487799 -0.004083273466676473
0.006571993231773377 -0.004985340405255556 -0.0039005172438919536
0.006571993231773377 -0.004433280788362026 -0.0039305626414716235
0.006571993231773377 -0.0038812216371297836 -0.0037020540330559007
0.0065719932317733765 -0.0033291622530668974 -0.003519298043102025
0.0065719932317733765 -0.002777102869004011 -0.0034165545366704455
0.0065719932317733765 -0.002225043484941125 -0.0028006562497466794
0.0065719932317733765 -0.0016729839844629169 -0.0019468088867142788
0.006019933614879847 -0.013266230933368206 -0.001953090308234095
0.006019933614879847 -0.012714170850813389 -0.0016640065005049103
0.006019933614879847 -0.012162111699581146 -0.002422322053462266
0.006019933614879847 -0.011610052548348904 -0.0027903623413294545
0.006019933614879847 -0.011057993397116661 -0.003111890284344553
0.006019933614879847 -0.010505933314561844 -0.0034799305722117415
0.006019933614879847 -0.009953874163329601 -0.0034830591175705186
0.0060199336148798474 -0.009401815012097359 -0.0037579515483230344
0.0060199336148798474 -0.008849755860865116 -0.0037938624154776326
0.0060199336148798474 -0.008297696709632874 -0.003896606620401143
0.0060199336148798474 -0.007745637092739344 -0.003965520299971103
0.0060199336148798474 -0.007193577941507101 -0.004333559423685073
0.0060199336148798474 -0.006641518324613571 -0.003993719350546598
0.0060199336148798474 -0.006089459173381329 -0.004531769547611474
0.0060199336148798474 -0.005537399556487799 -0.004098410718142985
0.0060199336148798474 -0.004985340405255556 -0.003910908941179513
0.0060199336148798474 -0.004433280788362026 -0.003914038650691508
0.0060199336148798474 -0.0038812216371297836 -0.0038498183712363234
0.0060199336148798474 -0.0033291622530668974 -0.003560734447091817
0.006019933614879847 -0.002777102869004011 -0.0032716512214392415
0.006019933614879847 -0.002225043484941125 -0.002605500863865017
0.006019933614879847 -0.0016729839844629169 -0.002494957530871033
0.006019933614879847 -0.0011209246004000306 -0.0017479629023000591
0.005467874463647604 -0.013266230933368206 -0.0020293805282562962
0.005467874463647604 -0.012714170850813389 -0.0017078510718420141
0.005467874463647604 -0.012162111699581146 -0.0023497329093515864
0.005467874463647604 -0.011610052548348904 -0.003015883266925811
0.005467874463647604 -0.011057993397116661 -0.002946970518678426
0.005467874463647605 -0.010505933314561844 -0.003588852006942033
0.005467874463647605 -0.009953874163329601 -0.003653072053566574
0.005467874463647605 -0.009401815012097359 -0.0037172921001911155
0.005467874463647605 -0.008849755860865116 -0.0039047922473400823
0.005467874463647605 -0.008297696709632874 -0.004004799295216798
0.005467874463647605 -0.007745637092739344 -0.003968887496739625
0.005467874463647605 -0.007193577941507101 -0.0041563878767192355
0.005467874463647605 -0.006641518324613571 -0.004153260029852389
0.005467874463647605 -0.006089459173381329 -0.004050515126436948
0.005467874463647605 -0.005537399556487799 -0.003867759369313716
0.005467874463647605 -0.004985340405255556 -0.003765015397220849
0.005467874463647605 -0.004433280788362026 -0.0036622718907892695
0.005467874463647605 -0.0038812216371297836 -0.003900351468473672
0.005467874463647604 -0.0033291622530668974 -0.0028733501676470033
0.005467874463647604 -0.002777102869004011 -0.002870222320780157
0.005467874463647604 -0.002225043484941125 -0.0022543238010257474
0.005467874463647604 -0.0016729839844629169 -0.00019653546041808955
0.004915814846754074 -0.013818290084600449 -0.0018015379318967455
0.004915814846754074 -0.013266230933368206 -0.001984293572604656
0.004915814846754074 -0.012714170850813389 -0.0024819937534630294
0.004915814846754074 -0.012162111699581146 -0.0025509065017104145
0.004915814846754074 -0.011610052548348904 -0.003204341512173414
0.004915814846754074 -0.011057993397116661 -0.003387097734957933
0.004915814846754075 -0.010505933314561844 -0.0035698537249118085
0.004915814846754075 -0.009953874163329601 -0.0036057652905583377
0.004915814846754075 -0.009401815012097359 -0.003788520814850926
0.004915814846754075 -0.008849755860865116 -0.003891264786943793
0.004915814846754075 -0.008297696709632874 -0.00438896520063281
0.004915814846754075 -0.007745637092739344 -0.003854508744552731
0.004915814846754075 -0.007193577941507101 -0.003923420794308185
0.004915814846754075 -0.006641518324613571 -0.0041983132250607005
0.004915814846754075 -0.006089459173381329 -0.004010813310742377
0.004915814846754075 -0.005537399556487799 -0.004046724643558263
0.004915814846754075 -0.004985340405255556 -0.004016679245978593
0.004915814846754075 -0.004433280788362026 -0.004019807092845439
0.004915814846754075 -0.0038812216371297836 -0.003630128456279635
0.004915814846754074 -0.0033291622530668974 -0.0028258827514946456
0.004915814846754074 -0.002777102869004011 -0.0025367992930114265
0.004915814846754074 -0.002225043484941125 -0.0031902345363050695
0.004915814846754074 -0.0016729839844629169 -0.0027205310761928554
0.0043637556955218315 -0.013266230933368206 -0.0021524243056774135
0.0043637556955218315 -0.012714170850813389 -0.0024922646116465326
0.0043637556955218315 -0.012162111699581146 -0.002423350932076573
0.0043637556955218315 -0.011610052548348904 -0.0031418651342391963
0.0043637556955218315 -0.011057993397116661 -0.003329365514218807
0.004363755695521832 -0.010505933314561844 -0.003669205587357282
0.004363755695521832 -0.009953874163329601 -0.003769211936742067
0.004363755695521832 -0.009401815012097359 -0.003956712782382964
0.004363755695521832 -0.008849755860865116 -0.003681820118799805
0.004363755695521832 -0.008297696709632874 -0.0040216599591076365
0.004363755695521832 -0.007745637092739344 -0.0040517053566873065
0.004363755695521832 -0.007193577941507101 -0.004239205736666917
0.004363755695521832 -0.006641518324613571 -0.004269251134246587
0.004363755695521832 -0.006089459173381329 -0.0038128802552819248
0.004363755695521832 -0.005537399556487799 -0.0040003801696002475
0.004363755695521832 -0.004985340405255556 -0.003897636895999312
0.004363755695521832 -0.004433280788362026 -0.0037148809060454364
0.0043637556955218315 -0.0038812216371297836 -0.0032171814236789937
0.0043637556955218315 -0.0033291622530668974 -0.0028956518508493896
0.0043637556955218315 -0.002777102869004011 -0.0019528496777638789
0.0043637556955218315 -0.002225043484941125 -0.001299414318054914
0.003811696078628302 -0.013818290084600449 -0.00220791227184236
0.003811696078628302 -0.013266230933368206 -0.0021778678055852647
0.003811696078628302 -0.012714170850813389 -0.002452759305015206
0.003811696078628302 -0.012162111699581146 -0.002909129951149225
0.003811696078628302 -0.011610052548348904 -0.003230659523978829
0.003811696078628302 -0.011057993397116661 -0.0035055519547313447
0.003811696078628302 -0.010505933314561844 -0.0036082954611629243
0.003811696078628302 -0.009953874163329601 -0.0037110405974090095
0.003811696078628302 -0.009401815012097359 -0.003813784103840589
0.003811696078628302 -0.008849755860865116 -0.003882696852087974
0.003811696078628302 -0.008297696709632874 -0.003951610531657933
0.003811696078628302 -0.007745637092739344 -0.004054354038089513
0.003811696078628302 -0.007193577941507101 -0.003990133758634328
0.003811696078628302 -0.006641518324613571 -0.003486847039312124
0.003811696078628302 -0.006089459173381329 -0.004102745559066533
0.003811696078628302 -0.005537399556487799 -0.004072700161486863
0.003811696078628302 -0.004985340405255556 -0.004008480347692966
0.003811696078628302 -0.004433280788362026 -0.003944260068237781
0.003811696078628302 -0.0038812216371297836 -0.003914214670658111
0.003811696078628302 -0.0033291622530668974 -0.00277200061827898
0.0038116960786283016 -0.002777102869004011 -0.001629785518161952
0.0038116960786283016 -0.002225043484941125 -0.0016986981499940153
0.0038116960786283016 -0.0016729839844629169 0.0005311074201017623
0.003259636694565416 -0.013266230933368206 -0.0021683606319129463
0.003259636694565416 -0.012714170850813389 -0.0025580392684787507
0.003259636694565416 -0.012162111699581146 -0.0028978791087865825
0.003259636694565416 -0.011610052548348904 -0.002962099155411124
0.003259636694565416 -0.011057993397116661 -0.003351778024807572
0.003259636694565416 -0.010505933314561844 -0.0036916180979460473
0.003259636694565416 -0.009953874163329601 -0.003508862107992172
0.003259636694565416 -0.009401815012097359 -0.0036963622551411386
0.003259636694565416 -0.008849755860865116 -0.0038838628679513927
0.003259636694565416 -0.008297696709632874 -0.004071363247931004
0.003259636694565416 -0.007745637092739344 -0.004135583061724901
0.003259636694565416 -0.007193577941507101 -0.003952827304601669
0.003259636694565416 -0.006641518324613571 -0.0041403272189199924
0.003259636694565416 -0.006089459173381329 -0.004071414936333895
0.003259636694565416 -0.005537399556487799 -0.004258915316313505
0.003259636694565416 -0.004985340405255556 -0.003643016796559095
0.003259636694565416 -0.004433280788362026 -0.003368125762790441
0.003259636694565416 -0.0038812216371297836 -0.0030932333320379253
0.003259636694565416 -0.0033291622530668974 -0.002270408440381288
0.003259636694565416 -0.002777102869004011 -0.003017403185367584
0.0027075773105025296 -0.013266230933368206 -0.0021968001965433355
0.0027075773105025296 -0.012714170850813389 -0.0026944994460791345
0.0027075773105025296 -0.012162111699581146 -0.0029693918768316503
0.0027075773105025296 -0.011610052548348904 -0.0032909200526773925
0.0027075773105025296 -0.011057993397116661 -0.003393664956092834
0.0027075773105025296 -0.010505933314561844 -0.0034625772386789318
0.0027075773105025296 -0.009953874163329601 -0.0036910858470946546
0.0027075773105025296 -0.009401815012097359 -0.003759998362511396
0.0027075773105025296 -0.008849755860865116 -0.003988506738096476
0.0027075773105025296 -0.008297696709632874 -0.003958461806178093
0.0027075773105025296 -0.007745637092739344 -0.004027375020086765
0.0027075773105025296 -0.007193577941507101 -0.004030503332614899
0.0027075773105025296 -0.006641518324613571 -0.004133247770369053
0.0027075773105025296 -0.006089459173381329 -0.003945746459066868
0.0027075773105025296 -0.005537399556487799 -0.004048490896821022
0.0027075773105025296 -0.004985340405255556 -0.00386098981834948
0.0027075773105025296 -0.004433280788362026 -0.0036229097750037904
0.0027075773105025296 -0.0038812216371297836 -0.0031895511783659454
0.0027075773105025296 -0.0033291622530668974 -0.0021764326374977823
0.002707577310502529 -0.002777102869004011 -0.0009678697679191825
0.002707577310502529 -0.002225043484941125 0.0003088162629865113
0.002155517926439643 -0.013266230933368206 -0.0014096871018409727
0.0021555179264396433 -0.012714170850813389 -0.002551901619881391
0.0021555179264396433 -0.012162111699581146 -0.0029415804892778392
0.0021555179264396433 -0.011610052548348904 -0.0031796616967767473
0.0021555179264396433 -0.011057993397116661 -0.003367161843925714
0.0021555179264396433 -0.010505933314561844 -0.003554661991074681
0.0021555179264396433 -0.009953874163329601 -0.0037421621382236476
0.0021555179264396433 -0.009401815012097359 -0.0038421689532697196
0.0021555179264396433 -0.008849755860865116 -0.003942175768315792
0.0021555179264396433 -0.008297696709632874 -0.003972220700234175
0.0021555179264396433 -0.007745637092739344 -0.0042103007435798645
0.0021555179264396433 -0.007193577941507101 -0.004174389410763979
0.0021555179264396433 -0.006641518324613571 -0.004071645904332399
0.0021555179264396433 -0.006089459173381329 -0.004035734571516514
0.0021555179264396433 -0.005537399556487799 -0.0037608428392559286
0.0021555179264396433 -0.004985340405255556 -0.0034859504085034128
0.0021555179264396433 -0.004433280788362026 -0.002572181867435574
0.0021555179264396433 -0.0038812216371297836 -0.0022506527602672573
0.002155517926439643 -0.0033291622530668974 -0.0010066429385915396
0.002155517926439643 -0.002777102869004011 0.00020856014452874688
0.0016034585423767569 -0.013818290084600449 -0.0016442693304270504
0.0016034585423767569 -0.013266230933368206 -0.0018270250875502823
0.0016034585423767569 -0.012714170850813389 -0.002551720477640629
0.001603458542376757 -0.012162111699581146 -0.0030897706747055054
0.001603458542376757 -0.011610052548348904 -0.003272526664659381
0.001603458542376757 -0.011057993397116661 -0.0033752713352441788
0.001603458542376757 -0.010505933314561844 -0.0035580273251980543
0.001603458542376757 -0.009953874163329601 -0.003926066681742668
0.001603458542376757 -0.009401815012097359 -0.0038260596338659525
0.001603458542376757 -0.008849755860865116 -0.0037618400529026985
0.001603458542376757 -0.008297696709632874 -0.003990348428487778
0.001603458542376757 -0.007745637092739344 -0.004026258829981089
0.001603458542376757 -0.007193577941507101 -0.00412900373339653
0.001603458542376757 -0.006641518324613571 -0.003941502887755632
0.001603458542376757 -0.006089459173381329 -0.003977413754910231
0.001603458542376757 -0.005537399556487799 -0.003913193475455046
0.001603458542376757 -0.004985340405255556 -0.003725693328306079
0.001603458542376757 -0.004433280788362026 -0.0033360144589096308
0.0016034585423767569 -0.0038812216371297836 -0.0024149443488568068
0.0016034585423767569 -0.0033291622530668974 -0.0012063813628628848
0.0016034585423767567 -0.002777102869004011 -0.00022469714167527835
0.0010513991583138706 -0.013266230933368206 -0.00173376256134361
0.0010513991583138706 -0.012714170850813389 -0.0023506854195147753
0.0010513991583138709 -0.012162111699581146 -0.002853972837328911
0.0010513991583138709 -0.011610052548348904 -0.0031938129104673862
0.0010513991583138709 -0.011057993397116661 -0.0033813132904469967
0.0010513991583138709 -0.010505933314561844 -0.0033124005421996117
0.0010513991583138709 -0.009953874163329601 -0.003745759604498744
0.0010513991583138709 -0.009401815012097359 -0.003933261148631573
0.0010513991583138709 -0.008849755860865116 -0.0037047527730464935
0.0010513991583138709 -0.008297696709632874 -0.004208039492368698
0.0010513991583138709 -0.007745637092739344 -0.004238085355609655
0.0010513991583138709 -0.007193577941507101 -0.0037403847090899944
0.0010513991583138709 -0.006641518324613571 -0.0039278860203921795
0.0010513991583138709 -0.006089459173381329 -0.0036529935896396637
0.0010513991583138709 -0.005537399556487799 -0.0036498645786195993
0.0010513991583138709 -0.004985340405255556 -0.0034213559702038765
0.0010513991583138706 -0.004433280788362026 -0.002567509189248085
0.0010513991583138706 -0.0038812216371297836 -0.0015405075391754506
0.0010513991583138706 -0.0033291622530668974 -0.0008870724705047904
0.0004993397742509844 -0.013818290084600449 -0.0017152981599792838
0.0004993397742509844 -0.013266230933368206 -0.001527798012830317
0.0004993397742509845 -0.012714170850813389 -0.0026360638439655304
0.0004993397742509846 -0.012162111699581146 -0.003174114041030407
0.0004993397742509846 -0.011610052548348904 -0.0031772435177117586
0.0004993397742509846 -0.011057993397116661 -0.003359999507665634
0.0004993397742509846 -0.010505933314561844 -0.0035427550319582224
0.0004993397742509846 -0.009953874163329601 -0.0035458833444863558
0.0004993397742509847 -0.009401815012097359 -0.004270578268915415
0.0004993397742509846 -0.008849755860865116 -0.0037672908511012793
0.0004993397742509846 -0.008297696709632874 -0.003770420327782631
0.0004993397742509847 -0.007745637092739344 -0.004091949202120304
0.0004993397742509846 -0.007193577941507101 -0.0039044490549713373
0.0004993397742509847 -0.006641518324613571 -0.004272488411515951
0.0004993397742509846 -0.006089459173381329 -0.003882809542119503
0.0004993397742509846 -0.005537399556487799 -0.003852764144539833
0.0004993397742509846 -0.004985340405255556 -0.003318307688459754
0.0004993397742509845 -0.004433280788362026 -0.002456146525219083
0.0004993397742509844 -0.0038812216371297836 -0.0015646766405552626
0.0004993397742509844 -0.0033291622530668974 -0.001500456826761365
-5.27195988979654e-05 -0.013266230933368206 -0.0018455953104421496
-5.271959889796534e-05 -0.012714170850813389 -0.0023488826118409634
-5.271959889796524e-05 -0.012162111699581146 -0.0031531283166259527
-5.271959889796524e-05 -0.011610052548348904 -0.0031500004697591066
-5.271959889796524e-05 -0.011057993397116661 -0.0031800454016774893
-5.2719598897965225e-05 -0.010505933314561844 -0.0032800522167235613
-5.271959889796517e-05 -0.009953874163329601 -0.0037134108133614063
-5.271959889796514e-05 -0.009401815012097359 -0.004002494737505913
-5.271959889796514e-05 -0.008849755860865116 -0.003966583404690027
-5.2719598897965144e-05 -0.008297696709632874 -0.003930671606212854
-5.2719598897965164e-05 -0.007745637092739344 -0.003747916081920266
-5.271959889796514e-05 -0.007193577941507101 -0.003985996823757887
-5.271959889796517e-05 -0.006641518324613571 -0.003711104393005371
-5.271959889796518e-05 -0.006089459173381329 -0.003675193293020129
-5.271959889796523e-05 -0.005537399556487799 -0.0032188219483941793
-5.271959889796533e-05 -0.004985340405255556 -0.0024605069775134325
-5.271959889796544e-05 -0.004433280788362026 -0.001517705270089209
-5.271959889796548e-05 -0.0038812216371297836 -0.0011496649822220206
-0.0006047789938747881 -0.013818290084600449 -0.0020113768987357616
-0.0006047789938747881 -0.013266230933368206 -0.0021141204051673412
-0.000604778993874788 -0.012714170850813389 -0.0027300186920911074
-0.000604778993874788 -0.012162111699581146 -0.0030515482649207115
-0.0006047789938747879 -0.011610052548348904 -0.0031204605475068092
-0.0006047789938747879 -0.011057993397116661 -0.003223204519599676
-0.0006047789938747879 -0.010505933314561844 -0.0034059605095535517
-0.0006047789938747879 -0.009953874163329601 -0.0036808529403060675
-0.0006047789938747879 -0.009401815012097359 -0.003909361083060503
-0.0006047789938747879 -0.008849755860865116 -0.003879315685480833
-0.0006047789938747879 -0.008297696709632874 -0.0038492707535624504
-0.0006047789938747879 -0.007745637092739344 -0.0038851823192089796
-0.0006047789938747879 -0.007193577941507101 -0.0038551369216293097
-0.0006047789938747879 -0.006641518324613571 -0.0038250915240496397
-0.0006047789938747877 -0.006089459173381329 -0.004647916182875633
-0.0006047789938747879 -0.005537399556487799 -0.0035057009663432837
-0.000604778993874788 -0.004985340405255556 -0.0025240168906748295
-0.0006047789938747881 -0.004433280788362026 -0.0016029465477913618
-0.0006047789938747881 -0.0038812216371297836 -0.0019244758877903223
-0.0011568383779376743 -0.013266230933368206 -0.0021380081307142973
-0.0011568383779376743 -0.012714170850813389 -0.0024778484366834164
-0.001156838377937674 -0.012162111699581146 -0.0032248429488390684
-0.001156838377937674 -0.011610052548348904 -0.002686792751774192
-0.001156838377937674 -0.011057993397116661 -0.0031564957462251186
-0.001156838377937674 -0.010505933314561844 -0.002927987603470683
-0.001156838377937674 -0.009953874163329601 -0.0035449103452265263
-0.001156838377937674 -0.009401815012097359 -0.0037829906214028597
-0.001156838377937674 -0.008849755860865116 -0.0037470802199095488
-0.001156838377937674 -0.008297696709632874 -0.0036781663075089455
-0.001156838377937674 -0.007745637092739344 -0.0036092542577534914
-0.001156838377937674 -0.007193577941507101 -0.0036392980255186558
-0.001156838377937674 -0.006641518324613571 -0.0032712589018046856
-0.001156838377937674 -0.006089459173381329 -0.003168515395373106
-0.0011568383779376743 -0.005537399556487799 -0.00255261710844934
-0.0011568383779376743 -0.004985340405255556 -0.0016098143532872202
-0.0011568383779376743 -0.004433280788362026 -0.001153443241491914
-0.0017088977620005605 -0.013818290084600449 -0.0020254510454833508
-0.0017088977620005605 -0.013266230933368206 -0.002346979919821024
-0.0017088977620005603 -0.012714170850813389 -0.0027150192763656378
-0.0017088977620005603 -0.012162111699581146 -0.003036548849195242
-0.0017088977620005603 -0.011610052548348904 -0.003072460414841771
-0.0017088977620005603 -0.011057993397116661 -0.003141372464597225
-0.0017088977620005603 -0.010505933314561844 -0.003416264895349741
-0.0017088977620005603 -0.009953874163329601 -0.003519010031595826
-0.0017088977620005603 -0.009401815012097359 -0.003331508720293641
-0.0017088977620005603 -0.008849755860865116 -0.0036995490081608295
-0.0017088977620005603 -0.008297696709632874 -0.0036695036105811596
-0.0017088977620005603 -0.007745637092739344 -0.003329663537442684
-0.0017088977620005603 -0.007193577941507101 -0.0036977026611566544
-0.0017088977620005603 -0.006641518324613571 -0.003408619435504079
-0.0017088977620005603 -0.006089459173381329 -0.0028176901396363974
-0.0017088977620005603 -0.005537399556487799 -0.003731458680704236
-0.0017088977620005601 -0.004985340405255556 -0.0051542362198233604
-0.0017088977620005605 -0.004433280788362026 -0.0011936706723645332
-0.0017088977620005608 -0.0038812216371297836 0.0005044527933932839
-0.0022609571460634466 -0.013266230933368206 -0.002215773100033403
-0.0022609571460634466 -0.012714170850813389 -0.0026054524350911383
-0.0022609571460634466 -0.012162111699581146 -0.0029452920425683264
-0.0022609571460634466 -0.011610052548348904 -0.003132793819531799
-0.0022609571460634466 -0.011057993397116661 -0.0029500378295779233
-0.0022609571460634466 -0.010505933314561844 -0.00341974082402885
-0.0022609571460634466 -0.009953874163329601 -0.003519747639074922
-0.0022609571460634466 -0.009401815012097359 -0.0034508339595049624
-0.0022609571460634466 -0.008849755860865116 -0.0034808793570846324
-0.0022609571460634466 -0.008297696709632874 -0.0035450994037091736
-0.0022609571460634466 -0.007745637092739344 -0.0031770602799952035
-0.0022609571460634466 -0.007193577941507101 -0.003207104047760368
-0.0022609571460634466 -0.006641518324613571 -0.0031381919980049138
-0.0022609571460634466 -0.006089459173381329 -0.0027701526414603
-0.0022609571460634466 -0.005537399556487799 -0.0037211533635854725
-0.002260957146063447 -0.004985340405255556 -0.001135800499469042
-0.002813016530126333 -0.013818290084600449 -0.0020787322428077464
-0.002813016530126333 -0.013266230933368206 -0.0022614873014390473
-0.002813016530126333 -0.012714170850813389 -0.0027178591117262845
-0.002813016530126333 -0.012162111699581146 -0.0029006141703575854
-0.002813016530126333 -0.011610052548348904 -0.0033569859806448226
-0.002813016530126333 -0.011057993397116661 -0.003118905238807202
-0.002813016530126333 -0.010505933314561844 -0.00330166076309979
-0.002813016530126333 -0.009953874163329601 -0.003404404735192657
-0.002813016530126333 -0.009401815012097359 -0.0033743605017662053
-0.002813016530126333 -0.008849755860865116 -0.00318685919046402
-0.002813016530126333 -0.008297696709632874 -0.003508388297632337
-0.002813016530126333 -0.007745637092739344 -0.0034083819482475524
-0.002813016530126333 -0.007193577941507101 -0.003119298024103046
-0.002813016530126333 -0.006641518324613571 -0.003089254023507238
-0.002813016530126333 -0.006089459173381329 -0.002655894029885531
-0.002813016530126333 -0.005537399556487799 -0.0018227943219244484
-0.0028130165301263332 -0.004985340405255556 -0.0017585741588845853
-0.0028130165301263332 -0.004433280788362026 0.00047123210970312324
-0.003365075914189219 -0.013266230933368206 -0.002187134930863977
-0.003365075914189219 -0.012714170850813389 -0.002526974538341165
-0.003365075914189219 -0.012162111699581146 -0.002866814844310284
-0.003365075914189219 -0.011610052548348904 -0.002591923344880343
-0.003365075914189219 -0.011057993397116661 -0.0028810072690248494
-0.003365075914189219 -0.010505933314561844 -0.0029452273156493907
-0.003365075914189219 -0.009953874163329601 -0.003334906185045839
-0.003365075914189219 -0.009401815012097359 -0.0033991257660090928
-0.003365075914189219 -0.008849755860865116 -0.0033302125521004204
-0.003365075914189219 -0.008297696709632874 -0.0036192960105836396
-0.003365075914189219 -0.007745637092739344 -0.003162925131618977
-0.003365075914189219 -0.007193577941507101 -0.003192970529198647
-0.003365075914189219 -0.006641518324613571 -0.0027365994174033408
-0.003365075914189219 -0.006089459173381329 -0.0019782842136919503
-0.0033650759141892195 -0.005537399556487799 -0.0007284028688445692
-0.003917135298252106 -0.013818290084600449 -0.0019227811135351662
-0.003917135298252106 -0.013266230933368206 -0.002244310220703483
-0.003917135298252106 -0.012714170850813389 -0.0026123493444174532
-0.003917135298252106 -0.012162111699581146 -0.0027150944806635384
-0.003917135298252106 -0.011610052548348904 -0.002897850470617414
-0.003917135298252106 -0.011057993397116661 -0.003080606693401933
-0.003917135298252106 -0.010505933314561844 -0.0031833501998335127
-0.003917135298252106 -0.009953874163329601 -0.0033661061897873883
-0.003917135298252105 -0.009401815012097359 -0.003548862179741264
-0.003917135298252105 -0.008849755860865116 -0.0038237548433244233
-0.003917135298252106 -0.008297696709632874 -0.003534670919179917
-0.003917135298252106 -0.007745637092739344 -0.003470450639724732
-0.003917135298252106 -0.007193577941507101 -0.003181366249918938
-0.003917135298252106 -0.006641518324613571 -0.0027916885446757083
-0.003917135298252106 -0.006089459173381329 -0.002257231622934342
-0.003917135298252106 -0.005537399556487799 -0.0014529852196574215
-0.003917135298252106 -0.004985340405255556 0.00021466157340910237
-0.004469194449484348 -0.012714170850813389 -0.0028194768819957976
-0.004469194449484348 -0.012162111699581146 -0.0027167329099029307
-0.004469194449484348 -0.011610052548348904 -0.0029042330570518975
-0.004469194449484348 -0.011057993397116661 -0.0029684533365070824
-0.004469194449484348 -0.010505933314561844 -0.0030684601515531544
-0.004469194449484348 -0.009953874163329601 -0.00335754337720573
-0.004469194449484347 -0.009401815012097359 -0.0035956236533820633
-0.004469194449484347 -0.008849755860865116 -0.0036256690509617333
-0.004469194449484347 -0.008297696709632874 -0.003589757485315204
-0.004469194449484348 -0.007745637092739344 -0.0030123146716505293
-0.004469194449484348 -0.007193577941507101 -0.002829558681696654
-0.004469194449484348 -0.006641518324613571 -0.00246151932515204
-0.004469194449484348 -0.006089459173381329 -0.0017032037721946842
-0.004469194449484348 -0.005537399556487799 -5.056675581727232e-05
-0.005021254066377878 -0.013266230933368206 -0.0022440443281084303
-0.005021254066377878 -0.012714170850813389 -0.0025655739009380345
-0.005021254066377878 -0.012162111699581146 -0.0027483294252306227
-0.005021254066377878 -0.011610052548348904 -0.0027842398267239337
-0.005021254066377878 -0.011057993397116661 -0.002820151392370463
-0.005021254066377878 -0.010505933314561844 -0.0031881916802376513
-0.005021254066377878 -0.009953874163329601 -0.003290935652330518
-0.005021254066377877 -0.009401815012097359 -0.003612464759498835
-0.005021254066377877 -0.008849755860865116 -0.003582419361919165
-0.005021254066377878 -0.008297696709632874 -0.0033949192147701983
-0.005021254066377878 -0.007745637092739344 -0.00300524034537375
-0.005021254066377878 -0.007193577941507101 -0.00297519494779408
-0.005021254066377878 -0.006641518324613571 -0.002411639783531428
-0.005021254066377878 -0.006089459173381329 -0.0021225558593869214
-0.005021254066377878 -0.005537399556487799 -0.001346997567452491
-0.005573313217610121 -0.012714170850813389 -0.0022045278456062087
-0.005573313217610121 -0.012162111699581146 -0.0027389831375330695
-0.005573313217610121 -0.011610052548348904 -0.0023709440138190993
-0.005573313217610121 -0.011057993397116661 -0.0024351640604436406
-0.005573313217610121 -0.010505933314561844 -0.002673244336619974
-0.005573313217610121 -0.009953874163329601 -0.0032077005598694095
-0.005573313217610121 -0.009401815012097359 -0.003237745491787792
-0.005573313217610121 -0.008849755860865116 -0.0029628530610352763
-0.005573313217610121 -0.008297696709632874 -0.0028939407784491786
-0.005573313217610121 -0.007745637092739344 -0.002711184788495303
-0.005573313217610121 -0.007193577941507101 -0.002811191603541375
-0.005573313217610121 -0.006641518324613571 -0.0021952928509563216
-0.005573313217610121 -0.006089459173381329 -0.002484376775100828
-0.005573313217610121 -0.005537399556487799 -0.0010008862009271986
-0.006125372834503651 -0.012714170850813389 -0.0020421331282705077
-0.006125372834503651 -0.012162111699581146 -0.0024985040072351703
-0.006125372834503651 -0.011610052548348904 -0.0024684600066393622
-0.006125372834503651 -0.011057993397116661 -0.0024042387958616027
-0.006125372834503651 -0.010505933314561844 -0.002440150361508132
-0.006125372834503651 -0.009953874163329601 -0.00262290588580072
-0.006125372834503651 -0.009401815012097359 -0.002626035362482072
-0.006125372834503651 -0.008849755860865116 -0.002629163209348918
-0.006125372834503651 -0.008297696709632874 -0.002665074774995447
-0.006125372834503651 -0.007745637092739344 -0.0027009863406419763
-0.006125372834503651 -0.007193577941507101 -0.002636766294017435
-0.006125372834503651 -0.006641518324613571 -0.0026726776268333205
-0.006125372834503651 -0.006089459173381329 -0.001954163424670697
-0.006125372834503651 -0.005537399556487799 -0.0013906081439927227
-0.006125372834503651 -0.004985340405255556 -0.000615050666965545
-0.006677431985735893 -0.012162111699581146 -0.0018913500243797907
-0.006677431985735893 -0.011610052548348904 -0.0023946373257786044
-0.006677431985735893 -0.011057993397116661 -0.0018171940464526424
-0.006677431985735893 -0.010505933314561844 -0.0018140651518478998
-0.006677431985735893 -0.009953874163329601 -0.001711321179755033
-0.006677431985735893 -0.009401815012097359 -0.002756225178018213
-0.006677431985735893 -0.008849755860865116 -0.001997908344492317
-0.006677431985735893 -0.008297696709632874 -0.002235989551991225
-0.006677431985735893 -0.007745637092739344 -0.002335996367037297
-0.006677431985735893 -0.007193577941507101 -0.002400216646492482
-0.006677431985735893 -0.006641518324613571 -0.002297471510246397
-0.006677431985735893 -0.006089459173381329 -0.0016815741546452054
-0.006677431985735893 -0.005537399556487799 -0.0015788293676450857
-0.006677431985735893 -0.004985340405255556 -0.0012573010753840217
-0.006677431985735893 -0.004433280788362026 -0.0009824086446315059
-0.006677431985735893 -0.0038812216371297836 -0.0006608793046325454
-0.006677431985735893 -0.0033291622530668974 -0.0004323709581512966
-0.006677431985735893 -0.002777102869004011 0.0005104304873384527
-0.006677431985735893 -0.0011209246004000306 0.0005444528651423744
-0.006677431985735893 -0.0005688651581294835 0.00035695251426659443
-0.006677431985735893 -1.6805810446385294e-05 0.00032690734951756813
-0.006677431985735893 0.0010873129358515143 0.00026195967802777805
-0.006677431985735893 0.0016393723199144006 0.0005368521087802938
-0.006677431985735893 0.0032955503556877375 0.00012660697393584915
-0.006677431985735893 0.0066079068928956985 0.00012430913920979866
-0.007229491602629423 -0.011610052548348904 -0.001974940998479725
-0.007229491602629423 -0.011057993397116661 -0.001736860955134035
-0.007229491602629423 -0.010505933314561844 -0.0017068154411390432
-0.007229491602629423 -0.009953874163329601 -0.0017099432880058893
-0.007229491602629423 -0.009401815012097359 -0.0014718634774908432
-0.007229491602629423 -0.008849755860865116 -0.0019282344728708276
-0.007229491602629423 -0.008297696709632874 -0.002110990462824703
-0.007229491602629423 -0.007745637092739344 -0.0023394986055791387
-0.007229491602629423 -0.007193577941507101 -0.0023426264524459848
-0.007229491602629423 -0.006641518324613571 -0.002378538018092514
-0.007229491602629423 -0.006089459173381329 -0.002140457974746824
-0.007229491602629423 -0.005537399556487799 -0.0021104130428284415
-0.007229491602629423 -0.004985340405255556 -0.0021463246084749707
-0.007229491602629423 -0.004433280788362026 -0.002149452455341817
-0.007229491602629423 -0.0038812216371297836 -0.002085232175886632
-0.007229491602629423 -0.0033291622530668974 -0.0014943035785108813
-0.007229491602629423 -0.002777102869004011 -0.001597048365511001
-0.007229491602629423 -0.002225043484941125 -0.0007348873186856517
-0.007229491602629423 -0.0016729839844629169 -0.0007048421539366254
-0.007229491602629423 -0.0011209246004000306 -0.0007079710485413679
-0.007229491602629423 -0.0005688651581294835 -0.0013614064082503327
-0.007229491602629423 -1.6805810446385294e-05 -0.0013645342551171788
-0.007229491602629423 0.0005352535517886281 -0.0014334477018564948
-0.007229491602629423 0.0010873129358515143 -0.0016162036918103704
-0.007229491602629423 0.0016393723199144006 -0.0013271201169118294
-0.007229491602629423 0.0021914318203926086 -0.0011396185727790007
-0.007229491602629423 0.0027434909716248512 -0.000952118367422373
-0.007229491602629423 0.0032955503556877375 -0.0011348741827532658
-0.007229491602629423 0.0038476097397506237 -0.0011048290180042395
-0.007229491602629423 0.004399669356644154 -0.0009173285216093072
-0.007229491602629423 0.004951728507876396 -0.0008173219393938789
-0.007229491602629423 0.005503788124769926 -0.0017601246945559987
-0.007229491602629423 0.006055847276002169 -0.0020816538017243156
-0.007229491602629423 0.0066079068928956985 -0.0021843977738171825
-0.007229491602629423 0.007159966044127941 -0.0017510385951027283
-0.007229491602629423 0.007712025661021471 -0.0006088233785703787
-0.007229491602629423 0.008264085277915001 -0.0018240262288600215
-0.007229491602629423 0.008816144429147243 -0.0003739685053005823
-0.007781550753861666 -0.011057993397116661 -0.0009855665266513833
-0.007781550753861666 -0.010505933314561844 -0.00117306667380035
-0.007781550753861666 -0.009953874163329601 -0.0011041542747989306
-0.007781550753861666 -0.009401815012097359 -0.0011683744378387937
-0.007781550753861666 -0.008849755860865116 -0.0013558745849877605
-0.007781550753861666 -0.008297696709632874 -0.0017892345786094674
-0.007781550753861666 -0.007745637092739344 -0.001686489675194026
-0.007781550753861666 -0.007193577941507101 -0.0021561929024755963
-0.007781550753861666 -0.006641518324613571 -0.002773115877062083
-0.007781550753861666 -0.006089459173381329 -0.0024515867698937663
-0.007781550753861666 -0.005537399556487799 -0.002551593119278551
-0.007781550753861666 -0.004985340405255556 -0.002739093732088805
-0.007781550753861666 -0.004433280788362026 -0.0027359654195606717
-0.007781550753861666 -0.0038812216371297836 -0.002633220748975874
-0.007781550753861666 -0.0033291622530668974 -0.0025643082335591325
-0.007781550753861666 -0.002777102869004011 -0.002904148306697608
-0.007781550753861666 -0.002225043484941125 -0.0019047975074499854
-0.007781550753861666 -0.0016729839844629169 -0.002338157035410405
-0.007781550753861666 -0.0011209246004000306 -0.0020632646046578893
-0.007781550753861666 -0.0005688651581294835 -0.0025329680647701034
-0.007781550753861666 -1.6805810446385294e-05 -0.0025298385880887517
-0.007781550753861666 0.0005352535517886281 -0.0026298456359654674
-0.007781550753861666 0.0010873129358515143 -0.0026598910335451373
-0.007781550753861666 0.0016393723199144006 -0.002623979467898608
-0.007781550753861666 0.0021914318203926086 -0.0025212354958057412
-0.007781550753861666 0.0027434909716248512 -0.0022927273530513057
-0.007781550753861666 0.0032955503556877375 -0.002581810578703881
-0.007781550753861666 0.0038476097397506237 -0.0027693123556673535
-0.007781550753861666 0.004399669356644154 -0.0021534136030823
-0.007781550753861666 0.004951728507876396 -0.0027443428989499816
-0.007781550753861666 0.005503788124769926 -0.0028443492483347663
-0.007781550753861666 0.006055847276002169 -0.0027754355687648067
-0.007781550753861666 0.0066079068928956985 -0.002500543603673578
-0.007781550753861666 0.007159966044127941 -0.002225652104243637
-0.007781550753861666 0.007712025661021471 -0.0019507595570757994
-0.007781550753861666 0.008264085277915001 -0.001914848107844592
-0.007781550753861666 0.008816144429147243 -0.0016863397322595128
-0.007781550753861666 0.00936820451170206 -0.0013648114399984488
-0.008333610370755196 -0.011057993397116661 7.951738371048021e-05
-0.008333610370755196 -0.010505933314561844 -0.0006451777298934767
-0.008333610370755196 -0.009953874163329601 -0.0008279334870167086
-0.008333610370755196 -0.009401815012097359 -0.001284304540604354
-0.008333610370755196 -0.008849755860865116 -0.0013202161062508832
-0.008333610370755196 -0.008297696709632874 -0.0016882553463801752
-0.008333610370755196 -0.007745637092739344 -0.0018710113363340508
-0.008333610370755196 -0.007193577941507101 -0.0020995193626731643
-0.008333610370755196 -0.006641518324613571 -0.0023280270397663125
-0.008333610370755196 -0.006089459173381329 -0.0026495561469346294
-0.008333610370755196 -0.005537399556487799 -0.0030175952706485995
-0.008333610370755196 -0.004985340405255556 -0.0032003514934331187
-0.008333610370755196 -0.004433280788362026 -0.0034288601018488416
-0.008333610370755196 -0.0038812216371297836 -0.003531603608280421
-0.008333610370755196 -0.0033291622530668974 -0.003501559142023326
-0.008333610370755196 -0.002777102869004011 -0.003437339561060072
-0.008333610370755196 -0.002225043484941125 -0.003440467407926918
-0.008333610370755196 -0.0016729839844629169 -0.0035093810874968776
-0.008333610370755196 -0.0011209246004000306 -0.0035782933700829753
-0.008333610370755196 -0.0005688651581294835 -0.0035140737891197213
-0.008333610370755196 -1.6805810446385294e-05 -0.003224989864975215
-0.008333610370755196 0.0005352535517886281 -0.0032939023803919562
-0.008333610370755196 0.0010873129358515143 -0.0033298139460384854
-0.008333610370755196 0.0016393723199144006 -0.0032997685484588155
-0.008333610370755196 0.0021914318203926086 -0.003235548501834274
-0.008333610370755196 0.0027434909716248512 -0.0032714600674808034
-0.008333610370755196 0.0032955503556877375 -0.003207240020856262
-0.008333610370755196 0.0038476097397506237 -0.0031771943904459485
-0.008333610370755196 0.004399669356644154 -0.003405703231692315
-0.008333610370755196 0.004951728507876396 -0.0031166193075478086
-0.008333610370755196 0.005503788124769926 -0.003086574375629426
-0.008333610370755196 0.006055847276002169 -0.002899073529988528
-0.008333610370755196 0.0066079068928956985 -0.00250939466059208
-0.008333610370755196 0.007159966044127941 -0.0023218945134431132
-0.008333610370755196 0.007712025661021471 -0.0019322157604619871
-0.008333610370755196 0.008264085277915001 -0.0017447154968976985
-0.008333610370755196 0.008816144429147243 -0.0015066342893987905
-0.008333610370755196 0.00936820451170206 -0.00131913390941918
-0.008333610370755196 0.009920263662934303 -0.0009294550400227318
-0.008333610370755196 0.011024381965398788 0.0003434181853663166
-0.008885670453310013 -0.010505933314561844 -0.00024886647588573505
-0.008885670453310013 -0.009953874163329601 -0.00048694637371227254
-0.008885670453310013 -0.009401815012097359 -0.0008766251849010598
-0.008885670453310013 -0.008849755860865116 -0.0011657091090455662
-0.008885670453310013 -0.008297696709632874 -0.0014547926839441072
-0.008885670453310013 -0.007745637092739344 -0.0016928726108744751
-0.008885670453310013 -0.007193577941507101 -0.0019309537019580613
-0.008885670453310013 -0.006641518324613571 -0.002118454081937672
-0.008885670453310013 -0.006089459173381329 -0.002784604206681253
-0.008885670453310013 -0.005537399556487799 -0.002848824253305794
-0.008885670453310013 -0.004985340405255556 -0.003567338222637774
-0.008885670453310013 -0.004433280788362026 -0.0031992979347705854
-0.008885670453310013 -0.0038812216371297836 -0.00409076875075698
-0.008885670453310013 -0.0033291622530668974 -0.004379852674901486
-0.008885670453310013 -0.002777102869004011 -0.003923481795936824
-0.008885670453310013 -0.002225043484941125 -0.003953526727855206
-0.008885670453310013 -0.0016729839844629169 -0.003884613746777178
-0.008885670453310013 -0.0011209246004000306 -0.0038814854342490448
-0.008885670453310013 -0.0005688651581294835 -0.003911529667675496
-0.008885670453310013 -1.6805810446385294e-05 -0.003027389990165831
-0.008885670453310013 0.0005352535517886281 -0.0036692719440907253
-0.008885670453310013 0.0010873129358515143 -0.003666143631562592
-0.008885670453310013 0.0016393723199144006 -0.0035972304176539196
-0.008885670453310013 0.0021914318203926086 -0.0034944864455610527
-0.008885670453310013 0.0027434909716248512 -0.0034913574345409883
-0.008885670453310013 0.0032955503556877375 -0.0035555774811655296
-0.008885670453310013 0.0038476097397506237 -0.0034528335090726627
-0.008885670453310013 0.004399669356644154 -0.0034169219434261335
-0.008885670453310013 0.004951728507876396 -0.003095394000411035
-0.008885670453310013 0.005503788124769926 -0.0029926488641649498
-0.008885670453310013 0.006055847276002169 -0.0027641418855637325
-0.008885670453310013 0.0066079068928956985 -0.0024426123127341283
-0.008885670453310013 0.007159966044127941 -0.0021677198819816126
-0.008885670453310013 0.007712025661021471 -0.001939211622811855
-0.008885670453310013 0.008264085277915001 -0.0015711721498519193
-0.008885670453310013 0.008816144429147243 -0.0010331220692023646
-0.008885670453310013 0.00936820451170206 -0.0010631672339513909
-0.008885670453310013 0.009920263662934303 -0.00024034269154071916
-0.009437729604542255 -0.010505933314561844 0.00028254941571503764
-0.009437729604542255 -0.009953874163329601 -8.549112681066733e-05
-0.009437729604542255 -0.009401815012097359 -0.0009393382351845515
-0.009437729604542255 -0.008849755860865116 -0.0011220939923077833
-0.009437729604542255 -0.008297696709632874 -0.0013048500986769806
-0.009437729604542255 -0.007745637092739344 -0.0014075938379392039
-0.009437729604542255 -0.007193577941507101 -0.0018639648333191882
-0.009437729604542255 -0.006641518324613571 -0.0020467203576117767
-0.009437729604542255 -0.006089459173381329 -0.002960489131510259
-0.009437729604542255 -0.005537399556487799 -0.0035763878840953125
-0.009437729604542255 -0.004985340405255556 -0.0038979169912636293
-0.009437729604542255 -0.004433280788362026 -0.004126425832509995
-0.009437729604542255 -0.0038812216371297836 -0.004354932811111213
-0.009437729604542255 -0.0033291622530668974 -0.004254926461726428
-0.009437729604542255 -0.002777102869004011 -0.004258055239915849
-0.009437729604542255 -0.002225043484941125 -0.004158048424869777
-0.009437729604542255 -0.0016729839844629169 -0.004128003492951394
-0.009437729604542255 -0.0011209246004000306 -0.004097959026694299
-0.009437729604542255 -0.0005688651581294835 -0.004033739212900401
-0.009437729604542255 -1.6805810446385294e-05 -0.003693897742778064
-0.009437729604542255 0.0005352535517886281 -0.0037966428790241493
-0.009437729604542255 0.0010873129358515143 -0.0036966360639780773
-0.009437729604542255 0.0016393723199144006 -0.0036324164830148233
-0.009437729604542255 0.0021914318203926086 -0.0034449156373739256
-0.009437729604542255 0.0027434909716248512 -0.004416222218424083
-0.009437729604542255 0.0032955503556877375 -0.003339197486639024
-0.009437729604542255 0.0038476097397506237 -0.003274977440014483
-0.009437729604542255 0.004399669356644154 -0.003087476128712298
-0.009437729604542255 0.004951728507876396 -0.002899975981563331
-0.009437729604542255 0.005503788124769926 -0.0026618959382176412
-0.009437729604542255 0.006055847276002169 -0.0024743955582380308
-0.009437729604542255 0.0066079068928956985 -0.0034171969164162887
-0.009437729604542255 0.007159966044127941 -0.0021058109123259796
-0.009437729604542255 0.007712025661021471 -0.0015713543398305785
-0.009437729604542255 0.008264085277915001 -0.0011816754704341303
-0.009437729604542255 0.008816144429147243 -0.0006783883436582994
-0.009437729604542255 0.00936820451170206 -0.0007142999093048286
-0.009437729604542255 0.009920263662934303 -0.00024459668202325816
-0.009989788755774498 -0.009953874163329601 0.00013265181041788188
-0.009989788755774498 -0.009401815012097359 -0.000300707091810183
-0.009989788755774498 -0.008849755860865116 -0.0006903859321028006
-0.009989788755774498 -0.008297696709632874 -0.0006214732420630765
-0.009989788755774498 -0.007745637092739344 -0.0008595534018240881
-0.009989788755774498 -0.007193577941507101 -0.0012492322130128754
-0.009989788755774498 -0.006641518324613571 -0.0015383157879114164
-0.009989788755774498 -0.006089459173381329 -0.0023425628896802677
-0.009989788755774498 -0.005537399556487799 -0.003204723820090295
-0.009989788755774498 -0.004985340405255556 -0.0035445634275674833
-0.009989788755774498 -0.004433280788362026 -0.0038844037335366024
-0.009989788755774498 -0.0038812216371297836 -0.004224244039505721
-0.009989788755774498 -0.0033291622530668974 -0.004411743953824044
-0.009989788755774498 -0.002777102869004011 -0.004090215079486371
-0.009989788755774498 -0.002225043484941125 -0.004190221428871156
-0.009989788755774498 -0.0016729839844629169 -0.004087477922439576
-0.009989788755774498 -0.0011209246004000306 -0.0039047216996550573
-0.009989788755774498 -0.0005688651581294835 -0.0039015929214656366
-0.009989788755774498 -1.6805810446385294e-05 -0.0035800633486360325
-0.009989788755774498 0.0005352535517886281 -0.0035769355017691864
-0.009989788755774498 0.0010873129358515143 -0.0033020430710166706
-0.009989788755774498 0.0016393723199144006 -0.003233129391446711
-0.009989788755774498 0.0021914318203926086 -0.0029116012156009687
-0.009989788755774498 0.0027434909716248512 -0.0029416452161967767
-0.009989788755774498 0.0032955503556877375 -0.002443946432322265
-0.009989788755774498 0.0038476097397506237 -0.0025439527817070497
-0.009989788755774498 0.004399669356644154 -0.0025080412160605205
-0.009989788755774498 0.004951728507876396 -0.0021400018595159067
-0.009989788755774498 0.005503788124769926 -0.002136873081326486
-0.009989788755774498 0.006055847276002169 -0.0019541170913726104
-0.009989788755774498 0.0066079068928956985 -0.001771360985003413
-0.009989788755774498 0.007159966044127941 -0.001542853889986874
-0.009989788755774498 0.007712025661021471 -0.0011748136021196855
-0.009989788755774498 0.008264085277915001 -0.0008067743619903934
-0.009989788755774498 0.008816144429147243 -0.000438735092757271
-0.009989788755774498 0.00936820451170206 0.00017716348520479974
-0.009989788755774498 0.009920263662934303 0.00045205568312667186
-0.010541848838329315 -0.009953874163329601 0.0005472970660775887
-0.010541848838329315 -0.009401815012097359 9.092604886973148e-05
-0.010541848838329315 -0.008849755860865116 -9.182974463328848e-05
-0.010541848838329315 -0.008297696709632874 -0.00027458579279482495
-0.010541848838329315 -0.007745637092739344 -0.00021036568796262275
-0.010541848838329315 -0.007193577941507101 -0.0007080649957060827
-0.010541848838329315 -0.006641518324613571 -0.0008908208110369755
-0.010541848838329315 -0.006089459173381329 -0.001774960546754302
-0.010541848838329315 -0.005537399556487799 -0.0022726599127054227
-0.010541848838329315 -0.004985340405255556 -0.002640700200572611
-0.010541848838329315 -0.004433280788362026 -0.002915592631325127
-0.010541848838329315 -0.0038812216371297836 -0.0031904838979244245
-0.010541848838329315 -0.0033291622530668974 -0.0033732401207089437
-0.010541848838329315 -0.002777102869004011 -0.003442153334617616
-0.010541848838329315 -0.002225043484941125 -0.0034121084026992334
-0.010541848838329315 -0.0016729839844629169 -0.004065543413162232
-0.010541848838329315 -0.0011209246004000306 -0.0034486199729144586
-0.010541848838329315 -0.0005688651581294835 -0.0034517494495958103
-0.010541848838329315 -1.6805810446385294e-05 -0.0034217040520161403
-0.010541848838329315 0.0005352535517886281 -0.003132620127871634
-0.010541848838329315 0.0010873129358515143 -0.00306840054690838
-0.010541848838329315 0.0016393723199144006 -0.002880899934098126
-0.010541848838329315 0.0021914318203926086 -0.002816680353134872
-0.010541848838329315 0.0027434909716248512 -0.002629179507493974
-0.010541848838329315 0.0032955503556877375 -0.00256495992653072
-0.010541848838329315 0.0038476097397506237 -0.002464953111484648
-0.010541848838329315 0.004399669356644154 -0.002364946296438576
