ply
format ascii 1.0
element vertex 722
property float x
property float y
property float z
end_header
0.0006749491486412442 -0.011344851933533403 -0.004262795635310691
0.0009380033385023905 -0.010889228711550028 -0.004259813817969182
0.0012010575283635376 -0.010433605489566651 -0.004194140582992785
0.0014641114673566596 -0.00997798270209944 -0.004128466846280339
0.0017271656572178068 -0.009522359480116063 -0.004062793611303942
0.001990219847078954 -0.009066736258132686 -0.003845026618996538
0.0022532740369401 -0.00861111303614931 -0.0034101087662503785
0.002516328226801247 -0.008155489814165933 -0.003344435531273981
0.0027793824166623938 -0.007699866592182556 -0.002993696945949818
0.003042436606523541 -0.0072442433701991795 -0.002819532321542316
0.0033054907963846877 -0.006788620148215804 -0.002468792732746054
0.0035685449862458344 -0.006332996926232427 -0.0024658114171405947
0.0038315991761069816 -0.0058773737042490505 -0.002115071828344333
0.004094653365968128 -0.005421750482265674 -0.0020171580383064095
0.0043577075558292756 -0.004966127260282297 -0.0019192437465324365
0.004620761808407429 -0.00451050392966988 -0.002014549512585645
0.004883815998268575 -0.004054880707686504 -0.0020115676952441367
0.005146870188129722 -0.0035992574857031273 -0.0021902539649287173
0.005409924363291571 -0.0031436342891796826 -0.0021245807299523204
0.0056729785521727645 -0.002688011068893635 -0.0019504156038087682
0.005936032757713163 -0.0022323878197529983 -0.001688445665550347
0.00619908694757431 -0.001776764597769622 -0.0018671319352349277
0.006462141137435457 -0.0013211413757862455 -0.0018957645063653104
0.006725195264579598 -0.0008655182624319101 -0.001991070272418519
0.006988249454440745 -0.00040989504044853365 -0.0018169051462749667
0.007251303644301892 4.5728181534842754e-05 -0.001782681730346262
0.007514357834163038 0.0005013514035182188 -0.0017484588161536063
0.0077774120240241855 0.0009569746255015956 -0.0017770913872839891
0.008040466213885333 0.0014125978474849716 -0.0016791775972460656
0.008303520403746479 0.0018682210694683484 -0.0020505385376721435
0.008566574593607627 0.0023238442914517246 -0.0017885680976776732
0.008829628783468773 0.002779467513435101 -0.0017543446817489684
0.00909268297332992 0.0032350907354184773 -0.0015801795556054162
0.009355737163191068 0.003690713957401854 -0.0004730773879823069
0.009618791353052214 0.004146337179385231 -0.0004700960723768478
0.009881845793781386 0.0046019608358847715 -0.00037218127886682554
0.010144899983642533 0.005057584057868148 -2.1442705302101156e-05
-0.0005698366429255739 -0.012448667409622386 -0.003992482328287009
-4.372826320327962e-05 -0.011537420965655631 -0.004433718041367053
0.00021932592665786752 -0.011081797743672255 -0.004206829487681789
0.0004823801165190138 -0.01062617452168888 -0.004241052903610494
0.0007454343063801609 -0.010170551299705503 -0.004145747137557285
0.001008488245373283 -0.009714928512238293 -0.003967059864400606
0.0012715424352344302 -0.009259305290254916 -0.0040012832803293106
0.0015345966250955773 -0.008803682068271538 -0.003774394726644047
0.001797650814956724 -0.008348058846288163 -0.0037773755405134564
0.0020607050048178713 -0.007892435624304786 -0.003951540666657008
0.002323759194679017 -0.007436812402321409 -0.003414477382032393
0.0025868133845401643 -0.006981189180338032 -0.002675376530248665
0.002849867574401311 -0.006525565958354657 -0.0023040155898225866
0.003112921764262458 -0.00606994273637128 -0.0023069974071640953
0.003375975954123605 -0.005614319514387903 -0.002128310134007416
0.0036390301439847518 -0.005158696292404527 -0.002033005371426306
0.003902084333845899 -0.00470307307042115 -0.002067227783882912
0.004165138586424052 -0.004247449739808733 -0.002006026522314704
0.0044281927762851985 -0.0037918265178253567 -0.0022237935146221075
0.004691246966146346 -0.00333620329584198 -0.002321707304660031
0.004954301141308195 -0.0028805800993185354 -0.002324689122001539
0.005217355330189388 -0.0024249568790324877 -0.0018450605664223825
0.005480409535729786 -0.001969333629891851 -0.002279978419168542
0.0057434637255909336 -0.0015137104079084747 -0.002184673154851383
0.006006517915452081 -0.0010580871859250983 -0.002187654972192891
0.006269572042596221 -0.0006024640725707629 -0.002092349206139683
0.006532626232457368 -0.00014684085058738646 -0.0019970439418225236
0.006795680422318515 0.00030878237139598993 -0.002094957731860447
0.007058734612179662 0.0007644055933793659 -0.0018680691781751834
0.007321788802040809 0.0012200288153627428 -0.002042234304318735
0.007584842991901956 0.0016756520373461187 -0.002013601231452303
0.007847897181763102 0.0021312752593294956 -0.0019524004716201444
0.00811095137162425 0.0025868984813128717 -0.001891199210051936
0.008374005561485397 0.0030425217032962483 -0.0018625661371855038
0.008637059751346543 0.0034981449252796245 -0.0015870719037158491
0.008900113941207691 0.003953768147263001 -0.0016212948179085047
0.009163168131068837 0.004409391369246378 -0.000655801127656307
0.00942622257179801 0.004865015025745919 -2.0964801715059856e-05
0.009689276761659156 0.005320638247729295 -0.0004558828935698056
0.009952330951520302 0.005776261469712671 -8.259339736426312e-06
-0.0012885140547700968 -0.012641236441744613 -0.0018608572242012908
-0.0007624056750478034 -0.011729989997777862 -0.003658560430130159
-0.0004993514851866562 -0.011274366775794485 -0.004106183744854951
-0.0002362972953255091 -0.010818743553811109 -0.0042014895109081605
2.675689453563721e-05 -0.010363120331827734 -0.004262690772476369
0.0002898110843967844 -0.009907497109844357 -0.004291323343606751
0.0005528650233899064 -0.009451874322377145 -0.004225650610366404
0.0008159192132510536 -0.008996251100393768 -0.004286851370198563
0.0010789734031122007 -0.008540627878410392 -0.0038125482410476027
0.0013420275929733475 -0.008085004656427017 -0.004183908178001581
0.0016050817828344944 -0.007629381434443639 -0.0037096045471145716
0.0018681359726956412 -0.007173758212460263 -0.003611690255340599
0.0021311901625567886 -0.006718134990476886 -0.003176772402594439
0.0023942443524179353 -0.006262511768493509 -0.002363062396794727
0.002657298542279082 -0.005806888546510133 -0.0019281445440485667
0.0029203527321402293 -0.005351265324526756 -0.0016217298230633236
0.003183406922001376 -0.00489564210254338 -0.00140396283075592
0.003446461111862523 -0.004440018880560004 -0.001369739414827215
0.003709515364440676 -0.0039843955499475866 -9.984950339571044e-05
0.003972569554301823 -0.00352877232796421 -0.0015143583084944502
0.00423562374416297 -0.0030731491059808333 -0.0018857192489205284
0.004498677919324819 -0.0026175259094573886 -0.002333342563645322
0.004761732108206012 -0.002161902689171341 -0.0024286483296985305
0.005024786313746411 -0.0017062794400307044 -0.0024256675158291206
0.005287840503607558 -0.001250656218047328 -0.002359993277380625
0.005550894693468705 -0.0007950329960639516 -0.0022943200424042276
0.005813948820612845 -0.0003394098827096161 -0.002120155417996725
0.006077003010473992 0.00011621333927376028 -0.00208593200206802
0.00634005720033514 0.0005718365612571367 -0.002082949682990462
0.006603111390196286 0.0010274597832405127 -0.0020172769497501146
0.006866165580057433 0.0014830830052238895 -0.0020459095208804974
0.00712921976991858 0.0019387062272072655 -0.002011686606687842
0.0073922739597797275 0.0023943294491906423 -0.0019460133717114445
0.007655328149640874 0.0028499526711740185 -0.0019117899557827397
0.007918382339502022 0.003305575893157395 -0.0019729912173509483
0.008181436529363168 0.0037611991151407713 -0.0019387678014222431
0.008444490719224314 0.004216822337124148 -0.0017646026752786911
0.008707544909085463 0.004672445559107525 -0.0018258039368468995
0.008970599349814633 0.005128069215607066 -0.001563833496852429
0.009233653539675781 0.0055836924375904425 -0.0007501239927887658
-0.0017441372767534743 -0.012378182251883467 -0.002385369581550484
-0.001481083086892328 -0.011922559029900092 -0.0017006323324539143
-0.00121802889703118 -0.011466935807916715 -0.003621901085681679
-0.0009549747071700329 -0.011011312585933339 -0.0038838705222040506
-0.0006919205173088857 -0.010555689363949962 -0.004145840962198521
-0.0004288663274477394 -0.010100066141966586 -0.004211515200647016
-0.00016581213758659226 -0.009644442919983209 -0.004277187933887364
9.724180140652976e-05 -0.009188820132515998 -0.004311411349816069
0.00036029599126767694 -0.008733196910532622 -0.004345634765744774
0.0006233501811288241 -0.008277573688549245 -0.004284433504176566
0.0008864043709899708 -0.007821950466565869 -0.004382347795950538
0.0011494585608511178 -0.007366327244582492 -0.0042036610245299085
0.0014125127507122646 -0.0069107040225991154 -0.003976771467372546
0.001675566940573411 -0.006455080800615739 -0.0032920342182759764
0.0019386211304345576 -0.005999457578632362 -0.002086083526354935
0.0022016753202957046 -0.005543834356648986 -0.0016384597098940922
0.002464729510156852 -0.005088211134665609 -0.0015431544455769331
0.0027277837000179985 -0.004632587912682233 -0.001267659710371229
0.0029908378898791457 -0.004176964690698857 -0.0009437946095882971
0.0032538921424572985 -0.0037213413600864394 -0.001494094694667847
0.0035169463323184457 -0.0032657181381030628 -0.001267205137510484
0.0037800005221795925 -0.002810094916119686 -0.0012060038759422757
0.0040430546973414415 -0.0023544717195962414 -0.0016803085103013846
0.004306108886222635 -0.0018988484993101937 -0.002031047095625548
0.004569163091763033 -0.0014432252501695572 -0.0022052122217691
0.00483221728162418 -0.0009876020281861808 -0.0024671826617635706
0.0050952714714853275 -0.0005319788062028044 -0.0021433175609806383
0.005358325598629468 -7.635569284846894e-05 -0.0024497317802298323
0.005621379788490615 0.00037926752913490747 -0.0025154055169422786
0.005884433978351762 0.0008348907511182839 -0.002288517464993064
0.0061474881682129084 0.0012905139731016599 -0.0022273151999527567
0.006410542358074056 0.0017461371950850367 -0.002662233052698917
0.006673596547935203 0.002201760417068413 -0.0020743112934281617
0.00693665073779635 0.0026573836390517895 -0.0021085347093568667
0.007199704927657496 0.0031130068610351657 -0.0020132289433036584
0.0074627591175186435 0.0035686300830185423 -0.0019179231772504495
0.007725813307379791 0.004024253305001918 -0.0015465622368243713
0.007988867497240938 0.0044798765269852955 -0.001981480591306581
0.008251921687102084 0.004935499748968672 -0.0020157040072352854
0.008514976127831256 0.005391123405468213 -0.0014277807427563825
0.008778030317692403 0.00584674662745159 -0.0012008921890711184
0.009041084507553549 0.006302369849434965 -0.000323119521013542
-0.0019367065261337863 -0.011659504714604932 -0.0018246559647659016
-0.0016736523362726392 -0.011203881492621555 -0.002618593556331361
-0.001410598146411492 -0.010748258270638179 -0.0034681586236923858
-0.0011475439565503446 -0.010292635048654802 -0.0045566794984624875
-0.0008844897666891982 -0.009837011826671427 -0.004250264777477244
-0.0006214355768280511 -0.00938138860468805 -0.004345570543530452
-0.00035838163783492904 -0.008925765817220838 -0.004524257314951083
-9.532744797378188e-05 -0.008470142595237462 -0.0045212759993456236
0.00016772674188736527 -0.008014519373254085 -0.004549909072212055
0.00043078093174851197 -0.007558896151270709 -0.004515685656283351
0.0006938351216096592 -0.007103272929287333 -0.004481462240354645
0.0009568893114708059 -0.006647649707303956 -0.004130723655030482
0.001219943501331953 -0.0061920264853205795 -0.0035437772706397373
0.0014829976911930993 -0.005736403263337203 -0.0014917154623216528
0.0017460518810542465 -0.005280780041353826 -0.0012920134764724375
0.0020091060709153934 -0.00482515681937045 -0.0009412738876761755
0.0025352144506376874 -0.003913910375403697 -0.0004653215521308789
0.00279826870321584 -0.00345828704479128 -0.00046234023652541985
0.0030613228930769874 -0.0030026638228079034 -0.0002445735107652924
0.003324377082938134 -0.002547040600824527 -0.0005200679794237202
0.0035874312580999827 -0.002091417404301082 -0.0005487010522901522
0.0038504854469811763 -0.0016357941840150344 -0.0009616890257896937
0.004113539652521575 -0.0011801709348743979 -0.0012855536248365764
0.0043765938423827215 -0.0007245477128910215 -0.0018972621884727318
0.004639648032243869 -0.000268924490907645 -0.0018630387725440268
0.00490270215938801 0.00018669862244669036 -0.00231066208726882
0.005165756349249157 0.0006423218444300667 -0.0023076812733994105
0.005428810539110303 0.0010979450664134432 -0.002001266552414167
0.0056918647289714505 0.0015535682883968192 -0.002062467312246326
0.005954918918832598 0.002009191510380196 -0.0018883021861027742
0.006217973108693744 0.002464814732363572 -0.0017141375616952714
0.006481027298554891 0.002920437954346949 -0.0016799141457665666
0.006744081488416038 0.003376061176330325 -0.0016142409107901695
0.0070071356782771856 0.0038316843983137016 -0.0015485681775498218
0.007270189868138332 0.004287307620297077 -0.001482893939101326
0.007533244057999479 0.004742930842280455 -0.0016615802087859067
0.007796298247860626 0.005198554064263831 -0.0015636664187479831
0.008059352688589797 0.005654177720763372 -0.0016589716830651424
0.008322406878450945 0.006109800942746749 -0.0006542066104913544
-0.0026553839379783086 -0.01185207374672716 -0.0024021727218444633
-0.0023923297481171623 -0.011396450524743786 -0.0018390216713319576
-0.002129275558256015 -0.010940827302760409 -0.0035799689970901884
-0.0018662213683948677 -0.010485204080777032 -0.004422548393435594
-0.0016031671785337208 -0.010029580858793656 -0.003913215558524563
-0.0013401129886725744 -0.00957395763681028 -0.004219630781245856
-0.0010770587988114273 -0.009118334414826904 -0.004253853193702461
-0.0008140048598183052 -0.008662711627359692 -0.004471619684273816
-0.000550950669957158 -0.008207088405376315 -0.004505843100202521
-0.0002878964800960109 -0.007751465183392939 -0.004603757391976494
-2.484229023486418e-05 -0.007295841961409563 -0.004575124319110061
0.00023821189962628297 -0.0068402187394261856 -0.004609347735038767
0.0005012660894874297 -0.00638459551744281 -0.004580714662172334
0.0007643202793485768 -0.005928972295459433 -0.004485408896119126
0.0010273744692097235 -0.005473349073476057 -0.004037785581394332
0.0012904286590708703 -0.00501772585149268 -0.0014355039657646008
0.0015534828489320173 -0.004562102629509303 -0.0005859388984035759
0.0018165370387931642 -0.004106479407525927 -2.2788361386558105e-05
0.004184024810260493 -5.870301046498495e-06 -0.0010607548017970104
0.004447078937404633 0.0004497528123078369 -0.0007852605683273557
0.00471013312726578 0.0009053760342912133 -0.0015989700723910189
0.004973187317126928 0.0013609992562745898 -0.001664643307367416
0.005236241506988074 0.0018166224782579657 -0.0016360102345009838
0.005499295696849221 0.0022722457002413423 -0.0016702336504296888
0.005762349886710368 0.0027278689222247185 -0.0015749278843764803
0.0060254040765715155 0.0031834921442080956 -0.001609151300305185
0.006288458266432662 0.0036391153661914713 -0.001513846035988026
0.006551512456293809 0.004094738588174848 -0.001189980935205094
0.006814566646154956 0.0045503618101582245 -0.0012556551736535898
0.0070776208360161024 0.005005985032141601 -0.0009801604384478857
0.00734067502587725 0.005461608254124978 -0.0009189581734075785
0.007603729466606421 0.005917231910624519 -0.0009219404924851363
0.007866783656467568 0.006372855132607895 -0.0004423114351699299
-0.002847952970100539 -0.01113339633488264 -0.0018801595117572682
-0.0025848987802393917 -0.010677773112899263 -0.002646599459136059
-0.0023218445903782445 -0.010222149890915886 -0.0037039138568424213
-0.0020587904005170974 -0.00976652666893251 -0.003930802410527686
-0.001795736210655951 -0.009310903446949133 -0.00420629714573339
-0.0015326820207948039 -0.008855280224965756 -0.004530161744780273
-0.0012696280818016818 -0.008399657437498546 -0.004708848014464854
-0.0010065738919405346 -0.007944034215515169 -0.004674624598536148
-0.0007435197020793875 -0.007488410993531792 -0.004703257671402581
-0.0004804655122182408 -0.007032787771548416 -0.004798563437455789
-0.00021741132235709364 -0.006577164549565039 -0.004536592997461318
4.564286750405308e-05 -0.006121541327581663 -0.004533612685327958
0.00030869705736520024 -0.005665918105598286 -0.004712298955012539
0.0005717512472263469 -0.00521029488361491 -0.004538133327132938
0.0008348054370874941 -0.004754671661631534 -0.0037539881180433687
0.005043672474865845 0.0025352998901024895 -0.00036784076030357674
0.005306726664726992 0.0029909231120858657 -0.0003336183478469706
0.005569780854588139 0.0034465463340692423 -0.0004289241139001791
0.005832835044449286 0.0039021695560526185 -7.818454078316888e-05
0.006095889234310433 0.004357792778035995 -1.2511301886958956e-05
-0.003566630381945062 -0.011325965367004868 -0.0015852230063738576
-0.003303576192083915 -0.010870342145021491 -0.002135523091453407
-0.003040522002222768 -0.010414718923038115 -0.003166080909118046
-0.0027774678123616207 -0.009959095701054738 -0.0036009987618642056
-0.0025144136225004735 -0.009503472479071361 -0.004035916614610366
-0.0022513594326393272 -0.009047849257087986 -0.004210081740753918
-0.00198830524277818 -0.00859222603510461 -0.00438424686689747
-0.001725251303785058 -0.008136603247637398 -0.0045584114913049725
-0.0014621971139239108 -0.007680980025654022 -0.00462408472628137
-0.0011991429240627636 -0.007225356803670644 -0.004658308142210074
-0.000936088734201617 -0.006769733581687269 -0.004661289457815534
-0.0006730345443404698 -0.006314110359703892 -0.00438579472260983
-0.0004099803544793231 -0.0058584871377205154 -0.004692209443595073
-0.00014692616461817594 -0.005402863915737139 -0.005042948028919236
0.00011612802524297077 -0.004947240693753763 -0.0044797974801427795
0.00037918221510411794 -0.0044916174717703865 -0.004514020896071485
0.0006422364049652649 -0.00403599424978701 -0.004452819634503276
0.0009052905948264118 -0.0035803710278036333 -0.003768081381934607
-0.0037591993054382506 -0.01060728801787735 -0.001509022345609217
-0.0034961451155771034 -0.010151664795893973 -0.0025975447255874667
-0.0032330909257159562 -0.009696041573910597 -0.003979439197947138
-0.002970036735854809 -0.00924041835192722 -0.003805274071803586
-0.0027069825459936627 -0.008784795129943845 -0.0042182615435670786
-0.0024439283561325156 -0.008329171907960469 -0.004396948314987708
-0.0021808744171393935 -0.007873549120493257 -0.004623837872145071
-0.0019178202272782463 -0.007417925898509881 -0.00468503863197723
-0.0016547660374170992 -0.006962302676526504 -0.004713670701371564
-0.0013917118475559524 -0.0065066794545431276 -0.0047106893857661045
-0.0011286576576948054 -0.006051056232559751 -0.004612774592256082
-0.0008656034678336586 -0.005595433010576375 -0.004514860802218159
-0.0006025492779725115 -0.005139809788592999 -0.0044806373862894535
-0.00033949508811136476 -0.004684186566609622 -0.004446414973832848
-7.64408982502176e-05 -0.004228563344626245 -0.004721909207302502
0.00018661329161092936 -0.0037729401226428688 -0.004656234968854007
0.0004496674814720763 -0.0033173169006594926 -0.00393356647442376
-0.0044778767172827735 -0.010799857049999579 -0.0011844272188744267
-0.004214822527421627 -0.010344233828016204 -0.0014463966553967982
-0.00395176833756048 -0.009888610606032827 -0.002425121125271338
-0.0036887141476993324 -0.00943298738404945 -0.0034038460968819273
-0.0034256599578381852 -0.008977364162066074 -0.003501759886919851
-0.003162605767977039 -0.008521740940082699 -0.004285905597745469
-0.0028995515781158917 -0.008066117718099322 -0.004383819889519441
-0.0026364976391227697 -0.00761049493063211 -0.004557985015662994
-0.0023734434492616225 -0.007154871708648734 -0.0045922084315916985
-0.0021103892594004753 -0.006699248486665357 -0.0053148769260219445
-0.0018473350695393286 -0.006243625264681981 -0.0046301386734532764
-0.0015842808796781816 -0.005788002042698605 -0.004664362089381981
-0.0013212266898170349 -0.005332378820715228 -0.004926332529376452
-0.0010581724999558877 -0.004876755598731851 -0.0046024669268574705
-0.0007951183100947409 -0.004421132376748476 -0.004668140161833868
-0.0005320641202335938 -0.003965509154765099 -0.004639507088967435
-0.00026900993037244706 -0.003509885932781722 -0.0044126190370182205
-5.955740511299898e-06 -0.003054262710798346 -0.004630385527589575
0.00025709844934984703 -0.002598639488814969 -0.004535079761536366
0.0005201527019279998 -0.002143016158202552 -0.004259585528066712
-0.00493349993926615 -0.010536802860138432 -0.0007572461360098185
-0.004407391559543856 -0.00962555641617168 -0.0021280793354246986
-0.004144337369682709 -0.009169933194188304 -0.0029220169269901577
-0.003881283179821562 -0.008714309972204928 -0.0037436498467457446
-0.0036182289899604155 -0.008258686750221551 -0.003922336116430326
-0.0033551748000992684 -0.007803063528238174 -0.004335325093401965
-0.0030921208611061463 -0.007347440740770964 -0.004117558101094562
-0.002829066671244999 -0.006891817518787587 -0.0046807086498710185
-0.002566012481383852 -0.00643619429680421 -0.004776014415924227
-0.002302958291522705 -0.005980571074820834 -0.004773032096846669
-0.002039904101661558 -0.0055249478528374574 -0.004707359865342371
-0.0017768499118004113 -0.005069324630854081 -0.004704377546264813
-0.001513795721939264 -0.004613701408870704 -0.0054708184971157025
-0.0012507415320781173 -0.0041580781868873285 -0.004848099837611793
-0.0009876873422169702 -0.003702454964903952 -0.004782425599163297
-0.0007246331523558232 -0.0032468317429205753 -0.004608260974755795
-0.0004615789624946763 -0.0027912085209371986 -0.004703566740809003
-0.00019852477263352937 -0.0023355852989538225 -0.004732198810203337
6.452947994462344e-05 -0.001879961968341405 -0.004297280957457177
0.00032758366980577036 -0.0014243387463580286 -0.003543461678664673
-0.00512606899854564 -0.009818125432614658 -0.0017294701136284971
-0.004863014808684493 -0.009362502210631281 -0.0017636925260851033
-0.004599960618823345 -0.008906878988647905 -0.002634508122081876
-0.004336906428962198 -0.008451255766664528 -0.0033251372576064
-0.004073852239101052 -0.007995632544681153 -0.0038378949427905484
-0.003810798049239905 -0.007540009322697777 -0.0042728127955367085
-0.003547744110246783 -0.007084386535230565 -0.004490579787844112
-0.0032846899203856357 -0.006628763313247189 -0.0045884935778820355
-0.0030216357305244885 -0.006173140091263811 -0.0046864073679199585
-0.0027585815406633418 -0.005717516869280436 -0.004720630783848664
-0.0024955273508021946 -0.005261893647297059 -0.00478630401882506
-0.002232473160941048 -0.004806270425313683 -0.005092719241546353
-0.0019694189710799006 -0.004350647203330306 -0.004721358301120276
-0.0017063647812187541 -0.00389502398134693 -0.00410964973748412
-0.001443310591357607 -0.0034394007593635534 -0.0049522281303574275
-0.00118025640149646 -0.0029837775373801768 -0.004773541860672846
-0.000917202211635313 -0.0025281543153968006 -0.0049913083512442
-0.000654148021774166 -0.002072531093413424 -0.004543685538255457
-0.00039109376919601305 -0.0016169077628010065 -0.004546665850388817
-0.00012803957933486614 -0.00116128454081763 -0.004485465090556658
0.00013501461052628085 -0.0007056613188342537 -0.004209970355350954
-0.005318638020483896 -0.009099448026649854 -0.0015669532916075197
-0.005055583830622749 -0.008643824804666477 -0.002333394242458409
-0.004792529640761602 -0.0081882015826831 -0.003018131993291028
-0.004529475450900456 -0.007732578360699726 -0.003606054756033882
-0.0042664212610393085 -0.007276955138716349 -0.004193977518776735
-0.0040033673220461865 -0.006821332351249138 -0.004372664290197365
-0.0037403131321850393 -0.006365709129265761 -0.004785651761960857
-0.003477258942323892 -0.0059100859072823845 -0.004687737971922934
-0.0032142047524627453 -0.005454462685299008 -0.004783043737976143
-0.0029511505626015986 -0.004998839463315631 -0.004811675807370476
-0.002688096372740452 -0.0045432162413322555 -0.0048728775706747334
-0.0024250421828793047 -0.004087593019348879 -0.004901510643541165
-0.002161987993018158 -0.0036319697973655023 -0.004898528324463608
-0.0018989338031570107 -0.0031763465753821257 -0.00489554600538605
-0.0016358796132958638 -0.002720723353398749 -0.004829873773881751
-0.0013728254234347168 -0.002265100131415373 -0.004764200538905354
-0.0011097712335735698 -0.0018094769094319965 -0.0047299771229766495
-0.0008467169809954168 -0.001353853578819579 -0.004555811495097048
-0.0005836627911342698 -0.0008982303568362026 -0.00487967709761603
-0.000320608601273123 -0.00044260713485282604 -0.00392730280158321
-5.7554426111274424e-05 1.3016061670618853e-05 -0.0035765642162590467
-0.005774261225493986 -0.00883639384658824 -0.002077840504799552
-0.005511207035632838 -0.008380770624604864 -0.0021435132380399
-0.005248152845771691 -0.007925147402621487 -0.003069162061666058
-0.004985098655910545 -0.007469524180638111 -0.003581920248586256
-0.004722044466049397 -0.007013900958654735 -0.004335738523906661
-0.004458990527056275 -0.006558278171187523 -0.004307106956248376
-0.0041959363371951285 -0.006102654949204146 -0.004781410085399338
-0.003932882147333981 -0.005647031727220769 -0.004784392404476895
-0.003669827957472834 -0.005191408505237393 -0.004787372716610255
-0.003406773767611687 -0.004735785283254017 -0.004758740647215922
-0.0031437195777505402 -0.00428016206127064 -0.004856655440725944
-0.002880665387889393 -0.003824538839287264 -0.004922328675702341
-0.0026176111980282463 -0.003368915617303888 -0.004827022909649133
-0.002354557008167099 -0.002913292395320511 -0.0050011875340566355
-0.0020915028183059524 -0.0024576691733371346 -0.005099102327566658
-0.0018284486284448054 -0.002002045951353758 -0.0047277423906126785
-0.0015653944385836584 -0.0015464227293703818 -0.004825656180650602
-0.0013023401860055056 -0.0010907993987579643 -0.004730350414597393
-0.0010392859961443587 -0.0006351761767745879 -0.004551664144912813
-0.0007762318062832117 -0.00017955295479121132 -0.003839783477280442
-0.000513177631121363 0.00027607024173223346 -0.004426730363407238
-0.00025012344224016933 0.0007316934620182811 -0.004013741386435597
1.2930763300229036e-05 0.0011873167111589179 -0.0033018622240113746
-0.005966830257616215 -0.008117716434743716 -0.001981155466346578
-0.005703776067755068 -0.007662093212760339 -0.0025443060151230344
-0.005440721877893921 -0.007206469990776964 -0.003256186181019356
-0.0051776676880327735 -0.006750846768793587 -0.0038193367297958123
-0.0049146137490396515 -0.006295223981326376 -0.004356401017892527
-0.004651559559178504 -0.005839600759342999 -0.004535087789313157
-0.004388505369317357 -0.005383977537359623 -0.004713774058997738
-0.004125451179456211 -0.004928354315376246 -0.004774974818829897
-0.0038623969895950636 -0.00447273109339287 -0.004870280584883105
-0.003599342799733917 -0.004017107871409494 -0.004965586350936313
-0.0033362886098727697 -0.003561484649426117 -0.004899912112487818
-0.003073234420011623 -0.0031058614274427406 -0.005271273052913895
-0.0028101802301504757 -0.002650238205459364 -0.004920534467589732
-0.002547126040289329 -0.0021946149834759874 -0.004949167540456165
-0.002284071850428182 -0.0017389917614926112 -0.005010368300288324
-0.002021017660567035 -0.0012833685395092348 -0.004792601809716969
-0.001757963407988882 -0.0008277452088968173 -0.004758378393788265
-0.001494909218127735 -0.00037212198691344094 -0.004496408957265893
-0.001231855028266588 8.350123506993553e-05 -0.004493427139924384
-0.0009688008531047397 0.0005391244315933805 -0.004395512848150412
-0.0007057466642235459 0.000994747651879428 -0.004329838609701916
-0.00044269245868314746 0.0014503709010200649 -0.0038170809245177675
-0.006685507669460739 -0.008310285466865946 -0.0005901645194115161
-0.006422453479599591 -0.00785466224488257 -0.0009409041082077778
-0.006159399289738444 -0.007399039022899193 -0.0023546588197035398
-0.005896345099877297 -0.006943415800915817 -0.0033594233905412784
-0.00563329091001615 -0.00648779257893244 -0.003982142050045188
-0.005370236971023028 -0.006032169791465229 -0.004417060404527396
-0.005107182781161881 -0.005576546569481852 -0.004355859142959188
-0.004844128591300734 -0.005120923347498476 -0.004706597226547302
-0.004581074401439587 -0.0046653001255151 -0.0050573358118714655
-0.00431802021157844 -0.004209676903531722 -0.004830447759922251
-0.004054966021717293 -0.0037540536815483467 -0.004928361549960174
-0.003791911831856146 -0.00329843045956497 -0.004867160790128015
-0.003528857641994999 -0.002842807237581594 -0.005129131230122486
-0.0032658034521338523 -0.0023871840155982173 -0.0050338254640692765
-0.003002749262272705 -0.0019315607936148406 -0.005036807783146835
-0.0027396950724115584 -0.0014759375716314643 -0.005039788095280195
-0.0024766408825504112 -0.0010203143496480879 -0.004861101825595614
-0.0022135866299722584 -0.0005646910190356704 -0.004682415555911034
-0.0019505324401111114 -0.000109067797052294 -0.0047166389718397385
-0.0016874782502499645 0.00034655542493108247 -0.00462133320578653
-0.0014244240750881157 0.0008021786214545273 -0.004442646936101949
-0.001161369886206922 0.001257801841740575 -0.004476869348558556
-0.0008983156806665239 0.0017134250908812118 -0.004105508408132477
-0.000635261490805377 0.002169048312864588 -0.004010203645551368
-0.00037220730094423 0.0026246715348479644 -0.0035305740865001116
-0.006615022620350861 -0.007135984770321039 -0.0018593409778600435
-0.0063519684304897146 -0.0066803615483376644 -0.003142219847817337
-0.006088914240628567 -0.006224738326354287 -0.003936157439382796
-0.005825860301635445 -0.005769115538887076 -0.0041630454913320104
-0.005562806111774299 -0.005313492316903699 -0.004847783743900679
-0.005299751921913152 -0.004857869094920322 -0.004497044656840467
-0.005036697732052005 -0.004402245872936947 -0.004868405095530495
-0.0047736435421908575 -0.00394662265095357 -0.004929607862306852
-0.004510589352329711 -0.0034909994289701934 -0.005024912624887962
-0.004247535162468564 -0.003035376206986817 -0.004990690212431355
-0.003984480972607417 -0.0025797529850034406 -0.005085994975012466
-0.00372142678274627 -0.002124129763020064 -0.005114627044406799
-0.003458372592885123 -0.0016685065410366876 -0.005048953809430401
-0.003195318403023976 -0.0012128833190533112 -0.00478698437290803
-0.002932264213162829 -0.0007572600970699348 -0.00496567064259261
-0.002669209960584676 -0.0003016367664575174 -0.004703701206070238
-0.002406155770723529 0.00015398645552585903 -0.00479900496517925
-0.002143101580862382 0.0006096096775092356 -0.004624840340771747
-0.0018800474057005334 0.0010652328740326804 -0.004653473413638179
-0.0016169932168193398 0.001520856094318728 -0.0043470581909168865
-0.0013539390112789413 0.001976479343459365 -0.004249144400878963
-0.0010908848214177943 0.002432102565442741 -0.004183471165902566
-0.0008278306315566475 0.0028877257874261176 -0.0037485533131564066
-0.0005647765044125066 0.0033433489007804527 -0.0029348423038845954
-0.0070706458423342375 -0.006872930580459892 -0.0027191043321609138
-0.006807591652473091 -0.006417307358476517 -0.0027847785706094095
-0.006544537462611944 -0.005961684136493141 -0.0037895421379750493
-0.006281483523618822 -0.005506061349025929 -0.004095957360696342
-0.006018429333757675 -0.005050438127042553 -0.004608715547616539
-0.005755375143896528 -0.004594814905059175 -0.004706630341126562
-0.005492320954035381 -0.0041391916830757994 -0.004709611656732021
-0.005229266764174234 -0.003683568461092423 -0.004807525446769944
-0.004966212574313087 -0.0032279452391090467 -0.0049054402402799666
-0.00470315838445194 -0.00277232201712567 -0.0052118544595291605
-0.004440104194590793 -0.002316698795142294 -0.005214835775134619
-0.004177050004729646 -0.001861075573158917 -0.004801848805107177
-0.003913995814868499 -0.0014054523511755406 -0.00515258739043134
-0.0036509416250073523 -0.0009498291291921643 -0.005057281624378131
-0.003387887435146205 -0.0004942059072087879 -0.005122955862826627
-0.0031248331825680523 -3.858257659637041e-05 -0.004709966885854987
-0.002861778992706905 0.000417040645387006 -0.004884131510262489
-0.0025987248028457584 0.0008726638673703825 -0.004657243458313275
-0.00233567062768391 0.0013282870638938271 -0.00534787209210175
-0.002072616438802716 0.001783910284179875 -0.00455393500227234
-0.0018095622332623175 0.0022395335333205116 -0.004016870714175625
-0.0015465080434011705 0.002695156755303888 -0.004367609299499788
-0.0012834538535400238 0.0031507799772872644 -0.0040921145642940845
-0.0010203997263958829 0.0036064030906416 -0.0039134282946095035
-0.0007573455365347359 0.004062026312624976 -0.003500440321109963
-0.007263214874456468 -0.00615425316861537 -0.002572823186962059
-0.007000160684595321 -0.0056986299466319935 -0.0033119245404818363
-0.0067371067456021986 -0.005243007159164782 -0.003821257375392867
-0.006474052555741051 -0.0047873839371814055 -0.004533137039553139
-0.006210998365879904 -0.004331760715198029 -0.004561769108947472
-0.005947944176018758 -0.0038761374932146527 -0.004788658164368785
-0.005684889986157611 -0.0034205142712312757 -0.004614492536489184
-0.0054218357962964635 -0.0029648910492478995 -0.0049383581390081656
-0.005158781606435316 -0.002509267827264523 -0.00521385237247782
-0.00489572741657417 -0.0020536446052811467 -0.0051481791375014236
-0.004632673226713023 -0.00159802138329777 -0.0050502653474635
-0.004369619036851876 -0.0011423981613143937 -0.005111466107295659
-0.0041065648469907285 -0.0006867749393310173 -0.004893699616724305
-0.0038435106571295817 -0.00023115171734764087 -0.004989005382777513
-0.003580456404551429 0.00022447161326477657 -0.004814840758370011
-0.0033174022146902817 0.000680094835248153 -0.004843472827764344
-0.003054348024829135 0.0011357180572315294 -0.00453705860851515
-0.0027912938496672864 0.0015913412537549743 -0.004565690677909483
-0.0025282396607860928 0.002046964474041022 -0.004531468265452877
-0.0022651854552456943 0.0025025877231816588 -0.00446579452874043
-0.002002131265384547 0.002958210945165035 -0.0043678797352304085
-0.0017390770755234004 0.0034138341671484116 -0.004193714609086856
-0.0014760229483792595 0.0038694572805027467 -0.004095800819048933
-0.0012129687585181125 0.004325080502486123 -0.0038338303790544626
-0.0009499145686569655 0.0047807037244695 -0.00373591608728049
-0.0006868603787958188 0.005236326946452876 -0.0029222065832168265
-0.0077188380964398435 -0.005891198978754223 -0.002469059656324329
-0.007455783906578696 -0.005435575756770846 -0.0031917296559627237
-0.007192729967585574 -0.004979952969303635 -0.0036266475087088834
-0.006929675777724428 -0.004524329747320258 -0.004317276644233408
-0.006666621587863281 -0.004068706525336882 -0.004623691365218651
-0.006403567398002134 -0.0036130833033535055 -0.004797854986154055
-0.0061405132081409864 -0.003157460081370129 -0.0048320784020827595
-0.00587745901827984 -0.0027018368593867527 -0.004929994199064881
-0.005614404828418693 -0.002246213637403376 -0.0049956664305691794
-0.005351350638557546 -0.00179059041542 -0.005029889846497884
-0.005088296448696399 -0.0013349671934366231 -0.005095563081474281
-0.004825242258835252 -0.0008793439714532467 -0.005193476871512204
-0.004562188068974105 -0.0004237207494698703 -0.005132276111680045
-0.004299133879112958 3.1902472513506106e-05 -0.005135258430757603
-0.004036079626534805 0.0004875258031259235 -0.00490836937533629
-0.003773025436673658 0.0009431490251093 -0.004879736302469858
-0.003509971246812511 0.0013987722470926763 -0.004784431539888749
-0.0032469170716506626 0.0018543954436161213 -0.004882345329926672
-0.002983862882769469 0.002310018663902169 -0.004558480730879789
-0.0027208086772290705 0.0027656419130428055 -0.004379793959459159
-0.0024577544873679233 0.003221265135026182 -0.0044777077494970825
-0.0021947002975067765 0.0036768883570095583 -0.004382402485179924
-0.0019316461703626356 0.004132511470363894 -0.004287097722598813
-0.0016685919805014887 0.0045881346923472704 -0.004011603489129159
-0.0014055377906403417 0.005043757914330646 -0.003982970416262727
-0.001142483600779195 0.005499381136314023 -0.0033712618526265713
-0.0008794294109180478 0.005955004358297399 -0.003405485268555276
-0.007911406911303992 -0.005172521692343712 -0.0027419017130369226
-0.007648352972310869 -0.004716898904876501 -0.0033536097749370286
-0.0073852987824497215 -0.004261275682893124 -0.0038629416063759607
-0.007122244592588574 -0.0038056524609097475 -0.004342570663691168
-0.006859190402727428 -0.0033500292389263713 -0.004713931604117246
-0.006596136212866281 -0.0028944060169429947 -0.004775132363949405
-0.006333082023005134 -0.0024387827949596185 -0.004870438130002613
-0.0060700278331439865 -0.001983159572976242 -0.0048362157175460075
-0.00580697364328284 -0.0015275363509928658 -0.004897417480850265
-0.005543919453421693 -0.001071913129009489 -0.005076103750534845
-0.005280865263560546 -0.0006162899070261125 -0.004901938122655244
-0.005017811073699399 -0.00016066668504273612 -0.0049972438887084525
-0.004754756883838252 0.0002949565369406403 -0.00482307926430095
-0.004491702631260099 0.0007505798675530577 -0.0047888558483722456
-0.004228648441398952 0.0012062030895364341 -0.004571089357800891
-0.003965594251537805 0.0016618263115198105 -0.0043533233689655865
-0.0037025400763759566 0.0021174495080432554 -0.00462881810417129
-0.003439485887494763 0.002573072728329303 -0.004625835785093732
-0.0031764316819543645 0.0030286959774699397 -0.004560162550117335
-0.0029133774920932173 0.0034843191994533163 -0.004462247756607313
-0.0026503233022320705 0.003939942421436693 -0.00436433346483334
-0.0023872691750879294 0.004395565534791028 -0.004298660731592992
-0.0021242149852267827 0.004851188756774405 -0.00412449560544944
-0.0018611607953656357 0.00530681197875778 -0.004058821367000944
-0.001598106605504489 0.005762435200741157 -0.003960907576963021
-0.0013350524156433418 0.006218058422724534 -0.0037867424508194686
-0.0010719982257821955 0.00667368164470791 -0.003351824598073309
-0.008367030133287368 -0.004909467502482565 -0.003113391097891644
-0.008103976194294246 -0.0044538447150153536 -0.003147614513820349
-0.007840922004433098 -0.003998221493031977 -0.003990192906693657
-0.007577867814571952 -0.0035425982710486003 -0.004296607627678899
-0.007314813624710805 -0.003086975049065224 -0.004731525480425059
-0.0070517594348496575 -0.0026313518270818475 -0.0047971997188735556
-0.006788705244988511 -0.0021757286050984714 -0.004862872953849952
-0.006525651055127364 -0.0017201053831150945 -0.004960786743887876
-0.006262596865266217 -0.0012644821611317186 -0.00499501015981658
-0.00599954267540507 -0.0008088589391483417 -0.005060683394792978
-0.005736488485543923 -0.00035323571716496536 -0.005032051325398645
-0.005473434295682776 0.00010238750481841107 -0.005003418252532212
-0.005210380105821629 0.0005580107268017874 -0.005177583880411814
-0.004947325853243476 0.001013634057414205 -0.004902088643470061
-0.004684271663382329 0.0014692572793975813 -0.0048067838808889506
-0.004421217473521182 0.0019248805013809577 -0.004745582117584693
-0.004158163298359333 0.0023805036979044026 -0.00481125535256109
-0.00389510910947814 0.0028361269181904503 -0.004715949586507881
-0.0036320549039377415 0.003291750167331087 -0.004718931905585439
-0.0033690007140765943 0.0037473733893144635 -0.004623626139532231
-0.0031059465242154476 0.00420299661129784 -0.004562425379700072
-0.0028428923970713065 0.004658619724652175 -0.004335536826014808
-0.0025798382072101597 0.005114242946635552 -0.002953642353655136
-0.0023167840173490125 0.0055698661686189276 -0.004171047679583689
-0.0020537298274878662 0.006025489390602304 -0.004142414606717257
-0.0017906756376267188 0.006481112612585681 -0.004047109342400098
-0.001527621447765572 0.0069367358345690565 -0.003675748401974019
-0.0012645672579044249 0.007392359056552434 -0.0029093084545952284
-0.008559599416277623 -0.004190790525154206 -0.002819999437804297
-0.008296545226416475 -0.0037351673031708298 -0.0035318796037006185
-0.008033491036555327 -0.0032795440811874536 -0.004119802868179521
-0.00777043684669418 -0.0028239208592040774 -0.0046568661528041365
-0.007507382656833033 -0.002368297637220701 -0.004752170915385247
-0.007244328466971887 -0.0019126744152373246 -0.004654257125347323
-0.00698127427711074 -0.0014570511932539478 -0.005025618065773401
-0.0067182200872495925 -0.0010014279712705718 -0.004991394649844696
-0.006455165897388445 -0.000545804749287195 -0.004925720411396201
-0.006192111707527299 -9.018152730381859e-05 -0.00492274009926284
-0.005929057517666152 0.0003654416946795578 -0.0050180458653160485
-0.005666003327805005 0.0008210649166629342 -0.004431098979189253
-0.005402949075226851 0.0012766882472753517 -0.004844086952688794
-0.005139894885365705 0.001732311469258728 -0.0048098645402321885
-0.004876840695504558 0.0021879346912421047 -0.00480688222115463
-0.004613786520342709 0.0026435578877655494 -0.004741208986178234
-0.004350732331461516 0.003099181108051597 -0.004567044361770731
-0.004087678125921117 0.0035548043571922336 -0.00462824512160289
-0.00382462393605997 0.00401042757917561 -0.003785667230465632
-0.0035615697461988233 0.004466050801158986 -0.0044704044795622015
-0.003298515619054682 0.0049216739145133215 -0.0043724906895242785
-0.0030354614291935355 0.005377297136496698 -0.00436950837044672
-0.0027724072393323883 0.005832920358480075 -0.00393459051770056
-0.002509353049471242 0.0062885435804634505 -0.004210084751170215
-0.0022462988596100948 0.006744166802446827 -0.003948114812911794
-0.001983244669748949 0.007199790024430204 -0.003397815731304343
-0.0017201904798878015 0.007655413246413581 -0.002196368120426552
-0.009015222638261 -0.003927736335293059 -0.002542394902510919
-0.008752168448399851 -0.003472113113309683 -0.003624058048957996
-0.008489114258538703 -0.0030164898913263064 -0.004174357130565447
-0.008226060068677557 -0.0025608666693429302 -0.004648660761452457
-0.00796300587881641 -0.0021052434473595536 -0.004746574551490381
-0.0076999516889552635 -0.0016496202253761774 -0.004844489345000403
-0.007436897499094116 -0.0011939970033928006 -0.0049101625799768
-0.007173843309232969 -0.0007383737814094246 -0.004814856813923592
-0.006910789119371822 -0.0002827505594260478 -0.004786223741057159
-0.006647734929510676 0.00017287266255732858 -0.004960389368936761
-0.0063846807396495285 0.000628495884540705 -0.0049317572995424275
-0.006121626549788381 0.0010841191065240814 -0.004934738615147887
-0.005858572297210228 0.0015397424371364989 -0.004937719930753346
-0.005595518107349082 0.0019953656591198752 -0.004940701246358805
-0.0053324639174879345 0.002450988881103252 -0.004845395480305596
-0.0050694097423260856 0.0029066120776266966 -0.004816763410911263
-0.004806355553444893 0.0033622352979127447 -0.003434869440287641
-0.004543301347904494 0.003817858547053381 -0.004674784150599854
-0.004280247158043347 0.004273481769036757 -0.00470900756652856
-0.0040171929681821995 0.004729104991020134 -0.0046137018004753505
-0.003754138841038059 0.005184728104374469 -0.004435015029054721
-0.003491084651176912 0.005640351326357845 -0.004339709764737561
-0.003228030461315765 0.006095974548341222 -0.0043110766918711295
-0.0029649762714546186 0.006551597770324598 -0.004282443619004698
-0.0027019220815934714 0.007007220992307974 -0.0037453808361161316
-0.0024388678917323255 0.007462844214291351 -0.0034215157353331993
-0.0021758137018711783 0.007918467436274728 -0.002736777482764531
-0.0019127595120100316 0.008374090658258103 -0.002771000898693236
-0.0016497053221488844 0.008829713880241482 -0.0009110478028529402
-0.009207791670383228 -0.003209058923448536 -0.0024415600051934635
-0.00894473748052208 -0.0027534357014651597 -0.003658230789545713
-0.008681683290660934 -0.0022978124794817835 -0.004221381840058219
-0.008418629100799786 -0.0018421892574984066 -0.004669006158255111
-0.00815557491093864 -0.0013865660355150307 -0.004697638227649444
-0.007892520721077491 -0.0009309428135316539 -0.0046634158151928375
-0.007629466531216345 -0.00047531959154827784 -0.005034776755618916
-0.007366412341355198 -1.9696369564901074e-05 -0.00419219735927351
-0.007103358151494051 0.0004359268524184753 -0.004370884632430189
-0.006840303961632904 0.0008915500744018517 -0.004783872605929731
-0.006577249771771757 0.0013471732963852281 -0.00487917837198294
-0.006314195519193604 0.0018027966269976456 -0.004876196052905382
-0.0060511413293324575 0.002258419848981022 -0.004904829125771813
-0.00578808713947131 0.0027140430709643986 -0.004730663497892212
-0.005525032964309461 0.0031696662674878433 -0.004664991266387914
-0.005261978775428268 0.003625289487773891 -0.004891879318337128
-0.00499892456988787 0.004080912736914528 -0.004826206083360731
-0.004735870380026722 0.004536535958897904 -0.004652041458953229
-0.004472816190165575 0.004992159180881281 -0.00417773682459412
-0.004209762063021435 0.005447782294235616 -0.0038713216018728272
-0.003946707873160288 0.0059034055162189925 -0.00414681734055063
-0.0036836536832991406 0.006359028738202368 -0.003972652214407078
-0.0034205994934379943 0.006814651960185745 -0.003798487088263526
-0.003157545303576848 0.0072702751821691215 -0.0033635692355173663
-0.0028944911137157013 0.007725898404152498 -0.0026097494549888133
-0.002631436923854554 0.008181521626135875 -0.0012538534395002414
-0.0023683827339934073 0.008637144848119251 -0.00013191495257600217
-0.009400360702505457 -0.002490381511604012 -0.003386220109466954
-0.00913730651264431 -0.0020347582896206363 -0.003821138463949163
-0.008874252322783164 -0.0015791350676372595 -0.004605282669566633
-0.008611198132922016 -0.0011235118456538835 -0.004779448297446234
-0.00834814394306087 -0.0006678886236705067 -0.004684143534865124
-0.008085089753199723 -0.00021226540168713066 -0.004588837768811916
-0.007822035563338575 0.0002433578202962461 -0.004493532002758707
-0.007558981373477429 0.0006989810422796225 -0.004559205237735104
-0.007295927183616282 0.001154604264262999 -0.004593428653663809
-0.0070328729937551345 0.0016102274862463753 -0.004564795580797377
-0.006769818741176981 0.0020658508168587926 -0.004567777899874935
-0.006506764551315835 0.002521474038842169 -0.004633451134851332
-0.006243710361454688 0.002977097260825546 -0.004636432450456791
-0.005980656186292839 0.0034327204573489905 -0.004734346240494715
-0.005717601997411646 0.003888343677635038 -0.0045074581885455
-0.005454547791871247 0.004343966926775675 -0.004328771918860919
-0.0051914936020101 0.004799590148759051 -0.004004906818077987
-0.004928439412148953 0.005255213370742428 -0.0037780172609206243
-0.0046653852850048125 0.005710836484096763 -0.0037809995799981825
-0.004402331095143665 0.00616645970608014 -0.003878913370036106
-0.004139276905282518 0.006622082928063516 -0.0031941751174674373
-0.003876222715421372 0.007077706150046892 -0.0029186803822617334
-0.0036131685255602246 0.007533329372030269 -0.0025056929104982414
-0.003350114335699078 0.007988952594013644 -0.003638246140962569
-0.0030870601458379307 0.008444575815997023 -0.0008490743695047249
-0.009592929734627687 -0.0017717040997594891 -0.0034288330538774633
-0.009329875544766539 -0.0013160808777761127 -0.003607519323562044
-0.009066821354905392 -0.0008604576557927368 -0.00408714838087725
-0.008803767165044244 -0.00040483443380936 -0.004534772699074143
-0.008540712975183098 5.078878817401607e-05 -0.004060468064715034
-0.008277658785321952 0.0005064120101573929 -0.0040262446487863285
-0.008014604595460804 0.0009620352321407693 -0.00453557748369736
-0.0077515504055996574 0.0014176584541241456 -0.003985278903825958
-0.00748849621573851 0.001873281676107522 -0.0038111137776824055
-0.007225441963160357 0.0023289050067199393 -0.003872315039250614
-0.006962387773299211 0.002784528228703316 -0.0036103445992561435
-0.006699333583438064 0.003240151450686693 -0.003392579112156888
-0.0064362794082762145 0.0036957746472101372 -0.0038402024268816815
-0.006173225219395021 0.0041513978674961845 -0.0035576778678880123
-0.005910171013854623 0.004607021116636822 -0.004067009699326944
-0.0056471168239934765 0.0050626443386201985 -0.00350972845885622
-0.005384062634132329 0.005518267560603575 -0.0033194214805317814
-0.005121008506988189 0.00597389067395791 -0.0034222387369803662
-0.004857954317127042 0.006429513895941287 -0.0031018607017406757
