ply
format ascii 1.0
element vertex 721
property float x
property float y
property float z
end_header
-0.0005131556558519173 -0.012442151548811651 -0.0032749956008046857
-0.00016160697269737868 -0.012023192142690466 -0.00330476090312004
0.0001899423090997715 -0.011604232023134797 -0.003301661228761076
0.0005414915908969217 -0.01118527190357913 -0.0032985624857246867
0.0008930405733727662 -0.010766312140740702 -0.003072184044867753
0.0012445898551699172 -0.010347352021185035 -0.0036576043348759404
0.0015961391369670674 -0.009928391901629367 -0.0037212260067462912
0.0019476881194429119 -0.00950943213879094 -0.004219821654260158
0.002299237401240062 -0.009090472019235274 -0.00385521282441914
0.0026507866830372123 -0.008671511899679605 -0.003918834496289491
0.0030023359648343614 -0.008252551780123936 -0.003308677114546298
0.0033538850969708598 -0.007833591838926889 -0.0036453495267778626
0.00370543437876801 -0.007414631719371221 -0.003642250318080186
0.004056983510904507 -0.006995671778174174 -0.0035739794839173547
0.004408532792701657 -0.006576711658618505 -0.002583943307399749
-0.002689862184393336 -0.014185402864792841 -0.0018375071231275788
-0.002338312902596186 -0.013766442745237173 -0.001738432445563375
-0.0019867636207990358 -0.013347482625681504 -0.0027558612637221805
-0.0016352143390018854 -0.012928522506125837 -0.0023698147851973763
-0.0012836650572047353 -0.012509562386570168 -0.003275066148489713
-0.0009321157754075851 -0.0120906022670145 -0.0033106429036706677
-0.0005805670922530465 -0.011671642860893316 -0.0035829723346978417
-0.00022901781045589628 -0.011252682741337647 -0.003483898239210247
0.00012253147134125395 -0.010833722621781979 -0.003519474994391202
0.00047408045381709836 -0.010414762858943553 -0.0034897096920758477
0.0008256297356142486 -0.009995802739387886 -0.00394182652235031
0.0011771790174113987 -0.009576842619832217 -0.0039120614528656
0.0015287279998872432 -0.009157882856993791 -0.003980332519859075
0.0018802772816843933 -0.008738922737438122 -0.0037444704212248317
0.0022318265634815437 -0.008319962617882454 -0.0038462579250335685
0.0025833758452786936 -0.007901002498326787 -0.004027310293167829
0.002934924977415191 -0.0074820425571297386 -0.0036906381137669078
0.0032864742592123414 -0.00706308243757407 -0.0032613177318125955
0.0036380233913488385 -0.006644122496377023 -0.003625927492976188
0.003989572673145989 -0.006225162376821355 -0.0030964524485170833
0.004341121954943139 -0.005806202257265686 -0.0020294657442718736
-0.0031088223039490047 -0.01383385358299569 -0.0012758913217112413
-0.0027572730221518548 -0.013414893463440023 -0.001987708266824483
-0.0024057237403547044 -0.012995933343884354 -0.0026476485654711715
-0.002054174458557554 -0.012576973224328686 -0.0026774141006171695
-0.001702625176760404 -0.012158013104773017 -0.0032885868567973367
-0.0013510758949632537 -0.01173905298521735 -0.0034743393771350375
-0.0009995272118087152 -0.011320093579096165 -0.0034712390042841426
-0.0006479779300115641 -0.010901133459540498 -0.0036569919902831307
-0.00029642864821441384 -0.01048217333998483 -0.0038928540889173737
5.512033426143056e-05 -0.010063213577146403 -0.00395647482946515
0.00040666961605858074 -0.009644253457590735 -0.003986240364611148
0.000758218897855731 -0.009225293338035066 -0.004049861803650855
0.0011097678803315754 -0.00880633357519664 -0.00398159073665738
0.0014613171621287255 -0.008387373455640973 -0.004045212175697087
0.0018128664439258759 -0.007968413336085304 -0.0038641595747321835
0.0021644157257230258 -0.007549453216529636 -0.003893924877047538
0.0025159648578595233 -0.007130493275332588 -0.0036675462033599606
0.0028675141396566728 -0.00671153315577692 -0.003486493602395057
0.00321906327179317 -0.006292573214579872 -0.0033847079612314692
0.00357061255359032 -0.005873613095024204 -0.0027745505794882766
0.0039221618353874705 -0.005454652975468536 -0.0019286620663478962
-0.0038793317053018228 -0.01390126442075421 -0.0019348850473761552
-0.0035277824235046724 -0.01348230430119854 -0.0016484957886859768
-0.0031762331417075225 -0.013063344181642872 -0.0023997428361326447
-0.0028246838599103722 -0.012644384062087205 -0.002764352597296237
-0.002473134578113222 -0.012225423942531536 -0.003082883544266223
-0.0021215852963160716 -0.011806463822975868 -0.0034474933054298154
-0.0017700360145189214 -0.0113875037034202 -0.003450592514127492
-0.001418487331364382 -0.010968544297299015 -0.003722922643646597
-0.0010669380495672317 -0.010549584177743347 -0.0037584989331662646
-0.0007153887677700816 -0.01013062405818768 -0.003860285272821783
-0.0003638397852942372 -0.009711664295349252 -0.003928556572645902
-1.2290503497087028e-05 -0.009292704175793585 -0.004293165169656276
0.0003392587783000632 -0.008873744056237916 -0.003956492990255355
0.0006908077607759075 -0.00845478429339949 -0.00448952754959464
0.0010423570425730578 -0.008035824173843822 -0.004060208331793546
0.001393906324370208 -0.007616864054288154 -0.003874454414471983
0.0017454556061673582 -0.007197903934732485 -0.0038775545544922343
0.0020970047383038555 -0.006778943993535438 -0.003813933115452527
0.002448554020101005 -0.00635998387397977 -0.0035275439731776706
0.002800103152237502 -0.005941023932782723 -0.0032411550637334577
0.0031516524340346524 -0.005522063813227054 -0.002581214299425482
0.0035032017158318027 -0.005103103693671386 -0.002471701242029666
0.0038547509227986262 -0.004684143663295028 -0.001731669646687805
-0.00429829146814025 -0.013549715438278364 -0.0020104642026126376
-0.003946742186343099 -0.013130755318722697 -0.0016919317422434681
-0.0035951929045459495 -0.012711795199167028 -0.002327830530703067
-0.003243643622748799 -0.01229283507961136 -0.0029877712950110427
-0.002892094340951649 -0.011873874960055692 -0.0029195009265094987
-0.0025405450591544977 -0.011454914840500024 -0.0035553993657231322
-0.0021889957773573478 -0.011035954720944357 -0.0036190208047628394
-0.001837447094202809 -0.010616995314823172 -0.0036826422438025466
-0.0014858978124056587 -0.010198035195267503 -0.0038683947641402474
-0.0011343485306085086 -0.009779075075711834 -0.003967469558119773
-0.0007827995481326642 -0.009360115312873408 -0.003931892570108174
-0.000431250266335514 -0.00894115519331774 -0.004117644857615232
-7.97009845383638e-05 -0.008522195073762073 -0.004114546347409486
0.0002718479979374806 -0.008103235310923645 -0.004012758843600749
0.0006233972797346308 -0.007684275191367978 -0.0038317069411277762
0.000974946561531781 -0.007265315071812309 -0.0037299206014722577
0.0013264958433289312 -0.006846354952256641 -0.0036281347274780265
0.0016780449754654285 -0.006427395011059594 -0.003863995196297764
0.002029594257262578 -0.006008434891503925 -0.002846566727384924
0.002381143389399075 -0.005589474950306878 -0.0028434679843485347
0.0027326926711962254 -0.00517051483075121 -0.0022333108354359857
-0.005068800869493068 -0.013617126276036883 -0.0017847453709691756
-0.0047172515876959175 -0.013198166156481214 -0.0019657972734421487
-0.004365702305898767 -0.012779206036925546 -0.0024588585365563627
-0.004014153024101617 -0.012360245917369879 -0.0025271289050579067
-0.003662603742304467 -0.01194128579781421 -0.003174473065882921
-0.0033110544605073166 -0.011522325678258541 -0.0033555256668478246
-0.0029595051787101663 -0.011103365558702873 -0.003536578034982085
-0.0026079558969130156 -0.010684405439147206 -0.0035721550229936834
-0.002256407213758477 -0.01026544603302602 -0.0037532069254666563
-0.0019048579319613265 -0.009846485913470353 -0.0038549932651221748
-0.0015533086501641764 -0.009427525793914685 -0.004348054528236388
-0.001201759667688332 -0.009008566031076259 -0.0038185799494385715
-0.0008502103858911818 -0.00858960591152059 -0.0038868496194481845
-0.0004986611040940315 -0.008170645791964921 -0.004159179981797933
-0.00014711212161818717 -0.007751686029126495 -0.003973427228629588
0.00020443716017896302 -0.0073327259095708275 -0.004009004216641187
0.0005559864419761132 -0.006913765790015159 -0.003979238681495189
0.0009075357237732634 -0.006494805670459491 -0.003982337657362222
0.0012590848559097608 -0.006075845729262444 -0.0035962909460067745
0.00161063413770691 -0.005656885609706775 -0.0027995419222861524
0.0019621832698434073 -0.005237925668509728 -0.002513153245672583
0.0023137325516405577 -0.00481896554895406 -0.0031604974064975973
0.002665281833437708 -0.004400005429398391 -0.0026951720938086505
-0.005136211707251585 -0.012846616874684065 -0.002132361056283116
-0.004784662425454435 -0.012427656755128396 -0.0024690334685146804
-0.004433113143657285 -0.012008696635572727 -0.002400762168690562
-0.004081563861860134 -0.01158973651601706 -0.0031125789973884817
-0.0037300145800629844 -0.011170776396461392 -0.0032983315177261825
-0.0033784652982658337 -0.010751816276905723 -0.003635003929957747
-0.0030269160164686838 -0.010332856157350056 -0.0037340780254453416
-0.002675367333314145 -0.009913896751228871 -0.003919831011444329
-0.0023238180515169947 -0.009494936631673202 -0.003647500881925225
-0.001972268769719845 -0.009075976512117535 -0.003984172828495502
-0.0016207197872440003 -0.008657016749279108 -0.0040139383636415
-0.00126917050544685 -0.00823805662972344 -0.004199690651148557
-0.0009176212236496998 -0.007819096510167772 -0.004229456186294555
-0.0005660722411738554 -0.007400136747329345 -0.0037773393560200925
-0.0002145229593767052 -0.006981176627773677 -0.003963091876357793
0.000137026322420445 -0.006562216508218009 -0.003861306002363562
0.0004885756042175952 -0.006143256388662341 -0.0036802534013986583
0.0008401247363540921 -0.005724296447465293 -0.0031871933024376626
0.0011916740181512422 -0.005305336327909626 -0.002868660725653171
0.0015432231502877395 -0.004886376386712578 -0.0019346467452123757
0.0018947724320848899 -0.0044674162671569095 -0.001287302235141396
-0.005906720930245783 -0.012914027862103236 -0.0021873316727578636
-0.005555171648448633 -0.012495067742547567 -0.002157567301765084
-0.005203622366651482 -0.012076107622991899 -0.0024298962671309705
-0.004852073084854332 -0.011657147503436232 -0.0028820130974054332
-0.004500523803057182 -0.011238187383880563 -0.0032005456741899248
-0.004148974521260032 -0.010819227264324894 -0.0034728758037090297
-0.0037974252394628815 -0.010400267144769226 -0.003574661677703261
-0.0034458759576657316 -0.009981307025213559 -0.003676448948681354
-0.003094327274511193 -0.009562347619092373 -0.0037782348226755853
-0.0027427779927140425 -0.009143387499536705 -0.0038465051911771293
-0.0023912287109168926 -0.008724427379981038 -0.003914776258170604
-0.002039679728441048 -0.00830546761714261 -0.004016562364995479
-0.0016881304466438978 -0.007886507497586943 -0.0039529409259557715
-0.0013365811648467477 -0.007467547378031274 -0.0034543452784419055
-0.0009850321823709032 -0.0070485876151928474 -0.004064502660185098
-0.000633482900573753 -0.00662962749563718 -0.0040347371250391
-0.0002819336187766028 -0.006210667376081512 -0.00397111615166068
6.961566302054739e-05 -0.005791707256525843 -0.003907494712620973
0.0004211647951570447 -0.005372747315328796 -0.003877729410305619
0.0007727140769541949 -0.004953787195773128 -0.002746162004768848
0.0011242632090906922 -0.004534827254576081 -0.0016145937843248244
0.0014758124908878425 -0.004115867135020412 -0.0016828640364110465
-0.0059741317680043005 -0.012143518460750416 -0.002148148603737354
-0.00562258248620715 -0.011724558341194749 -0.002534195082262158
-0.00527103320441 -0.01130559822163908 -0.002870867028832435
-0.0049194839226128495 -0.010886638102083412 -0.0029344884678721424
-0.0045679346408157 -0.010467677982527745 -0.00332053517922759
-0.00421638535901855 -0.010048717862972076 -0.0036572075914591546
-0.0038648360772213994 -0.009629757743416408 -0.003476154990494251
-0.0035132873940668607 -0.009210798337295222 -0.0036619075108319517
-0.0031617381122697103 -0.008791838217739555 -0.00384766049683094
-0.0028101888304725604 -0.008372878098183887 -0.0040334127843379974
-0.0024586398479967157 -0.00795391833534546 -0.004097034223377705
-0.002107090566199566 -0.007534958215789792 -0.0039159818552434444
-0.0017555412844024155 -0.007115998096234124 -0.004101734142750502
-0.001403992301926571 -0.006697038333395697 -0.004033464007079601
-0.0010524430201294208 -0.006278078213840029 -0.004219217225909233
-0.0007008937383322706 -0.0058591180942843615 -0.003609059145674109
-0.0003493444565351204 -0.005440157974728693 -0.0033367306459695096
2.204675601376913e-06 -0.0050211980335316455 -0.0030644005164504047
0.0003537539573985271 -0.004602237913975978 -0.0022492455318570133
0.0007053030895350245 -0.00418327797277893 -0.0029892770107835527
-0.006393091709201348 -0.011791969328613918 -0.002176323207095265
-0.0060415424274041975 -0.011373009209058252 -0.0026693833060562606
-0.005689993145607047 -0.010954049089502583 -0.0029417134355753656
-0.005338443863809897 -0.010535088969946914 -0.0032602443825453515
-0.004986894582012747 -0.010116128850391247 -0.0033620316535234447
-0.004635345300215597 -0.009697168730835579 -0.0034303015563637014
-0.004283796018418447 -0.00927820861127991 -0.0036566802300512786
-0.003932247335263908 -0.008859249205158726 -0.0037249505985528226
-0.0035806980534667577 -0.008440289085603058 -0.003951328806579113
-0.003229148771669608 -0.008021328966047389 -0.003921563737094402
-0.002877599789193763 -0.007602369203208963 -0.003989834804087877
-0.002526050507396613 -0.007183409083653295 -0.00399293377995491
-0.002174501225599463 -0.0067644489640976265 -0.00409472081810236
-0.0018229522431236183 -0.0063454892012592004 -0.003908967133611441
-0.0014714029613264682 -0.005926529081703532 -0.00401075417175889
-0.0011198536795293179 -0.005507568962147864 -0.0038250004872679706
-0.0007683043977321678 -0.005088608842592196 -0.003589139552786946
-0.00041675526559567045 -0.004669648901395149 -0.003159820334985852
-6.520598379852027e-05 -0.00425068878183948 -0.0021561454050242897
-0.0068120518287570165 -0.011440420046816769 -0.001396547071635723
-0.006460502546959866 -0.0110214599272611 -0.002528114710003137
-0.006108953265162716 -0.010602499807705433 -0.0029141611885279413
-0.0057574039833655655 -0.010183539688149765 -0.0031500230543315406
-0.005405854701568415 -0.009764579568594096 -0.0033357755746692415
-0.005054305419771265 -0.00934561944903843 -0.0035215280950069423
-0.0047027561379741145 -0.00892665932948276 -0.0037072803825139995
-0.004351207454819576 -0.008507699923361575 -0.003806355176493525
-0.003999658173022426 -0.008088739803805908 -0.003905429737642407
-0.003648108891225276 -0.00766977968425024 -0.0039351945742964745
-0.0032965599087494313 -0.007250819921411813 -0.004171055741608143
-0.0029450106269522814 -0.006831859801856145 -0.004135478753596544
-0.002593461345155131 -0.006412899682300476 -0.004033693112432957
-0.0022419123626792868 -0.00599393991946205 -0.003998116124421358
-0.0018903630808821364 -0.005574979799906382 -0.003725787159055471
-0.001538813799084986 -0.005156019680350714 -0.003453457029536366
-0.001187264517287836 -0.004737059560795046 -0.0025482056662440296
-0.0008357153851513387 -0.0043180996195979985 -0.002229673787951469
-0.007582561140930524 -0.011507830959405614 -0.0016289426712319253
-0.007231011859133374 -0.011088870839849945 -0.0018099949229508636
-0.006879462577336223 -0.010669910720294277 -0.0025279351975768805
-0.006527913295539073 -0.01025095060073861 -0.003060969989746809
-0.006176364013741923 -0.009831990481182941 -0.003242022590711713
-0.005824814731944773 -0.009413030361627273 -0.0033438093960285187
-0.005473265450147623 -0.008994070242071604 -0.0035248619969934225
-0.005121716168350473 -0.008575110122515937 -0.0038894705940037966
-0.004770167485195933 -0.008156150716394752 -0.0037903960328549147
-0.004418618203398784 -0.007737190596839084 -0.003726775059476495
-0.004067068921601634 -0.007318230477283415 -0.003953153267502785
-0.003715519939125789 -0.006899270714444989 -0.003988728858530521
-0.003363970657328639 -0.0064803105948893205 -0.004090516362339258
-0.0030124213755314887 -0.006061350475333653 -0.0039047631435096264
-0.0026608723930556443 -0.005642390712495226 -0.00394033920019865
-0.002309323111258494 -0.005223430592939558 -0.0038767175283282995
-0.0019577738294613437 -0.00480447047338389 -0.0036909650079905987
-0.0016062245476641936 -0.0043855103538282215 -0.0033049185294657946
-0.0012546754155276965 -0.003966550412631174 -0.002392434049397707
-0.0009031261337305462 -0.0035475902930755063 -0.0011951363412663338
-0.007649971978689042 -0.010737321558052794 -0.0017176016699522732
-0.007298422696891892 -0.010318361438497127 -0.0023287739604711533
-0.006946873415094742 -0.009899401318941459 -0.002827370073646307
-0.006595324133297591 -0.00948044119938579 -0.0031640424858778715
-0.006243774851500441 -0.009061481079830123 -0.0033497950062155724
-0.005892225569703291 -0.008642520960274454 -0.0032815246377140284
-0.00554067628790614 -0.008223560840718786 -0.0037108443211764097
-0.005189127604751602 -0.007804601434597601 -0.003896598005667329
-0.004837578322954452 -0.007385641315041934 -0.003670219797641039
-0.004486029041157301 -0.006966681195486265 -0.004168815445154905
-0.0041344800586814575 -0.006547721432647839 -0.004198580980300903
-0.0037829307768843068 -0.006128761313092171 -0.0037055197171866894
-0.003431381495087157 -0.005709801193536502 -0.003891273168846965
-0.003079832512611312 -0.005290841430698076 -0.00361894303932786
-0.0027282832308141622 -0.004871881311142408 -0.003615843364968896
-0.002376733949017012 -0.00445292119158674 -0.0033894646912813187
-0.002025184667219862 -0.004033961072031072 -0.0025435767602175474
-0.0016736355350833647 -0.0036150011308340242 -0.0015261480584740637
-0.008420481246272895 -0.010804732508056802 -0.001699309446848929
-0.008068931964475744 -0.010385772388501134 -0.001513556926511228
-0.007717382682678594 -0.009966812268945467 -0.002611492294818163
-0.007365833400881444 -0.009547852149389798 -0.003144527319818735
-0.007014284119084294 -0.00912889202983413 -0.0031476274598389864
-0.006662734837287143 -0.008709931910278463 -0.0033286800608038902
-0.006311185555489993 -0.008290971790722794 -0.003509731963276863
-0.0059596362736928435 -0.007872011671167125 -0.0035128311719745398
-0.005608087590538304 -0.007453052265045941 -0.004230771213769913
-0.005256538308741154 -0.007034092145490273 -0.0037321748677641153
-0.004904989026944004 -0.006615132025934604 -0.0037352750077843666
-0.00455344004446816 -0.006196172263096178 -0.004053806886076927
-0.0042018907626710095 -0.0057772121435405105 -0.00386805459856987
-0.003850341480873859 -0.005358252023984842 -0.004232663195580244
-0.003498792498398015 -0.004939292261146416 -0.00384661671705544
-0.0031472432166008645 -0.004520332141590747 -0.0038168514147400856
-0.0027956939348037146 -0.004101372022035079 -0.0032873768359422684
-0.0024441446530065643 -0.003682411902479411 -0.002433252288028598
-0.002092595520870067 -0.0032634519612823637 -0.0015500918962061405
-0.0017410462390729168 -0.0028444918417266955 -0.001486470689997077
-0.008487892011573224 -0.010034223167503624 -0.0018283920362591743
-0.008136342729776072 -0.009615263047947957 -0.002326988149434328
-0.007784793447978922 -0.009196302928392288 -0.00312373717315495
-0.007433244166181772 -0.00877734280883662 -0.003120638430118561
-0.007081694884384622 -0.008358382689280953 -0.003150403266772628
-0.006730145602587472 -0.007939422569725284 -0.0032494780607521534
-0.006378596320790322 -0.007520462450169616 -0.003678797045722604
-0.0060270476376357825 -0.007101503044048431 -0.003965186420828104
-0.005675498355838633 -0.006682542924492763 -0.003929609432816505
-0.005323949074041483 -0.006263582804937095 -0.003894032910466194
-0.004972400091565638 -0.0058446230420986685 -0.0037129807751625776
-0.004620850809768488 -0.005425662922543 -0.00394884217530489
-0.004269301527971337 -0.005006702802987332 -0.0036765120457857847
-0.0039177525454954934 -0.004587743040148906 -0.003640935756266117
-0.003566203263698343 -0.004168782920593237 -0.003188818460330367
-0.0032146539819011928 -0.003749822801037569 -0.002437571994960308
-0.002863104700104043 -0.0033308626814819013 -0.0015035583637654781
-0.0025115555679675453 -0.002911902740284854 -0.0011389486026018858
-0.009258401351615266 -0.010101634056707992 -0.0019926284439861774
-0.008906852069818115 -0.009682673937152324 -0.002094414085149765
-0.008555302788020965 -0.009263713817596655 -0.0027045714668929577
-0.008203753506223814 -0.008844753698040988 -0.0030231040436774492
-0.007852204224426665 -0.00842579357848532 -0.0030913737136870623
-0.007500654942629514 -0.008006833458929651 -0.003193160053342581
-0.007149105660832364 -0.007587873339373983 -0.0033742126543074846
-0.0067975563790352135 -0.007168913219818315 -0.0036465427838265896
-0.006446007695880675 -0.00674995381369713 -0.0038729209918528795
-0.006094458414083525 -0.006330993694141462 -0.0038431554567068815
-0.005742909132286375 -0.0059120335745857944 -0.0038133906200528145
-0.00539136014981053 -0.0054930738117473675 -0.003848967608064413
-0.00503981086801338 -0.0050741136921917 -0.003819202072918415
-0.00468826158621623 -0.004655153572636031 -0.0037894367706030607
-0.004336712603740385 -0.004236193809797605 -0.0046045915223658085
-0.003985163321943235 -0.0038172336902419367 -0.0034730234183371067
-0.003633614040146085 -0.0033982735706862685 -0.0025004898197948933
-0.003282064758348935 -0.0029793134511306003 -0.001588005106896162
-0.0029305156262124377 -0.002560353509933553 -0.001906537334434688
-0.009325812100194474 -0.0093311247301855 -0.002118079224601388
-0.008974262818397322 -0.008912164610629832 -0.0024547516368329525
-0.008622713536600173 -0.008493204491074165 -0.0031947833485901356
-0.008271164254803022 -0.008074244371518496 -0.002661748556420207
-0.007919614973005872 -0.007655284251962827 -0.003127073170617223
-0.007568065691208722 -0.00723632413240716 -0.002900694962590933
-0.0072165164094115716 -0.006817364012851492 -0.0035118674859404564
-0.006864967726257032 -0.0063984046067303065 -0.0037477281875908375
-0.006513418444459883 -0.005979444487174639 -0.003712152596563101
-0.006161869162662733 -0.00556048436761897 -0.003643881296738982
-0.005810320180186888 -0.005141524604780544 -0.0035756113938987255
-0.0054587708983897375 -0.004722564485224875 -0.003605375299230218
-0.005107221616592587 -0.0043036043656692075 -0.003240766702219844
-0.004755672634116743 -0.003884644602830781 -0.0031389808282256126
-0.004404123352319593 -0.0034656844832751128 -0.00252882344648242
-0.004052574070522443 -0.0030467243637194445 -0.0015948087675496938
-0.003701024788725293 -0.0026277642441637768 -0.0011426917044445874
-0.01009632141236798 -0.009398535642774344 -0.0020065712742507458
-0.00974477213057083 -0.008979575523218677 -0.0023251031525433064
-0.00939322284877368 -0.008560615403663008 -0.0026897117495536804
-0.00904167356697653 -0.00814165528410734 -0.003008244326338172
-0.008690124285179379 -0.007722695164551672 -0.003043821081519127
-0.00833857500338223 -0.007303735044996004 -0.00311209075152874
-0.00798702572158508 -0.006884774925440336 -0.003384420881047845
-0.007635476439787929 -0.0064658148058846674 -0.0034862083848565817
-0.00728392775663339 -0.006046855399763483 -0.0033004549331963062
-0.00693237847483624 -0.005627895280207814 -0.003665064461529255
-0.00658082919303909 -0.005208935160652147 -0.0036352991592139006
-0.006229280210563246 -0.00478997539781372 -0.003298626746982336
-0.0058777309287660956 -0.004371015278258052 -0.00366323534399271
-0.005526181646968945 -0.003952055158702384 -0.003376846667379141
-0.0051746326644931005 -0.003533095395863957 -0.0027914256788790226
-0.00482308338269595 -0.0031141352763082893 -0.0036966768093407154
-0.004471534100898801 -0.002695175156752621 -0.005106192082166672
-0.00411998481910165 -0.002276215037196953 -0.001182544161565602
-0.010163732071767878 -0.00862802639108218 -0.002195119392126799
-0.009812182789970727 -0.00820906627152651 -0.0025811663363128905
-0.009460633508173577 -0.007790106151970843 -0.0029178382828831677
-0.009109084226376426 -0.007371146032415175 -0.0031035922002047305
-0.008757534944579277 -0.006952185912859506 -0.0029225398320704703
-0.008405985662782127 -0.0065332257933038386 -0.003387864446267486
-0.008054436380984976 -0.006114265673748171 -0.003486939007416368
-0.007702887697830438 -0.0056953062676269855 -0.0034186677075922494
-0.0073513384160332875 -0.005276346148071318 -0.0034484332427382474
-0.006999789134236137 -0.004857386028515649 -0.0035120546817779545
-0.006648240151760293 -0.004438426265677223 -0.0031474460847675805
-0.006296690869963143 -0.004019466146121554 -0.0031772097572684292
-0.005945141588165993 -0.0036005060265658865 -0.003108940087258816
-0.005593592605690148 -0.00318154626372746 -0.0027443312574177985
-0.0052420433238929975 -0.0027625861441717917 -0.0036864674184471373
-0.004890494042095848 -0.0023436260246161235 -0.001125213457271457
-0.010934241473120696 -0.008695437228840697 -0.0020593558438122277
-0.010582692191323545 -0.008276477109285028 -0.0022404072806239132
-0.010231142909526396 -0.007857516989729361 -0.002692525275051594
-0.009879593627729246 -0.0074385568701736925 -0.0028735767118632798
-0.009528044345932095 -0.007019596750618025 -0.003325694473460317
-0.009176495064134945 -0.006600636631062357 -0.003089833073318005
-0.008824945782337794 -0.006181676511506688 -0.003270884975790978
-0.008473396500540645 -0.0057627163919510204 -0.0033726713154464964
-0.008121847817386106 -0.005343756985829835 -0.0033429071772843604
-0.007770298535588956 -0.004924796866274167 -0.0031571534927934413
-0.007418749253791806 -0.004505836746718499 -0.0034756856039166455
-0.007067200271315961 -0.004086876983880073 -0.003376611508429051
-0.006715650989518811 -0.0036679168643244044 -0.0030902221333235507
-0.00636410170772166 -0.003248956744768736 -0.003060458460822702
-0.0060125527252458165 -0.0028299969819303096 -0.0026311376132071023
-0.005661003443448666 -0.002411036862374642 -0.0018058035057038073
-0.005309454161651517 -0.001992076742818973 -0.0017421820666641001
-0.011001652132520592 -0.007924927977148532 -0.0021667480468750004
-0.010650102850723443 -0.007505967857592864 -0.0025034199934452776
-0.010298553568926293 -0.007087007738037196 -0.002840092405676842
-0.009947004287129142 -0.006668047618481527 -0.0025677634403109555
-0.009595455005331993 -0.006249087498925859 -0.002854152582585812
-0.009243905723534842 -0.005830127379370191 -0.0029177740216255192
-0.008892356441737692 -0.005411167259814523 -0.0033038205001503233
-0.008540807758583154 -0.004992207853693338 -0.0033674414735287432
-0.008189258476786003 -0.00457324773413767 -0.003299170639365912
-0.007837709194988853 -0.004154287614582002 -0.003585559548810125
-0.0074861602125130084 -0.003735327851743575 -0.003133442718535662
-0.007134610930715858 -0.0033163677321879073 -0.0031632080208510165
-0.006783061648918708 -0.002897407612632239 -0.0027110907249152665
-0.006431512666442864 -0.0024784478497938125 -0.001959844026714564
-0.01177216153387341 -0.00799233881490705 -0.0019048583926633005
-0.011420612252076261 -0.007573378695351381 -0.002223390387371183
-0.011069062970279112 -0.007154418575795713 -0.002587998984381557
-0.01071751368848196 -0.0067354584562400455 -0.00268978625535965
-0.010365964406684811 -0.006316498336684377 -0.002870838856324554
-0.01001441512488766 -0.005897538217128709 -0.0030518914572894578
-0.00966286584309051 -0.00547857809757304 -0.003153677331283689
-0.009311316561293359 -0.005059617978017373 -0.003334729699417949
-0.00895976787813882 -0.004640658571896187 -0.003515782300382853
-0.008608218596341671 -0.0042216984523405195 -0.003788112429901958
-0.00825666931454452 -0.0038027383327848513 -0.0035017232876271014
-0.007905120332068676 -0.0033837785699464247 -0.003438101848587394
-0.007553571050271526 -0.002964818450390757 -0.0031517120078206067
-0.007202021768474376 -0.0025458583308350887 -0.002765666460618377
-0.006850472785998532 -0.002126898567996662 -0.0022361914161592726
-0.006498923504201381 -0.001707938448440994 -0.0014394415775313978
-0.011488022911476159 -0.006802869443659216 -0.0027931958902627234
-0.011136473629679008 -0.006383909324103548 -0.002691409550607205
-0.010784924347881858 -0.005964949204547879 -0.0028771620709449057
-0.010433375066084709 -0.0055459890849922115 -0.002940783509984613
-0.010081825784287558 -0.005127028965436543 -0.003039858071133495
-0.009730276502490408 -0.004708068845880875 -0.003326246747747064
-0.009378727819335868 -0.004289109439759691 -0.003562107682228089
-0.009027178537538719 -0.0038701493202040224 -0.003591873217374087
-0.008675629255741567 -0.003451189200648354 -0.003556296462193132
-0.008324080273265724 -0.003032229437809927 -0.0029842359945178036
-0.007972530991468574 -0.0026132693182542594 -0.0028031836263835434
-0.007620981709671424 -0.002194309198698591 -0.0024385747965425257
-0.007269432727195579 -0.0017753494358601647 -0.0016873277490958578
-0.012258532312828977 -0.006870280281417733 -0.0022231270559132103
-0.011906983031031828 -0.006451320161862065 -0.0025416593998670582
-0.011555433749234676 -0.006032360042306398 -0.0027227115351706748
-0.011203884467437527 -0.005613399922750729 -0.0027582871261984114
-0.010852335185640376 -0.005194439803195061 -0.00279386411421001
-0.010500785903843226 -0.0047754796836393925 -0.0031584736425429587
-0.010149236622046075 -0.004356519564083725 -0.0032602599821984772
-0.009797687938891537 -0.00393756015796254 -0.0035787920933216815
-0.009446138657094386 -0.0035186000384068725 -0.0035490265581756835
-0.009094589375297236 -0.0030996399188512034 -0.0033632742706686263
-0.008743040392821392 -0.002680680156012777 -0.0029772275593131785
-0.008391491111024243 -0.002261720036457109 -0.002947462256997824
-0.008039941829227092 -0.0018427599169014409 -0.0023891602177172904
-0.007688392846751248 -0.0014238001540630143 -0.00210277084261179
-0.007336843564954097 -0.001004840034507346 -0.0013344418257474906
-0.012325943150587495 -0.006099770880064915 -0.002183978911489249
-0.011974393868790345 -0.005680810760509247 -0.002713452326133848
-0.011622844586993194 -0.0052618506409535795 -0.002348843729123474
-0.011271295305196044 -0.004842890521397911 -0.0024124651681631812
-0.010919746023398893 -0.004423930401842243 -0.002648326102644206
-0.010568196741601744 -0.004004970282286575 -0.003177800681442023
-0.010216648058447205 -0.00358601087616539 -0.0032075655180960902
-0.009865098776650054 -0.0031670507566097217 -0.0029352353885769853
-0.009513549494852905 -0.0027480906370540535 -0.0028669657185673722
-0.009162000512377061 -0.002329130874215627 -0.0026859131176024684
-0.00881045123057991 -0.001910170754659959 -0.002784987911581994
-0.00845890194878276 -0.001491210635104291 -0.0021748298313468703
-0.008107352966306915 -0.0010722508722658644 -0.0024612192064523706
-0.012744903270143163 -0.005748221598267765 -0.002023097826167942
-0.012393353988346014 -0.005329261478712097 -0.0024752146564424047
-0.012041804706548863 -0.004910301359156429 -0.0024454507511109122
-0.011690255424751713 -0.0044913412396007605 -0.0023818283807486304
-0.011338706142954562 -0.004072381120045093 -0.0024174051359295854
-0.010987156861157412 -0.0036534210004894245 -0.0025984570384025582
-0.010635608178002874 -0.0032344615943682396 -0.002601557411253453
-0.010284058896205723 -0.0028155014748125714 -0.0026046561542898425
-0.009932509614408573 -0.002396541355256903 -0.0026402329094707975
-0.00958096063193273 -0.0019775815924184766 -0.0026758096646517524
-0.009229411350135578 -0.0015586214728628086 -0.002612188225612045
-0.008877862068338429 -0.0011396613533071406 -0.002647764980793
-0.008526313085862583 -0.000720701590468714 -0.0019359480356797582
-0.008174763804065434 -0.0003017414709130459 -0.0013776458799839026
-0.01281231375118444 -0.004977712496236252 -0.0018737202044576415
-0.012460764469387289 -0.004558752376680584 -0.0023723163176327952
-0.01210921518759014 -0.004139792257124916 -0.0018002555007115015
-0.011757665905792988 -0.003720832137569248 -0.0017971558263525375
-0.011406116623995839 -0.0033018720180135797 -0.001695369486697019
-0.0110545679408413 -0.002882912611892395 -0.002730533480644227
-0.010703018659044149 -0.0024639524923367267 -0.0019792853854596624
-0.010351469377247 -0.0020449923727810584 -0.0022151472512632617
-0.009999920394771156 -0.0016260326099426321 -0.0023142220452427873
-0.009648371112974004 -0.001207072490386964 -0.0023778434842824945
-0.009296821831176855 -0.0007881123708312959 -0.0022760559804737577
-0.00894527284870101 -0.0003691526079928693 -0.0016658997628837833
-0.00859372356690386 4.9807511562798794e-05 -0.001564112608321012
-0.00824217428510671 0.0004687676311184669 -0.0012455814285203823
-0.012879724588942957 -0.004207203094883435 -0.001956532010808588
-0.012528175307145806 -0.0037882429753277667 -0.001720671192742885
-0.012176626025348657 -0.0033692828557720985 -0.0016909057740122089
-0.011825076743551505 -0.0029503227362164303 -0.0016940045170485982
-0.011473528060396967 -0.0025313633300952454 -0.0014581438153982171
-0.011121978778599818 -0.002112403210539577 -0.0019102608785033235
-0.010770429496802666 -0.0016934430909839092 -0.0020913134794682273
-0.010418880514326823 -0.0012744833281454827 -0.0023176914546638736
-0.010067331232529673 -0.0008555232085898145 -0.002320790197700263
-0.009715781950732522 -0.00043656308903414643 -0.002356366952881218
-0.009364232968256678 -1.7603326195719833e-05 -0.002120506018400193
-0.009012683686459527 0.0004013567933599483 -0.002090741181746126
-0.008661134404662377 0.0008203169129156163 -0.002126317936927081
-0.008309585122865228 0.0012392770324712843 -0.0021294166799634704
-0.00795803599072873 0.0016582369736683317 -0.002065795240923763
-0.00760648670893158 0.002077197093224 -0.0014803747180849322
-0.0072549375767950825 0.0024961570344210473 -0.0015821618726477036
-0.005848740599267135 0.004171997334285099 -0.001348716323263944
-0.005497191406330997 0.004590957347940336 -0.0013518150663003334
-0.005145642185333487 0.005009917395037814 -0.0014200861332938084
-0.0047940929783666635 0.005428877425414172 -0.0016011386178433904
-0.004442543771399839 0.005847837455790529 -0.0013147497083991775
-0.00409099448960269 0.006266797575346198 -0.0011289959074929365
-0.0033878962253296946 0.007104717457740293 -0.0011242957552894959
-0.0030363469435325447 0.0075236775772959605 -0.0010945305693894633
-0.001981699247801747 0.008780557757604343 -0.0017437180504202851
-0.0016301502653259024 0.009199517520442771 -0.0020622501615434894
-0.0012786009835287521 0.009618477639998438 -0.002164036501199008
-0.000927051701731602 0.010037437759554107 -0.0017347167013213047
-0.0002239534374586074 0.010875357641948202 -0.0018070240039378413
-0.012595586144904325 -0.003017733573974948 -0.0011621322482824334
-0.012244036863107174 -0.00259877345441928 -0.001093862229026855
-0.011892488179952636 -0.002179814048298095 -0.001157483668066562
-0.011540938898155486 -0.0017608539287424269 -0.001343236188404263
-0.011189389616358335 -0.0013418938091867589 -0.0017725565703585753
-0.010837840633882491 -0.0009229340463483322 -0.0016707695322111258
-0.010486291352085342 -0.0005039739267926642 -0.002136094495654107
-0.01013474207028819 -8.501380723699607e-05 -0.002747266786172987
-0.009783193087812347 0.0003339459556014305 -0.0024287349078804263
-0.009431643806015196 0.0007529060751570986 -0.002527809003368021
-0.009080094524218046 0.0011718661947127667 -0.002713561989367009
-0.008728545242420897 0.0015908263142684347 -0.0027104627806693324
-0.008376996110284399 0.002009786255465482 -0.0026086759753525266
-0.008025446828487248 0.0024287463750211503 -0.0025404056068509826
-0.007673897696350751 0.0028477063162181977 -0.002877078019082547
-0.007322348414553601 0.0032666664357738654 -0.0018870423082262286
-0.0069707991327564505 0.0036856265553295337 -0.0023163624573498973
-0.006619249925789627 0.004104586585705891 -0.0020440323278307923
-0.0062677007188228035 0.004523546616082249 -0.002509357640519739
-0.0059161515258866655 0.004942506629737486 -0.002506257267668844
-0.005564602304889156 0.0053614666768349644 -0.0026053320616483697
-0.005213053097922332 0.0057804267072113225 -0.002635097363963724
-0.004861503890955508 0.00619938673758768 -0.002599520608782769
-0.004509954609158358 0.006618346857143348 -0.0024977342691272506
-0.004158405477021861 0.007037306798340396 -0.0022713560611009606
-0.0038068563448853633 0.007456266739537443 -0.0025577449705451736
-0.0034553070630882134 0.00787522685909311 -0.0027434988878667363
-0.003103757930951716 0.008294186800290157 -0.0021333410404622563
-0.0027522086491545655 0.008713146919845826 -0.0027187620289623746
-0.0024006593673574156 0.009132107039401495 -0.002817836124449969
-0.002049110384881571 0.00955106680223992 -0.0027495648246258506
-0.0016975611030844208 0.00997002692179559 -0.002477235160768033
-0.0013460118212872707 0.010388987041351256 -0.0022049061954021463
-0.0009944625394901205 0.010807947160906925 -0.0019325760658830413
-0.000642913557014276 0.011226906923745351 -0.0018969991942867645
-0.00029136427521712585 0.01164586704330102 -0.0016706208698451528
6.018560522263593e-05 0.012064827876291172 -0.0013520896900445232
-0.012311448299508304 -0.0018282647665009448 -0.0012723332038149248
-0.011959899017711153 -0.0014093046469452765 -0.0013079099589958798
-0.011608349735914004 -0.0009903445273896085 -0.0016725185560062538
-0.01125680075343816 -0.0005713847645511819 -0.0018535711569711577
-0.010905251471641009 -0.00015242464499551383 -0.0020799492485821256
-0.01055370218984386 0.00026653547456015423 -0.002306326990947128
-0.010202153207368014 0.0006854952373985809 -0.002624858869239689
-0.009850603925570864 0.001104455356954249 -0.002989467466250063
-0.009499054643773715 0.001523415476509917 -0.0031705200672149667
-0.009147505361976564 0.001942375596065585 -0.003396898740902544
-0.008795956229840066 0.0023613355372626324 -0.003498684614896775
-0.008444406948042917 0.0027802956568183006 -0.0034689202439039954
-0.008092857815906419 0.003199255598015348 -0.0034052992705255756
-0.007741308534109269 0.0036182157175710158 -0.003408398013561965
-0.007389759252312118 0.004037175837126684 -0.0034766693133860835
-0.007038210045345295 0.004456135867503042 -0.0035449389833956966
-0.006686660838378471 0.0048750958978794 -0.0034813180100172767
-0.006335111645442333 0.005294055911534637 -0.00319492886774242
-0.0059835624244448235 0.005713015958632115 -0.0032631990034133205
-0.005632013217478 0.006131975989008473 -0.003298775991424919
-0.005280464010511176 0.00655093601938483 -0.003269010456278921
-0.004928914728714026 0.006969896138940499 -0.003205389017239214
-0.004577365596577529 0.007388856080137546 -0.003240965772420169
-0.004225816464441031 0.007807816021334593 -0.0031773443333804616
-0.003874267182643881 0.008226776140890261 -0.0031475790310651073
-0.0035227180505073836 0.008645736082087309 -0.0033739577047526845
-0.0031711687687102333 0.009064696201642977 -0.0030875683296471843
-0.0028196194869130834 0.009483656321198644 -0.0030578034929931172
-0.0024680705044372387 0.009902616084037072 -0.002872050506994129
-0.0021165212226400888 0.010321576203592739 -0.002486004028469325
-0.0017649719408429384 0.010740536323148408 -0.002300251508131624
-0.0014134226590457883 0.011159496442704076 -0.0019142050296068202
-0.0010618736765699438 0.011578456205542502 -0.0017284525092691194
-0.0007103243947727937 0.011997416325098171 -0.00149259064346552
-0.00035877451433303186 0.012416377158088321 -0.0013068378902971755
-0.012378859137266822 -0.0010577553651481262 -0.0011548431357368838
-0.01202730985546967 -0.0006387952455924582 -0.0014412321615964185
-0.011675760872993827 -0.00021983548275403159 -0.0016770928632467996
-0.011324211591196677 0.0001991246368016365 -0.0019129548454657208
-0.010972662309399526 0.0006180847563573046 -0.0020987072493880996
-0.010621113326923682 0.001037044519195731 -0.002758648246526719
-0.010269564045126531 0.0014560046387513993 -0.002822269685566426
-0.009918014763329382 0.0018749647583070673 -0.0035340860486030587
-0.009566465481532232 0.0022939248778627353 -0.0031694762874394664
-0.009214916349395735 0.0027128848190597827 -0.004052637610584498
-0.008863367067598583 0.003131844938615451 -0.004339026752859355
-0.008511817935462086 0.0035508048798124983 -0.003886910155415536
-0.008160268653664936 0.003969764999368166 -0.0039166752249002465
-0.007808719371867786 0.004388725118923835 -0.0038484041579067716
-0.007457170164900963 0.004807685149300192 -0.003845304949209095
-0.007105620957934139 0.00522664517967655 -0.0038750693202018746
-0.006754071764998001 0.005645605193331787 -0.0029991709161549815
-0.006402522544000491 0.006064565240429265 -0.0036350695881992587
-0.006050973337033668 0.006483525270805623 -0.003631970379501582
-0.005699424130066843 0.00690248530118198 -0.0035636995453387508
-0.005347874848269694 0.007321445420737649 -0.0034619132056832322
-0.004996325716133196 0.007740405361934696 -0.0034588135313242683
-0.004644776583996699 0.008159365303131744 -0.0035224349703639754
-0.0042932273021995485 0.00857832542268741 -0.003420648630708457
-0.003941678170063052 0.008997285363884458 -0.003385071875527502
-0.003590128888265901 0.009416245483440127 -0.003066540928557516
-0.003238579606468751 0.009835205602995795 -0.002964753657579423
-0.0028870306239929065 0.010254165365834221 -0.002738376613706351
-0.0025354813421957566 0.01067312548538989 -0.0024198440369218597
-0.0021839320603986062 0.011092085604945557 -0.0021475139074027547
-0.0018323827786014561 0.011511045724501226 -0.001921135699376465
-0.0014808337961256116 0.011930005487339652 -0.0015565268695354473
-0.01279781925682249 -0.0007062060833509759 -0.0011116346577182423
-0.01244626997502534 -0.0002872459637953078 -0.0012926872586831461
-0.012094720992549495 0.00013171379904311874 -0.0013944732490926992
-0.011743171710752346 0.0005506739185987868 -0.0018465903121978055
-0.011391622428955195 0.0009696340381544549 -0.0020276424475014223
-0.011040073446479351 0.0013885938009928814 -0.002932893577963115
-0.0106885241646822 0.0018075539205485497 -0.003543051425367595
-0.01033697488288505 0.002226514040104218 -0.0038615833036601556
-0.0099854256010879 0.0026454741596598857 -0.004087962210178376
-0.009633876468951403 0.003064434100856933 -0.004314339254051448
-0.009282327187154252 0.0034833942204126013 -0.004215265158563853
-0.008930778055017755 0.0039023541616096486 -0.0042183646000921735
-0.008579228773220605 0.0043213142811653164 -0.004119290038943292
-0.008227679491423456 0.004740274400720985 -0.004089525435119868
-0.00787613028445663 0.005159234431097342 -0.004059760831296445
-0.007524581077489808 0.0055781944614737 -0.003996139392256738
-0.00717303188455367 0.005997154475128937 -0.003659466048702599
-0.00682148266355616 0.006416114522226415 -0.003761253319680692
-0.006469933456589336 0.0068350745526027734 -0.00366217875853181
-0.006118384249622512 0.007254034582979131 -0.0035985577851533903
-0.005766834967825363 0.007672994702534799 -0.003412804799154402
-0.005415285835688865 0.008091954643731846 -0.0043750577606260785
-0.0050637367035523675 0.008510914584928893 -0.003308071987703444
-0.004712187421755217 0.008929874704484562 -0.0032444505486637367
-0.0043606382896187205 0.00934883464568161 -0.0030586970970034612
-0.00400908900782157 0.009767794765237278 -0.0028729445766657604
-0.00365753972602442 0.010186754884792945 -0.0026370836421847356
-0.003305990743548575 0.010605714647631373 -0.002451331121847035
-0.002954441461751425 0.01102467476718704 -0.0033853442873805774
-0.002602892179954275 0.011443634886742708 -0.00208618212491274
-0.0022513428981571246 0.011862595006298377 -0.001556707313284279
-0.0018997939156812802 0.012281554769136803 -0.0011706608347594749
-0.012162131830308013 0.0009022232003959371 -0.0012375877704471363
-0.011810582548510863 0.0013211833199516052 -0.001523976796306671
-0.011459033566035018 0.0017401430827900318 -0.002320727100595833
-0.011107484284237868 0.0021591032023457 -0.0031748516485095037
-0.010755935002440719 0.002578063321901368 -0.003511523595079781
-0.010404385720643568 0.002997023441457036 -0.0038481960073113454
-0.01005283658850707 0.0034159833826540834 -0.004184868652373553
-0.00970128730670992 0.0038349435022097516 -0.00437062093988061
-0.009349738174573423 0.004253903443406799 -0.00405208906158805
-0.008998188892776274 0.004672863562962467 -0.004151163157075644
-0.008646639610979123 0.005091823682518135 -0.004049377515912057
-0.008295090404012299 0.005510783712894493 -0.0038683249149471534
-0.007943541197045476 0.005929743743270851 -0.003865225007757546
-0.0075919920041093375 0.006348703756926088 -0.003546692663803698
-0.007240442783111828 0.006767663804023566 -0.0035435939207673086
-0.006888893576145004 0.007186623834399924 -0.0032712637912482036
-0.00653734436917818 0.007605583864776281 -0.003202992491424085
-0.00618579508738103 0.00802454398433195 -0.002884461544454099
-0.005834245955244533 0.008443503925528997 -0.002914225216954948
-0.005482696823108035 0.008862463866726044 -0.0024211655836552395
-0.005131147541310885 0.009281423986281711 -0.0025202399119734777
-0.004779598409174388 0.009700383927478759 -0.002484662923961879
-0.004428049127377238 0.010119344047034427 -0.002120054326951505
-0.004076499845580088 0.010538304166590096 -0.002116954652592541
-0.003724950863104243 0.010957263929428522 -0.001935902168042959
-0.003373401581307093 0.01137622404898419 -0.0017548495670780553
-0.0030218522995099427 0.011795184168539858 -0.0015284725232049836
-0.0026703030177127923 0.012214144288095526 -0.0011638627620413912
-0.011877993685590687 0.002091692364587182 -0.001758415601216258
-0.011526444403793537 0.0025106524841428503 -0.0022514758165925754
-0.011174895121996388 0.0029296126036985185 -0.002616085344925524
-0.010823345840199236 0.0033485727232541863 -0.002888415474444629
-0.010471796708062739 0.0037675326644512337 -0.0031607446726411594
-0.01012024742626559 0.004186492784006902 -0.0033417972736060632
-0.009768698294129092 0.004605452725203949 -0.0034100681077688945
-0.009417149012331942 0.005024412844759617 -0.003380303038284184
-0.009065599730534791 0.005443372964315286 -0.004027647431939841
-0.008714050523567968 0.005862332994691643 -0.0034164744429290308
-0.008362501316601144 0.006281293025068001 -0.0034195748157799257
-0.008010952123665007 0.006700253038723238 -0.0033898095134645713
-0.007659402902667496 0.007119213085820716 -0.003103420138359071
-0.007307853695700673 0.007538173116197074 -0.0030397991649806512
-0.0069563044887338485 0.007957133146573432 -0.002854046178981663
-0.006604755206936699 0.008376093266129099 -0.0027904252056032432
-0.0062532060748002015 0.008795053207326146 -0.002604672219604255
-0.005901656942663704 0.009214013148523194 -0.002541051246225835
-0.005550107660866554 0.009632973268078862 -0.0024419766850769533
-0.005198558528730057 0.01005193320927591 -0.0023429018910974277
-0.004847009246932907 0.010470893328831579 -0.0020062299445271505
-0.004495459965135756 0.010889853448387245 -0.00200932868756354
-0.0041439109826599116 0.011308813211225673 -0.00197956431657076
-0.0037923617008627617 0.01172777333078134 -0.001593517838045956
-0.003089263137268461 0.012565693569892677 -0.0011386718833819045
-0.0027377141547926167 0.012984653332731104 -0.0011417706264182938
-0.011945404523349204 0.0028622017659399998 -0.0011631670640781535
-0.011242305959754903 0.003700122005051336 -0.0013222225243225707
-0.010890756827618406 0.004119081946248384 -0.0015196573222056044
-0.010539207545821256 0.004538042065804051 -0.0017170931678265346
-0.010187658413684759 0.004957002007001099 -0.002428909530863167
-0.00983610913188761 0.0053759621265567666 -0.002202531322836877
-0.009484559850090458 0.005794922246112435 -0.0020416325423866523
-0.009133010643123635 0.006213882276488792 -0.002140707336366178
-0.008781461436156811 0.00663284230686515 -0.001389460172504188
-0.008429912243220674 0.007051802320520387 -0.0019189346348866833
-0.008078363022223164 0.0074707623676178656 -0.0018171478295698775
-0.00772681381525634 0.007889722397994223 -0.001916221925057472
-0.007375264608289515 0.008308682428370582 -0.001597689697518946
-0.007023715326492366 0.008727642547926249 -0.0018335519125685109
-0.006672166194355868 0.009146602489123296 -0.0018633168656378997
