ply
format ascii 1.0
element vertex 631
property float x
property float y
property float z
property uchar red
property uchar green
property uchar blue
end_header
0.004833998028519903 0.005891246194089644 0.0012154341097734543 0 161 93
0.004833998028519903 0.0064153418980734305 0.0014414546805393276 0 144 110
0.004833998028519903 0.006939437602057218 0.001267955839019617 0 157 97
0.004833998028519903 0.007463533306041005 0.0012964793734462554 0 155 99
0.004833998028519903 0.007987629010024791 0.0013574460041726256 0 150 104
0.004833998028519903 0.00851172471400858 0.0014184131347156081 0 146 108
0.004833998028519903 0.009035820417992366 0.0014469366691422464 0 144 110
0.004833998028519903 0.009559916121976155 0.0017213769742177257 0 123 131
0.004833998028519903 0.010084011825959941 0.001687284982914253 0 125 129
0.004833998028519903 0.010608107529943728 0.0026490850887246334 0 51 203
0.004833998028519903 0.011132203733744128 0.0032814927902219604 0 3 251
0.004833998028519903 0.011656299437727915 0.0028482385173167926 0 36 218
0.004833998028519903 0.012180395141711702 0.0032941496462934147 0 2 252
0.004309902324536117 -0.009307528721623569 0.0014486390445234954 0 143 111
0.004309902324536117 -0.008259337313655996 -0.0003421868833252953 40 214 0
0.004309902324536117 -0.007735241609672209 -0.0007880977741080632 93 161 0
0.004309902324536117 -0.007211145905688421 -0.0008830389392340325 104 150 0
0.004309902324536117 -0.006687050201704635 -0.000944006069777015 112 142 0
0.004309902324536117 -0.006162954497720847 -0.0009725291043870411 115 139 0
0.004309902324536117 -0.005638859293553672 -0.000907107608195881 107 147 0
0.004309902324536117 -0.005114763589569886 -0.0009680742389222512 114 140 0
0.004309902324536117 -0.004590667885586098 -0.0004955855997842493 58 196 0
0.004309902324536117 -0.004066572181602311 -0.0008655248653249444 102 152 0
0.004309902324536117 -0.003542476477618524 -0.0003930357263703302 46 208 0
0.004309902324536117 -0.0030183807736347368 -0.00029549601467738666 35 219 0
0.004309902324536117 -0.0024942850696509497 0.0001377580200339268 0 244 10
0.004309902324536117 -0.0019701893656671626 0.0009483551037628717 0 182 72
0.004309902324536117 -0.0014460936616833757 0.001381609138474185 0 149 105
0.004309902324536117 -0.0009219979576995885 0.0016868516419114511 0 125 129
0.004309902324536117 -0.00039790225371580146 0.001903785546667016 0 109 145
0.004309902324536117 0.00012619345026798563 0.0019378780377871008 0 106 148
0.004309902324536117 0.0006502892792059258 0.003202909869184484 0 9 245
0.004309902324536117 0.001174384983189713 0.0017938123969282837 0 117 137
0.004309902324536117 0.0016984806871735 0.0014238721317543642 0 145 109
0.004309902324536117 0.0022225763618711576 0.0009779612409715963 0 180 74
0.004309902324536117 0.002746672063902536 0.0008830200758456271 0 187 67
0.004309902324536117 0.0032707677991248613 0.0008859894863388748 0 187 67
0.004309902324536117 0.0037948635031086484 0.0009514124819798715 0 182 72
0.004309902324536117 0.004318959207092435 0.0010168344779876437 0 177 77
0.004309902324536117 0.00484305478612207 0.001190332819690742 0 163 91
0.004309902324536117 0.005367150490105856 0.001224425310810827 0 161 93
0.004309902324536117 0.005891246194089644 0.0012273962207539114 0 160 94
0.004309902324536117 0.0064153418980734305 0.0012928177169450714 0 155 99
0.004309902324536117 0.006939437602057218 0.0012642946823350452 0 158 96
0.004309902324536117 0.007463533306041005 0.001298386673638518 0 155 99
0.004309902324536117 0.007987629010024791 0.0013638086696462902 0 150 104
0.004309902324536117 0.00851172471400858 0.001397901160766375 0 147 107
0.004309902324536117 0.009035820417992366 0.0013369340302233927 0 152 102
0.004309902324536117 0.009559916121976155 0.0013710265213434775 0 149 105
0.004309902324536117 0.010084011825959941 0.0015445253628631882 0 136 118
0.004309902324536117 0.010608107529943728 0.0014835582323202057 0 141 113
0.004309902324536117 0.011132203733744128 0.0017445264804296864 0 121 133
0.004309902324536117 0.011656299437727915 0.002555123064342019 0 59 195
0.003785806620552329 -0.009307528721623569 0.0009261332571832063 0 183 71
0.003785806620552329 -0.008783433017639782 0.0016082509812890581 0 131 123
0.003785806620552329 -0.008259337313655996 -0.0003056677825528426 36 218 0
0.003785806620552329 -0.007735241609672209 -0.0005666350310290989 67 187 0
0.003785806620552329 -0.007211145905688421 -0.0008276032791385795 98 156 0
0.003785806620552329 -0.006687050201704635 -0.0008930262747795763 106 148 0
0.003785806620552329 -0.006162954497720847 -0.0009584477709707363 113 141 0
0.003785806620552329 -0.005638859293553672 -0.0009925402620908211 117 137 0
0.003785806620552329 -0.005114763589569886 -0.0010266327532109062 121 133 0
0.003785806620552329 -0.004590667885586098 -0.0009656656226679236 114 140 0
0.003785806620552329 -0.004066572181602311 -0.0010632053343608673 126 128 0
0.003785806620552329 -0.003542476477618524 -0.0008852021455317562 105 149 0
0.003785806620552329 -0.0030183807736347368 -0.0006591805751326584 78 176 0
0.003785806620552329 -0.0024942850696509497 2.2937148973193452e-05 0 253 1
0.003785806620552329 -0.0019701893656671626 0.0012242743661939341 0 161 93
0.003785806620552329 -0.0014460936616833757 0.0016701857567933142 0 126 128
0.003785806620552329 -0.0009219979576995885 0.0017651264221026713 0 119 135
0.0037858066205523288 -0.00039790225371580146 0.0020395672269947628 0 98 156
0.0037858066205523288 0.00012619345026798563 0.002362193352205325 0 73 181
0.0037858066205523288 0.0006502892792059258 0.0018139984904463437 0 115 139
0.0037858066205523288 0.001174384983189713 0.0020400200608454416 0 98 156
0.0037858066205523288 0.0016984806871735 0.002100987191388424 0 93 161
0.003785806620552329 0.0022225763618711576 0.0016284970528005853 0 130 124
0.003785806620552329 0.002746672063902536 0.0012791002500224687 0 156 98
0.003785806620552329 0.0032707677991248613 0.0011056014085027582 0 170 84
0.003785806620552329 0.0037948635031086484 0.0008446331603932775 0 190 64
0.003785806620552329 0.004318959207092435 0.00116725928560384 0 165 89
0.003785806620552329 0.00484305478612207 0.0008620172819831862 0 188 66
0.003785806620552329 0.005367150490105856 0.0007965947861588017 0 193 61
0.003785806620552329 0.005891246194089644 0.0010226148571080627 0 176 78
0.003785806620552329 0.0064153418980734305 0.0010835829872842696 0 171 83
0.003785806620552329 0.006939437602057218 0.0006503289525729562 0 205 49
0.003785806620552329 0.007463533306041005 0.0012360015633666442 0 160 94
0.003785806620552329 0.007987629010024791 0.0012019090722465593 0 162 92
0.003785806620552329 0.00851172471400858 0.0012968502373725285 0 155 99
0.003785806620552329 0.009035820417992366 0.0013917914024984977 0 148 106
0.003785806620552329 0.009559916121976155 0.0017617316676724175 0 119 135
0.003785806620552329 0.010084011825959941 0.0013284771331444917 0 153 101
0.003785806620552329 0.010608107529943728 0.001294384642024407 0 155 99
0.0037858066205523288 0.011132203733744128 0.0018800587522679315 0 110 144
0.0037858066205523288 0.011656299437727915 0.002106079323033805 0 93 161
0.0037858066205523288 0.012180395141711702 0.0029804939914452695 0 26 228
0.0032617106666602363 -0.008783433017639782 0.0014847018127289839 0 141 113
0.0032617106666602363 -0.008259337313655996 0.0006938015020547275 0 201 53
0.0032617106666602363 -0.007735241609672209 -0.00015251347641726833 18 236 0
0.0032617106666602363 -0.007211145905688421 -0.0012368701149958377 146 108 0
0.0032617106666602363 -0.006687050201704635 -0.0009316276115585717 110 144 0
0.0032617106666602363 -0.006162954497720847 -0.001026568776684541 121 133 0
0.0032617106666602363 -0.005638859293553672 -0.001204571965513652 143 111 0
0.0032617106666602363 -0.005114763589569886 -0.001201602055203792 142 112 0
0.0032617106666602363 -0.004590667885586098 -0.0012301255896304305 146 108 0
0.0032617106666602363 -0.004066572181602311 -0.0011960330985103455 142 112 0
0.0032617106666602363 -0.003542476477618524 -0.0011619406073902607 137 117 0
0.0032617106666602363 -0.0030183807736347368 -0.0008125438046121442 96 158 0
0.0032617106666602363 -0.0024942850696509497 -0.00022784283731262783 27 227 0
0.003261710666660236 -0.0019701893656671626 0.0018163686208215299 0 115 139
0.003261710666660236 -0.0014460936616833757 0.0020153066284538186 0 100 154
0.003261710666660236 -0.0009219979576995885 0.0023647044308651595 0 73 181
0.003261710666660236 0.00012619345026798563 0.002838835967207556 0 37 217
0.003261710666660236 0.0006502892792059258 0.0028418058775174157 0 37 217
0.003261710666660236 0.001174384983189713 0.003058739516745405 0 20 234
0.003261710666660236 0.0016984806871735 0.002784298977380889 0 41 213
0.003261710666660236 0.0022225763618711576 0.0027557754429542508 0 43 211
0.003261710666660236 0.002746672063902536 0.002344367392730207 0 75 179
0.003261710666660236 0.0032707677991248613 0.0020217417673362567 0 100 154
0.0032617106666602363 0.0037948635031086484 0.0014123733507734424 0 146 108
0.0032617106666602363 0.004318959207092435 0.0014464658418935272 0 144 110
0.0032617106666602363 0.00484305478612207 0.0010005549511107592 0 178 76
0.0032617106666602363 0.005367150490105856 0.001003524361604007 0 178 76
0.0032617106666602363 0.005891246194089644 0.001308766865041273 0 154 100
0.0032617106666602363 0.0064153418980734305 0.0012478002343149028 0 159 95
0.0032617106666602363 0.006939437602057218 0.0014212990758346133 0 146 108
0.0032617106666602363 0.007463533306041005 0.0015947974175377119 0 132 122
0.0032617106666602363 0.007987629010024791 0.0016288899086577967 0 130 124
0.0032617106666602363 0.00851172471400858 0.001694311904665569 0 125 129
0.0032617106666602363 0.009035820417992366 0.0017597334008567292 0 120 134
0.003261710666660236 0.009559916121976155 0.0018251563964977258 0 115 139
0.0032617106666602363 0.010084011825959941 0.001647153707485227 0 128 126
0.0032617106666602363 0.010608107529943728 0.0017446929193615584 0 121 133
0.0032617106666602363 0.011132203733744128 0.0016497522540522014 0 128 126
0.003261710666660236 0.011656299437727915 0.0026506735059182943 0 51 203
0.002737614962676449 -0.009307528721623569 0.000909394398839684 0 185 69
0.002737614962676449 -0.008783433017639782 0.0014703910634876662 0 142 112
0.002737614962676449 -0.008259337313655996 -0.00026389610900248397 31 223 0
0.002737614962676449 -0.007735241609672209 -0.0011032521407824266 131 123 0
0.002737614962676449 -0.007211145905688421 -0.0005958678052284892 70 184 0
0.002737614962676449 -0.006687050201704635 -0.0009011108084823674 106 148 0
0.002737614962676449 -0.006162954497720847 -0.0009352022999692278 111 143 0
0.002737614962676449 -0.005638859293553672 -0.0011521357049081803 136 118 0
0.002737614962676449 -0.005114763589569886 -0.0011862281960282651 140 114 0
0.002737614962676449 -0.004590667885586098 -0.0012837679077212089 152 102 0
0.002737614962676449 -0.004066572181602311 -0.0012552443732945704 149 105 0
0.002737614962676449 -0.003542476477618524 -0.0012893368644146552 153 101 0
0.002737614962676449 -0.0030183807736347368 -0.001260813329988017 149 105 0
0.002737614962676449 -0.0024942850696509497 -0.0011658721648620477 138 116 0
0.002737614962676449 -0.0019701893656671626 -0.0007199612740792799 85 169 0
0.0027376149626764487 -0.0014460936616833757 0.001872365075155903 0 111 143
0.0027376149626764487 -0.0009219979576995885 0.002718680053627899 0 46 208
0.0027376149626764487 -0.00039790225371580146 0.0032796762067448166 0 3 251
0.0027376149626764487 0.004318959207092435 0.0022456806019121997 0 82 172
0.0027376149626764487 0.00484305478612207 0.002520120906987679 0 61 193
0.002737614962676449 0.005367150490105856 0.0017095243230753462 0 123 131
0.002737614962676449 0.005891246194089644 0.001644102327067574 0 128 126
0.002737614962676449 0.0064153418980734305 0.0016726258614942122 0 126 128
0.002737614962676449 0.006939437602057218 0.0016385333703741274 0 129 125
0.002737614962676449 0.007463533306041005 0.0017334745355000966 0 122 132
0.002737614962676449 0.007987629010024791 0.0016993820443800118 0 124 130
0.0027376149626764487 0.00851172471400858 0.0017943227096893688 0 117 137
0.0027376149626764487 0.009035820417992366 0.0021169488348999313 0 92 162
0.0027376149626764487 0.009559916121976155 0.0020515258392589343 0 97 157
0.0027376149626764487 0.010084011825959941 0.002325966644151026 0 76 178
0.0027376149626764487 0.010608107529943728 0.002386934774327233 0 72 182
0.0027376149626764487 0.011132203733744128 0.0023839638643841487 0 72 182
0.0027376149626764487 0.011656299437727915 0.002861758056860953 0 35 219
0.002213519258692662 -0.008783433017639782 0.0014294105996344646 0 145 109
0.002213519258692662 -0.008259337313655996 0.0006659027383933742 0 203 51
0.002213519258692662 -0.007735241609672209 -0.0003873668063544384 45 209 0
0.002213519258692662 -0.007211145905688421 -0.0006133873771203117 72 182 0
0.002213519258692662 -0.006687050201704635 -0.0008878281820124032 105 149 0
0.002213519258692662 -0.006162954497720847 -0.0012104538074063536 143 111 0
0.002213519258692662 -0.005638859293553672 -0.0013884564964188524 164 90 0
0.002213519258692662 -0.005114763589569886 -0.0013543640052987675 160 94 0
0.002213519258692662 -0.004590667885586098 -0.0013828875397254058 164 90 0
0.002213519258692662 -0.004066572181602311 -0.0014778287048513752 175 79 0
0.002213519258692662 -0.003542476477618524 -0.0012168604567418945 144 110 0
0.002213519258692662 -0.0030183807736347368 -0.0012138915460652591 144 110 0
0.002213519258692662 -0.0024942850696509497 -0.001391894235077758 165 89 0
0.002213519258692662 -0.0019701893656671626 -0.001218394893741435 144 110 0
0.002213519258692662 -0.0014460936616833757 -0.00043724950388803624 51 203 0
0.0022135192586926616 0.006939437602057218 0.002935943837347534 0 29 225
0.0022135192586926616 0.007463533306041005 0.0029700353288343944 0 27 227
0.0022135192586926616 0.007987629010024791 0.002875094163708425 0 34 220
0.0022135192586926616 0.00851172471400858 0.0032244919505004972 0 7 247
0.0022135192586926616 0.009035820417992366 0.003289913950413087 0 2 252
0.001689423554708875 -0.009307528721623569 0.0017232187984337862 0 122 132
0.001689423554708875 -0.008783433017639782 0.0011750239366748046 0 164 90
0.0016894235547088752 -0.008259337313655996 0.000148408612223897 0 243 11
0.0016894235547088752 -0.007735241609672209 -0.00028484542248741646 33 221 0
0.0016894235547088752 -0.007211145905688421 -0.00071809945719873 85 169 0
0.0016894235547088754 -0.006687050201704635 -0.0008915982987184406 105 149 0
0.0016894235547088754 -0.006162954497720847 -0.0010650971402381513 126 128 0
0.0016894235547088754 -0.005638859293553672 -0.0012385954819412496 147 107 0
0.0016894235547088754 -0.005114763589569886 -0.001304017477949022 154 100 0
0.0016894235547088754 -0.004590667885586098 -0.0013381099690691067 158 96 0
0.0016894235547088754 -0.004066572181602311 -0.0013410798793789668 159 95 0
0.0016894235547088754 -0.003542476477618524 -0.001066639074486875 126 128 0
0.0016894235547088754 -0.0030183807736347368 -0.0013718815779241412 162 92 0
0.0016894235547088754 -0.0024942850696509497 -0.0017212783807022578 204 50 0
0.0016894235547088754 -0.0019701893656671626 -0.0011602822158708877 137 117 0
0.0016894235547088754 -0.0014460936616833757 -0.0011943747069909727 141 113 0
0.0016894235547088754 -0.0009219979576995885 -0.0011334075764479902 134 120 0
0.0016894235547088752 -0.00039790225371580146 -0.00045128885270891394 53 201 0
0.0011653279756792408 -0.008783433017639782 0.0017991279465993304 0 117 137
0.001165327975679241 -0.008259337313655996 0.0007147698085709243 0 200 54
0.001165327975679241 -0.007735241609672209 -0.000661838100059876 78 176 0
0.001165327975679241 -0.007211145905688421 -0.0004883392585401654 57 197 0
0.0011653279756792412 -0.006687050201704635 -0.0008997468089475968 106 148 0
0.0011653279756792412 -0.006162954497720847 -0.0010777499977767079 127 127 0
0.0011653279756792412 -0.005638859293553672 -0.0013037715681758057 154 100 0
0.0011653279756792412 -0.005114763589569886 -0.0013647381989021759 162 92 0
0.0011653279756792412 -0.004590667885586098 -0.0013932607336955899 165 89 0
0.0011653279756792412 -0.004066572181602311 -0.0013902908233857298 165 89 0
0.0011653279756792412 -0.003542476477618524 -0.0012927506118761741 153 101 0
0.0011653279756792412 -0.0030183807736347368 -0.0011952113999998426 141 113 0
0.0011653279756792412 -0.0024942850696509497 -0.0011611189088797577 137 117 0
0.0011653279756792412 -0.0019701893656671626 -0.0011270274173928974 133 121 0
0.0011653279756792412 -0.0014460936616833757 -0.0014014677224683766 166 88 0
0.0011653279756792412 -0.0009219979576995885 -0.00133604472682738 158 96 0
0.001165327975679241 -0.00039790225371580146 -0.000616140866837077 73 181 0
0.0006412322716954538 -0.009307528721623569 0.0021224813049806847 0 92 162
0.0006412322716954538 -0.008783433017639782 0.0018615140565044284 0 112 142
0.0006412322716954539 -0.008259337313655996 0.0008865337866295908 0 187 67
0.000641232271695454 -0.007735241609672209 -8.844698306185918e-05 10 244 0
0.000641232271695454 -0.007211145905688421 -0.00018598619493819055 22 232 0
0.0006412322716954542 -0.006687050201704635 -0.0009671320846082015 114 140 0
0.0006412322716954542 -0.006162954497720847 -0.0010646717963011451 126 128 0
0.0006412322716954542 -0.005638859293553672 -0.0012381706378208558 147 107 0
0.0006412322716954542 -0.005114763589569886 -0.0012722631289409406 151 103 0
0.0006412322716954543 -0.004590667885586098 -0.001992166988931244 236 18 0
0.0006412322716954542 -0.004066572181602311 -0.0013100482651921676 155 99 0
0.0006412322716954543 -0.003542476477618524 -0.0013441407563122524 159 95 0
0.0006412322716954543 -0.0030183807736347368 -0.001605109004421733 190 64 0
0.0006412322716954542 -0.0024942850696509497 -0.0012824823793945582 152 102 0
0.0006412322716954543 -0.0019701893656671626 -0.0013479043754023306 160 94 0
0.0006412322716954542 -0.0014460936616833757 -0.0013193808409756923 156 98 0
0.0006412322716954542 -0.0009219979576995885 -0.001093360770026431 129 125 0
0.0006412322716954542 -0.00039790225371580146 -0.0013102941749653838 155 99 0
0.0006412322716954542 0.00012619345026798563 -0.0012153530098394144 144 110 0
0.0006412322716954542 0.0006502892792059258 -0.0009409127047639351 111 143 0
0.00011713656771166662 -0.009307528721623569 0.0025480281675314396 0 59 195
0.00011713656771166678 -0.008259337313655996 0.0011824392159338218 0 164 90
0.00011713656771166687 -0.007735241609672209 0.0003915389052595656 0 224 30
0.00011713656771166698 -0.007211145905688421 -0.00042695078259307465 50 204 0
0.000117136567711667 -0.006687050201704635 -0.0006049534716055735 71 183 0
0.00011713656771166705 -0.006162954497720847 -0.0010163625214628417 120 134 0
0.00011713656771166702 -0.005638859293553672 -0.0007994286167072769 94 160 0
0.00011713656771166709 -0.005114763589569886 -0.0013604247815386468 161 93 0
0.0001171365677116671 -0.004590667885586098 -0.001455365946664616 172 82 0
0.0001171365677116671 -0.004066572181602311 -0.0014523950367215316 172 82 0
0.0001171365677116671 -0.003542476477618524 -0.0013869740403469838 164 90 0
0.0001171365677116671 -0.0030183807736347368 -0.0013840031304038995 164 90 0
0.00011713656771166718 -0.0024942850696509497 -0.0021475119912782144 255 0 0
0.00011713656771166712 -0.0019701893656671626 -0.0015271755989766647 181 73 0
0.0001171365677116671 -0.0014460936616833757 -0.0014617526033356679 173 81 0
0.00011713656771166709 -0.0009219979576995885 -0.0012882542616325695 152 102 0
0.00011713656771166709 -0.00039790225371580146 -0.0013831954267585387 164 90 0
0.0001171365677116671 0.00012619345026798563 -0.0014117179615519527 167 87 0
0.00011713656771166705 0.0006502892792059258 -0.0009784639268406391 116 138 0
0.00011713656771166695 0.001174384983189713 -0.00022752845266353668 27 227 0
-0.00040695916751065864 -0.008783433017639782 0.0015795235216846302 0 133 121
-0.0004069591675106586 -0.008259337313655996 0.0015454320301977696 0 136 118
-0.00040695916751065853 -0.007735241609672209 0.0006779478189314611 0 203 51
-0.0004069591675106584 -0.007211145905688421 -1.0039251651786386e-05 1 253 0
-0.00040695916751065837 -0.006687050201704635 -0.0005208353354007935 61 193 0
-0.0004069591675106583 -0.006162954497720847 -0.000954089370112107 113 141 0
-0.00040695916751065826 -0.005638859293553672 -0.0011710232748676718 139 115 0
-0.00040695916751065826 -0.005114763589569886 -0.0012685624867440032 150 104 0
-0.00040695916751065826 -0.004590667885586098 -0.0013661016986203345 162 92 0
-0.00040695916751065826 -0.004066572181602311 -0.0014001941897404193 166 88 0
-0.00040695916751065826 -0.003542476477618524 -0.0014656161857481917 174 80 0
-0.0004069591675106582 -0.0030183807736347368 -0.00177085918900207 210 44 0
-0.00040695916751065826 -0.0024942850696509497 -0.0014009189238281504 166 88 0
-0.0004069591675106583 -0.0019701893656671626 -0.0007915505072653361 93 161 0
-0.0004069591675106582 -0.0014460936616833757 -0.0016309055394120543 193 61 0
-0.00040695916751065826 -0.0009219979576995885 -0.0014529028503995555 172 82 0
-0.0004069591675106582 -0.00039790225371580146 -0.0016698362553385082 198 56 0
-0.00040695916751065826 0.00012619345026798563 -0.0012239258643723524 145 109 0
-0.00040695916751065826 0.0006502892792059258 -0.001226894775048988 145 109 0
-0.00040695916751065826 0.001174384983189713 -0.0011659281443226175 138 116 0
-0.0004069591675106583 0.0016984806871735 -0.0008914873394305262 105 149 0
-0.0009310548597799939 -0.008259337313655996 0.001741418620734851 0 121 133
-0.0009310548597799938 -0.007735241609672209 0.0009779097598605362 0 180 74
-0.0009310548597799937 -0.007211145905688421 0.00029579153593807213 0 232 22
-0.0009310548597799937 -0.006687050201704635 -0.00028988207448884027 34 220 0
-0.0009310548597799936 -0.006162954497720847 -0.0008755556849157527 103 151 0
-0.0009310548597799936 -0.005638859293553672 -0.0010535588737448638 125 129 0
-0.0009310548597799935 -0.005114763589569886 -0.0014649664241522954 173 81 0
-0.0009310548597799935 -0.004590667885586098 -0.001367427212275964 162 92 0
-0.0009310548597799935 -0.004066572181602311 -0.0014623683774019332 173 81 0
-0.0009310548597799935 -0.003542476477618524 -0.0014908909121953472 177 77 0
-0.0009310548597799935 -0.0030183807736347368 -0.0015518585425549419 184 70 0
-0.0009310548597799935 -0.0024942850696509497 -0.0015803820769815801 187 67 0
-0.0009310548597799935 -0.0019701893656671626 -0.0015774111670384958 187 67 0
-0.0009310548597799935 -0.0014460936616833757 -0.0015744402570954115 186 68 0
-0.0009310548597799935 -0.0009219979576995885 -0.0015090192607208636 179 75 0
-0.0009310548597799935 -0.00039790225371580146 -0.0014435972647130913 171 83 0
-0.0009310548597799935 0.00012619345026798563 -0.0014095047735930065 167 87 0
-0.0009310548597799936 0.0006502892792059258 -0.0012360054322566834 146 108 0
-0.0009310548597799935 0.001174384983189713 -0.0015586320572838583 185 69 0
-0.0009310548597799936 0.0016984806871735 -0.0006099011562500205 72 182 0
-0.0009310548597799937 0.0022225763618711576 -0.0002605043534719039 30 224 0
-0.0014551505442396947 -0.008259337313655996 0.0012324858533162304 0 160 94
-0.0014551505442396947 -0.007735241609672209 0.0011670643571250704 0 165 89
-0.0014551505442396944 -0.007211145905688421 0.0002449566877581795 0 236 18
-0.0014551505442396944 -0.006687050201704635 -0.0002658398958074399 31 223 0
-0.0014551505442396942 -0.006162954497720847 -0.001016774370351318 120 134 0
-0.0014551505442396942 -0.005638859293553672 -0.0009882523353745161 117 137 0
-0.0014551505442396942 -0.005114763589569886 -0.0014607409745125183 173 81 0
-0.0014551505442396942 -0.004590667885586098 -0.0014637118844556026 173 81 0
-0.0014551505442396942 -0.004066572181602311 -0.001466680795132238 174 80 0
-0.0014551505442396942 -0.003542476477618524 -0.0014381582603388242 170 84 0
-0.0014551505442396942 -0.0030183807736347368 -0.0015356984718483799 182 72 0
-0.0014551505442396942 -0.0024942850696509497 -0.0016011204678561522 190 64 0
-0.0014551505442396942 -0.0019701893656671626 -0.001506179302730183 178 76 0
-0.0014551505442396942 -0.0014460936616833757 -0.0016796776444332813 199 55 0
-0.0014551505442396942 -0.0009219979576995885 -0.0017772178559428372 211 43 0
-0.0014551505442396942 -0.00039790225371580146 -0.001407278590402142 167 87 0
-0.0014551505442396942 0.00012619345026798563 -0.0015048178022784733 178 76 0
-0.0014551505442396942 0.0006502892792059258 -0.0014098766371525042 167 87 0
-0.0014551505442396942 0.001174384983189713 -0.0012318739481400054 146 108 0
-0.0014551505442396944 0.0016984806871735 -0.0005227166451292207 62 192 0
-0.0014551505442396942 0.0022225763618711576 -0.0011074181122453493 131 123 0
-0.0014551505442396944 0.002746672063902536 -0.0006960090623880811 82 172 0
-0.0014551505442396944 0.0032707677991248613 1.3146741172867015e-05 0 253 1
-0.0019792462482234813 -0.007735241609672209 0.001328801014309215 0 153 101
-0.0019792462482234813 -0.007211145905688421 0.000767804849477845 0 196 58
-0.0019792462482234813 -0.006687050201704635 5.86480462836725e-05 0 250 4
-0.0019792462482234813 -0.006162954497720847 -0.0005023481185476974 59 195 0
-0.0019792462482234813 -0.005638859293553672 -0.0010373578180760993 123 131 0
-0.0019792462482234813 -0.005114763589569886 -0.0012153610069052104 144 110 0
-0.0019792462482234813 -0.004590667885586098 -0.0013933636959177092 165 89 0
-0.0019792462482234813 -0.004066572181602311 -0.0014543303266440794 172 82 0
-0.0019792462482234813 -0.003542476477618524 -0.0015492714917700486 183 71 0
-0.0019792462482234813 -0.0030183807736347368 -0.001644212656896018 195 59 0
-0.0019792462482234813 -0.0024942850696509497 -0.0015787896612550212 187 67 0
-0.001979246248223481 -0.0019701893656671626 -0.001948729926428941 231 23 0
-0.0019792462482234813 -0.0014460936616833757 -0.0015993331236508243 189 65 0
-0.0019792462482234813 -0.0009219979576995885 -0.0016278566580774625 193 61 0
-0.0019792462482234813 -0.00039790225371580146 -0.001688823288803833 200 54 0
-0.0019792462482234813 0.00012619345026798563 -0.0014718898838648803 174 80 0
-0.0019792462482234813 0.0006502892792059258 -0.0014377973927447954 170 84 0
-0.0019792462482234813 0.001174384983189713 -0.0011768301442685392 139 115 0
-0.0019792462482234813 0.0016984806871735 -0.001173859734142067 139 115 0
-0.0019792462482234813 0.0022225763618711576 -0.0010763200224491235 127 127 0
-0.0019792462482234813 0.002746672063902536 -0.0010108970268081266 120 134 0
-0.0019792462482234813 0.0032707677991248613 -0.0005001009430591195 59 195 0
-0.0025033419522072693 -0.008259337313655996 0.002714470598119712 0 46 208
-0.0025033419522072693 -0.007735241609672209 0.002365072795708371 0 73 181
-0.002503341952207269 -0.007211145905688421 0.0009567265322010808 0 181 73
-0.002503341952207269 -0.006687050201704635 -4.419421984840004e-05 5 249 0
-0.002503341952207269 -0.006162954497720847 -0.0006645306121499497 78 176 0
-0.002503341952207269 -0.005638859293553672 -0.0010977851466778754 130 124 0
-0.002503341952207269 -0.005114763589569886 -0.0010368180161348928 123 131 0
-0.002503341952207269 -0.004590667885586098 -0.001386214319096397 164 90 0
-0.002503341952207269 -0.004066572181602311 -0.0017356111218745137 206 48 0
-0.002503341952207269 -0.003542476477618524 -0.0015095910509252527 179 75 0
-0.002503341952207269 -0.0030183807736347368 -0.0016071302628015841 190 64 0
-0.002503341952207269 -0.0024942850696509497 -0.0015461636320752137 183 71 0
-0.0025033419522072684 -0.0019701893656671626 -0.0018071318801846945 214 40 0
-0.002503341952207269 -0.0014460936616833757 -0.0017121907150587253 203 51 0
-0.002503341952207269 -0.0009219979576995885 -0.0017151616250018096 203 51 0
-0.002503341952207269 -0.00039790225371580146 -0.001718130535678445 204 50 0
-0.002503341952207269 0.00012619345026798563 -0.0015401278466659462 182 72 0
-0.002503341952207269 0.0006502892792059258 -0.0013621251576534472 161 93 0
-0.002503341952207269 0.001174384983189713 -0.0013962176487735322 165 89 0
-0.002503341952207269 0.0016984806871735 -0.0013012764836475628 154 100 0
-0.002503341952207269 0.0022225763618711576 -0.001123273794635064 133 121 0
-0.002503341952207269 0.002746672063902536 -0.0011573652861219246 137 117 0
-0.002503341952207269 0.0032707677991248613 -0.000787425020948005 93 161 0
-0.002503341952207269 0.0037948635031086484 -0.0006924848554552602 82 172 0
-0.002503341952207269 0.004318959207092435 -0.0002146901631618437 25 229 0
-0.003027437781145209 -0.007211145905688421 0.0014501494903256481 0 143 111
-0.003027437781145209 -0.006687050201704635 0.00017217839085163246 0 241 13
-0.003027437781145209 -0.006162954497720847 -0.0006187219198226238 73 181 0
-0.003027437781145209 -0.005638859293553672 -0.0008447419907718849 100 154 0
-0.003027437781145209 -0.005114763589569886 -0.0015268607145109614 181 73 0
-0.003027437781145209 -0.004590667885586098 -0.0011774634119162326 139 115 0
-0.003027437781145209 -0.004066572181602311 -0.00154740317727354 183 71 0
-0.003027437781145209 -0.003542476477618524 -0.0016083718072663592 190 64 0
-0.003027437781145209 -0.0030183807736347368 -0.0017033119727591038 202 52 0
-0.003027437781145209 -0.0024942850696509497 -0.0016692204812722435 198 56 0
-0.003027437781145209 -0.0019701893656671626 -0.0017641606467649882 209 45 0
-0.0030274377811452084 -0.0014460936616833757 -0.0017926831815584022 212 42 0
-0.003027437781145209 -0.0009219979576995885 -0.0017272611855506299 205 49 0
-0.003027437781145209 -0.00039790225371580146 -0.0014662939370743736 174 80 0
-0.003027437781145209 0.00012619345026798563 -0.0016442966260868724 195 59 0
-0.003027437781145209 0.0006502892792059258 -0.0013833293776106164 164 90 0
-0.003027437781145209 0.001174384983189713 -0.0014782685434701365 175 79 0
-0.003027437781145209 0.0016984806871735 -0.0013047702017670382 154 100 0
-0.003027437781145209 0.0022225763618711576 -0.0013332937361936765 158 96 0
-0.003027437781145209 0.002746672063902536 -0.0010280507329397985 122 132 0
-0.003027437781145209 0.0032707677991248613 -0.0009305115210634669 110 144 0
-0.003027437781145209 0.0037948635031086484 -0.0008650895250556945 102 152 0
-0.003027437781145209 0.004318959207092435 -0.00043183549034438113 51 203 0
-0.003027437781145209 0.00484305478612207 0.0003787625930177882 0 225 29
-0.003551533485128996 -0.007211145905688421 0.0005936752393935022 0 209 45
-0.003551533485128996 -0.006687050201704635 0.0005282522437525054 0 214 40
-0.003551533485128996 -0.006162954497720847 -0.000472667508663751 56 198 0
-0.003551533485128996 -0.005638859293553672 -0.0007779105119176292 92 162 0
-0.003551533485128996 -0.005114763589569886 -0.0012887070954832485 153 101 0
-0.003551533485128996 -0.004590667885586098 -0.0013862473069928044 164 90 0
-0.003551533485128996 -0.004066572181602311 -0.0013892172173026645 164 90 0
-0.003551533485128996 -0.003542476477618524 -0.0014867564291789958 176 78 0
-0.003551533485128996 -0.0030183807736347368 -0.0015842966406885515 188 66 0
-0.0035515334851289955 -0.0024942850696509497 -0.0018895386443092054 224 30 0
-0.0035515334851289955 -0.0019701893656671626 -0.0018925085546190653 224 30 0
-0.003551533485128996 -0.0014460936616833757 -0.001481101504028246 175 79 0
-0.0035515334851289955 -0.0009219979576995885 -0.0018304983068063625 217 37 0
-0.003551533485128996 -0.00039790225371580146 -0.0017355571416803933 206 48 0
-0.0035515334851289955 0.00012619345026798563 -0.0018009801373213901 213 41 0
-0.003551533485128996 0.0006502892792059258 -0.001389571087464122 165 89 0
-0.003551533485128996 0.001174384983189713 -0.0015630694291672203 185 69 0
-0.003551533485128996 0.0016984806871735 -0.0013370493582179593 158 96 0
-0.0035515334851289955 0.0022225763618711576 -0.0020250359289845942 240 14 0
-0.003551533485128996 0.002746672063902536 -0.0012341361181269503 146 108 0
-0.003551533485128996 0.0032707677991248613 -0.0006991264185985485 83 171 0
-0.003551533485128996 0.0037948635031086484 -0.001048523221376665 124 130 0
-0.003551533485128996 0.004318959207092435 -0.0007740824164845735 91 163 0
-0.003551533485128996 0.00484305478612207 -0.0005960797274720747 70 184 0
-0.003551533485128996 0.005367150490105856 -0.00018467167724803092 21 233 0
-0.0040756291891127835 -0.006687050201704635 0.000739396772688631 0 198 56
-0.0040756291891127835 -0.006162954497720847 3.122919014630332e-06 0 254 0
-0.0040756291891127835 -0.005638859293553672 -0.0005042614165393073 59 195 0
-0.0040756291891127835 -0.005114763589569886 -0.0012134177199168673 144 110 0
-0.0040756291891127835 -0.004590667885586098 -0.0012419402547102813 147 107 0
-0.0040756291891127835 -0.004066572181602311 -0.001467961325292767 174 80 0
-0.0040756291891127835 -0.003542476477618524 -0.001294461983956444 153 101 0
-0.0040756291891127835 -0.0030183807736347368 -0.0016170886089836188 192 62 0
-0.0040756291891127835 -0.0024942850696509497 -0.001891528914059098 224 30 0
-0.0040756291891127835 -0.0019701893656671626 -0.0018261069180513256 216 38 0
-0.0040756291891127835 -0.0014460936616833757 -0.0017285677061749942 205 49 0
-0.0040756291891127835 -0.0009219979576995885 -0.0017895343369013646 212 42 0
-0.0040756291891127835 -0.00039790225371580146 -0.001572600931962412 186 68 0
-0.0040756291891127835 0.00012619345026798563 -0.0016675420970883811 198 56 0
-0.0040756291891127835 0.0006502892792059258 -0.0014940437553852828 177 77 0
-0.0040756291891127835 0.001174384983189713 -0.0015225662901786968 180 74 0
-0.0040756291891127835 0.0016984806871735 -0.001217324286558043 144 110 0
-0.0040756291891127835 0.0022225763618711576 -0.0012458468213514568 147 107 0
-0.0040756291891127835 0.002746672063902536 -0.0012117553298645965 143 111 0
-0.0040756291891127835 0.0032707677991248613 -0.0011463328340402118 136 118 0
-0.0040756291891127835 0.0037948635031086484 -0.001048792622530656 124 130 0
-0.0040756291891127835 0.004318959207092435 -0.0008752937810109456 103 151 0
-0.0040756291891127835 0.00484305478612207 -0.0007777545691346142 92 162 0
-0.0040756291891127835 0.005367150490105856 -0.0005167863210251334 61 193 0
-0.0040756291891127835 0.005891246194089644 -0.0004192466093321898 49 205 0
-0.0040756291891127835 0.0064153418980734305 0.0003913499745801428 0 224 30
-0.00459972489309657 -0.006687050201704635 0.0008427633464469309 0 190 64
-0.00459972489309657 -0.006162954497720847 0.00012285798700679114 0 245 9
-0.00459972489309657 -0.005638859293553672 -0.0003103960477045223 36 218 0
-0.00459972489309657 -0.005114763589569886 -0.0009983831182877698 118 136 0
-0.00459972489309657 -0.004590667885586098 -0.001303625621725036 154 100 0
-0.00459972489309657 -0.004066572181602311 -0.0014771229637949097 175 79 0
-0.00459972489309657 -0.003542476477618524 -0.0015112154549149948 179 75 0
-0.00459972489309657 -0.0030183807736347368 -0.001608756666057775 191 63 0
-0.00459972489309657 -0.0024942850696509497 -0.0016741776624323228 198 56 0
-0.00459972489309657 -0.0019701893656671626 -0.0017082701535524078 202 52 0
-0.00459972489309657 -0.0014460936616833757 -0.00177369214956018 210 44 0
-0.00459972489309657 -0.0009219979576995885 -0.0018712313614365115 222 32 0
-0.00459972489309657 -0.00039790225371580146 -0.0018102647307101413 214 40 0
-0.00459972489309657 0.00012619345026798563 -0.0018132356406532256 215 39 0
-0.00459972489309657 0.0006502892792059258 -0.00158721457007074 188 66 0
-0.00459972489309657 0.001174384983189713 -0.0015586910356441017 185 69 0
-0.00459972489309657 0.0016984806871735 -0.0014637508701513568 173 81 0
-0.00459972489309657 0.0022225763618711576 -0.0015612900820276881 185 69 0
-0.00459972489309657 0.002746672063902536 -0.001238664456633738 147 107 0
-0.00459972489309657 0.0032707677991248613 -0.0010606612678046269 125 129 0
-0.00459972489309657 0.0037948635031086484 -0.0011582004796809582 137 117 0
-0.00459972489309657 0.004318959207092435 -0.0010632598143716012 126 128 0
-0.00459972489309657 0.00484305478612207 -0.0009683196488788563 114 140 0
-0.00459972489309657 0.005367150490105856 -0.000693879343803377 82 172 0
-0.00459972489309657 0.005891246194089644 -0.0006653558093767387 79 175 0
-0.00459972489309657 0.0064153418980734305 -5.598739281392445e-05 6 248 0
-0.00459972489309657 0.006939437602057218 -9.007988393400934e-05 10 244 0
-0.005123820347172051 -0.006162954497720847 0.0005709650719836896 0 211 43
-0.005123820347172051 -0.005638859293553672 -3.8402844762512325e-05 4 250 0
-0.005123820347172051 -0.005114763589569886 -0.0005457861806832255 64 190 0
-0.005123820347172051 -0.004590667885586098 -0.0010235803731600296 121 133 0
-0.005123820347172051 -0.004066572181602311 -0.0013935206383339494 165 89 0
-0.005123820347172051 -0.003542476477618524 -0.0014544872690603196 172 82 0
-0.005123820347172051 -0.0030183807736347368 -0.0015494284341862887 183 71 0
-0.005123820347172051 -0.0024942850696509497 -0.0015153369426994284 179 75 0
-0.005123820347172051 -0.0019701893656671626 -0.001576304573059023 187 67 0
-0.005123820347172051 -0.0014460936616833757 -0.001754307262071522 208 46 0
-0.005123820347172051 -0.0009219979576995885 -0.001580807920735199 187 67 0
-0.005123820347172051 -0.00039790225371580146 -0.0016757490858611683 198 56 0
-0.005123820347172051 0.00012619345026798563 -0.00150225074415807 178 76 0
-0.005123820347172051 0.0006502892792059258 -0.0014681582530379849 174 80 0
-0.005123820347172051 0.001174384983189713 -0.0012512248480990324 148 106 0
-0.005123820347172051 0.0016984806871735 -0.001034291942976692 122 132 0
-0.005123820347172051 0.0022225763618711576 -0.0013087327478687836 155 99 0
-0.005123820347172051 0.002746672063902536 -0.0013057618379256992 155 99 0
-0.005123820347172051 0.0032707677991248613 -0.001240339841917927 147 107 0
-0.005123820347172051 0.0037948635031086484 -0.001142799630408371 135 119 0
-0.005123820347172051 0.004318959207092435 -0.0010452599187154275 124 130 0
-0.005123820347172051 0.00484305478612207 -0.0009798384225242673 116 138 0
-0.005123820347172051 0.005367150490105856 -0.0008063395810045567 95 159 0
-0.005123820347172051 0.005891246194089644 -0.0007409165853635599 87 167 0
-0.005123820347172051 0.0064153418980734305 -0.0006433773734872285 76 178 0
-0.005123820347172051 0.006939437602057218 -0.0004698785319675179 55 199 0
-0.005123820347172051 0.007463533306041005 -3.662449725620442e-05 4 250 0
-0.0056479160511558385 -0.006162954497720847 0.0002008968537570395 0 239 15
-0.0056479160511558385 -0.005638859293553672 0.00016680436263695464 0 242 12
-0.0056479160511558385 -0.005114763589569886 -0.0006725506695097636 79 175 0
-0.0056479160511558385 -0.004590667885586098 -0.0009777931729470295 116 138 0
-0.0056479160511558385 -0.004066572181602311 -0.0014110472076583431 167 87 0
-0.0056479160511558385 -0.003542476477618524 -0.0014764702032993397 175 79 0
-0.0056479160511558385 -0.0030183807736347368 -0.001541892199307112 183 71 0
-0.0056479160511558385 -0.0024942850696509497 -0.0016394314111834434 194 60 0
-0.0056479160511558385 -0.0019701893656671626 -0.0016735239023035284 198 56 0
-0.0056479160511558385 -0.0014460936616833757 -0.0017389458983113008 206 48 0
-0.0056479160511558385 -0.0009219979576995885 -0.0017104233635178868 203 51 0
-0.0056479160511558385 -0.00039790225371580146 -0.0016818998290912483 199 55 0
-0.0056479160511558385 0.00012619345026798563 -0.0018553991704275713 220 34 0
-0.0056479160511558385 0.0006502892792059258 -0.0015809578657188675 187 67 0
-0.0056479160511558385 0.001174384983189713 -0.0014860177002261226 176 78 0
-0.0056479160511558385 0.0016984806871735 -0.0014250500698665281 169 85 0
-0.0056479160511558385 0.0022225763618711576 -0.0014904720658743002 176 78 0
-0.0056479160511558385 0.002746672063902536 -0.001395530900748331 165 89 0
-0.0056479160511558385 0.0032707677991248613 -0.0013985018106914154 166 88 0
-0.0056479160511558385 0.0037948635031086484 -0.0013035606455654462 154 100 0
-0.0056479160511558385 0.004318959207092435 -0.001242594014839076 147 107 0
-0.0056479160511558385 0.00484305478612207 -0.0010165734440732027 120 134 0
-0.0056479160511558385 0.005367150490105856 0.00036003446455759754 0 227 27
-0.0056479160511558385 0.005891246194089644 -0.0008527135659203126 101 153 0
-0.0056479160511558385 0.0064153418980734305 -0.0008241900314936742 97 157 0
-0.0056479160511558385 0.006939437602057218 -0.0007292493661843173 86 168 0
-0.0056479160511558385 0.007463533306041005 -0.0003593091010103977 42 212 0
-0.0056479160511558385 0.007987629010024791 0.00040419876023069267 0 224 30
-0.006172011755139625 -0.005638859293553672 0.0004931661172073105 0 217 37
-0.006172011755139625 -0.005114763589569886 -0.0002159906859868619 25 229 0
-0.006172011755139625 -0.004590667885586098 -0.0008016647962303865 95 159 0
-0.006172011755139625 -0.004066572181602311 -0.0013366734961255638 158 96 0
-0.006172011755139625 -0.003542476477618524 -0.0014316136616183085 169 85 0
-0.006172011755139625 -0.0030183807736347368 -0.0013340744497419771 158 96 0
-0.006172011755139625 -0.0024942850696509497 -0.0017040147149158969 202 52 0
-0.006172011755139625 -0.0019701893656671626 -0.001669922223795812 198 56 0
-0.006172011755139625 -0.0014460936616833757 -0.0016044992281548153 190 64 0
-0.006172011755139625 -0.0009219979576995885 -0.00160153031747818 190 64 0
-0.006172011755139625 -0.00039790225371580146 -0.001696471482604149 201 53 0
-0.006172011755139625 0.00012619345026798563 -0.0011117700154880206 132 122 0
-0.006172011755139625 0.0006502892792059258 -0.0015231780657120643 180 74 0
-0.006172011755139625 0.001174384983189713 -0.0014890865742252038 176 78 0
-0.006172011755139625 0.0016984806871735 -0.0014861156642821194 176 78 0
-0.006172011755139625 0.0022225763618711576 -0.001420693668274347 168 86 0
-0.006172011755139625 0.002746672063902536 -0.0012471953265712488 148 106 0
-0.006172011755139625 0.0032707677991248613 -0.001308161957297619 155 99 0
-0.006172011755139625 0.0037948635031086484 -0.000468807424967513 55 199 0
-0.006172011755139625 0.004318959207092435 -0.0011509251490733647 136 118 0
-0.006172011755139625 0.00484305478612207 -0.0010533859371970333 125 129 0
-0.006172011755139625 0.005367150490105856 -0.001050415027253949 124 130 0
-0.006172011755139625 0.005891246194089644 -0.0006171609925426356 73 181 0
-0.006172011755139625 0.0064153418980734305 -0.0008916012976181149 105 149 0
-0.006172011755139625 0.006939437602057218 -0.0006306335493252464 74 180 0
-0.006172011755139625 0.007463533306041005 -8.24396871994894e-05 9 245 0
-0.006172011755139625 0.007987629010024791 0.0011144116759265034 0 169 85
-0.006696107459123413 -0.005638859293553672 0.0007697086509538215 0 195 59
-0.006696107459123413 -0.005114763589569886 -0.0003078164941688129 36 218 0
-0.006696107459123413 -0.004590667885586098 -0.0008560103562945701 101 153 0
-0.006696107459123413 -0.004066572181602311 -0.0013284994952491842 157 97 0
-0.006696107459123413 -0.003542476477618524 -0.0014260387071255156 169 85 0
-0.006696107459123413 -0.0030183807736347368 -0.0015235789186350715 180 74 0
-0.006696107459123413 -0.0024942850696509497 -0.0015890009146428438 188 66 0
-0.006696107459123413 -0.0019701893656671626 -0.0014940597495168744 177 77 0
-0.006696107459123413 -0.0014460936616833757 -0.0014655362150902361 174 80 0
-0.006696107459123413 -0.0009219979576995885 -0.001639035556426559 194 60 0
-0.006696107459123413 -0.00039790225371580146 -0.001610513021633145 191 63 0
-0.006696107459123413 0.00012619345026798563 -0.001613482931943005 191 63 0
-0.006696107459123413 0.0006502892792059258 -0.0016164528422528649 191 63 0
-0.006696107459123413 0.001174384983189713 -0.0016194227525627247 192 62 0
-0.006696107459123413 0.0016984806871735 -0.0015244815874367555 181 73 0
-0.006696107459123413 0.0022225763618711576 -0.0014959590526433416 177 77 0
-0.006696107459123413 0.002746672063902536 -0.00011935164382915357 14 240 0
-0.006696107459123413 0.0032707677991248613 -0.0013545229469814572 160 94 0
-0.006696107459123413 0.0037948635031086484 -0.001388615438101542 164 90 0
-0.006696107459123413 0.004318959207092435 -0.0012936742729755728 153 101 0
-0.006696107459123413 0.00484305478612207 -0.0011156710841464617 132 122 0
-0.006696107459123413 0.005367150490105856 -0.0010207304188371046 121 133 0
-0.006696107459123413 0.005891246194089644 -0.0009922068844104663 117 137 0
-0.006696107459123413 0.0064153418980734305 -0.000963683349983828 114 140 0
-0.006696107459123413 0.006939437602057218 -0.00042867514990526273 50 204 0
-0.006696107459123413 0.007463533306041005 -0.00010604902469470028 12 242 0
-0.006696107459123413 0.007987629010024791 0.0005760696990443759 0 210 44
-0.006696107459123413 0.00851172471400858 0.0005419772079242911 0 213 41
-0.006696107459123413 0.009035820417992366 0.002394814883035621 0 71 183
-0.007220203163107199 -0.005114763589569886 0.0008701577951465454 0 188 66
-0.007220203163107199 -0.004590667885586098 -0.00034185850381106275 40 214 0
-0.007220203163107199 -0.004066572181602311 -0.0009028551684590449 107 147 0
-0.007220203163107199 -0.003542476477618524 -0.0013487670588750373 160 94 0
-0.007220203163107199 -0.0030183807736347368 -0.0013772895936684513 163 91 0
-0.007220203163107199 -0.0024942850696509497 -0.0013431981021815908 159 95 0
-0.007220203163107199 -0.0019701893656671626 -0.0017131383673555105 203 51 0
-0.007220203163107199 -0.0014460936616833757 -0.0008737823355755678 103 151 0
-0.007220203163107199 -0.0009219979576995885 -0.001051786024221291 124 130 0
-0.007220203163107199 -0.00039790225371580146 -0.0014631940744453348 173 81 0
-0.007220203163107199 0.00012619345026798563 -0.001558135239571304 185 69 0
-0.007220203163107199 0.0006502892792059258 -0.0015551643296282196 184 70 0
-0.007220203163107199 0.001174384983189713 -0.0015836878640548581 188 66 0
-0.007220203163107199 0.0016984806871735 -0.0014101885227185353 167 87 0
-0.007220203163107199 0.0022225763618711576 -0.0013447675263439875 159 95 0
-0.007220203163107199 0.002746672063902536 -0.0015707875972932484 186 68 0
-0.007220203163107199 0.0032707677991248613 -0.001505365601285476 178 76 0
-0.007220203163107199 0.0037948635031086484 -0.0013318672595823778 158 96 0
-0.007220203163107199 0.004318959207092435 -0.0008593771209945391 102 152 0
-0.007220203163107199 0.00484305478612207 -0.0005541341177406609 65 189 0
-0.007220203163107199 0.005367150490105856 -0.0008285759222659768 98 156 0
-0.007220203163107199 0.005891246194089644 -0.0006550770807462662 77 177 0
-0.007220203163107199 0.0064153418980734305 -0.0004815782392265556 57 197 0
-0.007220203163107199 0.006939437602057218 -4.832420451524216e-05 5 249 0
-0.007220203163107199 0.007463533306041005 0.0007026117694784725 0 201 53
-0.007220203163107199 0.007987629010024791 0.002053320680713445 0 97 157
-0.007220203163107199 0.00851172471400858 0.003170967089313591 0 11 243
-0.007744298867090987 -0.004590667885586098 -7.088842547428389e-05 8 246 0
-0.007744298867090987 -0.004066572181602311 -0.0005041429600022096 59 195 0
-0.007744298867090987 -0.003542476477618524 -0.0012852873502223838 152 102 0
-0.007744298867090987 -0.0030183807736347368 -0.0014587866915587067 173 81 0
-0.007744298867090987 -0.0024942850696509497 -0.0013638465260659618 161 93 0
-0.007744298867090987 -0.0019701893656671626 -0.0012689053609399926 150 104 0
-0.007744298867090987 -0.0014460936616833757 -0.0011739641958140234 139 115 0
-0.007744298867090987 -0.0009219979576995885 -0.0012393861918217957 147 107 0
-0.007744298867090987 -0.00039790225371580146 -0.0012734786829418805 151 103 0
-0.007744298867090987 0.00012619345026798563 -0.0012449551485152423 147 107 0
-0.007744298867090987 0.0006502892792059258 -0.0012479260584583266 148 106 0
-0.007744298867090987 0.001174384983189713 -0.001313348054466099 155 99 0
-0.007744298867090987 0.0016984806871735 -0.0013163179647759588 156 98 0
-0.007744298867090987 0.0022225763618711576 -0.0014138571766522902 167 87 0
-0.007744298867090987 0.002746672063902536 -0.001187837105703029 141 113 0
-0.007744298867090987 0.0032707677991248613 -0.0010098344166905302 119 135 0
-0.007744298867090987 0.0037948635031086484 -0.0006872082914799678 81 173 0
