ply
format ascii 1.0
element vertex 723
property float x
property float y
property float z
end_header
0.007042385411622492 -0.0016330383833634598 0.0021773604139515047
0.007130518483465656 -0.001133210895312264 0.002240716523898848
0.007218651576321382 -0.0006333832880929084 0.0023351742137564736
0.007306784648164546 -0.00013355580004171264 0.0025452546019493288
0.007394917720007709 0.0003662716880094833 0.002548130200901131
0.007483050786926054 0.000866099148130642 0.002456188478616551
0.007571183858440896 0.001365926634319835 0.0027517880470149655
0.0076593169355372 0.001865754152163071 0.002784803466052571
0.007747450007380364 0.002365581640214267 0.0021723754293353444
0.007835583079223527 0.0028654091282654635 0.0028386266823194326
0.00792371613005413 0.003365236497148499 0.0030487070553864726
0.008011849201897294 0.0038650639851996954 0.0030515826543382747
0.008099982273740458 0.004364891473250891 0.0032196002117545136
0.00818811534558362 0.004864718961302087 0.0030007202256136065
0.00548496114550358 -0.007542834691462009 -0.0004640933409241128
0.00566122720513966 -0.0065431801920322556 -0.0005354794435680381
0.005837493348825987 -0.005543525215929864 -0.00017170383350000425
0.006013759492512314 -0.0045438702398274715 0.0003473971982866136
0.006101892564355478 -0.004044042751776276 0.0008100961228426932
0.006190025636198642 -0.00354421526372508 0.0009020378451272728
0.006278158708041806 -0.003044387775673884 0.001074416957784897
0.00636629177988497 -0.002544560287622688 0.001011062299915799
0.006454424851728134 -0.002044732799571492 0.0014094723962649624
0.006542557923571297 -0.001544905311520296 0.0016752428893220706
0.006630690995414461 -0.0010450778234691001 0.001987676400818401
0.006718824088270186 -0.0005452502162497446 0.002079617639076899
0.00680695716011335 -4.542272819854883e-05 0.0020767420401250967
0.0068950902319565134 0.0004544047598526471 0.002249121152782721
0.006983223298874858 0.0009542322199738058 0.002039041248615948
0.007071356370389701 0.001454059706162999 0.0022579221990275647
0.007159489447486005 0.001953887224006235 0.0022249067799899594
0.007247622519329169 0.002453714712057431 0.002283947313392232
0.007335755591172333 0.002953542200108627 0.0022509323783807085
0.007423888642002934 0.003453369568991663 0.002516702387411735
0.007512021713846098 0.0039531970570428595 0.002422244697554109
0.0076001547856892615 0.004453024545094055 0.002419367646524062
0.0076882878575324255 0.004952852033145251 0.002591747243207768
0.0077764209293755895 0.0054526795211964465 0.0026836884814662658
0.007864554001218754 0.005952507009247643 0.0026808128825144637
0.004808867513766055 -0.008454356595721238 -0.0009674930506441587
0.004985133657452383 -0.007454701619618845 -0.00042615682871314115
0.005161399717088464 -0.0064550471201890915 -0.0009161412715508199
0.005249532788931627 -0.005955219632137895 -0.0004965748791935245
0.005337665860774791 -0.0054553921440867 -0.00046355946015591933
0.005425798932617955 -0.004955564656035504 -0.00021083589013295054
0.005513932004461118 -0.004455737167984307 0.00012752254232912066
0.005602065076304282 -0.003955909679933112 0.00022198168426499162
0.005690198148147446 -0.003456082191881916 0.00031643937412261723
0.005778331219990609 -0.00295625470383072 0.0005265197623154724
0.005866464291833773 -0.002456427215779524 0.000620977452173098
0.005954597363676937 -0.001956599727728328 0.0011156361348824402
0.0060427304355201005 -0.0014567722396771321 0.0012100943087661475
0.0061308635073632645 -0.0009569447516259363 0.0017047529914754895
0.00621899660021899 -0.00045711714440658087 0.0017076300425055368
0.006307129672062154 4.271034364461497e-05 0.0018020877323631625
0.006395262743905317 0.0005425378316958109 0.002054811302386131
0.006483395810823662 0.0010423652918169696 0.001835931320026678
0.0065715288823385044 0.0015421927780061627 0.0018992864619218578
0.006659661959434808 0.0020420202958493987 0.001871664061487346
0.006747795031277972 0.0025418477839005945 0.0019350201714346891
0.006835928103121136 0.003041675271951791 0.002029477861292315
0.006924061153951738 0.003541502640834827 0.0020928330031874946
0.007012194225794902 0.004041330128886023 0.0020957095701914603
0.007100327297638065 0.004541157616937219 0.0020037683319329624
0.007188460369481229 0.005040985104988415 0.002098226021790588
0.007276593441324393 0.0055408125930396105 0.00200628478353209
0.0073647265131675565 0.006040640081090807 0.0020091613505360557
0.0074528595850107205 0.006540467569142002 0.002978459624099914
0.0075409926568538845 0.0070402950571932 0.0022917077035612674
0.0076291257286970485 0.0075401225452443954 0.0029579591834325816
0.007717258800540212 0.00803995003329559 0.0032106827572370043
0.004132773882028533 -0.009365878499980466 -0.0008927836249227931
0.00430904002571486 -0.008366223523878074 -0.0009497017039564994
0.004397173097558024 -0.007866396035826877 -0.0010130578139038427
0.004485306169401188 -0.007366568547775682 -0.000954015828423325
0.004573439241244351 -0.006866741059724487 -0.0008949748109949708
0.004661572229037268 -0.006366914048345928 -0.0008030345407886365
0.004749705300880432 -0.005867086560294732 -0.000630653976052767
0.004837838372723596 -0.005367259072243537 -0.00036488396702174055
0.00492597144456676 -0.0048674315841923405 -0.00019250485436411637
0.005014104516409923 -0.004367604096141144 2.6375127995336925e-05
0.005102237588253087 -0.0038677766080899485 0.0001987547246790429
0.005190370660096251 -0.0033679491200387522 0.0003711348053888306
0.005278503731939414 -0.0028681216319875564 0.0004630750755951649
0.005366636803782578 -0.0023682941439363606 0.0007288465367044365
0.005454769875625742 -0.0018684666558851646 0.0008207872909368525
0.005542902947468905 -0.0013686391678339686 0.000879827824339125
0.005631036019312069 -0.0008688116797827728 0.0007853701344814994
0.005719169112167795 -0.0003689840725634173 0.0013286429447656829
0.005807302184010959 0.00013084341548777855 0.0017604668136177492
0.005895435255854122 0.0006306709035389745 0.001507744211646944
0.005983568322772467 0.0011304983636601332 0.0015048671606168965
0.006071701394287309 0.0016303258498493263 0.0015324895610514084
0.006159834471383613 0.0021301533676925622 0.0015601119614859203
0.006247967543226777 0.002629980855743758 0.0010654527947504965
0.006336100615069941 0.0031298083437949547 0.0016087260890607618
0.006424233665900543 0.0036296357126779904 0.0016363470374170283
0.006512366737743707 0.004129463200729187 0.001728288759701608
0.00660049980958687 0.004629290688780382 0.0017559111601361198
0.006688632881430034 0.005129118176831578 0.0017228957410985145
0.006776765953273198 0.005628945664882774 0.0017200196581206308
0.006864899025116361 0.006128773152933971 0.0016566640321993692
0.006953032096959525 0.006628600640985166 0.0016236495812139277
0.007041165168802689 0.007128428129036364 0.001682690598642282
0.007129298240645853 0.0076282556170875595 0.0018550697112999061
0.007217431312489016 0.008128083105138755 0.002317768635855986
0.00730556438433218 0.008627910593189951 0.0028849397499015345
0.0036329463939773357 -0.009277745428137302 -0.000842859722770679
0.0038092125376636633 -0.00827809045203491 -0.0009171596624268663
0.003897345609506827 -0.007778262963983714 -0.0009142835794489826
0.003985478681349991 -0.007278435475932518 -0.0009114070124450171
0.004073611753193154 -0.006778607987881323 -0.0008480518705498372
0.004161744740986071 -0.006278780976502764 -0.0007846962446285757
0.0042498778128292345 -0.005778953488451568 -0.0007213411027333959
0.0043380108846723985 -0.005279126000400373 -0.0005112607145405408
0.0044261439565155625 -0.0047792985123491765 -9.169432218324543e-05
0.004514277028358726 -0.00427947102429798 -2.8339180288065653e-05
0.00460241010020189 -0.0037796435362467845 0.00031001925217400556
0.004690543172045054 -0.0032798160481955886 0.0004780363217827088
0.004778676243888217 -0.002779988560144393 0.0008163957222969435
0.004866809315731381 -0.0022801610720931966 0.0008192718052748273
0.004954942387574545 -0.0017803335840420008 0.0011576312057890621
0.005043075459417708 -0.0012805060959908048 0.0012520888956466876
0.005131208531260872 -0.000780678607939609 0.0013465470695303951
0.0052193416241165975 -0.0002808510007202535 0.0012546053472458154
0.005307474695959762 0.00021897648733094235 0.001257481914249781
0.005395607767802925 0.0007188039753821383 0.001085102801592157
0.0054837408347212695 0.001218631435503297 0.0011484579434873367
0.005571873906236112 0.00171845892169249 0.0013164754971221216
0.005660006983332416 0.0022182864395357263 0.0015691985831190085
0.00574814005517558 0.002718113927586922 0.0013968194704613844
0.005836273127018744 0.0032179414156381183 0.0013691975540529545
0.005924406177849346 0.003717768784521154 0.0012772558317683748
0.00601253924969251 0.004217596272572351 0.0014452733854031599
0.006100672321535673 0.004717423760623546 0.001478288804440765
0.006188805393378837 0.005217251248674742 0.0015113037394522883
0.006276938465222001 0.005717078736725938 0.0014836818230438583
0.006365071537065164 0.006216906224777134 0.001578139512901484
0.006453204608908328 0.006716733712828329 0.001219886640426458
0.006541337680751492 0.007216561200879528 0.0014726102104494268
0.006629470752594656 0.0077163886889307235 0.001505625629487032
0.006717603824437819 0.008216216176981919 0.0016736431831218168
0.006805736896280983 0.008716043665033113 0.0027416675456712137
0.006893869968124147 0.009215871153084311 0.0027445436286490975
0.006982003124017557 0.009715699117808145 0.0028390022865588866
0.007070136195860721 0.01021552660585934 0.0031773607076765967
0.0031331189059261404 -0.009189612356294138 -0.0006535116237383244
0.003309385049612468 -0.008189957380191746 -0.001079172872517281
0.0033975181214556316 -0.007690129892140551 -0.0008602928901578279
0.003485651193298795 -0.007190302404089354 -0.000893308309195433
0.003573784265141959 -0.006690474916038159 -0.0008013665869108534
0.0036619172529348755 -0.006190647904659601 -0.0006289865062010658
0.0037500503247780395 -0.005690820416608404 -0.0006620019252386709
0.003838183396621203 -0.005190992928557209 -0.0004431219428792175
0.003926316468464367 -0.0046911654405060125 -0.0004459975418310195
0.00401444954030753 -0.004191337952454817 -0.0006140150954658046
0.004102582612150694 -0.003691510464403621 -9.590873727722627e-05
0.004190715683993858 -0.003191682976352425 0.0006171037914406839
0.0042788487558370215 -0.002691855488301229 0.0009753566639157099
0.0043669818276801855 -0.002192028000250033 0.0009724800969117443
0.0044551148995233495 -0.001692200512198837 0.0011448601776215322
0.004543247971366513 -0.0011923730241476412 0.0012368009318539483
0.004631381043209677 -0.0006925455360964453 0.0012037864808685066
0.004719514136065402 -0.00019271792887708977 0.0012628274982968608
0.004807647207908566 0.00030710955917410607 0.0010527471101040057
0.004895780279751729 0.000806937047225302 0.00095828942024638
0.004983913346670074 0.0013067645073464608 0.0009554128532424144
0.005072046418184917 0.0018065919935356539 0.0014181117777984941
0.0051601794952812205 0.00230641951137889 0.0009985453854411987
0.0052483125671243845 0.0028062469994300857 0.0010904866236996966
0.005336445638967549 0.003306074487481282 0.001087610056695731
0.00542457868979815 0.0038059018563643176 0.0011795517789803106
0.005512711761641314 0.004305729344415514 0.0012714930172388083
0.005600844833484477 0.00480555683246671 0.0011770353273811828
0.005688977905327641 0.005305384320517906 0.001395915309740636
0.0057771109771708054 0.005805211808569102 0.001227897756105851
0.005865244049013969 0.006305039296620298 0.001255520156540363
0.005953377120857133 0.006804866784671493 0.0013145606899426353
0.006041510192700297 0.007304694272722691 0.0013736017073709894
0.006129643264543461 0.007804521760773887 0.0014012241078055012
0.006217776336386624 0.008304349248825083 0.0016669941168365276
0.006305909408229788 0.008804176736876277 0.0016339791818250043
0.006394042480072952 0.009304004224927475 0.0025653934751335775
0.006482175635966362 0.009803832189651309 0.0031778217425194833
0.006570308707809526 0.010303659677702503 0.0027582551194935087
0.00665844177965269 0.0108034871657537 0.0031900787349881726
0.0025451583460317805 -0.00960130677250217 0.0014028727006400133
0.0027214244897181077 -0.00860165179639978 -0.00033137629345897444
0.0028095575615612717 -0.008101824308348582 -0.0007631996782849588
0.0028976906334044353 -0.007601996820297387 -0.0008551414005695384
0.002985823705247599 -0.007102169332246191 -0.0009141824179978925
0.003073956777090763 -0.006602341844194995 -0.0009418043344063226
0.0031620897648836793 -0.006102514832816437 -0.0008784496765372246
0.0032502228367268433 -0.005602687344765241 -0.0009374902099394969
0.003338355908570007 -0.005102859856714046 -0.0004799287382153356
0.0034264889804131705 -0.0046030323686628485 -0.0008381806426381981
0.0035146220522563345 -0.004103204880611653 -0.00038061868688795493
0.003602755124099498 -0.003603377392560457 -0.0002861605130042476
0.0036908881959426616 -0.003103549904509261 0.00013340587935304786
0.0037790212677858257 -0.0026037224164580652 0.0009183940544824807
0.0038671543396289892 -0.002103894928406869 0.001337960446839776
0.003955287411472153 -0.0016040674403556732 0.0016335595312121085
0.004043420483315316 -0.0011042399523044774 0.0018436399194049636
0.00413155355515848 -0.0006044124642532815 0.0018766553384425688
0.004219686648014206 -0.00010458485703392598 0.003101721464070695
0.00430781971985737 0.00039524263101726987 0.0017371411127111189
0.004395952791700533 0.0008950701190684658 0.001378888240236093
0.004484085858618878 0.0013948975791896246 0.0009470648554101087
0.00457221893013372 0.0018947250653788177 0.0008551231331255291
0.004660352007230024 0.0023945525832220534 0.0008579987320773311
0.004748485079073188 0.0028943800712732497 0.0009213548420246744
0.004836618150916352 0.003394207559324446 0.000984709983919854
0.004924751201746954 0.0038940349282074816 0.0011527270535285573
0.005012884273590118 0.004393862416258678 0.0011857424725661625
0.005101017345433281 0.004893689904309873 0.0011886195235962097
0.005189150417276445 0.005393517392361069 0.0012519741814653077
0.005277283489119609 0.005893344880412266 0.0012243522650568777
0.005365416560962772 0.006393172368463462 0.001257367200068401
0.005453549632805936 0.006892999856514657 0.0013207223419635808
0.0055416827046491 0.007392827344565855 0.001353737761001186
0.005629815776492264 0.00789265483261705 0.001294696743572832
0.0057179488483354276 0.008392482320668247 0.001327712162610437
0.005806081920178592 0.008892309808719441 0.001495729716245222
0.005894214992021756 0.00939213729677064 0.0014366886988168679
0.0059823481479151655 0.009891965261494473 0.0016894122688398366
0.0060704812197583296 0.010391792749545667 0.002474399959943188
0.002045330857980585 -0.009513173700659006 0.0008968742548869386
0.0021334639298237488 -0.00901334621260781 0.0015574420736188708
0.0022215970016669123 -0.008513518724556616 -0.00029601092779437077
0.0023097300735100764 -0.00801369123650542 -0.000548733529765176
0.00239786314535324 -0.007513863748454223 -0.0008014570997881448
0.0024859962171964035 -0.007014036260403027 -0.0008648132097354881
0.0025741292890395675 -0.006514208772351831 -0.0009281678676045861
0.002662262276832484 -0.006014381760973273 -0.0009611832866421912
0.002750395348675648 -0.005514554272922077 -0.0009941987056797965
0.0028385284205188115 -0.0050147267848708816 -0.0009351576882514422
0.002926661492361975 -0.004514899296819685 -0.0010296158621351497
0.003014794564205139 -0.004015071808768489 -0.0008572362654514436
0.0031029276360483027 -0.0035152443207172933 -0.0006383553150398269
0.0031910607078914663 -0.0030154168326660975 2.221250369210542e-05
0.0032791937797346303 -0.0025155893446149017 0.0011855962966894676
0.003367326851577794 -0.0020157618565637054 0.0016174201655415337
0.0034554599234209575 -0.0015159343685125096 0.0017093614038000316
0.003543592995264121 -0.0010161068804613136 0.0019751318968571395
0.0036317260671072846 -0.0005162793924101178 0.00228756540835347
0.0037198591599630106 -1.6451785190762387e-05 0.0017566894740756074
0.0038079922318061737 0.00048337570286043356 0.0019755704244872243
0.0038961253036493377 0.0009832031909116294 0.0020346114419155783
0.0039842583705676825 0.0014830306510327882 0.0015770485181131717
0.004072391442082525 0.0019828581372219813 0.0012386900856511006
0.004160524519178829 0.002482685655065217 0.0010706725320163155
0.004248657591021993 0.0029825131431164133 0.0008179489619933467
0.004336790662865157 0.0034823406311676095 0.0011303824734896772
0.004424923713695759 0.003982168000050645 0.0008347838731434266
0.004513056785538923 0.004481995488101842 0.000771428247222165
0.004601189857382086 0.004981822976153037 0.0009903077455555365
0.00468932292922525 0.0054816504642042334 0.0010493497310360544
0.004777456001068414 0.005981477952255429 0.0006297833386787588
0.004865589072911577 0.006481305440306625 0.0011969530006460624
0.004953722144754741 0.0069811329283578204 0.0011639375816084572
0.005041855216597905 0.007480960416409018 0.0012558793038930367
0.005129988288441069 0.007980787904460215 0.0013478210261776164
0.005218121360284232 0.00848061539251141 0.0017060738986526423
0.005306254432127396 0.008980442880562605 0.0012865070222692653
0.00539438750397056 0.009480270368613802 0.00125349160323166
0.00548252065986397 0.009980098333337635 0.0018206627172772088
0.005570653731707134 0.010479925821388831 0.002039542699636662
0.005658786803550297 0.010979753309440028 0.0028863322929387897
0.0016336362034362335 -0.008925213098739523 0.0014377961504919601
0.001721769275279397 -0.008425385610688329 0.0006718824751929619
0.001809902347122561 -0.007925558122637132 -0.00014769517179199574
0.0018980354189657247 -0.007425730634585936 -0.0011977941124290826
0.0019861684908088883 -0.00692590314653474 -0.0009021950280567501
0.0020743015626520523 -0.0064260756584835444 -0.0009941367503413297
0.0021624345504449687 -0.005926248647104986 -0.0011665163470250357
0.0022505676222881327 -0.00542642115905379 -0.0011636402640471518
0.0023387006941312963 -0.004926593671002595 -0.0011912626644816637
0.00242683376597446 -0.004426766182951398 -0.0011582472454440586
0.002514966837817624 -0.003926938694900202 -0.0011252318264064534
0.0026030999096607874 -0.0034271112068490063 -0.0007868733939443822
0.002691232981503951 -0.00292728371879781 -0.00022064467868004178
0.002779366053347115 -0.0024274562307466142 0.0017589847257553659
0.002867499125190278 -0.0019276287426954182 0.0019516377548740534
0.002955632197033442 -0.0014278012546442222 0.002289997155388288
0.0031318983407197694 -0.00042814627854183046 0.002749149620843231
0.003220031433575495 7.168132867752502e-05 0.0027520257038211146
0.0033081645054186585 0.0005715088167287209 0.002962105834875114
0.0033962975772618225 0.0010713363047799168 0.0026963355989568618
0.003484430644180167 0.0015711637649010756 0.00266871319852235
0.0035725637156950093 0.0020709912510902687 0.0022703026181471048
0.0036606967927913137 0.0025708187689335044 0.001957869590676856
0.0037488298646344777 0.0030706462569847002 0.0013677527361988676
0.0038369629364776413 0.003570473745035897 0.0014007681552364727
0.003925095987308243 0.004070301113918933 0.0009689447704104883
0.004013229059151407 0.004570128601970129 0.0009718203693622903
0.004101362130994571 0.005069956090021324 0.0012674194537346229
0.004189495202837734 0.00556978357807252 0.0012083789203323504
0.004277628274680898 0.006069611066123716 0.0013763964739671355
0.004365761346524062 0.006569438554174913 0.0015444135435758388
0.004453894418367225 0.007069266042226108 0.001577428962613444
0.004542027490210389 0.007569093530277306 0.0016407841045086235
0.004630160562053553 0.008068921018328502 0.0017041387623777215
0.004718293633896717 0.008568748506379698 0.001767494872325065
0.0048064267057398805 0.009068575994430892 0.0015951157596674407
0.0048945597775830445 0.00956840348248209 0.0016895734495250665
0.004982692933476455 0.010068231447205924 0.0015976322112665686
0.0050708260053196185 0.010568058935257118 0.0025669317100214463
0.0010456756435418741 -0.009336907514947555 0.0008806642214084251
0.0011338087153850377 -0.008837080026896359 0.0014239375157186903
0.0012219417872282013 -0.008337252538845165 -0.0002555589320364349
0.001310074859071365 -0.007837425050793968 -0.0010683974838848938
0.001398207930914529 -0.007337597562742772 -0.0005770427632097211
0.0014863410027576927 -0.006837770074691576 -0.0008726423316081353
0.0015744740746008563 -0.00633794258664038 -0.000905656782593577
0.001662607062393773 -0.005838115575261822 -0.0011157366867603504
0.0017507401342369369 -0.005338288087210626 -0.0011487521057979555
0.0018388732060801005 -0.0048384605991594306 -0.001243210279681663
0.0019270062779232643 -0.004338633111108234 -0.0012155878792471512
0.002015139349766428 -0.003838805623057038 -0.0012486032982847563
0.0021032724216095916 -0.0033389781350058423 -0.0012209808978502444
0.0021914054934527552 -0.0028391506469546465 -0.001129039175565665
0.0022795385652959192 -0.0023393231589034507 -0.0006972157907396805
0.0023676716371390824 -0.0018394956708522544 0.0018132121038005064
0.002455804708982246 -0.0013396681828010586 0.002632789750785464
0.00254393778082541 -0.0008398406947498626 0.0031760625497252865
0.003337135448426445 0.0036586068168790605 0.002174733604405733
0.003425268499257047 0.004158434185762097 0.002440503613436759
0.003513401571100211 0.004658261673813293 0.001655515922333408
0.0036015346429433747 0.005158089161864488 0.0015921607804382282
0.0036896677147865388 0.0056579166499156845 0.0016197831808727398
0.0037778007866297023 0.00615774413796688 0.0015867677618351347
0.0038659338584728664 0.006657571626018076 0.0016787094841197144
0.00395406693031603 0.0071573991140692714 0.0016456940650821093
0.004042200002159194 0.007657226602120469 0.001737635303340607
0.004130333074002357 0.008157054090171666 0.002050068814836938
0.004218466145845521 0.00865688157822286 0.0019867127048895945
0.004306599217688684 0.009156709066274056 0.0022524831979467024
0.004394732289531848 0.009656536554325254 0.0023115251834272205
0.004482865445425259 0.010156364519049086 0.002308648132397173
0.004570998517268423 0.010656192007100282 0.002771347540979334
0.0006339812273338419 -0.008748946955053195 0.001384251733248198
0.0007221142991770056 -0.008249119467002 0.0006448651073606637
0.0008102473710201694 -0.007749291978950804 -0.00037512886306850763
0.0008983804428633331 -0.007249464490899609 -0.000594008845427961
0.0009865135147064969 -0.006749637002848412 -0.0008597793384850692
0.0010746465865496605 -0.006249809514797216 -0.0011722123659553179
0.0011627795743425773 -0.005749982503418659 -0.001344591478612942
0.001250912646185741 -0.005250155015367462 -0.001311576059575337
0.0013390457180289046 -0.0047503275273162665 -0.0013391984600098488
0.0014271787898720684 -0.00425050003926507 -0.0014311401822944283
0.0015153118617152322 -0.0037506725512138745 -0.0011784166122714595
0.0016034449335583958 -0.0032508450631626787 -0.0011755414973457395
0.0016915780054015596 -0.002751017575111483 -0.0013479206100033636
0.0017797110772447234 -0.0022511900870602866 -0.0011799025723424968
0.001867844149087887 -0.0017513625990090908 -0.00042343563408142463
0.003277973298578506 0.006245877209810044 0.002843189596192288
0.00336610637042167 0.00674570469786124 0.00287620404717773
0.0034542394422648337 0.0072455321859124355 0.00278426232489315
0.0035423725141079977 0.0077453596739636334 0.00312262171028157
0.0036305055859511613 0.00824518716201483 0.0031859768559582037
4.602066743948247e-05 -0.009160641371261227 0.0016687777529478536
0.00013415373928264612 -0.008660813883210033 0.0011379018186699907
0.00022228681112581 -0.008160986395158836 0.0001437199911295074
0.0003104198829689738 -0.00766115890710764 -0.000275846401227788
0.00039855295481213744 -0.007161331419056445 -0.0006954127935850834
0.00048668602665530124 -0.006661503931005249 -0.0008634303472198684
0.0005748190984984651 -0.006161676442954053 -0.0010314479008546535
0.0006629520862913818 -0.005661849431575495 -0.0011994649704633567
0.0007510851581345456 -0.005162021943524299 -0.0012628201123585363
0.0008392182299777093 -0.004662194455473103 -0.0012958355313961415
0.0009273513018208731 -0.004162366967421907 -0.0012987116143740253
0.0010154843736640369 -0.003662539479370711 -0.0010329411213169171
0.0011036174455072005 -0.003162711991319515 -0.0013285402056892497
0.0011917505173503643 -0.0026628845032683193 -0.0016668986381513208
0.001279883589193528 -0.002163057015217123 -0.0011236258278671373
0.0013680166610366916 -0.0016632295271659272 -0.0011566412469047424
0.0014561497328798554 -0.0011634020391147312 -0.0010976002294763882
0.0015442828047230188 -0.0006635745510635353 -0.00043703144269229243
-0.0003656736296003904 -0.00857268083237943 0.0017422887300907542
-0.00027754055775722653 -0.008072853344328234 0.0006921883373754217
-0.00018940748591406273 -0.007573025856277039 -0.0006409288817166039
-0.00010127441407089909 -0.007073198368225843 -0.0004729113280818189
-1.3141342227735286e-05 -0.006573370880174646 -0.0008713214244309823
7.499172961542858e-05 -0.006073543392123451 -0.001043701021114688
0.00016312471740834527 -0.005573716380744893 -0.001262581971526305
0.00025125778925150905 -0.005073888892693697 -0.0013216225049285774
0.00033939086109467274 -0.004574061404642501 -0.0013492439373109257
0.00042752393293783654 -0.004074233916591305 -0.001346367854333042
0.0005156570047810002 -0.003574406428540109 -0.0012519091964232527
0.0006037900766241639 -0.003074578940488913 -0.0011574515065656272
0.0006919231484673277 -0.002574751452437717 -0.001124436087528022
0.0007800562203104914 -0.0020749239643865214 -0.0010914216365425803
0.0008681892921536551 -0.0015750964763353251 -0.0013571916455736067
0.0009563223639968189 -0.0010752689882841293 -0.0012938355356262635
0.0010444554358399823 -0.0005754415002329333 -0.0005966753451124379
-0.0009536341894947499 -0.008984375248587462 0.0020554264995360613
-0.0008655011176515864 -0.008484547760536266 0.0018027038975652562
-0.0007773680458084227 -0.007984720272485072 0.0008585258364803793
-0.0006892349739652588 -0.0074848927844338746 -8.565270863057941e-05
-0.0006011019021220951 -0.006985065296382679 -0.00018011039848820503
-0.0005129688302789312 -0.006485237808331483 -0.0009365778207753589
-0.00042483575843576757 -0.005985410320280288 -0.0010310359946590665
-0.0003367027706428509 -0.005485583308901729 -0.0011990535482938513
-0.0002485696987996871 -0.004985755820850533 -0.0012320689673314565
-0.0001604366269565233 -0.004485928332799338 -0.0019292291578452822
-7.230355511335962e-05 -0.0039861008447481415 -0.0012686603710611863
1.5829516729804108e-05 -0.0034862733566969452 -0.0013016757900987915
0.00010396258857296794 -0.0029864458686457494 -0.0015543993601217602
0.00019209566041613157 -0.002486618380594553 -0.001241965364599348
0.0002802287322592953 -0.0019867908925433574 -0.0013053205064945277
0.00036836180410245903 -0.0014869634044921616 -0.001277698106060016
0.00045649487594562273 -0.0009871359164409655 -0.0010588186077266444
0.0005446279477887865 -0.0004873084283897696 -0.0012688985118934177
0.0006327610196319502 1.2519059661426276e-05 -0.0011769567896088382
0.0007208941124876757 0.0005123466668807817 -0.0009111867805778117
-0.001453461677545946 -0.008896242176744298 0.0024675292097124466
-0.0012771955338596185 -0.007896587200641908 0.0011450828296191463
-0.0011890624620164547 -0.0073967597125907105 0.000379169154320148
-0.0011009293901732909 -0.006896932224539515 -0.0004134622766665319
-0.001012796318330127 -0.006397104736488319 -0.0005858413893241561
-0.0009246632464869634 -0.0058972772484371236 -0.0009842529377515647
-0.0008365302586940467 -0.005397450237058565 -0.0007741725495587096
-0.0007483971868508829 -0.004897622749007369 -0.0013174453598428933
-0.0006602641150077192 -0.004397795260956174 -0.0014093870821274728
-0.0005721310431645554 -0.0038979677729049774 -0.0014065100310974256
-0.0004839979713213917 -0.0033981402848537816 -0.0013431558572544093
-0.00039586489947822796 -0.0028983127968025854 -0.001340278806224362
-0.00030773182763506416 -0.0023984853087513896 -0.00207966640016406
-0.0002195987557919005 -0.0018986578207001938 -0.001478928077347687
-0.00013146568394873677 -0.0013988303326489978 -0.0014155719674003437
-4.333261210557307e-05 -0.0008990028445978018 -0.0012475548977916404
4.480045973759067e-05 -0.0003991753565466059 -0.0013394966200762199
0.00013293353158075439 0.00010065213150458998 -0.0013671180524585682
0.00022106662443647986 0.0006004797387239454 -0.0009475516601012728
0.0003091996962796435 0.0011003072267751412 -0.00022034022627460815
-0.001865156123546018 -0.008308281611596798 0.0015296221905429959
-0.0017770230517028544 -0.007808454123545603 0.0014966077395575544
-0.0016888899798596904 -0.007308626635494407 0.0006565296519052646
-0.0016007569080165268 -0.006808799147443211 -9.722085104905412e-06
-0.0015126238361733628 -0.006308971659392015 -0.0005043807678142474
-0.0014244907643301992 -0.00580914417134082 -0.0009239471601715427
-0.0013363577765372824 -0.005309317159962261 -0.0011340275483643979
-0.0012482247046941186 -0.004809489671911065 -0.0012284852382220236
-0.001160091632850955 -0.00430966218385987 -0.001322942928079649
-0.0010719585610077912 -0.003809834695808673 -0.0013559583471172542
-0.0009838254891646274 -0.0033100072077574772 -0.001419313489012434
-0.0008956924173214638 -0.0028101797197062814 -0.0017149130574108484
-0.0008075593454783001 -0.0023103522316550856 -0.0013566601849358223
-0.0007194262736351364 -0.0018105247436038896 -0.0007665433304578339
-0.0006312932017919726 -0.0013106972555526936 -0.0015793809142541292
-0.0005431601299488089 -0.0008108697675014977 -0.001407001801596505
-0.00045502705810564507 -0.00031104227945030175 -0.0016170817057632784
-0.00036689398626248143 0.00018878520860089414 -0.0011852588049633757
-0.00027876089340675593 0.0006886128158202496 -0.001188133919889096
-0.0001906278215635922 0.0011884403038714454 -0.0011290933864868235
-0.00010249474972042853 0.0016882677919226414 -0.0008633228934297154
-0.0022768505285820353 -0.007720321053672367 0.0016864025946633835
-0.0021887174567388717 -0.00722049356562117 0.0009470150007236856
-0.0021005843848957077 -0.006720666077569975 0.00028644669796567163
-0.002012451313052544 -0.006220838589518779 -0.0002807239320537954
-0.0019243182412093801 -0.005721011101467583 -0.0008478945620732625
-0.0018361852534164635 -0.005221184090089025 -0.0010202741587569686
-0.0017480521815732995 -0.004721356602037829 -0.0014186842551061319
-0.0016599191097301362 -0.004221529113986633 -0.0013242265652485062
-0.0015717860378869721 -0.003721701625935437 -0.0014161682875330859
-0.0014836529660438083 -0.0032218741378842414 -0.0014437897199154341
-0.0013955198942006447 -0.0027220466498330455 -0.00150283122136987
-0.001307386822357481 -0.0022222191617818493 -0.0015304536218043818
-0.0012192537505143171 -0.0017223916737306535 -0.0015275765707743346
-0.0011311206786711536 -0.0012225641856794575 -0.0015246995197442873
-0.0010429876068279898 -0.0007227366976282617 -0.0014613453459012711
-0.0009548545349848261 -0.00022290920957706572 -0.0013979902040060913
-0.0008667214631416624 0.00027691827847413017 -0.0013649747849684862
-0.000778588370285937 0.0007767458856934857 -0.0011969567473076193
-0.0006904552984427732 0.0012765733737446815 -0.0015093907428300316
-0.0006023222265996095 0.0017764008617958775 -0.0005906327635076081
-0.000514189159681265 0.0022762283219170364 -0.0002522743310455368
-0.0027766779980132063 -0.007632187985112416 0.001193548361186884
-0.0026885449261700427 -0.007132360497061219 0.001130193703317786
-0.0026004118543268787 -0.006632533009010024 0.00023721785726698064
-0.002512278782483715 -0.006132705520958828 -0.00025744130946844313
-0.002424145710640551 -0.005632878032907632 -0.0009846517752429443
-0.0023360127228476343 -0.005133051021529074 -0.0009570308268866778
-0.0022478796510044708 -0.004633223533477878 -0.0014145922986108393
-0.002159746579161307 -0.0041333960454266825 -0.0014174693496408865
-0.002071613507318143 -0.0036335685573754863 -0.0014203444645666068
-0.0019834804354749796 -0.0031337410693242904 -0.0013927230321842585
-0.0018953473636318158 -0.002633913581273094 -0.0014871816900940476
-0.001807214291788652 -0.0021340860932218984 -0.0015505368319892274
-0.0017190812199454882 -0.0016342586051707026 -0.0014585951097046477
-0.0016309481481023246 -0.0011344311171195066 -0.001626612179313351
-0.0015428150762591608 -0.0006346036290683106 -0.0017210708372231403
-0.0014546820044159972 -0.00013477614101711476 -0.0013628189328002778
-0.0013665489325728334 0.00036505134703408113 -0.0014572766226579033
-0.0012784158397171079 0.0008648789542534366 -0.0013653349003733238
-0.001190282767873944 0.0013647064423046324 -0.0011929557877156996
-0.0011021496960307807 0.0018645339303558284 -0.000506202641986034
-0.001014016629112436 0.0023643613904769873 -0.0010724318412764563
-0.0009258835575975937 0.0028641888766661803 -0.0006740202928490475
-0.0008377504805012894 0.003364016394509416 1.2731400802372943e-05
-0.0031883724142212386 -0.007044227425218056 0.0012868206711702521
-0.003100239342378075 -0.006544399937166861 0.0007435478608860686
-0.003012106270534911 -0.006044572449115664 5.679519918248462e-05
-0.0029239731986917474 -0.005544744961064468 -0.000486477611101699
-0.0028358402108988306 -0.005044917949685911 -0.0010045849373424409
-0.0027477071390556666 -0.004545090461634715 -0.0011769645340261468
-0.002659574067212503 -0.0040452629735835185 -0.001349343646683771
-0.0025714409953693394 -0.0035454354855323227 -0.0014083841800860435
-0.0024833079235261754 -0.0030456079974811264 -0.001500325902370623
-0.002395174851683012 -0.0025457805094299306 -0.0015922676246552026
-0.002307041779839848 -0.002045953021378735 -0.0015289115147078592
-0.002218908707996684 -0.0015461255333275388 -0.0018871643871828851
-0.0021307756361535206 -0.0010462980452763428 -0.001548805954720814
-0.002042642564310357 -0.000546470557225147 -0.0015764283551553259
-0.001954509492467193 -4.6643069173951e-05 -0.0016354688885575983
-0.0018663764206240294 0.0004531844188772449 -0.0014253889843908248
-0.001778243327768304 0.0009530120260966004 -0.0013923735653532197
-0.0016901102559251401 0.0014528395141477962 -0.0011396509633824145
-0.0016019771840819765 0.001952667002198992 -0.001136774396378449
-0.001513844117163632 0.002452494462320151 -0.0010423162224947415
-0.0014257110456487895 0.002952321948509344 -0.0009789601125473983
-0.0013375779685524856 0.00345214946635258 -0.00048430142983805623
-0.003776332974115599 -0.007455921841426088 0.0026287132831247875
-0.003688199902272435 -0.006956094353374892 0.0022903538826105525
-0.0036000668304292708 -0.006456266865323697 0.0009265010073260636
-0.003511933758586107 -0.005956439377272501 -4.2798007402732194e-05
-0.003423800686742943 -0.005456611889221305 -0.0006435363302191052
-0.003335667698950027 -0.004956784877842747 -0.0010631032066024822
-0.003247534627106863 -0.004456957389791551 -0.001004062189174128
-0.0031594015552636992 -0.003957129901740355 -0.0013424201376101175
-0.0030712684834205356 -0.0034573024136891587 -0.0016807785700721886
-0.0029831354115773716 -0.002957474925637963 -0.0014618990717388172
-0.002895002339734208 -0.002457647437586767 -0.0015563567615964429
-0.0028068692678910444 -0.001957819949535571 -0.0014973162281941704
-0.0027187361960478804 -0.001457992461484375 -0.0017500397982171392
-0.002630603124204717 -0.0009581649734331791 -0.0016580980759325595
-0.0025424700523615533 -0.0004583374853819832 -0.001660975126962607
-0.0024543369805183892 4.149000266921275e-05 -0.001663850241888327
-0.0023662039086752257 0.0005413174907204087 -0.0014914711292307028
-0.0022780708158195 0.0010411450979397642 -0.0013190920165730786
-0.0021899377439763366 0.00154097258599096 -0.0013521074356106838
-0.0021018046721331726 0.002040800074042156 -0.0012601657133261043
-0.002013671605214828 0.0025406275341633144 -0.00108778660066848
-0.0019255385336999858 0.003040455020352508 -0.0011208010516539216
-0.0018374054566036816 0.0035402825381957437 -0.0007625481791788957
-0.0017492723847605178 0.00404011002624694 -0.0006706074249464797
-0.001661139312917354 0.004539937514298136 -0.00020790753233823658
-0.004099894437648626 -0.006368133772467971 0.0014043354274591246
-0.004011761365805462 -0.005868306284416775 0.00016673881950029397
-0.003923628293962299 -0.00536847879636558 -0.0005991748557987042
-0.0038354953061693823 -0.0048686517849870214 -0.0008180543541320758
-0.0037473622343262183 -0.004368824296935825 -0.0014786231409161716
-0.0036592291624830547 -0.0038689968088846294 -0.0011402642244280187
-0.003571096090639891 -0.003369169320833433 -0.0014985166128769628
-0.003482963018796727 -0.0028693418327822373 -0.0015575590823835625
-0.0033948299469535636 -0.0023695143447310415 -0.0016494998366159783
-0.0033066968751104 -0.0018696868566798455 -0.0016164853856305368
-0.003218563803267236 -0.0013698593686286495 -0.001708426139862953
-0.0031304307314240724 -0.0008700318805774536 -0.0017360475722453012
-0.003042297659580909 -0.00037020439252625765 -0.0016726924303501214
-0.0029541645877377448 0.0001296230955249383 -0.0014199698283793162
-0.002866031515894581 0.0006294505835761342 -0.0015923489410369404
-0.0027778984230388557 0.0011292781907954897 -0.001339626339066135
-0.002689765351195692 0.0016291056788466855 -0.0014315661252463875
-0.002601632279352528 0.0021289331668978813 -0.0012635490556376842
-0.0025134992124341837 0.0026287606270190404 -0.001291171456072196
-0.0024253661409193413 0.0031285881132082334 -0.000995571887673782
-0.002337233063823037 0.003628415631051469 -0.0009011141978161561
-0.0022490999919798733 0.004128243119102665 -0.0008377590559209763
-0.0021609669201367097 0.004628070607153862 -0.00041819266356368096
-0.0020728338693061076 0.005127897976036897 0.0003667964796179154
-0.0045997219256998225 -0.006280000700624807 0.0005749194663360883
-0.0045115888538566585 -0.005780173212573611 0.0005115633563887449
-0.0044234557820134945 -0.005280345724522416 -0.00045773469028788735
-0.004335322794220578 -0.004780518713143857 -0.0007533342586863017
-0.004247189722377414 -0.004280691225092661 -0.0012479934254217254
-0.004159056650534251 -0.003780863737041466 -0.0013424520833315147
-0.004070923578691087 -0.0032810362489902696 -0.0013453281663093983
-0.003982790506847923 -0.0027812087609390738 -0.001439785856167024
-0.0038946574350047594 -0.0022813812728878775 -0.0015342445140768132
-0.0038065243631615953 -0.0017815537848366817 -0.001829843114423064
-0.0037183912913184313 -0.001281726296785486 -0.0018327191974009476
-0.003630258219475268 -0.0007818988087342899 -0.001434309585077866
-0.003542125147632104 -0.00028207132068309396 -0.0017726680175399372
-0.0034539920757889406 0.00021775616736810198 -0.0016807262952553577
-0.003365859003945777 0.0007175836554192979 -0.001744082405202701
-0.0032777259110900515 0.0012174112626386533 -0.0013456708567752922
-0.003189592839246888 0.001717238750689849 -0.0015136879263839954
-0.003101459767403724 0.002217066238741045 -0.001294808428050624
-0.003013326700485379 0.002716893698862204 -0.0019610596810347124
-0.002925193628970537 0.003216721185051397 -0.0011951464897617958
-0.0028370605518742327 0.0037165487028946328 -0.000677039163521054
-0.002748927480031069 0.004216376190945829 -0.0010153975959831252
-0.0026607944081879055 0.004716203678997025 -0.000749627102926017
-0.0025726613573573034 0.0052160310478800605 -0.0005772479902683928
-0.00248452828551414 0.005715858535931258 -0.00017883740989314763
-0.005011416341907855 -0.005692040140730447 0.0007160372704764457
-0.004923283270064691 -0.005192212652679252 3.024257732453688e-06
-0.004835150282271774 -0.004692385641300694 -0.0004883304629427189
-0.00474701721042861 -0.004192558153249497 -0.001175082640620221
-0.004658884138585447 -0.0036927306651983022 -0.0012027040730025692
-0.004570751066742283 -0.0031929031771471056 -0.0014215845393881043
-0.004482617994899119 -0.0026930756890959097 -0.0012535665017272377
-0.004394484923055955 -0.002193248201044714 -0.00156600049724965
-0.004306351851212792 -0.001693420712993518 -0.0018317705062806764
-0.004218218779369628 -0.001193593224942322 -0.0017684153643854966
-0.004130085707526464 -0.0006937657368911261 -0.0016739576745278708
-0.004041952635683301 -0.00019393824883993013 -0.0017329982079301433
-0.003953819563840137 0.0003058892392112658 -0.00152291830376337
-0.0038656864919969732 0.0008057167272624617 -0.0016148600260479495
-0.0037775533991412477 0.001305544334481817 -0.0014468429564392462
-0.003689420327298084 0.001805371822533013 -0.0014744643888215945
-0.00360128725545492 0.002305199310584209 -0.001178865788475344
-0.0035131541885365758 0.0028050267707053675 -0.0012064872208576922
-0.0034250211170217333 0.0033048542568945606 -0.0011734727698722504
-0.003336888039925429 0.0038046817747377968 -0.0011101171439509888
-0.0032487549680822654 0.004304509262788993 -0.0010156584860411997
-0.0031606218962391018 0.004804336750840189 -0.0008476409324064148
-0.0030724888454084997 0.0053041641197232245 -0.000753183242548789
-0.002984355773565336 0.005803991607774421 -0.0005004596725258203
-0.0028962227017221725 0.006303819095825617 -0.00040600149864211297
-0.0028080896298790085 0.006803646583876813 0.0003789861924612381
-0.005511243829959049 -0.005603907068887284 0.0008161382204214402
-0.005423110758115886 -0.0051040795808360885 0.00011897657782936924
-0.005334977770322969 -0.00460425256945753 -0.00030058981452792615
-0.005246844698479806 -0.004104425081406334 -0.0009668415515380961
-0.005158711626636642 -0.0036045975933551386 -0.0012624406359104288
-0.005070578554793478 -0.003104770105303942 -0.0014304567374669684
-0.0049824454829503146 -0.002604942617252746 -0.0014634721565045736
-0.0048943124111071505 -0.0021051151292015504 -0.0015579317824665263
-0.0048061793392639865 -0.0016052876411503543 -0.0016212859563095425
-0.004718046267420823 -0.0011054601530991585 -0.0016543013753471476
-0.004629913195577659 -0.0006056326650479625 -0.0017176565172423274
-0.004541780123734495 -0.00010580517699676655 -0.0018121142070999532
-0.004453647051891332 0.0003940223110544294 -0.0017530736736976807
-0.004365513980048168 0.0008938497991056253 -0.001755950724727728
-0.004277380887192443 0.0013936774063249807 -0.0015370702583421929
-0.004189247815349279 0.0018935048943761765 -0.001509447857907681
-0.0041011147435061155 0.0023933323824273725 -0.0014175071036752651
-0.004012981676587771 0.002893159842548531 -0.0015119647935328906
-0.003924848605072928 0.003392987328737724 -0.001199531766062642
-0.003836715527976624 0.0038928148465809604 -0.001027152169378936
-0.0037485824561334603 0.004392642334632157 -0.0011216098592365616
-0.0036604493842902967 0.004892469822683353 -0.0010296686209780638
-0.0035723163334596946 0.0053922971915663885 -0.0009377278667456477
-0.003484183261616531 0.005892124679617585 -0.0006719578577146213
-0.0033960501897733674 0.00639195216766878 -0.0006443354572801094
-0.0033079171179302034 0.006891779655719976 -5.4218602802121e-05
-0.00321978404608704 0.007391607143771172 -8.723402183972614e-05
-0.005922938007830764 -0.005015946551018048 0.0005529267732586556
-0.005834805020037847 -0.00451611953963949 -3.718959719325104e-05
-0.005746671948194683 -0.004016292051588294 -0.0005285433498162602
-0.005658538876351519 -0.003516464563537098 -0.0009912427583984216
-0.005570405804508355 -0.0030166370754859018 -0.0013494956308734475
-0.005482272732665192 -0.002516809587434706 -0.00140853616427572
-0.005394139660822028 -0.00201698209938351 -0.0015004778865602994
-0.005306006588978864 -0.0015171546113323141 -0.0014674634355748579
-0.005217873517135701 -0.0010173271232811181 -0.001526504937029294
-0.005129740445292537 -0.0005174996352299222 -0.001698884049686918
-0.005041607373449373 -1.7672147178726257e-05 -0.0015308660120260512
-0.00495347430160621 0.0004821553408724697 -0.0016228077343106307
-0.004865341229763046 0.0009819828289236656 -0.0014547906647019275
-0.00477720813690732 0.001481810436143021 -0.0014217752456643223
-0.004689075065064156 0.001981637924194217 -0.001211695341497549
-0.004600941993220993 0.0024814654122454127 -0.0010016159213568575
-0.004512808926302648 0.0029812928723665717 -0.0012673864144139657
-0.004424675854787806 0.003481120358555765 -0.0012645093633839183
-0.004336542777691502 0.0039809478763990006 -0.0012011542214887387
-0.004248409705848338 0.004480775364450197 -0.0011066955635789493
-0.004160276634005174 0.004980602852501393 -0.001012237389695242
-0.004072143583174572 0.005480430221384429 -0.000948882731826144
-0.003984010511331408 0.005980257709435625 -0.000780865178191359
-0.003895877439488245 0.00648008519748682 -0.0007175090682440157
-0.003807744367645081 0.0069799126855380166 -0.00062305137838639
-0.0037196112958019175 0.007479740173589212 -0.00045503382475160493
-0.0036314782239587535 0.007979567661640409 -3.546743239430955e-05
-0.00642276549588196 -0.004927813479174884 0.00019454999010669617
-0.006334632508089043 -0.004427986467796326 0.00016153457106909104
-0.00624649943624588 -0.00392815897974513 -0.0006513030127272042
-0.006158366364402716 -0.0034283314916939344 -0.0009469020970995368
-0.006070233292559552 -0.002928504003642738 -0.001366468489456832
-0.0059821002207163885 -0.0024286765155915424 -0.0014298245994041755
-0.0058939671488732245 -0.0019288490275403464 -0.0014931797412993553
-0.0058058340770300604 -0.0014290215394891503 -0.0015876374311569808
-0.005717701005186897 -0.0009291940514379544 -0.001620652850194586
-0.005629567933343733 -0.0004293665633867585 -0.0016840079920897658
-0.005541434861500569 7.046092466443744e-05 -0.0016563865597074175
-0.005453301789657406 0.0005702884127156333 -0.0016287641592729056
-0.005365168717814242 0.0010701159007668294 -0.0017967821969337725
-0.005277035624958517 0.0015699435079861847 -0.0015310112198505825
-0.005188902553115353 0.0020697709960373805 -0.0014390704656181666
-0.005100769481272189 0.0025695984840885763 -0.0013800289641637306
-0.005012636414353845 0.0030694259442097353 -0.0014433841060589104
-0.004924503342839002 0.0035692534303989284 -0.001351442383774331
-0.004836370265742698 0.004069080948242165 -0.0013543194348043781
-0.004748237193899534 0.00456890843629336 -0.0012623777125197984
-0.00466010412205637 0.005068735924344556 -0.0012033371791175262
-0.0045719710712257685 0.005568563293227592 -0.0009844571967580727
-0.0044838379993826045 0.006068390781278789 0.00034866002233395287
-0.004395704927539441 0.006568218269329984 -0.000825774086110243
-0.004307571855696277 0.007068045757381181 -0.0007981516856757312
-0.004219438783853113 0.007567873245432376 -0.0007062104474172333
-0.00413130571200995 0.008067700733483573 -0.00034795757494220737
-0.004043172640166786 0.008567528221534768 0.000391429050945327
-0.006834459996140239 -0.004339853395953162 0.00047758569350057857
-0.006746326924297076 -0.0038400259079019662 -0.00020916696820300537
-0.006658193852453912 -0.0033401984198507704 -0.0007763380822485542
-0.006570060780610748 -0.002840370931799574 -0.0012944444404371324
-0.006481927708767585 -0.0023405434437483784 -0.0013863851946695485
-0.006393794636924421 -0.0018407159556971823 -0.0012919275048119227
-0.006305661565081257 -0.0013408884676459865 -0.0016501803772869489
-0.0062175284932380935 -0.0008410609795947905 -0.0016171649582493435
-0.0061293954213949295 -0.0003412334915435946 -0.0015538088483020003
-0.0060412623495517655 0.00015859399650760135 -0.00155093373337628
-0.005953129277708602 0.0006584214845587972 -0.0016428754556608598
-0.005864996205865438 0.0011582489726099932 -0.0010766462563704374
-0.005776863113009713 0.0016580765798293487 -0.0014750568367456825
-0.005688730041166549 0.0021579040678805445 -0.001442042385760241
-0.005600596969323386 0.0026577315559317403 -0.0014391653347301937
-0.005512463902405041 0.0031575590160528993 -0.001375810192835014
-0.0054243308308901984 0.0036573865022420924 -0.0012077931232263106
-0.0053361977537938945 0.004157214020085329 -0.001266833656628583
-0.0052480646819507305 0.004657041508136524 -0.00045399655685836966
