ply
format ascii 1.0
element vertex 728
property float x
property float y
property float z
end_header
0.007212215173619058 0.00685133423476667 -0.0010430170223116862
0.006789313105596342 0.007206191204068639 -0.000389581953641026
0.015315397815514935 -0.0006687065873267365 -0.0015668387059122313
0.014469594125366057 4.1006977125569354e-05 -0.002595693105831741
0.014046691566857134 0.0003958643579943339 -0.0018201344646513451
0.013623789721782695 0.0007507211402204868 -0.0027042741421610104
0.013200887876708256 0.0011055779224466399 -0.0021407185122370707
0.012777986031633819 0.0014604347046727928 -0.0014988371403887857
0.01235508418655938 0.0018152914868989458 -0.0020368883851915585
0.011932181984767698 0.0021701485684464043 -0.002040016697719692
0.011509280139693259 0.0025250053506725573 -0.0020431454759091126
0.011086377937901579 0.0028798624322200162 -0.0032930269371718155
0.01066347609282714 0.003234719214446169 -0.0027585716452449547
0.01024057389103546 0.0035895762959936277 -0.003412006655707954
0.009817672045961021 0.003944433078219781 -0.003173925448209046
0.009394769844169341 0.004299290159767239 -0.0034024335909634816
0.008971867999094902 0.004654146941993393 -0.0034055630676448332
0.008548965975661842 0.005009003873880198 -0.003341343021020292
0.008126063952228781 0.005363860805767004 -0.003377253422513603
0.007703161928795723 0.00571871773765381 -0.0029875745531171547
0.0072802598161833525 0.0060735747443709425 -0.0015376524534076441
0.006857357792750293 0.006428431676257748 -0.000819139357190578
0.006434455724727578 0.006783288645559717 -0.0002555839018896211
0.006011553729163052 0.0071381455540620465 -0.0010784084443002928
0.014537639786856954 -0.0007367509367405393 -0.0019128737039864052
0.014114737941782515 -0.00038189415451438634 -0.0020128805190324775
0.013691835383273593 -2.7036773645621822e-05 -0.0026038093492388717
0.013268933538199154 0.00032782000858053113 -0.002567898714914917
0.012846031693124715 0.000682676790806684 -0.002957577584311365
0.012423129848050277 0.001037533573032837 -0.002921666018664836
0.012000228002975838 0.00139239035525899 -0.0027389104943722478
0.011577325801184157 0.0017472474368064488 -0.002510401885956525
0.011154423956109718 0.0021021042190326016 -0.0027484821621328584
0.010731521754318038 0.0024569613005800605 -0.0034954766742885104
0.010308619909243599 0.0028118180828062135 -0.0034923488274216643
0.009885717707451919 0.003166675164353672 -0.0035923547111451617
0.00946281586237748 0.003521531946579825 -0.0035892261657863847
0.0090399136605858 0.003876389028127284 -0.0036192717961966983
0.00861701181551136 0.004231245810353437 -0.003616142785176634
0.0081941097920783 0.004586102742240242 -0.003547230036929249
0.007771207768645241 0.004940959674127048 -0.0033644740469753734
0.007348305745212181 0.005295816606013855 -0.003261729609221219
0.006925403632599811 0.005650673612730987 -0.0024078821297734967
0.006502501609166752 0.006005530544617792 -0.00037221083766780685
0.0060795995411440365 0.006360387513919761 0.0003861045115627359
0.01502858669477968 -0.0018693663462672843 -0.0013996307970955957
0.014605684849705241 -0.0015145095640411313 -0.0009299275698140254
0.014182783004630802 -0.0011596527818149784 -0.0012048189528286446
0.013759881159556363 -0.0008047959995888254 -0.0025058947503566733
0.01333697860104744 -0.0004499386187200609 -0.002962266094982623
0.012914076755973001 -9.508183649390795e-05 -0.002965394873172044
0.012491174910898562 0.000259774945732245 -0.003034307621419429
0.012068273065824125 0.0006146317279583979 -0.0031370511278510085
0.011645371220749686 0.0009694885101845509 -0.002898970851674675
0.011222469018958004 0.0013243455917320097 -0.0029348824173212043
0.010799567173883565 0.0016792023739581627 -0.0035123256966471663
0.010376664972091885 0.0020340594555056215 -0.003615069203078746
0.009953763127017446 0.0023889162377317744 -0.0037178134080022565
0.009530860925225766 0.002743773319279233 -0.003786727087572216
0.009107959080151327 0.003098630101505386 -0.003686720272526144
0.008685056878359647 0.003453487183052845 -0.003689849050715565
0.008262155033285208 0.003808343965278998 -0.003659804118797182
0.007839253009852148 0.004163200897165803 -0.0036297587212175122
0.007416350986419088 0.004518057829052609 -0.0034422585740685454
0.006993448962986029 0.0048729147609394155 -0.003008898347616195
0.006570546850373659 0.005227771767656548 -0.0024148933589458457
0.006147644826940599 0.005582628699543353 -0.0005821137456223359
0.005724742758917884 0.005937485668845322 0.00033895648084581
0.014250827768157781 -0.0019374117658328112 -0.001681117224507033
0.013827925923083342 -0.0015825549836066583 -0.0022155726328492156
0.013405024078008905 -0.0012276982013805053 -0.003136642510071396
0.012982121519499982 -0.0008728408205117407 -0.003067730460315942
0.012559219674425543 -0.0005179840382855879 -0.0033058100380003444
0.012136317829351104 -0.00016312725605943488 -0.0033358554355800143
0.011713415984276665 0.00019172952616671807 -0.00333272642455995
0.011290514139202226 0.000546586308392871 -0.003329598577693104
0.010867611937410546 0.0009014433899403297 -0.003101089969277381
0.010444710092336107 0.0012563001721664828 -0.0036920187994837752
0.010021807890544427 0.0016111572537139416 -0.0037562388461083165
0.009598906045469988 0.0019660140359400945 -0.004259525798261165
0.009176003843678306 0.002320871117487553 -0.003891486441716551
0.008753101998603867 0.002675727899713706 -0.003955706488341092
0.008330199796812187 0.003030584981261165 -0.003339808201417326
0.007907297951737748 0.003385441763487318 -0.003679648507386445
0.007484395928304689 0.0037402986953741237 -0.0036765201948583117
0.007061493904871629 0.0040951556272609295 -0.0036076069809496394
0.00663859188143857 0.004450012559147736 -0.002608255483210086
0.0062156897688262 0.004804869565864868 -0.0005885153077542772
0.00579278774539314 0.005159726497751673 -3.102495611528772e-05
0.014318872531684762 -0.002715170749850645 -0.0018547961954027406
0.013895970686610323 -0.002360313967624492 -0.0017547892639413467
0.013473068841535884 -0.002005457185398339 -0.0027817911468446246
0.013050166996461445 -0.001650600403172186 -0.0023921122774481765
0.012627264437952522 -0.0012957430223034215 -0.003305881051346659
0.012204362592878083 -0.0009408862400772687 -0.003341792616993188
0.011781460747803646 -0.0005860294578511148 -0.0036166845820844165
0.011358558902729207 -0.0002311726756249627 -0.0035166782326996318
0.010935657057654768 0.00012368410660119113 -0.003552589798346161
0.010512754855863086 0.000478541188148649 -0.003522544400766491
0.010089853010788649 0.0008333979703748028 -0.00397891504690051
0.009666950808996969 0.0011882550519222617 -0.003948870114982127
0.00924404896392253 0.0015431118341484144 -0.0040177833288908
0.008821146762130848 0.0018979689156958732 -0.0037797021213918916
0.008398244917056409 0.002252825697922026 -0.0038824472576379767
0.00797534271526473 0.002607682779469485 -0.004065203480422496
0.00755244087019029 0.002962539561695638 -0.003725363174453377
0.00712953884675723 0.003317396493582443 -0.0032920034136623135
0.006706636823324171 0.0036722534254692496 -0.003660043701529502
0.006283734799891111 0.004027110357356055 -0.0031255867797881356
0.005860832687278741 0.004381967364073187 -0.0020485608838498584
0.005437930663845681 0.004736824295959992 0.00034717674134299246
0.01396401574945861 -0.003138072594925084 -0.0012878961861133567
0.01354111390438417 -0.002783215812698931 -0.0020064106211066237
0.013118212059309731 -0.002428359030472778 -0.0026725602801889172
0.012695310214235292 -0.002073502248246625 -0.002702605677768587
0.01227240765572637 -0.0017186448673778606 -0.0033195291180163613
0.01184950581065193 -0.0013637880851517076 -0.003507029265165328
0.011426603965577492 -0.0010089313029255547 -0.00350390002131462
0.011003702120503054 -0.000654074520699401 -0.003691400634124874
0.010580800275428615 -0.00029921773847324794 -0.003929481841623782
0.010157898073636934 5.563934307421079e-05 -0.0039937011897563926
0.009734996228562495 0.0004104961253003637 -0.00402374705299735
0.009312094026770815 0.0007653532068478225 -0.0040879668667912475
0.008889192181696376 0.0011202099890739753 -0.004019053187221288
0.008466289979904696 0.001475067070621434 -0.004083273466676473
0.008043388134830257 0.001829923852847587 -0.0039005172438919536
0.007620485933038576 0.002184780934395046 -0.0039305626414716235
0.007197584087964137 0.002539637716621199 -0.0037020540330559007
0.006774682064531077 0.002894494648508004 -0.003519298043102025
0.006351780041098018 0.0032493515803948096 -0.0034165545366704455
0.005928878017664958 0.0036042085122816154 -0.0028006562497466794
0.005505975905052588 0.003959065518998748 -0.0019468088867142788
0.014032061226420072 -0.003915832177585528 -0.001953090308234095
0.01360915866791115 -0.003560974796716764 -0.0016640065005049103
0.01318625682283671 -0.003206118014490611 -0.002422322053462266
0.012763354977762272 -0.002851261232264458 -0.0027903623413294545
0.012340453132687834 -0.002496404450038305 -0.003111890284344553
0.011917550574178912 -0.0021415470691695405 -0.0034799305722117415
0.011494648729104473 -0.0017866902869433875 -0.0034830591175705186
0.011071746884030034 -0.0014318335047172346 -0.0037579515483230344
0.010648845038955594 -0.0010769767224910816 -0.0037938624154776326
0.010225943193881155 -0.0007221199402649288 -0.003896606620401143
0.009803040992089476 -0.00036726285871747 -0.003965520299971103
0.009380139147015036 -1.240607649131702e-05 -0.004333559423685073
0.008957236945223357 0.0003424510050561417 -0.003993719350546598
0.008534335100148917 0.0006973077872822947 -0.004531769547611474
0.008111432898357238 0.0010521648688297533 -0.004098410718142985
0.007688531053282798 0.0014070216510559063 -0.003910908941179513
0.007265628851491118 0.001761878732603365 -0.003914038650691508
0.006842727006416679 0.0021167355148295182 -0.0038498183712363234
0.006419824982983619 0.002471592446716324 -0.003560734447091817
0.005996922959550559 0.0028264493786031297 -0.0032716512214392415
0.005574020936117499 0.0031813063104899355 -0.002605500863865017
0.005151118823505129 0.003536163317207068 -0.002494957530871033
0.00472821680007207 0.003891020249093874 -0.0017479629023000591
0.01367720444419392 -0.004338734022659967 -0.0020293805282562962
0.013254301885684997 -0.003983876641791203 -0.0017078510718420141
0.012831400040610558 -0.00362901985956505 -0.0023497329093515864
0.012408498195536119 -0.003274163077338897 -0.003015883266925811
0.01198559635046168 -0.002919306295112744 -0.002946970518678426
0.01156269379195276 -0.0025644489142439796 -0.003588852006942033
0.01113979194687832 -0.0022095921320178266 -0.003653072053566574
0.010716890101803881 -0.0018547353497916736 -0.0037172921001911155
0.010293988256729442 -0.0014998785675655207 -0.0039047922473400823
0.009871086411655003 -0.0011450217853393677 -0.004004799295216798
0.009448184209863323 -0.0007901647037919091 -0.003968887496739625
0.009025282364788884 -0.0004353079215657561 -0.0041563878767192355
0.008602380162997204 -8.045084001829736e-05 -0.004153260029852389
0.008179478317922765 0.0002744059422078556 -0.004050515126436948
0.007756576116131084 0.0006292630237553144 -0.003867759369313716
0.007333674271056645 0.0009841198059814672 -0.003765015397220849
0.006910772069264964 0.001338976887528926 -0.0036622718907892695
0.006487870224190525 0.001693833669755079 -0.003900351468473672
0.006064968200757466 0.002048690601641885 -0.0028733501676470033
0.005642066177324405 0.0024035475335286906 -0.002870222320780157
0.005219164153891346 0.0027584044654154964 -0.0022543238010257474
0.004796262041278976 0.003113261472132629 -0.00019653546041808955
0.013745249207720899 -0.005116493006677801 -0.0018015379318967455
0.01332234736264646 -0.004761636224451648 -0.001984293572604656
0.012899444804137539 -0.004406778843582884 -0.0024819937534630294
0.0124765429590631 -0.004051922061356731 -0.0025509065017104145
0.012053641113988661 -0.003697065279130578 -0.003204341512173414
0.011630739268914222 -0.003342208496904425 -0.003387097734957933
0.011207836710405301 -0.0029873511160356594 -0.0035698537249118085
0.010784934865330862 -0.0026324943338095065 -0.0036057652905583377
0.010362033020256423 -0.0022776375515833535 -0.003788520814850926
0.009939131175181984 -0.0019227807693572006 -0.003891264786943793
0.009516229330107545 -0.0015679239871310476 -0.00438896520063281
0.009093327128315865 -0.0012130669055835889 -0.003854508744552731
0.008670425283241426 -0.000858210123357436 -0.003923420794308185
0.008247523081449744 -0.0005033530418099773 -0.0041983132250607005
0.007824621236375305 -0.0001484962595838243 -0.004010813310742377
0.007401719034583625 0.00020636082196363444 -0.004046724643558263
0.006978817189509186 0.0005612176041897874 -0.004016679245978593
0.006555914987717506 0.0009160746857372462 -0.004019807092845439
0.006133013142643067 0.001270931467963399 -0.003630128456279635
0.005710111119210007 0.0016257883998502041 -0.0028258827514946456
0.0052872090957769464 0.00198064533173701 -0.0025367992930114265
0.004864307072343887 0.0023355022636238156 -0.0031902345363050695
0.004441404959731517 0.0026903592703409482 -0.0027205310761928554
0.012967490580420307 -0.005184538069526087 -0.0021524243056774135
0.012544588021911385 -0.004829680688657323 -0.0024922646116465326
0.012121686176836946 -0.00447482390643117 -0.002423350932076573
0.011698784331762507 -0.004119967124205017 -0.0031418651342391963
0.01127588248668807 -0.003765110341978864 -0.003329365514218807
0.010852979928179147 -0.0034102529611100985 -0.003669205587357282
0.010430078083104708 -0.0030553961788839456 -0.003769211936742067
0.010007176238030269 -0.0027005393966577926 -0.003956712782382964
0.009584274392955831 -0.0023456826144316397 -0.003681820118799805
0.009161372547881392 -0.0019908258322054867 -0.0040216599591076365
0.00873847034608971 -0.001635968750658028 -0.0040517053566873065
0.008315568501015272 -0.001281111968431875 -0.004239205736666917
0.007892666299223592 -0.0009262548868844163 -0.004269251134246587
0.007469764454149153 -0.0005713981046582634 -0.0038128802552819248
0.007046862252357473 -0.00021654102311080464 -0.0040003801696002475
0.006623960407283034 0.00013831575911534832 -0.003897636895999312
0.006201058205491353 0.0004931728406628071 -0.0037148809060454364
0.005778156360416913 0.0008480296228889592 -0.0032171814236789937
0.005355254336983853 0.001202886554775765 -0.0028956518508493896
0.004932352313550794 0.0015577434866625708 -0.0019528496777638789
0.0045094502901177344 0.0019126004185493768 -0.001299414318054914
0.013035535343947288 -0.00596229705354392 -0.00220791227184236
0.012612633498872849 -0.005607440271317767 -0.0021778678055852647
0.012189730940363927 -0.005252582890449003 -0.002452759305015206
0.011766829095289488 -0.00489772610822285 -0.002909129951149225
0.011343927250215049 -0.004542869325996697 -0.003230659523978829
0.010921025405140611 -0.004188012543770544 -0.0035055519547313447
0.010498122846631689 -0.0038331551629017793 -0.0036082954611629243
0.01007522100155725 -0.0034782983806756263 -0.0037110405974090095
0.00965231915648281 -0.0031234415984494734 -0.003813784103840589
0.009229417311408371 -0.0027685848162233204 -0.003882696852087974
0.008806515466333932 -0.0024137280339971675 -0.003951610531657933
0.008383613264542253 -0.002058870952449709 -0.004054354038089513
0.007960711419467813 -0.0017040141702235557 -0.003990133758634328
0.007537809217676133 -0.001349157088676097 -0.003486847039312124
0.007114907372601694 -0.0009943003064499442 -0.004102745559066533
0.006692005170810014 -0.0006394432249024854 -0.004072700161486863
0.006269103325735575 -0.0002845864426763324 -0.004008480347692966
0.005846201123943894 7.02706388711263e-05 -0.003944260068237781
0.005423299278869455 0.00042512742109727925 -0.003914214670658111
0.005000397255436395 0.0007799843529840851 -0.00277200061827898
0.004577495232003335 0.0011348412848708905 -0.001629785518161952
0.0041545932085702755 0.0014896982167576964 -0.0016986981499940153
0.0037316910959579053 0.0018445552234748286 0.0005311074201017623
0.012257776566986043 -0.006030342294750827 -0.0021683606319129463
0.01183487400847712 -0.005675484913882063 -0.0025580392684787507
0.011411972163402681 -0.00532062813165591 -0.0028978791087865825
0.010989070318328242 -0.004965771349429757 -0.002962099155411124
0.010566168473253805 -0.004610914567203604 -0.003351778024807572
0.010143265914744883 -0.00425605718633484 -0.0036916180979460473
0.009720364069670443 -0.0039012004041086863 -0.003508862107992172
0.009297462224596004 -0.0035463436218825333 -0.0036963622551411386
0.008874560379521565 -0.0031914868396563803 -0.0038838628679513927
0.008451658534447126 -0.0028366300574302274 -0.004071363247931004
0.008028756332655446 -0.002481772975882769 -0.004135583061724901
0.007605854487581007 -0.002126916193656616 -0.003952827304601669
0.0071829522857893265 -0.001772059112109157 -0.0041403272189199924
0.006760050440714887 -0.0014172023298830042 -0.004071414936333895
0.0063371482389232075 -0.0010623452483355454 -0.004258915316313505
0.0059142463938487684 -0.0007074884661093923 -0.003643016796559095
0.005491344192057088 -0.0003526313845619336 -0.003368125762790441
0.005068442346982649 2.225397664219339e-06 -0.0030932333320379253
0.004645540323549589 0.0003570823295510252 -0.002270408440381288
0.00422263830011653 0.000711939261437831 -0.003017403185367584
0.011902919635099237 -0.006453244318183887 -0.0021968001965433355
0.011480017076590316 -0.006098386937315122 -0.0026944994460791345
0.011057115231515877 -0.00574353015508897 -0.0029693918768316503
0.010634213386441438 -0.005388673372862816 -0.0032909200526773925
0.010211311541366999 -0.005033816590636664 -0.003393664956092834
0.009788408982858076 -0.004678959209767899 -0.0034625772386789318
0.009365507137783637 -0.004324102427541746 -0.0036910858470946546
0.008942605292709198 -0.003969245645315593 -0.003759998362511396
0.008519703447634759 -0.00361438886308944 -0.003988506738096476
0.00809680160256032 -0.003259532080863287 -0.003958461806178093
0.00767389940076864 -0.0029046749993158283 -0.004027375020086765
0.007250997555694201 -0.0025498182170896754 -0.004030503332614899
0.006828095353902521 -0.0021949611355422164 -0.004133247770369053
0.006405193508828082 -0.0018401043533160636 -0.003945746459066868
0.005982291307036401 -0.0014852472717686049 -0.004048490896821022
0.005559389461961962 -0.001130390489542452 -0.00386098981834948
0.005136487260170282 -0.0007755334079949931 -0.0036229097750037904
0.004713585415095843 -0.00042067662576884016 -0.0031895511783659454
0.004290683391662784 -6.58196938820343e-05 -0.0021764326374977823
0.0038677813682297234 0.00028903723800477113 -0.0009678697679191825
0.003444879344796664 0.0006438941698915769 0.0003088162629865113
0.01154806270321243 -0.006876146341616947 -0.0014096871018409727
0.01112516014470351 -0.006521288960748182 -0.002551901619881391
0.01070225829962907 -0.006166432178522029 -0.0029415804892778392
0.010279356454554632 -0.005811575396295876 -0.0031796616967767473
0.009856454609480193 -0.005456718614069723 -0.003367161843925714
0.00943355205097127 -0.005101861233200959 -0.003554661991074681
0.009010650205896831 -0.004747004450974805 -0.0037421621382236476
0.008587748360822392 -0.004392147668748653 -0.0038421689532697196
0.008164846515747955 -0.004037290886522499 -0.003942175768315792
0.007741944670673515 -0.003682434104296347 -0.003972220700234175
0.007319042468881835 -0.003327577022748888 -0.0042103007435798645
0.006896140623807396 -0.002972720240522735 -0.004174389410763979
0.006473238422015715 -0.0026178631589752763 -0.004071645904332399
0.006050336576941276 -0.0022630063767491234 -0.004035734571516514
0.005627434375149596 -0.0019081492952016646 -0.0037608428392559286
0.005204532530075157 -0.0015532925129755116 -0.0034859504085034128
0.004781630328283476 -0.0011984354314280529 -0.002572181867435574
0.004358728483209037 -0.0008435786492018998 -0.0022506527602672573
0.003935826459775978 -0.0004887217173150945 -0.0010066429385915396
0.0035129244363429177 -0.00013386478542828857 0.00020856014452874688
0.011616107616400065 -0.007653905147276159 -0.0016442693304270504
0.011193205771325626 -0.0072990483650500065 -0.0018270250875502823
0.010770303212816704 -0.006944190984181242 -0.002551720477640629
0.010347401367742265 -0.006589334201955089 -0.0030897706747055054
0.009924499522667826 -0.006234477419728936 -0.003272526664659381
0.009501597677593386 -0.005879620637502783 -0.0033752713352441788
0.009078695119084464 -0.005524763256634018 -0.0035580273251980543
0.008655793274010027 -0.005169906474407866 -0.003926066681742668
0.008232891428935588 -0.004815049692181712 -0.0038260596338659525
0.007809989583861148 -0.00446019290995556 -0.0037618400529026985
0.007387087738786709 -0.004105336127729406 -0.003990348428487778
0.006964185536995029 -0.0037504790461819477 -0.004026258829981089
0.00654128369192059 -0.0033956222639557948 -0.00412900373339653
0.006118381490128909 -0.003040765182408336 -0.003941502887755632
0.005695479645054471 -0.002685908400182183 -0.003977413754910231
0.00527257744326279 -0.0023310513186347243 -0.003913193475455046
0.004849675598188351 -0.0019761945364085713 -0.003725693328306079
0.00442677339639667 -0.0016213374548611126 -0.0033360144589096308
0.004003871551322232 -0.0012664806726349598 -0.0024149443488568068
0.003580969527889172 -0.000911623740748154 -0.0012063813628628848
0.003158067504456112 -0.0005567668088613483 -0.00022469714167527835
0.01083834883943882 -0.007721950388483066 -0.00173376256134361
0.010415446280929897 -0.0073670930076143015 -0.0023506854195147753
0.009992544435855458 -0.007012236225388148 -0.002853972837328911
0.00956964259078102 -0.0066573794431619955 -0.0031938129104673862
0.00914674074570658 -0.006302522660935842 -0.0033813132904469967
0.00872383818719766 -0.005947665280067078 -0.0033124005421996117
0.00830093634212322 -0.005592808497840925 -0.003745759604498744
0.007878034497048781 -0.005237951715614772 -0.003933261148631573
0.007455132651974342 -0.004883094933388619 -0.0037047527730464935
0.007032230806899903 -0.004528238151162466 -0.004208039492368698
0.0066093286051082225 -0.004173381069615008 -0.004238085355609655
0.006186426760033784 -0.0038185242873888543 -0.0037403847090899944
0.0057635245582421035 -0.0034636672058413957 -0.0039278860203921795
0.005340622713167664 -0.0031088104236152428 -0.0036529935896396637
0.004917720511375984 -0.0027539533420677838 -0.0036498645786195993
0.0044948186663015454 -0.002399096559841631 -0.0034213559702038765
0.004071916464509865 -0.0020442394782941723 -0.002567509189248085
0.0036490146194354256 -0.0016893826960680195 -0.0015405075391754506
0.0032261125960023657 -0.0013345257641812136 -0.0008870724705047904
0.010906393752626453 -0.008499709194142278 -0.0017152981599792838
0.010483491907552014 -0.008144852411916126 -0.001527798012830317
0.010060589349043091 -0.007789995031047361 -0.0026360638439655304
0.009637687503968652 -0.007435138248821208 -0.003174114041030407
0.009214785658894215 -0.007080281466595055 -0.0031772435177117586
0.008791883813819776 -0.0067254246843689025 -0.003359999507665634
0.008368981255310853 -0.006370567303500138 -0.0035427550319582224
0.007946079410236414 -0.0060157105212739845 -0.0035458833444863558
0.007523177565161975 -0.005660853739047831 -0.004270578268915415
0.007100275720087536 -0.005305996956821679 -0.0037672908511012793
0.006677373875013097 -0.004951140174595526 -0.003770420327782631
0.006254471673221417 -0.004596283093048067 -0.004091949202120304
0.005831569828146978 -0.004241426310821914 -0.0039044490549713373
0.005408667626355297 -0.003886569229274455 -0.004272488411515951
0.004985765781280858 -0.0035317124470483022 -0.003882809542119503
0.004562863579489178 -0.0031768553655008437 -0.003852764144539833
0.004139961734414739 -0.0028219985832746907 -0.003318307688459754
0.0037170595326230585 -0.002467141501727232 -0.002456146525219083
0.00329415768754862 -0.0021122847195010792 -0.0015646766405552626
0.00287125566411556 -0.0017574277876142733 -0.001500456826761365
0.01012863498268055 -0.008567754426988625 -0.0018455953104421496
0.009705732424171628 -0.00821289704611986 -0.0023488826118409634
0.009282830579097191 -0.007858040263893707 -0.0031531283166259527
0.008859928734022752 -0.007503183481667554 -0.0031500004697591066
0.008437026888948313 -0.0071483266994414015 -0.0031800454016774893
0.00801412433043939 -0.006793469318572637 -0.0032800522167235613
0.007591222485364951 -0.0064386125363464835 -0.0037134108133614063
0.007168320640290512 -0.006083755754120331 -0.004002494737505913
0.006745418795216074 -0.005728898971894178 -0.003966583404690027
0.006322516950141635 -0.005374042189668025 -0.003930671606212854
0.005899614748349954 -0.005019185108120566 -0.003747916081920266
0.005476712903275515 -0.004664328325894414 -0.003985996823757887
0.005053810701483835 -0.004309471244346955 -0.003711104393005371
0.004630908856409396 -0.003954614462120802 -0.003675193293020129
0.004208006654617715 -0.003599757380573343 -0.0032188219483941793
0.0037851048095432762 -0.00324490059834719 -0.0024605069775134325
0.003362202607751596 -0.0028900435167997316 -0.001517705270089209
0.002939300762677157 -0.0025351867345735787 -0.0011496649822220206
0.01019667988885284 -0.009345513241008399 -0.0020113768987357616
0.009773778043778401 -0.008990656458782244 -0.0021141204051673412
0.00935087548526948 -0.00863579907791348 -0.0027300186920911074
0.008927973640195042 -0.008280942295687328 -0.0030515482649207115
0.008505071795120603 -0.007926085513461174 -0.0031204605475068092
0.008082169950046163 -0.0075712287312350215 -0.003223204519599676
0.007659267391537242 -0.007216371350366257 -0.0034059605095535517
0.007236365546462803 -0.006861514568140104 -0.0036808529403060675
0.006813463701388364 -0.006506657785913951 -0.003909361083060503
0.006390561856313925 -0.0061518010036877985 -0.003879315685480833
0.0059676600112394855 -0.005796944221461645 -0.0038492707535624504
0.005544757809447806 -0.005442087139914186 -0.0038851823192089796
0.0051218559643733666 -0.005087230357688034 -0.0038551369216293097
0.004698953762581686 -0.004732373276140575 -0.0038250915240496397
0.004276051917507247 -0.004377516493914422 -0.004647916182875633
0.0038531497157155664 -0.004022659412366963 -0.0035057009663432837
0.0034302478706411273 -0.00366780263014081 -0.0025240168906748295
0.003007345668849447 -0.0033129455485933516 -0.0016029465477913618
0.002584443823775008 -0.0029580887663671986 -0.0019244758877903223
0.009418921111891597 -0.009413558482215305 -0.0021380081307142973
0.008996018553382674 -0.00905870110134654 -0.0024778484366834164
0.008573116708308235 -0.008703844319120387 -0.0032248429488390684
0.008150214863233796 -0.008348987536894234 -0.002686792751774192
0.007727313018159357 -0.007994130754668082 -0.0031564957462251186
0.007304410459650436 -0.007639273373799316 -0.002927987603470683
0.006881508614575997 -0.007284416591573164 -0.0035449103452265263
0.0064586067695015575 -0.0069295598093470105 -0.0037829906214028597
0.006035704924427118 -0.006574703027120858 -0.0037470802199095488
0.00561280307935268 -0.006219846244894705 -0.0036781663075089455
0.0051899008775609995 -0.0058649891633472465 -0.0036092542577534914
0.00476699903248656 -0.005510132381121093 -0.0036392980255186558
0.00434409683069488 -0.005155275299573634 -0.0032712589018046856
0.003921194985620441 -0.004800418517347482 -0.003168515395373106
0.0034982927838287606 -0.004445561435800023 -0.00255261710844934
0.0030753909387543216 -0.00409070465357387 -0.0016098143532872202
0.0026524887369626412 -0.003735847572026411 -0.001153443241491914
0.00948696602507923 -0.010191317287874518 -0.0020254510454833508
0.00906406418000479 -0.009836460505648365 -0.002346979919821024
0.008641161621495868 -0.0094816031247796 -0.0027150192763656378
0.00821825977642143 -0.009126746342553447 -0.003036548849195242
0.007795357931346991 -0.008771889560327295 -0.003072460414841771
0.007372456086272552 -0.00841703277810114 -0.003141372464597225
0.0069495535277636295 -0.008062175397232377 -0.003416264895349741
0.006526651682689191 -0.007707318615006223 -0.003519010031595826
0.006103749837614752 -0.007352461832780071 -0.003331508720293641
0.005680847992540313 -0.0069976050505539174 -0.0036995490081608295
0.005257946147465874 -0.006642748268327765 -0.0036695036105811596
0.004835043945674193 -0.006287891186780306 -0.003329663537442684
0.004412142100599755 -0.0059330344045541526 -0.0036977026611566544
0.003989239898808074 -0.0055781773230066944 -0.003408619435504079
0.0035663380537336352 -0.005223320540780541 -0.0028176901396363974
0.003143435851941955 -0.004868463459233082 -0.003731458680704236
0.002720534006867516 -0.0045136066770069296 -0.0051542362198233604
0.002297631805075835 -0.004158749595459471 -0.0011936706723645332
0.0018747299600013962 -0.003803892813233318 0.0005044527933932839
0.008709207248117985 -0.010259362529081424 -0.002215773100033403
0.008286304689609062 -0.00990450514821266 -0.0026054524350911383
0.007863402844534623 -0.009549648365986506 -0.0029452920425683264
0.007440500999460185 -0.009194791583760353 -0.003132793819531799
0.007017599154385746 -0.0088399348015342 -0.0029500378295779233
0.006594696595876824 -0.008485077420665435 -0.00341974082402885
0.006171794750802385 -0.008130220638439283 -0.003519747639074922
0.005748892905727946 -0.00777536385621313 -0.0034508339595049624
0.005325991060653507 -0.007420507073986977 -0.0034808793570846324
0.004903089215579068 -0.007065650291760824 -0.0035450994037091736
0.004480187013787388 -0.006710793210213365 -0.0031770602799952035
0.004057285168712949 -0.006355936427987213 -0.003207104047760368
0.003634382966921268 -0.006001079346439754 -0.0031381919980049138
0.0032114811218468295 -0.0056462225642136005 -0.0027701526414603
0.0027885789200551487 -0.005291365482666142 -0.0037211533635854725
0.0023656770749807096 -0.004936508700439989 -0.001135800499469042
0.008777252161305617 -0.011037121334740637 -0.0020787322428077464
0.008354350316231178 -0.010682264552514484 -0.0022614873014390473
0.007931447757722258 -0.010327407171645719 -0.0027178591117262845
0.007508545912647818 -0.009972550389419566 -0.0029006141703575854
0.007085644067573379 -0.009617693607193414 -0.0033569859806448226
0.00666274222249894 -0.009262836824967261 -0.003118905238807202
0.006239839663990018 -0.008907979444098496 -0.00330166076309979
0.005816937818915579 -0.008553122661872343 -0.003404404735192657
0.00539403597384114 -0.00819826587964619 -0.0033743605017662053
0.004971134128766702 -0.007843409097420036 -0.00318685919046402
0.0045482322836922625 -0.007488552315193884 -0.003508388297632337
0.004125330081900582 -0.007133695233646425 -0.0034083819482475524
0.003702428236826143 -0.006778838451420272 -0.003119298024103046
0.0032795260350344624 -0.006423981369872813 -0.003089254023507238
0.0028566241899600237 -0.006069124587646661 -0.002655894029885531
0.002433721988168343 -0.005714267506099202 -0.0018227943219244484
0.002010820143093904 -0.005359410723873049 -0.0017585741588845853
0.0015879179413022233 -0.00500455364232559 0.00047123210970312324
0.007999493384344374 -0.011105166575947543 -0.002187134930863977
0.0075765908258354515 -0.010750309195078779 -0.002526974538341165
0.007153688980761012 -0.010395452412852627 -0.002866814844310284
0.006730787135686573 -0.010040595630626472 -0.002591923344880343
0.006307885290612134 -0.00968573884840032 -0.0028810072690248494
0.005884982732103213 -0.009330881467531556 -0.0029452273156493907
0.005462080887028774 -0.008976024685305402 -0.003334906185045839
0.0050391790419543345 -0.00862116790307925 -0.0033991257660090928
0.004616277196879895 -0.008266311120853097 -0.0033302125521004204
0.004193375351805456 -0.007911454338626944 -0.0036192960105836396
0.003770473150013776 -0.007556597257079484 -0.003162925131618977
0.0033475713049393374 -0.007201740474853332 -0.003192970529198647
0.0029246691031476566 -0.006846883393305873 -0.0027365994174033408
0.002501767258073218 -0.00649202661107972 -0.0019782842136919503
0.0020788650562815368 -0.006137169529532261 -0.0007284028688445692
0.008067538297532005 -0.011882925381606756 -0.0019227811135351662
0.007644636452457567 -0.011528068599380603 -0.002244310220703483
0.007221733893948645 -0.01117321121851184 -0.0026123493444174532
0.006798832048874206 -0.010818354436285687 -0.0027150944806635384
0.006375930203799767 -0.010463497654059533 -0.002897850470617414
0.005953028358725328 -0.01010864087183338 -0.003080606693401933
0.0055301258002164065 -0.009753783490964616 -0.0031833501998335127
0.005107223955141967 -0.009398926708738462 -0.0033661061897873883
0.004684322110067528 -0.00904406992651231 -0.003548862179741264
0.00426142026499309 -0.008689213144286155 -0.0038237548433244233
0.0038385184199186506 -0.008334356362060005 -0.003534670919179917
0.00341561621812697 -0.007979499280512545 -0.003470450639724732
0.002992714373052531 -0.007624642498286392 -0.003181366249918938
0.0025698121712608504 -0.007269785416738933 -0.0027916885446757083
0.002146910326186412 -0.006914928634512781 -0.002257231622934342
0.0017240081243947312 -0.006560071552965322 -0.0014529852196574215
0.0013011062793202924 -0.006205214770739168 0.00021466157340910237
0.006866877111722492 -0.011596113063586279 -0.0028194768819957976
0.006443975266648053 -0.011241256281360124 -0.0027167329099029307
0.006021073421573614 -0.010886399499133972 -0.0029042330570518975
0.0055981715764991755 -0.01053154271690782 -0.0029684533365070824
0.005175269017990253 -0.010176685336039054 -0.0030684601515531544
0.004752367172915814 -0.009821828553812901 -0.00335754337720573
0.004329465327841376 -0.009466971771586749 -0.0035956236533820633
0.003906563482766937 -0.009112114989360594 -0.0036256690509617333
0.003483661637692498 -0.008757258207134442 -0.003589757485315204
0.003060759435900817 -0.008402401125586984 -0.0030123146716505293
0.0026378575908263782 -0.008047544343360831 -0.002829558681696654
0.0022149553890346975 -0.007692687261813372 -0.00246151932515204
0.0017920535439602586 -0.007337830479587219 -0.0017032037721946842
0.0013691513421685783 -0.00698297339803976 -5.056675581727232e-05
0.006934922588683955 -0.012373872646246722 -0.0022440443281084303
0.006512020030175033 -0.012019015265377958 -0.0025655739009380345
0.006089118185100594 -0.011664158483151806 -0.0027483294252306227
0.005666216340026155 -0.011309301700925653 -0.0027842398267239337
0.0052433144949517166 -0.010954444918699499 -0.002820151392370463
0.004820411936442794 -0.010599587537830735 -0.0031881916802376513
0.004397510091368355 -0.010244730755604583 -0.003290935652330518
0.003974608246293917 -0.009889873973378429 -0.003612464759498835
0.003551706401219478 -0.009535017191152276 -0.003582419361919165
0.0031288045561450387 -0.009180160408926124 -0.0033949192147701983
0.002705902354353358 -0.008825303327378664 -0.00300524034537375
0.0022830005092789193 -0.008470446545152511 -0.00297519494779408
0.0018600983074872387 -0.008115589463605053 -0.002411639783531428
0.0014371964624127996 -0.0077607326813789 -0.0021225558593869214
0.0010142942606211193 -0.007405875599831441 -0.001346997567452491
0.00615716324794888 -0.012441917110452397 -0.0022045278456062087
0.005734261402874441 -0.012087060328226245 -0.0027389831375330695
0.005311359557800002 -0.01173220354600009 -0.0023709440138190993
0.004888457712725563 -0.011377346763773938 -0.0024351640604436406
0.004465555154216642 -0.011022489382905174 -0.002673244336619974
0.0040426533091422025 -0.01066763260067902 -0.0032077005598694095
0.0036197514640677634 -0.010312775818452868 -0.003237745491787792
0.0031968496189933244 -0.009957919036226715 -0.0029628530610352763
0.0027739477739188857 -0.009603062254000563 -0.0028939407784491786
0.002351045572127205 -0.009248205172453103 -0.002711184788495303
0.001928143727052766 -0.00889334839022695 -0.002811191603541375
0.0015052415252610858 -0.008538491308679492 -0.0021952928509563216
0.0010823396801866467 -0.008183634526453338 -0.002484376775100828
0.0006594374783949664 -0.00782877744490588 -0.0010008862009271986
0.005802306166401421 -0.012864819312244077 -0.0020421331282705077
0.005379404321326982 -0.012509962530017925 -0.0024985040072351703
0.004956502476252543 -0.012155105747791772 -0.0024684600066393622
0.004533600631178104 -0.01180024896556562 -0.0024042387958616027
0.004110698072669183 -0.011445391584696854 -0.002440150361508132
0.0036877962275947435 -0.011090534802470702 -0.00262290588580072
0.0032648943825203044 -0.01073567802024455 -0.002626035362482072
0.0028419925374458654 -0.010380821238018395 -0.002629163209348918
0.0024190906923714267 -0.010025964455792243 -0.002665074774995447
0.001996188490579746 -0.009671107374244784 -0.0027009863406419763
0.001573286645505307 -0.00931625059201863 -0.002636766294017435
0.0011503844437136268 -0.008961393510471172 -0.0026726776268333205
0.0007274825986391878 -0.00860653672824502 -0.001954163424670697
0.00030458039684750737 -0.00825167964669756 -0.0013906081439927227
-0.00011832144822693159 -0.007896822864471407 -0.000615050666965545
0.00502454753910083 -0.012932864375092364 -0.0018913500243797907
0.004601645694026391 -0.012578007592866211 -0.0023946373257786044
0.004178743848951952 -0.012223150810640059 -0.0018171940464526424
0.0037558412904430297 -0.011868293429771293 -0.0018140651518478998
0.003332939445368591 -0.011513436647545141 -0.001711321179755033
0.002910037600294152 -0.011158579865318988 -0.002756225178018213
0.002487135755219713 -0.010803723083092834 -0.001997908344492317
0.002064233910145274 -0.010448866300866682 -0.002235989551991225
0.0016413317083535937 -0.010094009219319224 -0.002335996367037297
0.0012184298632791546 -0.00973915243709307 -0.002400216646492482
0.0007955276614874743 -0.009384295355545611 -0.002297471510246397
0.0003726258164130353 -0.009029438573319459 -0.0016815741546452054
-5.027638537864517e-05 -0.008674581491771999 -0.0015788293676450857
-0.0004731782304530841 -0.008319724709545846 -0.0012573010753840217
-0.0008960804322447646 -0.007964867627998388 -0.0009824086446315059
-0.0013189822773192034 -0.007610010845772235 -0.0006608793046325454
-0.0017418843007522631 -0.0072551539138854294 -0.0004323709581512966
-0.002164786324185323 -0.006900296981998623 0.0005104304873384527
-0.0034334924836638124 -0.00583572611150788 0.0005444528651423744
-0.003856394551686527 -0.0054808691422059104 0.00035695251426659443
-0.004279296547251053 -0.005126012233703581 0.00032690734951756813
-0.005125100577396051 -0.004416298383960656 0.00026195967802777805
-0.005548002600829111 -0.0040614414520738495 0.0005368521087802938
-0.00681670858194898 -0.0029968707312437587 0.00012660697393584915
-0.009354120900905958 -0.0008677289902622708 0.00012430913920979866
0.004246788612478932 -0.013000909794657891 -0.001974940998479725
0.0038238867674044927 -0.012646053012431739 -0.001736860955134035
0.0034009842088955707 -0.012291195631562973 -0.0017068154411390432
0.002978082363821132 -0.01193633884933682 -0.0017099432880058893
0.002555180518746693 -0.011581482067110668 -0.0014718634774908432
0.002132278673672254 -0.011226625284884514 -0.0019282344728708276
0.001709376828597815 -0.010871768502658362 -0.002110990462824703
0.0012864746268061347 -0.010516911421110903 -0.0023394986055791387
0.0008635727817316957 -0.01016205463888475 -0.0023426264524459848
0.0004406705799400152 -0.009807197557337291 -0.002378538018092514
1.7768734865576302e-05 -0.009452340775111139 -0.002140457974746824
-0.00040513346692610413 -0.009097483693563679 -0.0021104130428284415
-0.0008280353120005431 -0.008742626911337526 -0.0021463246084749707
-0.0012509375137922235 -0.008387769829790068 -0.002149452455341817
-0.0016738393588666624 -0.008032913047563916 -0.002085232175886632
-0.0020967413822997223 -0.007678056115677109 -0.0014943035785108813
-0.002519643405732782 -0.007323199183790303 -0.001597048365511001
-0.0029425454291658417 -0.006968342251903497 -0.0007348873186856517
-0.003365447541778212 -0.006613485245186365 -0.0007048421539366254
-0.0037883495652112713 -0.0062586283132995595 -0.0007079710485413679
-0.004211251633233986 -0.00590377134399759 -0.0013614064082503327
-0.004634153628798512 -0.005548914435495261 -0.0013645342551171788
-0.00505705563551045 -0.005194057517639142 -0.0014334477018564948
-0.00547995765894351 -0.004839200585752336 -0.0016162036918103704
-0.00590285968237657 -0.0044843436538655294 -0.0013271201169118294
-0.00632576179498894 -0.004129486647148397 -0.0011396185727790007
-0.006748663640063378 -0.0037746298649222448 -0.000952118367422373
-0.007171565663496439 -0.0034197729330354386 -0.0011348741827532658
-0.007594467686929498 -0.003064916001148633 -0.0011048290180042395
-0.008017369888721178 -0.0027100589196011743 -0.0009173285216093072
-0.008440271733795617 -0.0023552021373750213 -0.0008173219393938789
-0.008863173935587299 -0.0020003450558275624 -0.0017601246945559987
-0.009286075780661736 -0.0016454882736014096 -0.0020816538017243156
-0.009708977982453418 -0.0012906311920539509 -0.0021843977738171825
-0.010131879827527857 -0.0009357744098277978 -0.0017510385951027283
-0.010554782029319537 -0.0005809173282803391 -0.0006088233785703787
-0.010977684231111217 -0.00022606024673288034 -0.0018240262288600215
-0.011400586076185656 0.0001287965354932726 -0.0003739685053005823
0.00346902998517834 -0.013068954857506178 -0.0009855665266513833
0.003046127426669418 -0.012714097476637412 -0.00117306667380035
0.0026232255815949795 -0.01235924069441126 -0.0011041542747989306
0.0022003237365205404 -0.012004383912185107 -0.0011683744378387937
0.0017774218914461016 -0.011649527129958953 -0.0013558745849877605
0.0013545200463716625 -0.0112946703477328 -0.0017892345786094674
0.000931617844579982 -0.010939813266185342 -0.001686489675194026
0.0005087159995055432 -0.010584956483959188 -0.0021561929024755963
8.581379771386271e-05 -0.01023009940241173 -0.002773115877062083
-0.0003370880473605762 -0.009875242620185578 -0.0024515867698937663
-0.0007599902491522567 -0.009520385538638118 -0.002551593119278551
-0.0011828920942266955 -0.009165528756411965 -0.002739093732088805
-0.001605794296018376 -0.008810671674864507 -0.0027359654195606717
-0.002028696141092815 -0.008455814892638355 -0.002633220748975874
-0.002451598164525875 -0.008100957960751548 -0.0025643082335591325
-0.0028745001879589343 -0.007746101028864742 -0.002904148306697608
-0.0032974022113919942 -0.007391244096977936 -0.0019047975074499854
-0.0037203043240043644 -0.007036387090260804 -0.002338157035410405
-0.004143206347437423 -0.006681530158373999 -0.0020632646046578893
-0.004566108415460139 -0.006326673189072029 -0.0025329680647701034
-0.004989010411024664 -0.0059718162805697 -0.0025298385880887517
-0.005411912417736603 -0.005616959362713581 -0.0026298456359654674
-0.005834814441169662 -0.005262102430826775 -0.0026598910335451373
-0.006257716464602723 -0.0049072454989399685 -0.002623979467898608
-0.006680618577215093 -0.004552388492222836 -0.0025212354958057412
-0.007103520422289531 -0.004197531709996684 -0.0022927273530513057
-0.007526422445722591 -0.0038426747781098777 -0.002581810578703881
-0.00794932446915565 -0.003487817846223072 -0.0027693123556673535
-0.00837222667094733 -0.0031329607646756134 -0.0021534136030823
-0.00879512851602177 -0.0027781039824494604 -0.0027443428989499816
-0.009218030717813451 -0.0024232469009020014 -0.0028443492483347663
-0.009640932562887889 -0.0020683901186758485 -0.0027754355687648067
-0.01006383476467957 -0.00171353303712839 -0.002500543603673578
-0.01048673660975401 -0.001358676254902237 -0.002225652104243637
-0.01090963881154569 -0.0010038191733547782 -0.0019507595570757994
-0.01133254101333737 -0.0006489620918073194 -0.001914848107844592
-0.011755442858411808 -0.0002941053095811665 -0.0016863397322595128
-0.01217834541692073 6.075207128759807e-05 -0.0013648114399984488
0.003114172903630881 -0.013491857059297858 7.951738371048021e-05
0.002691270345121959 -0.013136999678429094 -0.0006451777298934767
0.0022683685000475205 -0.01278214289620294 -0.0008279334870167086
0.0018454666549730814 -0.012427286113976787 -0.001284304540604354
0.0014225648098986426 -0.012072429331750635 -0.0013202161062508832
0.0009996629648242035 -0.011717572549524482 -0.0016882553463801752
0.0005767607630325231 -0.011362715467977022 -0.0018710113363340508
0.00015385891795808418 -0.01100785868575087 -0.0020995193626731643
-0.0002690432838335963 -0.010653001604203412 -0.0023280270397663125
-0.0006919451289080352 -0.010298144821977257 -0.0026495561469346294
-0.0011148473306997156 -0.0099432877404298 -0.0030175952706485995
-0.0015377491757741545 -0.009588430958203647 -0.0032003514934331187
-0.0019606513775658353 -0.009233573876656187 -0.0034288601018488416
-0.002383553222640274 -0.008878717094430034 -0.003531603608280421
-0.002806455246073334 -0.008523860162543228 -0.003501559142023326
-0.0032293572695063933 -0.008169003230656422 -0.003437339561060072
-0.0036522592929394532 -0.007814146298769618 -0.003440467407926918
-0.004075161405551823 -0.007459289292052485 -0.0035093810874968776
-0.004498063428984882 -0.007104432360165679 -0.0035782933700829753
-0.004920965497007598 -0.00674957539086371 -0.0035140737891197213
-0.005343867492572123 -0.006394718482361381 -0.003224989864975215
-0.005766769499284062 -0.006039861564505262 -0.0032939023803919562
-0.006189671522717121 -0.0056850046326184555 -0.0033298139460384854
-0.0066125735461501816 -0.005330147700731649 -0.0032997685484588155
-0.007035475658762552 -0.004975290694014517 -0.003235548501834274
-0.00745837750383699 -0.004620433911788365 -0.0032714600674808034
-0.00788127952727005 -0.004265576979901558 -0.003207240020856262
-0.008304181550703109 -0.003910720048014753 -0.0031771943904459485
-0.00872708375249479 -0.003555862966467294 -0.003405703231692315
-0.00914998559756923 -0.003201006184241141 -0.0031166193075478086
-0.00957288779936091 -0.002846149102693682 -0.003086574375629426
-0.009995789644435349 -0.0024912923204675292 -0.002899073529988528
-0.010418691846227028 -0.0021364352389200707 -0.00250939466059208
-0.010841593691301468 -0.0017815784566939177 -0.0023218945134431132
-0.01126449589309315 -0.001426721375146459 -0.0019322157604619871
-0.011687398094884829 -0.0010718642935990002 -0.0017447154968976985
-0.012110299939959268 -0.0007170075113728473 -0.0015066342893987905
-0.012533202498468189 -0.0003621501305040827 -0.00131913390941918
-0.012956104343542628 -7.293348277929738e-06 -0.0009294550400227318
-0.013801908033691506 0.0007024202161743762 0.0003434181853663166
0.0023364129642531946 -0.013559902236938015 -0.00024886647588573505
0.0019135111191787557 -0.013205045454711862 -0.00048694637371227254
0.0014906092741043169 -0.01285018867248571 -0.0008766251849010598
0.001067707429029878 -0.012495331890259555 -0.0011657091090455662
0.000644805583955439 -0.012140475108033403 -0.0014547926839441072
0.00022190338216375856 -0.011785618026485945 -0.0016928726108744751
-0.00020099846291068038 -0.01143076124425979 -0.0019309537019580613
-0.0006239006647023608 -0.011075904162712332 -0.002118454081937672
-0.0010468025097767999 -0.01072104738048618 -0.002784604206681253
-0.0014697047115684802 -0.01036619029893872 -0.002848824253305794
-0.001892606556642919 -0.010011333516712568 -0.003567338222637774
-0.0023155087584346 -0.00965647643516511 -0.0031992979347705854
-0.0027384106035090385 -0.009301619652938957 -0.00409076875075698
-0.0031613126269420984 -0.00894676272105215 -0.004379852674901486
-0.003584214650375158 -0.008591905789165345 -0.003923481795936824
-0.004007116673808217 -0.008237048857278538 -0.003953526727855206
-0.0044300187864205875 -0.007882191850561406 -0.003884613746777178
-0.004852920809853647 -0.007527334918674601 -0.0038814854342490448
-0.005275822877876362 -0.007172477949372632 -0.003911529667675496
-0.005698724873440888 -0.006817621040870302 -0.003027389990165831
-0.006121626880152826 -0.006462764123014183 -0.0036692719440907253
-0.006544528903585886 -0.006107907191127377 -0.003666143631562592
-0.006967430927018946 -0.005753050259240571 -0.0035972304176539196
-0.007390333039631316 -0.005398193252523439 -0.0034944864455610527
-0.007813234884705755 -0.005043336470297286 -0.0034913574345409883
