ply
format ascii 1.0
element vertex 728
property float x
property float y
property float z
end_header
-0.010927560935651892 0.006616942718784942 -0.005007364321500062
-0.010715194990189945 0.006033472078967108 -0.004894885700196027
-0.010502828726196916 0.005450000563992323 -0.004683997016400098
-0.010290462462203888 0.004866529049017538 -0.004358856473118066
-0.010078096038945319 0.004283057096464277 -0.004147969186305999
-0.00986572977495229 0.0036995855814894924 -0.0038801934570074073
-0.009653363510959261 0.0031161140665147075 -0.0036693059373646966
-0.009440997246966234 0.0025326425515399226 -0.003458417719230055
-0.009228630982973204 0.0019491710365651374 -0.003345938865095376
-0.009016264718980175 0.0013656995215903525 -0.003020796459168195
-0.008803898454987146 0.0007822280066155673 -0.002908316906541585
-0.008591532111361348 0.00019875627285154455 -0.002836087252944707
-0.008379165847368319 -0.0003847152421232405 -0.0029516459908336392
-0.008166799543558905 -0.0009681868664926443 -0.002287011127918958
-0.007954433239749491 -0.0015516584908620483 -0.0017587217735126604
-0.007742066975756463 -0.0021351300058368335 -0.002067900262773036
-0.007529700706786387 -0.0027186015344859457 -0.0020714199636131516
-0.0073173344278622135 -0.003302073090483713 -0.002037626923993229
-0.007104968143960993 -0.0038855446601558075 -0.00200383411720395
-0.006892601840151579 -0.004469016284525211 -0.002608995418995618
-0.00668023557615855 -0.005052487799499996 -0.0019443599740043272
-0.006467869312165522 -0.0056359593144747816 -0.0019105687970295538
-0.006255503048172493 -0.006219430829449566 -0.0017980880802497257
-0.006043136863812235 -0.006802902125635114 -0.0017642951570451249
-0.0058307704405536655 -0.007386374078188374 -0.0018046858021989454
-0.005618404176560637 -0.007969845593163159 -0.0018082044553011645
-0.005406037912567609 -0.008553317108137944 -0.0018857130780816067
-0.00519367164857458 -0.00913678862311273 -0.0019261026754975308
-0.004981305384581552 -0.009720260138087515 -0.0018538724398240436
-0.0047689389613229825 -0.010303732090640776 -0.0016429853858426202
-0.004556572697329954 -0.01088720360561556 -0.001076923799701034
-0.004344206433336925 -0.011470675120590345 -0.00038305195630527935
-0.01140592074064225 0.009746666557651896 -0.004943607375025748
-0.010981188212656194 0.008579723527702325 -0.005034505389630794
-0.010768821948663165 0.00799625201272754 -0.005030986852943896
-0.010556455684670138 0.007412780497752756 -0.0050274673849344245
-0.010344089420677108 0.00682930898277797 -0.004949959460645913
-0.01013172347521516 0.006245838342960136 -0.004872450605034827
-0.009919357211222132 0.0056623668279853516 -0.004794942680746316
-0.009706990947229103 0.005078895313010566 -0.004537932109087705
-0.009494624523970534 0.004495423360457306 -0.004024638794362544
-0.009282258259977506 0.003911951845482521 -0.0039471304044127456
-0.009069891995984476 0.003328480330507736 -0.003533185925334691
-0.008857525731991448 0.0027450088155329512 -0.0033276353497058144
-0.008645159467998419 0.0021615373005581663 -0.0029136897064745418
-0.00843279320400539 0.0015780657855833811 -0.002910170936957001
-0.00822042694001236 0.000994594270608596 -0.002496225293725728
-0.008008060596386563 0.00041112253684457323 -0.002380666555836796
-0.007795694332393534 -0.0001723489781302118 -0.0022651073522865764
-0.007583328028584121 -0.0007558206024996157 -0.0023775880690664044
-0.007370961724774707 -0.0013392922268690196 -0.002374068833887576
-0.007158595460781678 -0.0019227637418438046 -0.0025849558878689996
-0.006946229191811601 -0.002506235270492917 -0.0025074477307498446
-0.006733862912887428 -0.0030897068264906843 -0.0023018966894596806
-0.006521496628986208 -0.003673178396162779 -0.001992717618122696
-0.006309130325176794 -0.004256650020532183 -0.0022036044392734757
-0.006096764061183765 -0.004840121535506968 -0.002237397013232111
-0.005884397797190737 -0.0054235930504817524 -0.0023498774971812955
-0.0056720315331977075 -0.006007064565456538 -0.0021443264558911315
-0.005459665348837449 -0.006590535861642085 -0.002103935694321989
-0.00524729892557888 -0.007174007814195345 -0.0020635456312447778
-0.005034932661585852 -0.007757479329170131 -0.0020973379723727694
-0.004822566397592824 -0.008340950844144915 -0.001981779234483837
-0.0046102001335997945 -0.0089244223591197 -0.0024200624320656052
-0.004397833869606766 -0.009507893874094486 -0.0021108828950673333
-0.004185467446348197 -0.010091365826647746 -0.002070492133498191
-0.003973101182355169 -0.010674837341622532 -0.0018649409757927051
-0.0037607349183621398 -0.011258308856597316 -0.0005583298625424496
-0.0035483686543691115 -0.011841780371572101 -0.0005548112676478914
-0.003336002390376083 -0.012425251886546886 -0.00043925142381340173
-0.003123636126383054 -0.013008723401521672 -2.530685742385595e-05
-0.01082244878808899 0.009959032980910465 -0.004711960442364215
-0.010397716260102934 0.008792089950960895 -0.005232710856944322
-0.010185349996109904 0.00820861843598611 -0.00496493512764573
-0.009972983732116877 0.007625146921011325 -0.005005325656384229
-0.009760617468123848 0.007041675406036539 -0.004892845172435044
-0.009548251522661899 0.006458204766218705 -0.004681956954300403
-0.009335885258668871 0.005874733251243921 -0.004722347483038901
-0.009123518994675842 0.005291261736269135 -0.00445457175374031
-0.008911152571417273 0.004707789783715875 -0.00445808982476592
-0.008698786307424246 0.00412431826874109 -0.004663641098886727
-0.008486420043431217 0.003540846753766305 -0.0040297945961356154
-0.008274053779438188 0.00295737523879152 -0.0031575015746057025
-0.008061687515445158 0.002373903723816735 -0.002719218144193291
-0.00784932125145213 0.0017904322088419498 -0.002722737379372119
-0.007636954987459101 0.0012069606938671647 -0.0025118491612374774
-0.007424588643833302 0.0006234889601031419 -0.0023993698414415112
-0.007212222379840274 4.0017445128356876e-05 -0.0024397594388574353
-0.00699985607603086 -0.000543454179241047 -0.0023675290867686263
-0.006787489772221446 -0.001126925803610451 -0.002624539425596594
-0.006575123508228417 -0.0017103973185852359 -0.002740098163485526
-0.006362757239258341 -0.0022938688472343483 -0.0027436173986643544
-0.006150390960334168 -0.0028773404032321156 -0.002177555812522768
-0.005938024676432947 -0.00346081197290421 -0.0026908493600785724
-0.005725658372623533 -0.0040442835972736135 -0.0025783693417906752
-0.005513292108630504 -0.004627755112248399 -0.0025818885769695035
-0.005300925844637476 -0.005211226627223184 -0.0024694078601896754
-0.005088559580644447 -0.005794698142197969 -0.0023569278419017783
-0.004876193396284189 -0.0063781694383835165 -0.002472486346960067
-0.0046638269730256195 -0.006961641390936777 -0.0022047106176614753
-0.004451460709032591 -0.0075451129059115616 -0.002410261891782283
-0.004239094445039563 -0.008128584420886346 -0.0023764688521623603
-0.004026728181046534 -0.008712055935861131 -0.0023042391985654822
-0.0038143619170535052 -0.009295527450835917 -0.002232008846476673
-0.0036019954937949366 -0.009878999403389177 -0.0021982160396873942
-0.003389629229801908 -0.010462470918363963 -0.0018730753799900404
-0.003177262965808879 -0.011045942433338748 -0.0019134655594825736
-0.002964896701815851 -0.011629413948313532 -0.0007739819120615712
-0.0027525304378228223 -0.012212885463288317 -2.4742832465562143e-05
-0.0025401641738297936 -0.012796356978263103 -0.0005380367510952047
-0.002327797909836765 -0.013379828493237888 -9.747741387399482e-06
-0.010451343855638314 0.01075487163503523 -0.0021961990278214208
-0.010026611009121177 0.009587927729928707 -0.004317863378673791
-0.009814244745128148 0.009004456214953924 -0.0048461519181728354
-0.009601878481135119 0.008420984699979138 -0.004958632867783307
-0.009389512217142092 0.007837513185004353 -0.0050308629870414725
-0.009177145953149063 0.0072540416700295676 -0.0050646550953388205
-0.008964780007687113 0.006670571030211733 -0.004987147636711597
-0.008752413743694086 0.006087099515236949 -0.005059377290308475
-0.008540047479701057 0.0055036280002621635 -0.004499601200222968
-0.008327681056442488 0.004920156047708903 -0.004937883000820874
-0.00811531479244946 0.0043366845327341185 -0.004378105979412793
-0.007902948528456431 0.003753213017759333 -0.00426254654303193
-0.007690582264463402 0.003169741502784548 -0.003749252995476126
-0.007478216000470374 0.0025862699878097637 -0.002788905752822756
-0.007265849736477345 0.0020027984728349783 -0.0022756122052669516
-0.007053483472484317 0.0014193269578601933 -0.0019139789510518306
-0.0068411171288585175 0.0008358552240961706 -0.0016569684958085411
-0.006628750864865489 0.00025238370912138554 -0.0016165777342393988
-0.0064163845610560755 -0.00033108791524801836 -0.00011784320668084471
-0.006204018257246662 -0.0009145595396174223 -0.00178725819569081
-0.005991651993253633 -0.0014980310545922072 -0.0022255415096878997
-0.005779285724283556 -0.0020815025832413197 -0.0027538302820175877
-0.005566919445359383 -0.002664974139239087 -0.002866310765966772
-0.0053545531614581626 -0.0032484457089111815 -0.002862792927771806
-0.005142186857648749 -0.003831917333280585 -0.0027852836064994327
-0.00492982059365572 -0.004415388848255371 -0.0027077754493802777
-0.0047174543296626915 -0.004998860363230155 -0.002502224873751401
-0.004505088065669662 -0.0055823318782049405 -0.0024618341121822587
-0.004292721881309404 -0.006165803174390487 -0.002458314411342143
-0.004080355458050835 -0.006749275126943748 -0.002380806952714919
-0.0038679891940578068 -0.007332746641918533 -0.002414599293842911
-0.003655622930064778 -0.007916218156893319 -0.0023742092307656995
-0.0034432566660717494 -0.008499689671868104 -0.0022967010736465445
-0.0032308904020787207 -0.009083161186842888 -0.002256310312077402
-0.003018523978820152 -0.009666633139396148 -0.002328540664166211
-0.0028061577148271234 -0.010250104654370934 -0.002288149902597069
-0.0025937914508340947 -0.010833576169345719 -0.0020825986284762612
-0.0023814251868410664 -0.011417047684320504 -0.0021548289805650702
-0.0021690589228480378 -0.01200051919929529 -0.0018456492107361549
-0.001956692658855009 -0.012583990714270073 -0.000885302550159394
-0.009867872340663528 0.010967237899028258 -0.0028152328450232736
-0.00965550575813942 0.010383765508896522 -0.0020071002654731265
-0.009443139494146392 0.009800293993921736 -0.004274597391486167
-0.009230773230153365 0.009216822478946951 -0.004583775997161864
-0.009018406966160335 0.008633350963972167 -0.004892955999821424
-0.008806040702167306 0.008049879448997382 -0.0049704648554325095
-0.008593674438174277 0.007466407934022597 -0.005047972779721021
-0.00838130849271233 0.0068829372942047625 -0.0050883633084595195
-0.0081689422287193 0.006299465779229977 -0.0051287543028593055
-0.007956575964726273 0.005715994264255193 -0.005056523717939853
-0.007744209541467703 0.005132522311701932 -0.005172083154320716
-0.007531843277474675 0.004549050796727147 -0.004961195401847362
-0.007319477013481647 0.003965579281752362 -0.004693418741226195
-0.007107110749488618 0.003382107766777577 -0.0038852859288454047
-0.006894744485495589 0.0027986362518027923 -0.002462012926116585
-0.0066823782215025595 0.002215164736828007 -0.0019337236881256097
-0.006470011957509531 0.001631693221853222 -0.0018212436698377126
-0.006257645613883732 0.0010482214880891993 -0.0014961024280637496
-0.006045279349890704 0.0004647499731144142 -0.0011138742556795471
-0.00583291304608129 -0.00011872165125498966 -0.001763342879712581
-0.0056205467422718765 -0.0007021932756243936 -0.001495565986260771
-0.005408180478278847 -0.0012856647905991785 -0.001423335750587284
-0.005195814209308771 -0.001869136319248291 -0.001983114052563905
-0.004983447930384598 -0.0024526078752460582 -0.0023970585316419593
-0.004771081646483377 -0.003036079444918153 -0.002602609805762767
-0.0045587153426739635 -0.0036195510692875565 -0.002911789342761039
-0.004346349078680934 -0.0042030225842623415 -0.0025295610539615146
-0.004133982814687906 -0.004786494099237127 -0.002891193609684705
-0.003921616550694877 -0.005369965614211911 -0.0029687024652957908
-0.0037092503663346188 -0.005953436910397459 -0.0027009272016584865
-0.00349688394307605 -0.00653690886295072 -0.002628695918247103
-0.0032845176790830214 -0.007120380377925504 -0.003141989465802907
-0.0030721514150899927 -0.00770385189290029 -0.002448119455948471
-0.002859785151096964 -0.008287323407875075 -0.0024885102175176135
-0.0026474188871039354 -0.00887079492284986 -0.0023760295007377854
-0.0024350524638453667 -0.009454266875403121 -0.0022635487839579574
-0.002222686199852338 -0.010037738390377905 -0.0018252655863761895
-0.0020103199358593093 -0.01062120990535269 -0.0023385598324239245
-0.0017979536718662808 -0.011204681420327475 -0.002378950593993067
-0.0015855874078732522 -0.01178815293530226 -0.0016850786050781601
-0.0013732211438802237 -0.012371624450277046 -0.0014173028757795685
-0.001160854879887195 -0.01295509596525183 -0.0003813483344856643
-0.009072034243164634 0.010596131772889551 -0.002153474139049649
-0.008859667979171607 0.010012660257914766 -0.003090485697612166
-0.00864730171517858 0.00942918874293998 -0.004093149676918983
-0.00843493545118555 0.008845717227965195 -0.0053778309375047675
-0.008222569187192521 0.008262245712990411 -0.005016197450459003
-0.008010202923199492 0.007678774198015625 -0.005128678400069474
-0.007797836977737544 0.007095303558197791 -0.005339565686881541
-0.007585470713744516 0.006511832043223006 -0.005336047150194644
-0.007373104449751487 0.005928360528248221 -0.005369840189814567
-0.007160738026492918 0.00534488857569496 -0.005329449661076068
-0.00694837176249989 0.004761417060720176 -0.005289058666676282
-0.006736005498506861 0.0041779455457453905 -0.004875114187598228
-0.006523639234513832 0.0035944740307706055 -0.004182395059615373
-0.006311272970520803 0.003011002515795821 -0.0017605349421501153
-0.006098906706527774 0.0024275310008210356 -0.0015248450217768543
-0.005886540442534746 0.0018440594858462507 -0.0011108992621302598
-0.0054618078349159185 0.0006771162371074429 -0.0005491763586178415
-0.005249441531106505 9.364461273803902e-05 -0.0005456577637232834
-0.005037075227297091 -0.0004898270116313649 -0.0002886476868297899
-0.004824708963304062 -0.0010732985266061498 -0.0006137885502539569
-0.0046123426943339855 -0.0016567700552552623 -0.0006475815316662186
-0.004399976415409812 -0.0022402416112530295 -0.001134993392042815
-0.004187610131508592 -0.002823713180925124 -0.0015172209823504084
-0.003975243827699178 -0.003407184805294528 -0.002239164430648088
-0.003762877563706149 -0.003990656320269313 -0.0021987736690789457
-0.0035505112997131208 -0.004574127835244098 -0.0027270624414086338
-0.003338145035720092 -0.005157599350218883 -0.0027235446032136674
-0.0031257788513598334 -0.00574107064640443 -0.002361911348998546
-0.0029134124281012647 -0.006324542598957691 -0.0024341410025954242
-0.002701046164108236 -0.006908014113932476 -0.0022285899613052602
-0.0024886799001152073 -0.0074914856289072605 -0.0020230393856763835
-0.0022763136361221787 -0.008074957143882046 -0.001982648624107241
-0.00206394737212915 -0.008658428658856831 -0.001905140466988086
-0.0018515809488705813 -0.009241900611410092 -0.001827633008360862
-0.0016392146848775526 -0.009825372126384877 -0.0017501236870884889
-0.0014268484208845242 -0.01040884364135966 -0.0019610107410699125
-0.0012144821568914955 -0.010992315156334446 -0.00184545200318098
-0.0010021158928984668 -0.011575786671309232 -0.0019579320214688774
-0.0007897496289054382 -0.012159258186284017 -0.000772100058384239
-0.008700928873135482 0.011391970586279856 -0.0028350641950964923
-0.008488562290611373 0.01080849819614812 -0.00217042863368988
-0.008276196026618346 0.010225026681173335 -0.004225109238177537
-0.008063829762625319 0.00964155516619855 -0.00521952798590064
-0.00785146349863229 0.009058083651223764 -0.0046184095554053775
-0.00763909723463926 0.008474612136248979 -0.004980043042451142
-0.007426730970646232 0.007891140621274195 -0.0050204326398670665
-0.007214365025184284 0.00730766998145636 -0.0052774427458643905
-0.007001998761191256 0.006724198466481575 -0.005317833274602889
-0.0067896324971982265 0.00614072695150679 -0.005433392710983752
-0.006577266073939657 0.0055572549989535295 -0.00539959967136383
-0.006364899809946629 0.004973783483978744 -0.005439990200102328
-0.006152533545953601 0.00439031196900396 -0.005406197160482406
-0.005940167281960572 0.003806840454029174 -0.005293716676533221
-0.0057278010179675435 0.0032233689390543893 -0.004765428137034177
-0.0055154347539745135 0.0026398974240796043 -0.0016941936919465657
-0.005303068489981485 0.0020564259091048194 -0.0006915299454703922
-0.005090702146355686 0.0014729541753407966 -2.689501343411341e-05
-0.0031794056111528884 -0.003778289897010744 -0.0012519116280600424
-0.00296703934715986 -0.0043617614119855295 -0.0009267710265703494
-0.0027546730831668315 -0.004945232926960314 -0.0018871177453547712
-0.002542306898806573 -0.005528704223145862 -0.001964625902473926
-0.002329940475548004 -0.006112176175699122 -0.0019308328628540035
-0.0021175742115549755 -0.006695647690673907 -0.001971223624423146
-0.0019052079475619468 -0.007279119205648692 -0.0018587429076433177
-0.0016928416835689183 -0.007862590720623477 -0.00189913366921246
-0.0014804754195758896 -0.008446062235598262 -0.001786653650924563
-0.0012681089963173207 -0.009029534188151523 -0.0014044253621250387
-0.001055742732324292 -0.009613005703126308 -0.00148193456698209
-0.0008433764683312635 -0.010196477218101093 -0.001156793441623449
-0.0006310102043382349 -0.010779948733075877 -0.0010845620417967434
-0.0004186439403452063 -0.011363420248050662 -0.001088081742636859
-0.00020627767635217768 -0.011946891763025448 -0.0005220196326263243
-0.007905090994425828 0.011020864380508378 -0.0022189798764884468
-0.007692724730432799 0.010437392865533593 -0.003123538568615913
-0.007480358466439771 0.009853921350558808 -0.004371389746665954
-0.007267992202446742 0.009270449835584022 -0.004639165475964545
-0.0070556259384537134 0.008686978320609239 -0.004964306484907865
-0.006843259674460685 0.008103506805634453 -0.005346534308046102
-0.006630893728998737 0.007520036165816618 -0.005557421594858169
-0.006418527465005709 0.006936564650841834 -0.005517030600458383
-0.0062061612010126796 0.006353093135867048 -0.005550823640078305
-0.0059937947777541105 0.005769621183313788 -0.00566330412402749
-0.005781428513761082 0.005186149668339003 -0.005354124587029218
-0.005569062249768054 0.004602678153364218 -0.005350606981664895
-0.005356695985775025 0.0040192066383894325 -0.005561494268476962
-0.005144329721781997 0.003435735123414648 -0.005355942528694867
-0.0049319634577889675 0.002852263608439863 -0.0044304877519607535
-0.0015341029153694286 -0.006483281506313649 -0.00043412871309556024
-0.0013217366513763999 -0.007066753021288434 -0.0003937391447834666
-0.0011093703873833714 -0.0076502245362632185 -0.0005062198033556338
-0.0008970041233903427 -0.008233696051238004 -9.227404370903924e-05
-0.0006846377001317738 -0.008817168003791264 -1.4765942069061117e-05
-0.007533986061975151 0.011816703034633143 -0.0018708932911977168
-0.007321619479451042 0.011233230644501406 -0.0025203619152307506
-0.007109253215458014 0.010649759129526622 -0.0037366349715739484
-0.0068968869514649854 0.010066287614551837 -0.004249928519129753
-0.006684520687471956 0.009482816099577051 -0.004763222299516201
-0.006472154423478928 0.008899344584602266 -0.004968773107975721
-0.006259788159485899 0.00831587306962748 -0.005174324382096529
-0.0060474222140239516 0.007732402429809647 -0.005379874724894762
-0.005835055950030923 0.007148930914834862 -0.005457383114844561
-0.005622689686037894 0.006565459399860077 -0.005497773643583059
-0.005410323262779325 0.005981987447306817 -0.005501292180269957
-0.005197956998786297 0.0053985159323320315 -0.005176151171326637
-0.004985590734793269 0.004815044417357247 -0.005537784192711115
-0.0047732244708002395 0.004231572902382462 -0.005951729137450457
-0.00456085820680721 0.0036481013874076766 -0.0052870940417051315
-0.004348491942814182 0.0030646298724328913 -0.00532748457044363
-0.004136125678821153 0.0024811583574581063 -0.005255254451185465
-0.003923759335195355 0.0018976866236940836 -0.0044471207074820995
-0.006738147964476257 0.011445596908494435 -0.0017809607088565824
-0.006525781700483229 0.01086212539351965 -0.0030656438320875164
-0.0063134154364902 0.010278653878544866 -0.004696567077189684
-0.006101049172497172 0.00969518236357008 -0.004491015803068876
-0.005888682908504143 0.009111710848595295 -0.004978427197784185
-0.0056763166445111144 0.00852823933362051 -0.00518931495025754
-0.005463950699049166 0.007944768693802676 -0.005457091610878706
-0.005251584435056138 0.007361297178827891 -0.005529321264475584
-0.00503921817106311 0.006777825663853106 -0.005563113372772932
-0.004826851747804541 0.006194353711299845 -0.0055595943704247475
-0.004614485483811512 0.00561088219632506 -0.005444034934043884
-0.004402119219818483 0.005027410681350275 -0.005328475963324308
-0.004189752955825454 0.00444393916637549 -0.00528808543458581
-0.003977386691832426 0.0038604676514007053 -0.005247695837169886
-0.0037650204278393976 0.00327699613642592 -0.005572836380451918
-0.003552654163846369 0.002693524621451135 -0.0054953270591795444
-0.00334028782022057 0.0021100528876871125 -0.004642427898943424
-0.006367043032025581 0.0122414355626192 -0.001397870830260217
-0.006154676449501472 0.011657963172487464 -0.0017070493195205925
-0.005942310185508444 0.011074491657512679 -0.002862147986888885
-0.0057299439215154156 0.010491020142537893 -0.004017247352749109
-0.0055175776575223864 0.00990754862756311 -0.004132805857807398
-0.005305211393529358 0.009324077112588324 -0.005058261100202799
-0.00509284512953633 0.008740605597613539 -0.005173820536583662
-0.004880479184074382 0.008157134957795704 -0.00537937181070447
-0.0046681129200813526 0.007573663442820919 -0.005419762339442968
-0.004455746656088324 0.006990191927846134 -0.006272661499679089
-0.004243380232829755 0.006406719975292874 -0.005464527755975723
-0.004031013968836727 0.005823248460318089 -0.005504918750375509
-0.0038186477048436983 0.0052397769453433034 -0.005814098287373781
-0.0036062814408506696 0.004656305430368519 -0.00543186953291297
-0.003393915176857641 0.0040728339153937336 -0.005509377457201481
-0.003181548912864612 0.0034893624004189486 -0.005475584417581558
-0.0029691826488715835 0.0029058908854441637 -0.005207809619605541
-0.002756816305245785 0.0023224191516801407 -0.005464819259941578
-0.002544450041252756 0.0017389476367053558 -0.0053523387759923935
-0.0023320837374433425 0.0011554760123359518 -0.0050271982327103615
-0.005783571407656177 0.012453801866428613 -0.0008937081438489257
-0.00535883856113904 0.011286857961322092 -0.0025115767493844032
-0.005146472297146011 0.010703386446347307 -0.003448588540777564
-0.004934106033152983 0.010119914931372523 -0.004418286494910717
-0.0047217397691599544 0.009536443416397738 -0.004629173316061497
-0.004509373505166925 0.008952971901422952 -0.005116586573421955
-0.004297007559704977 0.008369501261605117 -0.004859576001763344
-0.004084641295711949 0.007786029746630333 -0.005524211097508669
-0.00387227503171892 0.0072025582316555484 -0.005636691581457853
-0.0036599086084603515 0.006619086279102288 -0.005633172113448381
-0.0034475423444673228 0.0060356147641275025 -0.005555665120482445
-0.003235176080474294 0.005452143249152717 -0.0055521451868116856
-0.003022809816481266 0.004868671734177933 -0.006456705275923014
-0.0028104435524882367 0.004285200219203147 -0.00572176743298769
-0.0025980772884952085 0.0037017287042283623 -0.005644258111715317
-0.00238571102450218 0.0031182571892535774 -0.005438707768917084
-0.002173344680876381 0.0025347854554895544 -0.005551188252866268
-0.0019609784168833524 0.0019513139405147695 -0.005584980361163616
-0.0017486121130739388 0.0013678423161453655 -0.005071686580777168
-0.0015362458092645249 0.0007843706917759618 -0.004182022996246815
-0.004987733255459974 0.012082695760198098 -0.0020411349833011627
-0.0047753669914669455 0.011499224245223314 -0.002081524580717087
-0.004563000727473916 0.010915752730248529 -0.0031092683784663677
-0.004350634463480888 0.010332281215273744 -0.003924354445189238
-0.00413826819948786 0.009748809700298958 -0.004529515281319618
-0.003925901935494831 0.009165338185324173 -0.005042809061706066
-0.003713535990032883 0.00858186754550634 -0.005299819633364677
-0.0035011697260398543 0.007998396030531554 -0.005415378138422966
-0.0032888034620468256 0.007414924515556769 -0.005530936643481255
-0.003076437038788257 0.006831452563003508 -0.005571327637881041
-0.0028640707747952282 0.006247981048028724 -0.005648835562169552
-0.0026517045108022 0.0056645095330539385 -0.006010469514876604
-0.0024393382468091713 0.005081038018079153 -0.005572186317294836
-0.002226971982816142 0.004497566503104369 -0.004850242752581835
-0.002014605718823114 0.003914094988129583 -0.005844660568982363
-0.0018022394548300852 0.0033306234731547983 -0.005633773747831583
-0.0015898731112042866 0.002747151739390776 -0.00589078338816762
-0.0013775068472112579 0.0021636802244159904 -0.005362495314329863
-0.0011651405434018442 0.0015802086000465867 -0.005366012454032898
-0.0009527742395924305 0.0009967369756771827 -0.00529378280043602
-0.0007404079755994019 0.00041326546070239773 -0.004968641791492701
-0.004191895442306342 0.011711590521658963 -0.0018493311945348978
-0.003979529178313314 0.011128119006684178 -0.002753891283646226
-0.003767162914320285 0.010544647491709393 -0.0035620243288576603
-0.0035547966503272563 0.009961175976734607 -0.0042558955028653145
-0.0033424303863342276 0.009377704461759822 -0.004949767142534256
-0.0031300644408722798 0.008794233821941989 -0.005160654429346323
-0.002917698176879251 0.008210762306967203 -0.005648065824061632
-0.0027053319128862224 0.007627290791992418 -0.005532507319003344
-0.0024929654896276537 0.007043818839439157 -0.005644987802952528
-0.002280599225634625 0.006460347324464373 -0.005678779445588589
-0.0020682329616415964 0.0058768758094895875 -0.005751010496169329
-0.0018558666976485677 0.005293404294514802 -0.005784803535789251
-0.0016435004336555392 0.004709932779540018 -0.005781283602118492
-0.0014311341696625105 0.004126461264565232 -0.005777763668447733
-0.0012187679056694818 0.0035429897495904473 -0.005700257141143084
-0.0010064015620436832 0.0029595180158264248 -0.005622748751193285
-0.0007940352980506545 0.0023760465008516394 -0.005582358222454786
-0.0005816689942412408 0.0017925748764822357 -0.005376806482672691
-0.00036930269043182717 0.0012091032521128317 -0.005759035237133503
-0.00015693642643879843 0.0006256317371380468 -0.0046350350603461266
5.542984253127836e-05 4.2160208488934345e-05 -0.004221090581268072
-0.003608423906820066 0.011923956793117564 -0.002452284563332796
-0.0033960576428270373 0.011340485278142779 -0.00252979202196002
-0.0031836913788340086 0.010757013763167993 -0.003622250398620963
-0.0029713251148409804 0.010173542248193208 -0.004227411933243275
-0.0027589588508479517 0.009590070733218423 -0.005117074586451054
-0.0025465929053860034 0.00900660009340059 -0.00508328340947628
-0.0023342266413929748 0.008423128578425804 -0.005643059499561787
-0.002121860377399946 0.007839657063451019 -0.005646579433232546
-0.0019094939541413774 0.007256185110897758 -0.0056500970385968685
-0.001697127690148349 0.0066727135959229735 -0.0056163049302995205
-0.0014847614261553203 0.006089242080948188 -0.005731864832341671
-0.0012723951621622918 0.005505770565973404 -0.00580937322229147
-0.0010600288981692629 0.004922299050998618 -0.005696892272680998
-0.0008476626341762344 0.004338827536023833 -0.005902443081140518
-0.0006352963701832058 0.003755356021049048 -0.006018002517521381
-0.000422930026557407 0.0031718842872850254 -0.005579720716923475
-0.0002105637625643784 0.0025884127723102405 -0.005695279221981764
1.8025412450352697e-06 0.0020049411479408363 -0.005582798738032579
0.00021416884505444896 0.0014214695235714326 -0.005371911451220512
0.00042653510904747767 0.0008379980085966475 -0.00453174440190196
0.0006389013780175543 0.0002545264799475351 -0.0052244639955461025
0.0008512676569417274 -0.00032894507605023195 -0.004737050738185644
0.0010636339408429487 -0.0009124166457223264 -0.003896885085850954
-0.002812586127852252 0.011552851542135808 -0.002338176127523184
-0.0026002198638592237 0.010969380027161022 -0.0030028109904378653
-0.002387853599866195 0.010385908512186237 -0.0038429778069257736
-0.0021754873358731668 0.009802436997211452 -0.004507612902671099
-0.0019631213904112185 0.009218966357393618 -0.005141460336744785
-0.0017507551264181898 0.008635494842418833 -0.00535234808921814
-0.0015383888624251611 0.008052023327444048 -0.005563234910368919
-0.0013260224391665925 0.007468551374890787 -0.005635464563965797
-0.0011136561751735638 0.006885079859916002 -0.005747945513576269
-0.0009012899111805352 0.006301608344941217 -0.005860425997525454
-0.0006889236471875065 0.005718136829966432 -0.00578291667625308
-0.00047655738319447817 0.0051346653149916465 -0.006221199873834848
-0.0002641911192014493 0.004551193800016862 -0.005807255394756794
-5.18248552084207e-05 0.003967722285042077 -0.005841048434376717
0.00016054148841737804 0.003384250551278054 -0.005913278087973595
0.00037290775241040667 0.002800779036303269 -0.005656268447637558
0.0005852740562198204 0.002217307411933865 -0.005615877453237772
0.000797640360029234 0.0016338357875644613 -0.005306698847562075
0.0010100066240222626 0.0010503642725896761 -0.00530317984521389
0.0012223728929923394 0.0004668927439405637 -0.005187620408833027
0.0014347391719165125 -0.00011657881205720339 -0.005110111553221941
0.0016471054558177334 -0.0007000503817292978 -0.004504950251430273
-0.0024414807674758765 0.012348689360920005 -0.000696517061442137
-0.0022291145034828482 0.01176521784594522 -0.0011104628210887315
-0.0020167482394898195 0.011181746330970436 -0.0027789878658950333
-0.001804381975496791 0.01059827481599565 -0.0039648194797337055
-0.0015920157115037626 0.010014803301020865 -0.004699756857007742
-0.0013796497660418146 0.009431332661203032 -0.005213051103055477
-0.0011672835020487859 0.008847861146228247 -0.005140820983797312
-0.0009549172380557573 0.008264389631253461 -0.005554764997214079
-0.0007425508147971884 0.007680917678700201 -0.005968709476292133
-0.0005301845508041598 0.0070974461637254155 -0.005700934212654829
-0.0003178182868111312 0.006513974648750631 -0.005816493183374405
-0.0001054520228181026 0.005930503133775846 -0.005744263529777527
0.00010691424117492602 0.00534703161880106 -0.006053443066775799
0.00031928050516795463 0.004763560103826276 -0.005940962582826614
0.0005316467691609833 0.00418008858885149 -0.005944482050836086
0.0007440131127867819 0.003596616855087468 -0.005947999656200409
0.0009563793767798106 0.003013145340112683 -0.005737112369388342
0.0011687456805892242 0.0024296737157432787 -0.005526225548237562
0.0013811119843986379 0.001846202091373875 -0.005566616542637348
0.0015934782483916666 0.0012627305763990898 -0.0054541355930268764
0.0018058445173617433 0.0006792590477499775 -0.005243248771876097
0.0020182107962859164 9.578749175221029e-05 -0.005283638369292021
0.0022305770801871374 -0.0004876840779198842 -0.004845355171710253
0.002442943383996551 -0.001071155702289288 -0.004732875619083643
0.00265530964798958 -0.001654627217264073 -0.004166812635958195
-0.001433276615120416 0.01139411263477985 -0.0021944094914942984
-0.0012209103511273873 0.010810641119805064 -0.00370847387239337
-0.0010085440871343586 0.010227169604830279 -0.004645485430955887
-0.0007961781416724106 0.009643698965012446 -0.004913260694593191
-0.0005838118776793823 0.00906022745003766 -0.0057213944382965565
-0.00037144561368635334 0.008476755935062875 -0.005307449493557215
-0.00015907919042778494 0.007893283982509615 -0.005745731759816408
5.328707356524369e-05 0.007309812467534829 -0.005817963741719723
0.0002656533375582723 0.006726340952560045 -0.0059304432943463326
0.00047801960155130095 0.006142869437585259 -0.0058900536969304085
0.0006903858655443295 0.005559397922610474 -0.006002533249557018
0.0009027521295373582 0.004975926407635689 -0.006036325357854366
0.0011151183935303867 0.004392454892660904 -0.005958816967904568
0.0013274847371561856 0.0038089831588968815 -0.00564963836222887
0.001539851001149214 0.003225511643922096 -0.005860525649040937
0.0017522173049586277 0.0026420400195526924 -0.00555134704336524
0.0019645836087680414 0.0020585683951832886 -0.005663825199007988
0.00217694987276107 0.0014750968802085035 -0.005458274856209755
0.0023893161417311466 0.000891625351559391 -0.005492067895829678
0.00260168242065532 0.0003081537955616241 -0.005130433943122625
0.0028140487045565416 -0.0002753177741104704 -0.005014875438064337
0.0030264150083659552 -0.0008587893984798743 -0.004937367048114538
0.003238781272358984 -0.0014422609134546592 -0.004424073733389378
0.003451147536352012 -0.0020257324284294444 -0.003463725093752146
-0.0008498051001456311 0.011606478898772877 -0.0032091094180941586
-0.0006374388361526024 0.011023007383798094 -0.003286618739366532
-0.0004250725721595738 0.010439535868823308 -0.004472448956221342
-0.00021270662669762563 0.009856065229005473 -0.004834082908928394
-3.403627045970119e-07 0.009272593714030688 -0.005439244210720062
0.0002120259012884316 0.008689122199055904 -0.005554804112762213
0.00042439232454700044 0.008105650246502644 -0.00555832264944911
0.0006367585885400291 0.007522178731527858 -0.005673881154507399
0.0008491248525330576 0.006938707216553073 -0.005789441056549549
0.0010614911165260862 0.0063552357015782875 -0.006151073612272739
0.001273857380519115 0.005771764186603503 -0.006154592148959637
0.0014862236445121436 0.005188292671628718 -0.005667181685566902
0.001698589908505172 0.004604821156653933 -0.006081126164644957
0.001910956252130971 0.00402134942288991 -0.005968645680695772
0.0021233225161239994 0.003437877907915125 -0.006046155001968145
0.002335688819933413 0.002854406283545721 -0.005558741744607687
0.0025480551237428268 0.0022709346591763173 -0.005764292553067207
0.0027604213877358555 0.0016874631442015322 -0.005496517289429903
0.002972787656705932 0.0011039916155524197 -0.006311602890491486
0.003185153935630105 0.0005205200595546526 -0.005374591797590256
0.0033975202195313265 -6.295151011744193e-05 -0.004740743897855282
0.00360988652334074 -0.0006464231344868458 -0.0051546888425946236
0.003822252787333769 -0.0012298946494616308 -0.004829547367990017
0.0040346190513267976 -0.001813366164436416 -0.004618660546839237
0.004246985315319826 -0.002396837679411201 -0.004131248686462641
-5.396710238857944e-05 0.011235373727423892 -0.00303646712563932
0.00015839916160444918 0.010651902212449106 -0.003908760845661164
0.00037076510706639737 0.010068431572631273 -0.004509879741817714
0.0005831313710594256 0.009484960057656488 -0.005350045859813691
0.0007954976350524541 0.008901488542681702 -0.005383837502449752
0.001007864058311023 0.008318016590128442 -0.005651614163070918
0.0012202303223040516 0.0077345450751536565 -0.005446062423288823
0.0014325965862970803 0.007151073560178872 -0.005828291177749635
0.0016449628502901088 0.006567602045204087 -0.006153431721031667
0.0018573291142831374 0.005984130530229301 -0.006075923796743155
0.002069695378276166 0.005400659015254517 -0.0059603648260235795
0.0022820616422691946 0.004817187500279731 -0.0060325944796204576
0.0024944279858949933 0.004233715766515708 -0.005775584839284421
0.002706794249888022 0.0036502442515409235 -0.005888065323233605
0.0029191605536974356 0.0030667726271715197 -0.005682514980435372
0.0031315268575068493 0.002483301002802116 -0.005716306623071433
0.003343893121499878 0.0018998294878273308 -0.005354674067348243
0.0035562593904699545 0.0013163579591782184 -0.005388465709984303
0.0037686256693941276 0.0007328864031804512 -0.005348076112568379
0.0039809919532953495 0.00014941483350835698 -0.005270567722618581
0.004193358257104763 -0.00043405679086104695 -0.00515500782057643
0.004405724521097791 -0.0010175283058358319 -0.004949456546455623
0.0046180907850908205 -0.001600999820810617 -0.004833898041397334
0.004830457049083849 -0.002184471335785402 -0.004524718504399062
0.005042823233444107 -0.0027679426319709493 -0.004409159068018199
0.005255189656702676 -0.00335141458452421 -0.003448812291026116
0.0005295044125862064 0.011447739991416921 -0.0029140047263354067
0.0007418706765792341 0.010864268476442136 -0.003766905749216676
0.0009542366220411823 0.0102807978366243 -0.004280199296772481
0.001166602886034211 0.009697326321649515 -0.005095285829156638
0.0013789691500272396 0.009113854806674732 -0.005456918850541116
0.0015913355732858083 0.008530382854121471 -0.005662468262016774
0.001803701837278837 0.007946911339146686 -0.005702858790755273
0.0020160681012718657 0.0073634398241719 -0.005818420089781285
0.0022284343652648943 0.006779968309197115 -0.0058959266170859346
0.002440800629257923 0.00619649679422233 -0.0059363176114857205
0.0026531668932509513 0.005613025279247545 -0.006013825535774232
0.00286553315724398 0.0050295537642727605 -0.006129384506493808
0.0030778995008697786 0.0044460820305087375 -0.00605715485289693
0.0032902657648628073 0.003862610515533952 -0.0060606743209064015
0.003502632068672221 0.0032791388911645484 -0.005792898125946523
0.0037149983724816347 0.0026956672667951447 -0.0057591050863266
0.003927364636474664 0.0021121957518203593 -0.00564662553369999
0.00413973090544474 0.001528724223171247 -0.005762184504419566
0.0043520971843689134 0.0009452526671734799 -0.005379956681281329
0.004564463468270134 0.0003617810975013854 -0.005169068928807975
0.004776829772079548 -0.00022169052686801848 -0.005284627899527551
0.004989196036072577 -0.0008051620418428035 -0.0051721478812396535
0.005201562300065605 -0.0013886335568175886 -0.005059668328613044
0.005413928564058634 -0.0019721050717923737 -0.004734527785331012
0.005626294748418892 -0.002555576367977921 -0.004700734745711089
0.0058386611716774615 -0.003139048320531181 -0.003978791180998088
0.00605102743567049 -0.0037225198355059666 -0.0040191817097365865
0.0013253417539755444 0.011076634581169623 -0.003236015094444156
0.0015377076994374916 0.01049316394135179 -0.003957957960665227
0.0017500739634305203 0.009909692426377004 -0.004559075459837914
0.001962440227423549 0.009326220911402219 -0.005125137977302075
0.0021748066506821176 0.008742748958848958 -0.005563421174883843
0.0023871729146751463 0.008159277443874173 -0.005635650828480721
0.002599539178668175 0.0075758059288993885 -0.005748131312429906
0.0028119054426612037 0.006992334413924603 -0.005707741715013982
0.0030242717066542323 0.006408862898949819 -0.005779972765594722
0.0032366379706472606 0.005825391383975033 -0.005990859586745501
0.0034490042346402893 0.005241919869000249 -0.0057853078469634065
0.003661370578266088 0.004658448135236226 -0.005897788796573878
0.0038737368422591166 0.00407497662026144 -0.005692237988114358
0.00408610314606853 0.0034915049958920367 -0.005651847459375859
0.004298469449877944 0.002908033371522633 -0.005394837353378535
0.004510835713870973 0.0023245618565478476 -0.005137828178703786
0.00472320198284105 0.0017410903278987353 -0.005462969187647105
0.004935568261765223 0.001157618771900968 -0.005459449719637633
0.005147934545666443 0.0005741472022288737 -0.005381941329687835
0.005360300849475857 -9.324422140530213e-06 -0.0052663818933069715
0.005572667113468886 -0.0005927959371153153 -0.005150822456926108
0.005785033377461914 -0.0011762674520901003 -0.005073314998298884
0.0059973996414549435 -0.0017597389670648853 -0.004867763724178077
0.006209765825815202 -0.002343210263250433 -0.0047902544029057035
0.006422132249073771 -0.002926682215803693 -0.004674695897847415
0.006634498513066799 -0.0035101537307784783 -0.004469144623726607
0.006846864777059827 -0.004093625245753263 -0.003955851309001447
0.001908813268950329 0.011289000845162652 -0.0036744498647749433
0.002121179214412277 0.010705530205344817 -0.0037148406263440856
0.0023335454784053056 0.010122058690370033 -0.004709258675575257
0.0025459117423983343 0.009538587175395248 -0.005070891696959735
0.002758278165656903 0.008955115222841988 -0.005584185477346183
0.0029706444296499317 0.008371643707867202 -0.005661694798618556
0.0031830106936429604 0.007788172192892418 -0.005739202722907067
0.003395376957635989 0.007204700677917632 -0.005854761693626643
0.0036077432216290177 0.006621229162942847 -0.005895152222365142
0.003820109485622046 0.006037757647968062 -0.00597266061231494
0.004032475749615075 0.005454286132993277 -0.005938868504017592
0.004244842093240874 0.004870814399229254 -0.00590507546439767
0.004457208357233902 0.0042873428842544695 -0.006110627204179765
0.004669574661043316 0.0037038712598850654 -0.005785485729575158
0.004881940964852729 0.0031203996355156616 -0.005673006176948548
0.0050943072288457585 0.0025369281205408763 -0.005600775126367808
0.005306673497815835 0.001953456591891764 -0.005678283516317607
0.005519039776740008 0.0013699850358939968 -0.005565802566707135
0.005731406060641229 0.0007865134662219024 -0.005569322500377894
0.005943772364450642 0.00020304184185249846 -0.00545684201642871
0.0061561386284436715 -0.0003804296731222866 -0.005384612362831832
0.0063685048924367 -0.0009639011880970716 -0.00511683663353324
0.00658087115642973 -0.0015473727030718564 -0.0034859131556004294
0.006793237340789987 -0.002130843999257404 -0.00492270477116108
0.007005603764048556 -0.0027143159518106643 -0.004888912197202445
0.0072179700280415844 -0.0032977874667854496 -0.0047764317132532605
0.007430336292034613 -0.0038812589817602346 -0.0043381485156714925
0.007642702556027643 -0.0044647304967350195 -0.0034335898235440263
0.0027046511669655375 0.010917896628603386 -0.0033281866926699885
0.002917017430958566 0.0103344251136286 -0.004168353509157897
0.003129383694951595 0.009750953598653817 -0.004862225614488126
0.0033417501182101635 0.009167481646100557 -0.005496072117239238
0.0035541163822031922 0.008584010131125771 -0.00560855120420456
0.003766482646196221 0.008000538616150986 -0.005492992699146272
0.00397884891018925 0.0074170671011762005 -0.00593127589672804
0.004191215174182278 0.006833595586201416 -0.005890885367989541
0.004403581438175307 0.006250124071226631 -0.005813376046717168
0.004615947702168335 0.005666652556251846 -0.005809858441352845
0.004828314045794134 0.005083180822487823 -0.005922339390963317
0.005040680309787163 0.004499709307513038 -0.005229619797319175
0.005253046613596576 0.003916237683143634 -0.005717031657695771
0.00546541291740599 0.0033327660587742303 -0.005676642060279847
0.005677779181399019 0.002749294543799445 -0.005673122126609088
0.005890145450369096 0.0021658230151503327 -0.005595614202320577
0.006102511729293269 0.0015823514591525654 -0.005390063393861056
0.006314878013194489 0.000998879889480471 -0.005462293047457934
0.006527244317003903 0.00041540826511106714 -0.004467875696718694
0.006739610580996932 -0.00016806324986371788 -0.005276008509099484
0.00695197684498996 -0.000751534764838503 -0.0051604495383799085
0.007164343108982989 -0.001335006279813288 -0.005156930070370437
0.007376709293343248 -0.0019184775759988352 -0.004643636289983989
0.007589075716601817 -0.0025019495285520956 -0.004968776833266021
0.007801441980594845 -0.003085421043526881 -0.004659597761929036
0.008013808244587873 -0.003668892558501666 -0.004010130185633899
0.008226174508580902 -0.00425236407347645 -0.002592171775177122
0.003288122681940323 0.011130262892596415 -0.003000555559992791
0.0035004889459333507 0.01054679137762163 -0.00427714316174388
0.0037128552099263794 0.009963319862646845 -0.004926610738039018
0.0039252216331849485 0.009379847910093584 -0.005486387759447099
0.004137587897177977 0.0087963763951188 -0.0056019467301666745
0.004349954161171005 0.008212904880144015 -0.005717506166547538
0.004562320425164034 0.00762943336516923 -0.005795014556497336
0.004774686689157062 0.007045961850194444 -0.005682533606886865
0.0049870529531500915 0.00646249033521966 -0.005648741032928229
0.00519941921714312 0.005879018820244874 -0.005854292772710324
0.005411785560768919 0.005295547086480851 -0.005820500664412976
0.005624151824761947 0.004712075571506067 -0.0058240192010998735
0.005836518128571361 0.004128603947136662 -0.005827537737786771
0.0060488844323807744 0.003545132322767259 -0.005831056274473668
0.0062612506963738036 0.0029616608077924736 -0.005718575790524484
0.00647361696534388 0.0023781892791433614 -0.005684784147888423
0.006685983244268053 0.0017947177231455941 -0.004053861368447543
0.006898349528169274 0.0012112461534734998 -0.005517218727618457
0.007110715831978687 0.0006277745291040958 -0.005557609722018243
0.0073230820959717165 4.4303014129310785e-05 -0.005445129238069058
0.007535448359964745 -0.0005391685008454743 -0.005234241485595704
0.007747814623957774 -0.0011226400158202592 -0.005121761467307807
0.007960180808318031 -0.0017061113120058066 -0.005087968427687884
0.0081725472315766 -0.002289583264559067 -0.005054175388067962
0.00838491349556963 -0.0028730547795338523 -0.004420329350978137
0.008597279759562659 -0.0034565262945086372 -0.004038101062178613
0.008809646023555688 -0.004039997809483422 -0.0032299673184752473
0.009022012287548717 -0.004623469324458207 -0.0032703580800443896
0.009234378710807284 -0.005206941277011467 -0.0010752261150628337
0.0040839604609081365 0.010759157641614659 -0.002881549298763276
0.004296326724901165 0.010175686126639874 -0.0043174740858376035
0.004508693148159734 0.009592214174086613 -0.004982109647244216
0.004721059412152762 0.009008742659111828 -0.005510399583727122
0.00493342567614579 0.008425271144137044 -0.00554419169202447
0.0051457919401388195 0.007841799629162259 -0.005503802094608546
0.005358158204131848 0.007258328114187473 -0.005942085292190314
0.005570524468124877 0.006674856599212688 -0.004947666078805924
0.005782890732117905 0.0060913850842379035 -0.005158554296940566
0.005995257075743704 0.0055079133504738805 -0.005645966157317162
0.0062076233397367325 0.004924441835499095 -0.005758446641266347
0.006419989643546146 0.004340970211129691 -0.005754926707595588
0.00663235594735556 0.0037574985867602877 -0.00578871974721551
0.006844722211348589 0.0031740270717855023 -0.005583168007433415
0.0070570884803186655 0.00259055554313639 -0.005505661480128766
0.007269454759242839 0.002007083987138623 -0.005773436278104783
0.007481821043144059 0.0014236124174665285 -0.005695928353816272
0.007694187346953473 0.0008401407930971245 -0.005490378011018039
0.007906553610946502 0.00025666927812233945 -0.004930599592626096
0.008118919874939531 -0.0003268022368524456 -0.0045689656399190435
0.008331286138932558 -0.0009102737518272306 -0.004894108045846225
0.008543652323292817 -0.0014937450480127779 -0.004688556771725417
0.008756018746551386 -0.0020772170005660382 -0.004483005963265897
0.008968385010544415 -0.0026606885155408236 -0.003969712182879449
0.009180751274537444 -0.003244160030515608 -0.0030800478998571643
0.009393117538530473 -0.003827631545490393 -0.0014798082411289224
0.009605483802523502 -0.004411103060465178 -0.0001556871138745928
0.004879797802297475 0.010388052231367363 -0.0039964448660612115
0.005092164225556044 0.009804580278814102 -0.004509739112108947
0.005304530489549072 0.009221108763839317 -0.0054351924918591985
0.0055168967535421005 0.008637637248864532 -0.0056407442316412934
0.00572926301753513 0.008054165733889746 -0.005528265144675971
0.005941629281528158 0.007470694218914962 -0.005415784195065499
0.006153995545521187 0.006887222703940177 -0.005303303711116315
0.006366361809514215 0.006303751188965392 -0.005380811635404826
0.006578728153140014 0.005720279455201369 -0.005421202629804612
0.006791094417133043 0.005136807940226584 -0.0053874095901846894
0.007003460720942456 0.00455333631585718 -0.005390929058194161
0.00721582702475187 0.003969864691487776 -0.00546843744814396
0.007428193288744899 0.003386393176512991 -0.005471955984830857
0.007640559557714976 0.0028029216478638787 -0.005587514489889146
0.007852925836639149 0.0022194500918661115 -0.0053197392262518415
0.00806529212054037 0.0016359785221940171 -0.005108852405101062
