ply
format ascii 1.0
element vertex 769
property float x
property float y
property float z
end_header
0.001592831453308463 0.0029385557863861322 0.09339999407529831
0.0018369470490142703 0.0029385557863861322 0.09339999407529831
0.002081062877550721 0.0029385557863861322 0.09339999407529831
0.00232517858967185 0.0029385557863861322 0.09339999407529831
0.0025692943017929792 0.0029385557863861322 0.09339999407529831
0.0028134100139141083 0.0029385557863861322 0.09339999407529831
0.0030575257260352373 0.0029385557863861322 0.09339999407529831
0.00330164167098701 0.0029385557863861322 0.09339999407529831
0.0035457571502774954 0.0029385557863861322 0.09339999407529831
0.0037898728623986244 0.0029385557863861322 0.09339999407529831
0.004033988807350397 0.0029385557863861322 0.09339999407529831
0.00427810475230217 0.0029385557863861322 0.09339999407529831
0.004522220231592655 0.0029385557863861322 0.09339999407529831
0.0047663357108831406 0.0029385557863861322 0.09339999407529831
0.005010451655834913 0.0029385557863861322 0.09339999407529831
0.005254567600786686 0.0029385557863861322 0.09339999407529831
0.005498683080077171 0.0029385557863861322 0.09339999407529831
0.005748947616666555 0.002941702026873827 0.09349999576807022
0.00599332433193922 0.002941702026873827 0.09349999576807022
0.00623770197853446 0.002941702026873827 0.09349999576807022
0.006489011459052563 0.0029448482673615217 0.09359999746084213
0.006733650341629982 0.0029448482673615217 0.09359999746084213
0.006978288758546114 0.0029448482673615217 0.09359999746084213
0.007222927175462246 0.0029448482673615217 0.09359999746084213
0.007467566058039665 0.0029448482673615217 0.09359999746084213
0.00772044388577342 0.0029479945078492165 0.09369999915361404
0.007973844185471535 0.002951140748336911 0.09380000084638596
0.008219006471335888 0.002951140748336911 0.09380000084638596
0.010041051544249058 0.0029826026875525713 0.09479999542236328
0.01029968075454235 0.002985748928040266 0.09489999711513519
0.01056994590908289 0.0029920414090156555 0.09510000050067902
0.01088676042854786 0.0030109183862805367 0.09569999575614929
0.011195073835551739 0.0030266495887190104 0.09619999676942825
0.01150600053369999 0.0030423805583268404 0.09669999778270721
0.011856022290885448 0.0030675502493977547 0.09749999642372131
0.012160539627075195 0.00308013497851789 0.09789999574422836
0.012530561536550522 0.003108450910076499 0.09879999607801437
-0.0028072502464056015 0.0031894869171082973 0.09359999746084213
-0.0025598739739507437 0.0031860792078077793 0.09349999576807022
-0.002313020406290889 0.0031826714985072613 0.09339999407529831
-0.0020689046941697598 0.0031826714985072613 0.09339999407529831
-0.001822835300117731 0.0031792642548680305 0.093299999833107
-0.0015789809403941035 0.0031792642548680305 0.093299999833107
-0.001335126580670476 0.0031792642548680305 0.093299999833107
-0.0010912722209468484 0.0031792642548680305 0.093299999833107
-0.0008465095306746662 0.0031758565455675125 0.09319999814033508
-0.0006035633850842714 0.0031792642548680305 0.093299999833107
-0.00035970902536064386 0.0031792642548680305 0.093299999833107
-0.00011597882257774472 0.0031826714985072613 0.09339999407529831
0.00012813693319913 0.0031826714985072613 0.09339999407529831
0.0003722526889760047 0.0031826714985072613 0.09339999407529831
0.0006163684302009642 0.0031826714985072613 0.09339999407529831
0.0008604840841144323 0.0031826714985072613 0.09339999407529831
0.0011057824594900012 0.0031860792078077793 0.09349999576807022
0.0013501596404239535 0.0031860792078077793 0.09349999576807022
0.0015945368213579059 0.0031860792078077793 0.09349999576807022
0.0018389138858765364 0.0031860792078077793 0.09349999576807022
0.0020832910668104887 0.0031860792078077793 0.09349999576807022
0.0023276680149137974 0.0031860792078077793 0.09349999576807022
0.0025720451958477497 0.0031860792078077793 0.09349999576807022
0.002816422376781702 0.0031860792078077793 0.09349999576807022
0.0030575257260352373 0.0031826714985072613 0.09339999407529831
0.00330164167098701 0.0031826714985072613 0.09339999407529831
0.0035457571502774954 0.0031826714985072613 0.09339999407529831
0.0037898728623986244 0.0031826714985072613 0.09339999407529831
0.004033988807350397 0.0031826714985072613 0.09339999407529831
0.00427810475230217 0.0031826714985072613 0.09339999407529831
0.004522220231592655 0.0031826714985072613 0.09339999407529831
0.0047663357108831406 0.0031826714985072613 0.09339999407529831
0.005010451655834913 0.0031826714985072613 0.09339999407529831
0.005254567600786686 0.0031826714985072613 0.09339999407529831
0.005504570435732603 0.0031860792078077793 0.09349999576807022
0.005748947616666555 0.0031860792078077793 0.09349999576807022
0.00599332433193922 0.0031860792078077793 0.09349999576807022
0.00623770197853446 0.0031860792078077793 0.09349999576807022
0.006489011459052563 0.0031894869171082973 0.09359999746084213
0.006733650341629982 0.0031894869171082973 0.09359999746084213
0.006978288758546114 0.0031894869171082973 0.09359999746084213
0.007222927175462246 0.0031894869171082973 0.09359999746084213
0.007467566058039665 0.0031894869171082973 0.09359999746084213
0.00772044388577342 0.0031928943935781717 0.09369999915361404
0.007965343073010445 0.0031928943935781717 0.09369999915361404
0.008219006471335888 0.0031963021028786898 0.09380000084638596
0.00951529573649168 0.0032201549038290977 0.09449999779462814
0.009772616438567638 0.003223562613129616 0.09459999948740005
0.010019868612289429 0.003223562613129616 0.09459999948740005
0.010288827121257782 0.0032303775660693645 0.09479999542236328
0.010547716170549393 0.0032337852753698826 0.09489999711513519
0.010841256938874722 0.0032474154140800238 0.09529999643564224
0.011171800084412098 0.003271268680691719 0.09600000083446503
0.012135696597397327 0.003329197410494089 0.09769999980926514
0.01250519696623087 0.0033598653972148895 0.09860000014305115
0.012814679183065891 0.0033734957687556744 0.0989999994635582
-0.0023154967930167913 0.0034304563887417316 0.09349999576807022
-0.0020689046941697598 0.003426787443459034 0.09339999407529831
-0.0018247888656333089 0.003426787443459034 0.09339999407529831
-0.0015789809403941035 0.00342311873100698 0.093299999833107
-0.001335126580670476 0.00342311873100698 0.093299999833107
-0.0010912722209468484 0.00342311873100698 0.093299999833107
-0.0008474178030155599 0.00342311873100698 0.093299999833107
-0.0006035633850842714 0.00342311873100698 0.093299999833107
-0.0003600945638027042 0.003426787443459034 0.09339999407529831
-0.00011597882257774472 0.003426787443459034 0.09339999407529831
0.00012827412865590304 0.0034304563887417316 0.09349999576807022
0.00037265123683027923 0.0034304563887417316 0.09349999576807022
0.0006170283304527402 0.0034304563887417316 0.09349999576807022
0.0008614053949713707 0.0034304563887417316 0.09349999576807022
0.0011057824594900012 0.0034304563887417316 0.09349999576807022
0.0013516036560758948 0.0034341253340244293 0.09359999746084213
0.0015962421894073486 0.0034341253340244293 0.09359999746084213
0.0018408806063234806 0.0034341253340244293 0.09359999746084213
0.0020855192560702562 0.0034341253340244293 0.09359999746084213
0.002330157672986388 0.0034341253340244293 0.09359999746084213
0.00257479608990252 0.0034341253340244293 0.09359999746084213
0.002816422376781702 0.0034304563887417316 0.09349999576807022
0.0030607995577156544 0.0034304563887417316 0.09349999576807022
0.0033051767386496067 0.0034304563887417316 0.09349999576807022
0.0035495534539222717 0.0034304563887417316 0.09349999576807022
0.003793930634856224 0.0034304563887417316 0.09349999576807022
0.004038307815790176 0.0034304563887417316 0.09349999576807022
0.004282684996724129 0.0034304563887417316 0.09349999576807022
0.004527061711996794 0.0034304563887417316 0.09349999576807022
0.0047663357108831406 0.003426787443459034 0.09339999407529831
0.005010451655834913 0.003426787443459034 0.09339999407529831
0.005254567600786686 0.003426787443459034 0.09339999407529831
0.005504570435732603 0.0034304563887417316 0.09349999576807022
0.005748947616666555 0.0034304563887417316 0.09349999576807022
0.00599332433193922 0.0034304563887417316 0.09349999576807022
0.00623770197853446 0.0034304563887417316 0.09349999576807022
0.006489011459052563 0.0034341253340244293 0.09359999746084213
0.006733650341629982 0.0034341253340244293 0.09359999746084213
0.006978288758546114 0.0034341253340244293 0.09359999746084213
0.007222927175462246 0.0034341253340244293 0.09359999746084213
0.007467566058039665 0.0034341253340244293 0.09359999746084213
0.00772044388577342 0.003437794279307127 0.09369999915361404
0.007965343073010445 0.003437794279307127 0.09369999915361404
0.008219006471335888 0.0034414634574204683 0.09380000084638596
0.008464166894555092 0.0034414634574204683 0.09380000084638596
0.008718613535165787 0.0034451321698725224 0.09389999508857727
0.009505226276814938 0.0034634768962860107 0.09439999610185623
0.009772616438567638 0.003470814786851406 0.09459999948740005
0.010019868612289429 0.003470814786851406 0.09459999948740005
0.010288827121257782 0.003478152444586158 0.09479999542236328
0.010547716170549393 0.003481821622699499 0.09489999711513519
0.010807129554450512 0.003485490567982197 0.0949999988079071
0.011125249788165092 0.0035075040068477392 0.09559999406337738
0.011446507647633553 0.0035295176785439253 0.09619999676942825
0.012454465962946415 0.003602896584197879 0.0982000008225441
0.01280173473060131 0.003628578968346119 0.09889999777078629
-0.0018247888656333089 0.003670903155580163 0.09339999407529831
-0.0015806732699275017 0.003670903155580163 0.09339999407529831
-0.0008483260753564537 0.003670903155580163 0.09339999407529831
-0.0006042102468200028 0.003670903155580163 0.09339999407529831
-0.00036048010224476457 0.003674833569675684 0.09349999576807022
-0.00011610299407038838 0.003674833569675684 0.09349999576807022
0.00012841130956076086 0.003678763983771205 0.09359999746084213
0.0003730498137883842 0.003678763983771205 0.09359999746084213
0.0011069652391597629 0.003678763983771205 0.09359999746084213
0.0013516036560758948 0.003678763983771205 0.09359999746084213
0.0015962421894073486 0.003678763983771205 0.09359999746084213
0.0018408806063234806 0.003678763983771205 0.09359999746084213
0.0020855192560702562 0.003678763983771205 0.09359999746084213
0.002330157672986388 0.003678763983771205 0.09359999746084213
0.00257479608990252 0.003678763983771205 0.09359999746084213
0.002819434506818652 0.003678763983771205 0.09359999746084213
0.0030640731565654278 0.003678763983771205 0.09359999746084213
0.0033087115734815598 0.003678763983771205 0.09359999746084213
0.0035533499903976917 0.003678763983771205 0.09359999746084213
0.003793930634856224 0.003674833569675684 0.09349999576807022
0.004038307815790176 0.003674833569675684 0.09349999576807022
0.004282684996724129 0.003674833569675684 0.09349999576807022
0.004527061711996794 0.003674833569675684 0.09349999576807022
0.004771438892930746 0.003674833569675684 0.09349999576807022
0.005015816539525986 0.003674833569675684 0.09349999576807022
0.005260193720459938 0.003674833569675684 0.09349999576807022
0.005504570435732603 0.003674833569675684 0.09349999576807022
0.005748947616666555 0.003674833569675684 0.09349999576807022
0.00599332433193922 0.003674833569675684 0.09349999576807022
0.006244373507797718 0.003678763983771205 0.09359999746084213
0.006489011459052563 0.003678763983771205 0.09359999746084213
0.006733650341629982 0.003678763983771205 0.09359999746084213
0.006978288758546114 0.003678763983771205 0.09359999746084213
0.007222927175462246 0.003678763983771205 0.09359999746084213
0.007467566058039665 0.003678763983771205 0.09359999746084213
0.00771220400929451 0.003678763983771205 0.09359999746084213
0.007965343073010445 0.003682694397866726 0.09369999915361404
0.008210243657231331 0.003682694397866726 0.09369999915361404
0.008464166894555092 0.0036866245791316032 0.09380000084638596
0.008718613535165787 0.0036905547603964806 0.09389999508857727
0.008973581716418266 0.0036944851744920015 0.09399999678134918
0.009238881058990955 0.0037023457698524 0.094200000166893
0.009495156817138195 0.003706275951117277 0.09429999440908432
0.009751955047249794 0.003710206365212798 0.09439999610185623
0.010019868612289429 0.0037180669605731964 0.09459999948740005
0.010267120786011219 0.0037180669605731964 0.09459999948740005
0.010536601766943932 0.0037259275559335947 0.09479999542236328
0.010795753449201584 0.0037298579700291157 0.09489999711513519
0.011078700423240662 0.0037416487466543913 0.09519999474287033
0.01141081191599369 0.003769160946831107 0.09589999914169312
0.011710102669894695 0.0037848821375519037 0.09629999846220016
0.012086011469364166 0.003824185347184539 0.09730000048875809
0.012403734028339386 0.003843836486339569 0.09779999405145645
0.01278879027813673 0.003883139695972204 0.09879999607801437
0.01309984177350998 0.003898860886693001 0.09919999539852142
-0.0013365575578063726 0.003915018867701292 0.09339999407529831
-0.0010924418456852436 0.003915018867701292 0.09339999407529831
-0.00036048010224476457 0.003919210284948349 0.09349999576807022
-0.00011610299407038838 0.003919210284948349 0.09349999576807022
0.0011069652391597629 0.003923402167856693 0.09359999746084213
0.0013530476717278361 0.0039275940507650375 0.09369999915361404
0.0015979476738721132 0.0039275940507650375 0.09369999915361404
0.0018428474431857467 0.0039275940507650375 0.09369999915361404
0.0020877474453300238 0.0039275940507650375 0.09369999915361404
0.0023326470982283354 0.0039275940507650375 0.09369999915361404
0.00257479608990252 0.003923402167856693 0.09359999746084213
0.002819434506818652 0.003923402167856693 0.09359999746084213
0.0030640731565654278 0.003923402167856693 0.09359999746084213
0.0033087115734815598 0.003923402167856693 0.09359999746084213
0.0035533499903976917 0.003923402167856693 0.09359999746084213
0.0037979884073138237 0.003923402167856693 0.09359999746084213
0.004042626824229956 0.003923402167856693 0.09359999746084213
0.004282684996724129 0.003919210284948349 0.09349999576807022
0.004527061711996794 0.003919210284948349 0.09349999576807022
0.004771438892930746 0.003919210284948349 0.09349999576807022
0.005015816539525986 0.003919210284948349 0.09349999576807022
0.005260193720459938 0.003919210284948349 0.09349999576807022
0.005504570435732603 0.003919210284948349 0.09349999576807022
0.005748947616666555 0.003919210284948349 0.09349999576807022
0.00599332433193922 0.003919210284948349 0.09349999576807022
0.006244373507797718 0.003923402167856693 0.09359999746084213
0.006489011459052563 0.003923402167856693 0.09359999746084213
0.006733650341629982 0.003923402167856693 0.09359999746084213
0.006978288758546114 0.003923402167856693 0.09359999746084213
0.007222927175462246 0.003923402167856693 0.09359999746084213
0.007467566058039665 0.003923402167856693 0.09359999746084213
0.00771220400929451 0.003923402167856693 0.09359999746084213
0.007965343073010445 0.0039275940507650375 0.09369999915361404
0.008210243657231331 0.0039275940507650375 0.09369999915361404
0.008464166894555092 0.0039317854680120945 0.09380000084638596
0.00870932824909687 0.0039317854680120945 0.09380000084638596
0.009485088288784027 0.003948552068322897 0.094200000166893
0.009741624817252159 0.003952743485569954 0.09429999440908432
0.010009276680648327 0.0039611272513866425 0.09449999779462814
0.010267120786011219 0.003965319134294987 0.09459999948740005
0.010536601766943932 0.003973701968789101 0.09479999542236328
0.010784377343952656 0.003973701968789101 0.09479999542236328
0.01105542667210102 0.003982085734605789 0.0949999988079071
0.011363217607140541 0.004003043752163649 0.09549999982118607
0.011697942391037941 0.0040323855355381966 0.09619999676942825
0.012749957852065563 0.004128794185817242 0.09849999845027924
0.013086637482047081 0.004153944086283445 0.09910000115633011
-0.0008492343476973474 0.004163587465882301 0.09349999576807022
-0.0006048571667633951 0.004163587465882301 0.09349999576807022
-0.00036048010224476457 0.004163587465882301 0.09349999576807022
0.00012841130956076086 0.004168040584772825 0.09359999746084213
0.0003730498137883842 0.004168040584772825 0.09359999746084213
0.0011081479024142027 0.004172493703663349 0.09369999915361404
0.0013544918037950993 0.004176946822553873 0.09380000084638596
0.001599653041921556 0.004176946822553873 0.09380000084638596
0.001844814163632691 0.004176946822553873 0.09380000084638596
0.0020899754017591476 0.004176946822553873 0.09380000084638596
0.0023351365234702826 0.004176946822553873 0.09380000084638596
0.0025775469839572906 0.004172493703663349 0.09369999915361404
0.002822446869686246 0.004172493703663349 0.09369999915361404
0.003067346755415201 0.004172493703663349 0.09369999915361404
0.0033087115734815598 0.004168040584772825 0.09359999746084213
0.0035533499903976917 0.004168040584772825 0.09359999746084213
0.0037979884073138237 0.004168040584772825 0.09359999746084213
0.004042626824229956 0.004168040584772825 0.09359999746084213
0.004287265706807375 0.004168040584772825 0.09359999746084213
0.00453190365806222 0.004168040584772825 0.09359999746084213
0.004771438892930746 0.004163587465882301 0.09349999576807022
0.005015816539525986 0.004163587465882301 0.09349999576807022
0.005260193720459938 0.004163587465882301 0.09349999576807022
0.005504570435732603 0.004163587465882301 0.09349999576807022
0.005748947616666555 0.004163587465882301 0.09349999576807022
0.00599332433193922 0.004163587465882301 0.09349999576807022
0.006244373507797718 0.004168040584772825 0.09359999746084213
0.006489011459052563 0.004168040584772825 0.09359999746084213
0.006733650341629982 0.004168040584772825 0.09359999746084213
0.006978288758546114 0.004168040584772825 0.09359999746084213
0.007222927175462246 0.004168040584772825 0.09359999746084213
0.007467566058039665 0.004168040584772825 0.09359999746084213
0.00771220400929451 0.004168040584772825 0.09359999746084213
0.007965343073010445 0.004172493703663349 0.09369999915361404
0.008210243657231331 0.004172493703663349 0.09369999915361404
0.008964035660028458 0.004181399941444397 0.09389999508857727
0.009219265542924404 0.004185852594673634 0.09399999678134918
0.009485088288784027 0.004194758832454681 0.094200000166893
0.009741624817252159 0.004199211951345205 0.09429999440908432
0.009998684749007225 0.004203665070235729 0.09439999610185623
0.010267120786011219 0.004212571308016777 0.09459999948740005
0.01051437295973301 0.004212571308016777 0.09459999948740005
0.010773002170026302 0.004217024426907301 0.09470000118017197
0.011043788865208626 0.0042259301990270615 0.09489999711513519
0.011315622366964817 0.004234836436808109 0.09510000050067902
0.011661462485790253 0.004270460456609726 0.09589999914169312
0.01271112635731697 0.004372880328446627 0.0982000008225441
0.013073431327939034 0.004408504813909531 0.0989999994635582
0.013412985019385815 0.0044352225959300995 0.09959999471902847
-0.0003608656406868249 0.0044126794673502445 0.09359999746084213
-0.00011622717283898965 0.0044126794673502445 0.09359999746084213
0.00061900814762339 0.004422108177095652 0.09380000084638596
0.0008641693275421858 0.004422108177095652 0.09380000084638596
0.0011093305656686425 0.004422108177095652 0.09380000084638596
0.0013559357030317187 0.004426822531968355 0.09389999508857727
0.0016013584099709988 0.004426822531968355 0.09389999508857727
0.0018467808840796351 0.004426822531968355 0.09389999508857727
0.0020899754017591476 0.004422108177095652 0.09380000084638596
0.0023376259487122297 0.004426822531968355 0.09389999508857727
0.002580297878012061 0.004422108177095652 0.09380000084638596
0.002825458999723196 0.004422108177095652 0.09380000084638596
0.003067346755415201 0.004417393822222948 0.09369999915361404
0.0033122466411441565 0.004417393822222948 0.09369999915361404
0.003557146294042468 0.004417393822222948 0.09369999915361404
0.0037979884073138237 0.0044126794673502445 0.09359999746084213
0.004042626824229956 0.0044126794673502445 0.09359999746084213
0.004287265706807375 0.0044126794673502445 0.09359999746084213
0.00453190365806222 0.0044126794673502445 0.09359999746084213
0.004776542540639639 0.0044126794673502445 0.09359999746084213
0.005015816539525986 0.004407964646816254 0.09349999576807022
0.005260193720459938 0.004407964646816254 0.09349999576807022
0.005504570435732603 0.004407964646816254 0.09349999576807022
0.005748947616666555 0.004407964646816254 0.09349999576807022
0.005999734625220299 0.0044126794673502445 0.09359999746084213
0.006244373507797718 0.0044126794673502445 0.09359999746084213
0.006489011459052563 0.0044126794673502445 0.09359999746084213
0.006733650341629982 0.0044126794673502445 0.09359999746084213
0.006978288758546114 0.0044126794673502445 0.09359999746084213
0.007222927175462246 0.0044126794673502445 0.09359999746084213
0.007467566058039665 0.0044126794673502445 0.09359999746084213
0.00771220400929451 0.0044126794673502445 0.09359999746084213
0.007965343073010445 0.004417393822222948 0.09369999915361404
0.008210243657231331 0.004417393822222948 0.09369999915361404
0.008455143310129642 0.004417393822222948 0.09369999915361404
0.00870932824909687 0.004422108177095652 0.09380000084638596
0.008954489603638649 0.004422108177095652 0.09380000084638596
0.009209457784891129 0.004426822531968355 0.09389999508857727
0.009475018829107285 0.004436251241713762 0.0940999984741211
0.009731294587254524 0.004440965596586466 0.094200000166893
0.009988092817366123 0.004445679951459169 0.09429999440908432
0.010256268084049225 0.004455109126865864 0.09449999779462814
0.01051437295973301 0.004459823481738567 0.09459999948740005
0.010773002170026302 0.004464537836611271 0.09470000118017197
0.011032151989638805 0.0044692521914839745 0.09479999542236328
0.011291825212538242 0.004473966546356678 0.09489999711513519
0.01161282230168581 0.004502253141254187 0.09549999982118607
0.011949376203119755 0.0045352536253631115 0.09619999676942825
0.013047019951045513 0.004657828249037266 0.09879999607801437
0.013453385792672634 0.004709686618298292 0.09989999979734421
0.0003738469386007637 0.00466726953163743 0.09380000084638596
0.0006196680478751659 0.004672245122492313 0.09389999508857727
0.0008650905801914632 0.004672245122492313 0.09389999508857727
0.0011116957757622004 0.004677220713347197 0.09399999678134918
0.0013588237343356013 0.004682196769863367 0.0940999984741211
0.002583048539236188 0.004672245122492313 0.09389999508857727
0.002825458999723196 0.00466726953163743 0.09380000084638596
0.0030706203542649746 0.00466726953163743 0.09380000084638596
0.0033122466411441565 0.00466229347512126 0.09369999915361404
0.003557146294042468 0.00466229347512126 0.09369999915361404
0.0038020461797714233 0.00466229347512126 0.09369999915361404
0.004042626824229956 0.0046573178842663765 0.09359999746084213
0.004287265706807375 0.0046573178842663765 0.09359999746084213
0.00453190365806222 0.0046573178842663765 0.09359999746084213
0.004776542540639639 0.0046573178842663765 0.09359999746084213
0.005021180957555771 0.0046573178842663765 0.09359999746084213
0.005265819374471903 0.0046573178842663765 0.09359999746084213
0.005510457791388035 0.0046573178842663765 0.09359999746084213
0.005755096208304167 0.0046573178842663765 0.09359999746084213
0.005999734625220299 0.0046573178842663765 0.09359999746084213
0.006244373507797718 0.0046573178842663765 0.09359999746084213
0.006489011459052563 0.0046573178842663765 0.09359999746084213
0.006733650341629982 0.0046573178842663765 0.09359999746084213
0.006978288758546114 0.0046573178842663765 0.09359999746084213
0.007222927175462246 0.0046573178842663765 0.09359999746084213
0.007965343073010445 0.00466229347512126 0.09369999915361404
0.008210243657231331 0.00466229347512126 0.09369999915361404
0.008455143310129642 0.00466229347512126 0.09369999915361404
0.00870932824909687 0.00466726953163743 0.09380000084638596
0.008954489603638649 0.00466726953163743 0.09380000084638596
0.009209457784891129 0.004672245122492313 0.09389999508857727
0.010503258556127548 0.004702099598944187 0.09449999779462814
0.010761626064777374 0.004707075655460358 0.09459999948740005
0.011020515114068985 0.004712051246315241 0.09470000118017197
0.011279926635324955 0.004717026837170124 0.09479999542236328
0.011564182117581367 0.004731954541057348 0.09510000050067902
0.01191211212426424 0.004771760664880276 0.09589999914169312
0.012994198128581047 0.004896154627203941 0.09839999675750732
0.01334565132856369 0.004930985160171986 0.09910000115633011
0.0008678544545546174 0.004933379124850035 0.094200000166893
0.001361711765639484 0.0049386159516870975 0.09429999440908432
0.0025857994332909584 0.004922904539853334 0.09399999678134918
0.002828471129760146 0.004917667247354984 0.09389999508857727
0.0030738937202841043 0.004917667247354984 0.09389999508857727
0.003315781708806753 0.0049124304205179214 0.09380000084638596
0.003557146294042468 0.004907193128019571 0.09369999915361404
0.0038020461797714233 0.004907193128019571 0.09369999915361404
0.004042626824229956 0.004901955835521221 0.09359999746084213
0.004287265706807375 0.004901955835521221 0.09359999746084213
0.00453190365806222 0.004901955835521221 0.09359999746084213
0.004776542540639639 0.004901955835521221 0.09359999746084213
0.005021180957555771 0.004901955835521221 0.09359999746084213
0.005265819374471903 0.004901955835521221 0.09359999746084213
0.005510457791388035 0.004901955835521221 0.09359999746084213
0.005755096208304167 0.004901955835521221 0.09359999746084213
0.005999734625220299 0.004901955835521221 0.09359999746084213
0.006244373507797718 0.004901955835521221 0.09359999746084213
0.006489011459052563 0.004901955835521221 0.09359999746084213
0.006733650341629982 0.004901955835521221 0.09359999746084213
0.006978288758546114 0.004901955835521221 0.09359999746084213
0.007222927175462246 0.004901955835521221 0.09359999746084213
0.007467566058039665 0.004901955835521221 0.09359999746084213
0.00772044388577342 0.004907193128019571 0.09369999915361404
0.008455143310129642 0.004907193128019571 0.09369999915361404
0.00870932824909687 0.0049124304205179214 0.09380000084638596
0.008954489603638649 0.0049124304205179214 0.09380000084638596
0.009209457784891129 0.004917667247354984 0.09389999508857727
0.009464950300753117 0.004922904539853334 0.09399999678134918
0.00972096435725689 0.004928141832351685 0.0940999984741211
0.009977501817047596 0.004933379124850035 0.094200000166893
0.010234560817480087 0.0049386159516870975 0.09429999440908432
0.01100887730717659 0.004954327363520861 0.09459999948740005
0.011279926635324955 0.004964801482856274 0.09479999542236328
0.011552021838724613 0.004975276067852974 0.0949999988079071
0.011874847114086151 0.005006698425859213 0.09559999406337738
0.012954582460224628 0.005137627013027668 0.09809999912977219
0.01333218440413475 0.005184761248528957 0.0989999994635582
0.013741946779191494 0.00524236960336566 0.10009999573230743
0.0008696970180608332 0.005190582480281591 0.09439999610185623
0.0011164264287799597 0.005190582480281591 0.09439999610185623
0.0016115907346829772 0.005196081008762121 0.09449999779462814
0.0018566146027296782 0.005190582480281591 0.09439999610185623
0.002101115882396698 0.005185083951801062 0.09429999440908432
0.002347583882510662 0.005185083951801062 0.09429999440908432
0.0025913012214004993 0.005179585888981819 0.094200000166893
0.00283148349262774 0.005168588366359472 0.09399999678134918
0.0030738937202841043 0.0051630898378789425 0.09389999508857727
0.003315781708806753 0.0051575917750597 0.09380000084638596
0.0035609425976872444 0.0051575917750597 0.09380000084638596
0.0038020461797714233 0.00515209324657917 0.09369999915361404
0.004046946298331022 0.00515209324657917 0.09369999915361404
0.004291845951229334 0.00515209324657917 0.09369999915361404
0.00453190365806222 0.0051465947180986404 0.09359999746084213
0.004776542540639639 0.0051465947180986404 0.09359999746084213
0.005021180957555771 0.0051465947180986404 0.09359999746084213
0.005265819374471903 0.0051465947180986404 0.09359999746084213
0.005510457791388035 0.0051465947180986404 0.09359999746084213
0.005755096208304167 0.0051465947180986404 0.09359999746084213
0.005999734625220299 0.0051465947180986404 0.09359999746084213
0.006244373507797718 0.0051465947180986404 0.09359999746084213
0.006489011459052563 0.0051465947180986404 0.09359999746084213
0.006733650341629982 0.0051465947180986404 0.09359999746084213
0.006978288758546114 0.0051465947180986404 0.09359999746084213
0.007222927175462246 0.0051465947180986404 0.09359999746084213
0.007467566058039665 0.0051465947180986404 0.09359999746084213
0.00772044388577342 0.00515209324657917 0.09369999915361404
0.007965343073010445 0.00515209324657917 0.09369999915361404
0.008210243657231331 0.00515209324657917 0.09369999915361404
0.008455143310129642 0.00515209324657917 0.09369999915361404
0.00870932824909687 0.0051575917750597 0.09380000084638596
0.008954489603638649 0.0051575917750597 0.09380000084638596
0.009209457784891129 0.0051630898378789425 0.09389999508857727
0.009454880841076374 0.0051630898378789425 0.09389999508857727
0.009710634127259254 0.005168588366359472 0.09399999678134918
0.00996690895408392 0.005174087360501289 0.0940999984741211
0.010223708115518093 0.005179585888981819 0.094200000166893
0.01100887730717659 0.005201579537242651 0.09459999948740005
0.011268028058111668 0.005207078531384468 0.09470000118017197
0.011539861559867859 0.00521807512268424 0.09489999711513519
0.011837583035230637 0.0052400692366063595 0.09529999643564224
0.012200810015201569 0.00528955552726984 0.09619999676942825
0.01330525055527687 0.00543251633644104 0.09879999607801437
0.013659577816724777 0.0054710060358047485 0.09950000047683716
0.0011187917552888393 0.005448832176625729 0.09459999948740005
0.0013660439290106297 0.005448832176625729 0.09459999948740005
0.00161329610273242 0.005448832176625729 0.09459999948740005
0.002105572260916233 0.005443071946501732 0.09449999779462814
0.0023500733077526093 0.0054373121820390224 0.09439999610185623
0.00259405211545527 0.005431551951915026 0.09429999440908432
0.0028375079855322838 0.005425792653113604 0.094200000166893
0.0030771673191338778 0.005414272658526897 0.09399999678134918
0.0033193163108080626 0.005408512428402901 0.09389999508857727
0.003564738668501377 0.005408512428402901 0.09389999508857727
0.003806103952229023 0.005402753129601479 0.09380000084638596
0.0040512653067708015 0.005402753129601479 0.09380000084638596
0.004291845951229334 0.005396993365138769 0.09369999915361404
0.0045367456041276455 0.005396993365138769 0.09369999915361404
0.004781645722687244 0.005396993365138769 0.09369999915361404
0.005021180957555771 0.005391233135014772 0.09359999746084213
0.005265819374471903 0.005391233135014772 0.09359999746084213
0.005510457791388035 0.005391233135014772 0.09359999746084213
0.005755096208304167 0.005391233135014772 0.09359999746084213
0.005999734625220299 0.005391233135014772 0.09359999746084213
0.006244373507797718 0.005391233135014772 0.09359999746084213
0.006489011459052563 0.005391233135014772 0.09359999746084213
0.006733650341629982 0.005391233135014772 0.09359999746084213
0.006978288758546114 0.005391233135014772 0.09359999746084213
0.007222927175462246 0.005391233135014772 0.09359999746084213
0.007475544232875109 0.005396993365138769 0.09369999915361404
0.00772044388577342 0.005396993365138769 0.09369999915361404
0.007965343073010445 0.005396993365138769 0.09369999915361404
0.008210243657231331 0.005396993365138769 0.09369999915361404
0.008455143310129642 0.005396993365138769 0.09369999915361404
0.008700043894350529 0.005396993365138769 0.09369999915361404
0.008954489603638649 0.005402753129601479 0.09380000084638596
0.009199650958180428 0.005402753129601479 0.09380000084638596
0.009454880841076374 0.005408512428402901 0.09389999508857727
0.009710634127259254 0.005414272658526897 0.09399999678134918
0.009956317022442818 0.005414272658526897 0.09399999678134918
0.010223708115518093 0.005425792653113604 0.094200000166893
0.01099724043160677 0.005443071946501732 0.09449999779462814
0.011244230903685093 0.005443071946501732 0.09449999779462814
0.011527701281011105 0.00546035123988986 0.09479999542236328
0.011800318956375122 0.005471871234476566 0.0949999988079071
0.012124713510274887 0.00550643028691411 0.09559999406337738
0.012491075322031975 0.00555826909840107 0.09649999439716339
0.013264849781990051 0.005673466715961695 0.09849999845027924
0.013618392869830132 0.005713785532861948 0.09919999539852142
0.014017563313245773 0.005771384108811617 0.10019999742507935
0.0016167068388313055 0.005708126351237297 0.09479999542236328
0.0018625149969011545 0.005702105350792408 0.09470000118017197
0.0021078004501760006 0.005696084350347519 0.09459999948740005
0.0023550523910671473 0.005696084350347519 0.09459999948740005
0.0025968030095100403 0.005684041418135166 0.09439999610185623
0.0028405198827385902 0.00567801995202899 0.09429999440908432
0.0030837147496640682 0.005671999417245388 0.094200000166893
0.0033228513784706593 0.005659956485033035 0.09399999678134918
0.003568535204976797 0.005659956485033035 0.09399999678134918
0.003810161491855979 0.005653935484588146 0.09389999508857727
0.0040512653067708015 0.005647914484143257 0.09380000084638596
0.00429642666131258 0.005647914484143257 0.09380000084638596
0.004541587550193071 0.005647914484143257 0.09380000084638596
0.00478674890473485 0.005647914484143257 0.09380000084638596
0.005026545375585556 0.005641893018037081 0.09369999915361404
0.005271445494145155 0.005641893018037081 0.09369999915361404
0.005516345147043467 0.005641893018037081 0.09369999915361404
0.005761244799941778 0.005641893018037081 0.09369999915361404
0.00600614445284009 0.005641893018037081 0.09369999915361404
0.006251045037060976 0.005641893018037081 0.09369999915361404
0.006495944224298 0.005641893018037081 0.09369999915361404
0.0067408448085188866 0.005641893018037081 0.09369999915361404
0.006985744461417198 0.005641893018037081 0.09369999915361404
0.00723064411431551 0.005641893018037081 0.09369999915361404
0.007475544232875109 0.005641893018037081 0.09369999915361404
0.00772044388577342 0.005641893018037081 0.09369999915361404
0.007965343073010445 0.005641893018037081 0.09369999915361404
0.008210243657231331 0.005641893018037081 0.09369999915361404
0.008954489603638649 0.005647914484143257 0.09380000084638596
0.009199650958180428 0.005647914484143257 0.09380000084638596
0.009444812312722206 0.005647914484143257 0.09380000084638596
0.009700302965939045 0.005653935484588146 0.09389999508857727
0.009956317022442818 0.005659956485033035 0.09399999678134918
0.010212855413556099 0.005665977951139212 0.0940999984741211
0.01097396481782198 0.00567801995202899 0.09429999440908432
0.01125612948089838 0.005696084350347519 0.09459999948740005
0.011515541933476925 0.005702105350792408 0.09470000118017197
0.011800318956375122 0.00572016928344965 0.0949999988079071
0.012086665257811546 0.005738232750445604 0.09529999643564224
0.012465187348425388 0.0057984450832009315 0.09629999846220016
0.013224449940025806 0.005912848748266697 0.0982000008225441
0.013590936549007893 0.005961018148809671 0.0989999994635582
0.0139895835891366 0.006021230481564999 0.09999999403953552
0.0016167068388313055 0.005955900996923447 0.09479999542236328
0.002112256595864892 0.005955900996923447 0.09479999542236328
0.002357542049139738 0.005949618760496378 0.09470000118017197
0.0026023047976195812 0.005943336058408022 0.09459999948740005
0.002843532245606184 0.00593077065423131 0.09439999610185623
0.003086988115683198 0.005924487952142954 0.09429999440908432
0.0033299215137958527 0.005918205715715885 0.094200000166893
0.0035723315086215734 0.005911923013627529 0.0940999984741211
0.003814219031482935 0.005905640311539173 0.09399999678134918
0.00405990332365036 0.005905640311539173 0.09399999678134918
0.004301006905734539 0.005899357609450817 0.09389999508857727
0.00454642903059721 0.005899357609450817 0.09389999508857727
0.00478674890473485 0.005893075373023748 0.09380000084638596
0.0050319102592766285 0.005893075373023748 0.09380000084638596
0.005277071613818407 0.005893075373023748 0.09380000084638596
0.005522232502698898 0.005893075373023748 0.09380000084638596
0.005767393857240677 0.005893075373023748 0.09380000084638596
0.006012554746121168 0.005893075373023748 0.09380000084638596
0.006257716100662947 0.005893075373023748 0.09380000084638596
0.006502877455204725 0.005893075373023748 0.09380000084638596
0.006748038809746504 0.005893075373023748 0.09380000084638596
0.006993199698626995 0.005893075373023748 0.09380000084638596
0.00723064411431551 0.005886792670935392 0.09369999915361404
0.007475544232875109 0.005886792670935392 0.09369999915361404
0.00772044388577342 0.005886792670935392 0.09369999915361404
0.009444812312722206 0.005893075373023748 0.09380000084638596
0.009700302965939045 0.005899357609450817 0.09389999508857727
0.010985602624714375 0.00593077065423131 0.09439999610185623
0.011244230903685093 0.005937053356319666 0.09449999779462814
0.01150338165462017 0.005943336058408022 0.09459999948740005
0.011787897907197475 0.005962183699011803 0.09489999711513519
0.012073982506990433 0.005981031339615583 0.09519999474287033
0.012452242895960808 0.006043857429176569 0.09619999676942825
0.013170581310987473 0.006144378799945116 0.09779999405145645
0.013975594192743301 0.006276313681155443 0.09989999979734421
0.0016184122068807483 0.0062102205120027065 0.09489999711513519
0.001866448437795043 0.0062102205120027065 0.09489999711513519
0.002112256595864892 0.0062036761082708836 0.09479999542236328
0.0023600312415510416 0.0062036761082708836 0.09479999542236328
0.0026050556916743517 0.006197132635861635 0.09470000118017197
0.003093535313382745 0.006184044759720564 0.09449999779462814
0.0033369911834597588 0.006177500355988741 0.09439999610185623
0.0035799238830804825 0.006170956417918205 0.09429999440908432
0.0038223345763981342 0.006164412945508957 0.094200000166893
0.004068541340529919 0.006164412945508957 0.094200000166893
0.004310167860239744 0.006157868541777134 0.0940999984741211
0.004556112922728062 0.006157868541777134 0.0940999984741211
0.004796954803168774 0.006151324603706598 0.09399999678134918
0.005042639095336199 0.006151324603706598 0.09399999678134918
0.005288322921842337 0.006151324603706598 0.09399999678134918
0.0055340067483484745 0.006151324603706598 0.09399999678134918
0.005779690574854612 0.006151324603706598 0.09399999678134918
0.006018964108079672 0.006144780665636063 0.09389999508857727
0.006264387164264917 0.006144780665636063 0.09389999508857727
0.006509809754788876 0.006144780665636063 0.09389999508857727
0.006755232345312834 0.006144780665636063 0.09389999508857727
0.006993199698626995 0.006138237193226814 0.09380000084638596
0.007238360587507486 0.006138237193226814 0.09380000084638596
0.007483522407710552 0.006138237193226814 0.09380000084638596
0.0077286832965910435 0.006138237193226814 0.09380000084638596
0.007973844185471535 0.006138237193226814 0.09380000084638596
0.008219006471335888 0.006138237193226814 0.09380000084638596
0.008464166894555092 0.006138237193226814 0.09380000084638596
0.00870932824909687 0.006138237193226814 0.09380000084638596
0.008954489603638649 0.006138237193226814 0.09380000084638596
0.009199650958180428 0.006138237193226814 0.09380000084638596
0.01097396481782198 0.006170956417918205 0.09429999440908432
0.011232331395149231 0.006177500355988741 0.09439999610185623
0.011491221375763416 0.006184044759720564 0.09449999779462814
0.011775475926697254 0.0062036761082708836 0.09479999542236328
0.012048617005348206 0.006216764450073242 0.0949999988079071
0.012413411401212215 0.00627566035836935 0.09589999914169312
0.012782910838723183 0.006334555801004171 0.09679999947547913
0.013143648393452168 0.006386907305568457 0.09759999811649323
0.013549751602113247 0.006458890624344349 0.09869999438524246
0.0140035729855299 0.0065505062229931355 0.10009999573230743
0.0013732640072703362 0.006471867207437754 0.09510000050067902
0.0016201176913455129 0.006465061567723751 0.0949999988079071
0.0018684151582419872 0.006465061567723751 0.0949999988079071
0.0021144847851246595 0.006458256393671036 0.09489999711513519
0.0023600312415510416 0.006451450753957033 0.09479999542236328
0.0026078063528984785 0.006451450753957033 0.09479999542236328
0.002855580998584628 0.006451450753957033 0.09479999542236328
0.0031000825110822916 0.006444646045565605 0.09470000118017197
0.003344061318784952 0.0064378404058516026 0.09459999948740005
0.003591313026845455 0.0064378404058516026 0.09459999948740005
0.00383044988848269 0.006424229592084885 0.09439999610185623
0.004077179357409477 0.006424229592084885 0.09439999610185623
0.004319328349083662 0.006417424418032169 0.09429999440908432
0.004565795883536339 0.006417424418032169 0.09429999440908432
0.00481226434931159 0.006417424418032169 0.09429999440908432
0.005053367931395769 0.006410619243979454 0.094200000166893
0.0052995746955275536 0.006410619243979454 0.094200000166893
0.005545781459659338 0.006410619243979454 0.094200000166893
0.0057919882237911224 0.006410619243979454 0.094200000166893
0.006031784228980541 0.006403813604265451 0.0940999984741211
0.006277730222791433 0.006403813604265451 0.0940999984741211
0.006516742520034313 0.006397008430212736 0.09399999678134918
0.006762426812201738 0.006397008430212736 0.09399999678134918
0.007008110638707876 0.006397008430212736 0.09399999678134918
0.007246077060699463 0.0063902027904987335 0.09389999508857727
0.007491500116884708 0.0063902027904987335 0.09389999508857727
0.007736922707408667 0.0063902027904987335 0.09389999508857727
0.007973844185471535 0.0063833980821073055 0.09380000084638596
0.008219006471335888 0.0063833980821073055 0.09380000084638596
0.008464166894555092 0.0063833980821073055 0.09380000084638596
0.00870932824909687 0.0063833980821073055 0.09380000084638596
0.008954489603638649 0.0063833980821073055 0.09380000084638596
0.009209457784891129 0.0063902027904987335 0.09389999508857727
0.009454880841076374 0.0063902027904987335 0.09389999508857727
0.009700302965939045 0.0063902027904987335 0.09389999508857727
0.009956317022442818 0.006397008430212736 0.09399999678134918
0.01020200178027153 0.006397008430212736 0.09399999678134918
0.010458800010383129 0.006403813604265451 0.0940999984741211
0.010716121643781662 0.006410619243979454 0.094200000166893
0.011491221375763416 0.006431035231798887 0.09449999779462814
0.011775475926697254 0.006451450753957033 0.09479999542236328
0.012035934254527092 0.006458256393671036 0.09489999711513519
0.012361634522676468 0.006499088369309902 0.09549999982118607
0.013130181469023228 0.006635194644331932 0.09749999642372131
0.013919636607170105 0.0067713018506765366 0.09950000047683716
0.0011294357245787978 0.006748692598193884 0.09549999982118607
0.0013761520385742188 0.006734558846801519 0.09529999643564224
0.0016218230593949556 0.0067204260267317295 0.09510000050067902
0.0018703819951042533 0.0067204260267317295 0.09510000050067902
0.002116712974384427 0.006713359151035547 0.0949999988079071
0.0023625208996236324 0.006706292275339365 0.09489999711513519
0.002610557246953249 0.006706292275339365 0.09489999711513519
0.002855580998584628 0.006699225399643183 0.09479999542236328
0.003103356109932065 0.006699225399643183 0.09479999542236328
0.0033511309884488583 0.006699225399643183 0.09479999542236328
0.003842622973024845 0.006692158989608288 0.09470000118017197
0.005064096767455339 0.006670958828181028 0.09439999610185623
0.0053108264692127705 0.006670958828181028 0.09439999610185623
0.005557555705308914 0.006670958828181028 0.09439999610185623
0.0057981363497674465 0.006663891952484846 0.09429999440908432
0.006044603884220123 0.006663891952484846 0.09429999440908432
0.006291072349995375 0.006663891952484846 0.09429999440908432
0.0065306080505251884 0.006656825542449951 0.094200000166893
0.00677681528031826 0.006656825542449951 0.094200000166893
0.007023021578788757 0.006656825542449951 0.094200000166893
0.007261510938405991 0.006649758666753769 0.0940999984741211
0.007499478291720152 0.006642692256718874 0.09399999678134918
0.00774516211822629 0.006642692256718874 0.09399999678134918
0.00799084547907114 0.006642692256718874 0.09399999678134918
0.008236530236899853 0.006642692256718874 0.09399999678134918
0.008473190478980541 0.006635625381022692 0.09389999508857727
0.008718613535165787 0.006635625381022692 0.09389999508857727
0.008973581716418266 0.006642692256718874 0.09399999678134918
0.009219265542924404 0.006642692256718874 0.09399999678134918
0.009464950300753117 0.006642692256718874 0.09399999678134918
0.009710634127259254 0.006642692256718874 0.09399999678134918
0.009956317022442818 0.006642692256718874 0.09399999678134918
0.010212855413556099 0.006649758666753769 0.0940999984741211
0.01097396481782198 0.006663891952484846 0.09429999440908432
0.011232331395149231 0.006670958828181028 0.09439999610185623
0.012035934254527092 0.006706292275339365 0.09489999711513519
0.012296914122998714 0.006713359151035547 0.0949999988079071
0.012664061039686203 0.006776959169656038 0.09589999914169312
0.013116713613271713 0.006882959511131048 0.0973999947309494
0.01346738263964653 0.006932426709681749 0.09809999912977219
0.014045543037354946 0.007094960659742355 0.10040000081062317
0.0011329835979267955 0.007020281627774239 0.0957999974489212
0.0013790400698781013 0.00699829775840044 0.09549999982118607
0.0016252337954938412 0.006983641069382429 0.09529999643564224
0.0018723485991358757 0.006976312957704067 0.09519999474287033
0.002118940930813551 0.006968985311686993 0.09510000050067902
0.0023650103248655796 0.006961657200008631 0.0949999988079071
0.0026133081410080194 0.006961657200008631 0.0949999988079071
0.002858593361452222 0.006954329088330269 0.09489999711513519
0.0031066297087818384 0.006954329088330269 0.09489999711513519
0.003354666056111455 0.006954329088330269 0.09489999711513519
0.003598905634135008 0.006947000976651907 0.09479999542236328
0.003846680512651801 0.006947000976651907 0.09479999542236328
0.004094455391168594 0.006947000976651907 0.09479999542236328
0.004342230502516031 0.006947000976651907 0.09479999542236328
0.004585163667798042 0.006939673330634832 0.09470000118017197
0.004827573895454407 0.006932344753295183 0.09459999948740005
0.005074826069176197 0.006932344753295183 0.09459999948740005
0.005322078242897987 0.006932344753295183 0.09459999948740005
0.005569330416619778 0.006932344753295183 0.09459999948740005
0.005816582590341568 0.006932344753295183 0.09459999948740005
0.006051014177501202 0.006917688529938459 0.09439999610185623
0.006297743879258633 0.006917688529938459 0.09439999610185623
0.006544473115354776 0.006917688529938459 0.09439999610185623
0.00678400881588459 0.0069103604182600975 0.09429999440908432
0.007030476350337267 0.0069103604182600975 0.09429999440908432
0.0072692278772592545 0.006903032772243023 0.094200000166893
0.007515435107052326 0.006903032772243023 0.094200000166893
0.0077534019947052 0.006895704660564661 0.0940999984741211
0.00799934659153223 0.006895704660564661 0.0940999984741211
0.00824529305100441 0.006895704660564661 0.0940999984741211
0.00848221406340599 0.006888376548886299 0.09399999678134918
0.008727897889912128 0.006888376548886299 0.09399999678134918
0.008973581716418266 0.006888376548886299 0.09399999678134918
0.00922907330095768 0.006895704660564661 0.0940999984741211
0.009475018829107285 0.006895704660564661 0.0940999984741211
0.009731294587254524 0.006903032772243023 0.094200000166893
0.009977501817047596 0.006903032772243023 0.094200000166893
0.010223708115518093 0.006903032772243023 0.094200000166893
0.010481028817594051 0.0069103604182600975 0.09429999440908432
0.01072749774903059 0.0069103604182600975 0.09429999440908432
0.010985602624714375 0.006917688529938459 0.09439999610185623
0.011232331395149231 0.006917688529938459 0.09439999610185623
0.011491221375763416 0.006925016641616821 0.09449999779462814
0.011763055808842182 0.006939673330634832 0.09470000118017197
0.012584827840328217 0.006983641069382429 0.09529999643564224
