ply
format ascii 1.0
element vertex 632
property float x
property float y
property float z
property uchar red
property uchar green
property uchar blue
end_header
0.010551503963650205 -0.0025772494373140597 0.0008975016848673035 0 131 123
0.010551503963650205 -0.0020123252979353003 0.0008943004107239045 0 131 123
0.010551503963650205 -0.0014474011585565412 0.0008910985978268633 0 132 122
0.010551503963650205 -0.0008824770191777822 -0.00038790901437754226 59 195 0
0.010551503963650205 -0.00031755287979902305 0.000159000819458836 0 233 21
0.010551503963650205 0.0002473712595797361 -0.0005096614112796899 78 176 0
0.010551503963650205 0.0008122953989584952 -0.00026603216538399017 40 214 0
0.010551503963650205 0.0013772195383372544 -0.000499865253799141 76 178 0
0.010551503963650205 0.0019421436777160136 -0.0005030676054498249 77 177 0
0.010551503963650205 0.002507067817094773 -0.000437350974898218 67 187 0
0.010551503963650205 0.003071991956473532 -0.0004740982833419993 73 181 0
0.010551503963650205 0.003636916095852291 -7.533869738021177e-05 11 243 0
0.010551503963650205 0.004201840369919461 0.0014083713244156075 0 61 193
0.00998658036302509 -0.005966793734832972 0.0010244061828521376 0 113 141
0.00998658036302509 -0.005401869595454213 0.0009220688509627236 0 128 126
0.00998658036302509 -0.004836945456075454 0.00031736960766965116 0 211 43
0.00998658036302509 -0.004272021316696695 0.0003541169161134324 0 206 48
0.00998658036302509 -0.0037070971773179354 -4.4642669848355126e-05 6 248 0
0.00998658036302509 -0.0031421730379391764 -7.89428389728895e-06 1 253 0
0.00998658036302509 -0.0025772494373140597 0.0001791200354822433 0 230 24
0.00998658036302509 -0.0020123252979353003 0.0004129536626510367 0 198 56
0.00998658036302509 -0.0014474011585565412 0.00016932549426262178 0 231 23
0.00998658036302509 -0.0008824770191777822 -0.0005950764912599558 91 163 0
0.00998658036302509 -0.00031755287979902305 -0.0005918757558701995 91 163 0
0.00998658036302509 0.0002473712595797361 -0.0006942120102523284 106 148 0
0.00998658036302509 0.0008122953989584952 -0.0006910107361089296 106 148 0
0.00998658036302509 0.0013772195383372544 -0.0007217563289758912 111 143 0
0.00998658036302509 0.0019421436777160136 -0.0007185545160788498 110 144 0
0.00998658036302509 0.002507067817094773 -0.0006480359743121448 99 155 0
0.00998658036302509 0.003071991956473532 -0.00046102111617897 71 183 0
0.00998658036302509 0.003636916095852291 -0.00035588226534885033 54 200 0
0.00998658036302509 0.004201840369919461 0.000517862465675833 0 183 71
0.00942165622364633 -0.00709664201359049 0.0015496093630576488 0 41 213
0.00942165622364633 -0.005966793734832972 0.0017489608714723142 0 14 240
0.00942165622364633 -0.005401869595454213 0.0004175659325839948 0 197 57
0.00942165622364633 -0.004836945456075454 -4.944027103431391e-05 7 247 0
0.00942165622364633 -0.004272021316696695 -5.26420839313552e-05 8 246 0
0.00942165622364633 -0.0037070971773179354 -0.00012316062569806026 18 236 0
0.00942165622364633 -0.0031421730379391764 -0.0002282983990208951 35 219 0
0.00942165622364633 -0.0025772494373140597 1.53297693675198e-05 0 252 2
0.00942165622364633 -0.0020123252979353003 -2.141861658354637e-05 3 251 0
0.00942165622364633 -0.0014474011585565412 -0.0006123182240790728 94 160 0
0.00942165622364633 -0.0008824770191777822 -0.0007174559974019077 110 144 0
0.00942165622364633 -0.00031755287979902305 -0.0008225943094783849 126 128 0
0.00942165622364633 0.0002473712595797361 -0.0008931139287523749 137 117 0
0.00942165622364633 0.0008122953989584952 -0.000790776596862961 121 133 0
0.00942165622364633 0.0013772195383372544 -0.0007939784097600024 122 132 0
0.00942165622364633 0.0019421436777160136 -0.0007632333556466833 117 137 0
0.00942165622364633 0.002507067817094773 -0.0007324877627797217 112 142 0
0.00942165622364633 0.003071991956473532 -0.0005406181955744894 83 171 0
0.00942165622364633 0.003636916095852291 -9.715929740645559e-05 14 240 0
0.00942165622364633 0.004201840369919461 0.0005106878834194139 0 184 70
0.008856732084267571 -0.006531717874211731 0.0012615633812411643 0 81 173
0.008856732084267571 -0.005966793734832972 0.000714653547404786 0 156 98
0.008856732084267571 -0.005401869595454213 -0.00022788032619435906 35 219 0
0.008856732084267571 -0.004836945456075454 -0.00015736232318129642 24 230 0
0.008856732084267571 -0.004272021316696695 -0.00040098995281606886 61 193 0
0.008856732084267571 -0.0037070971773179354 -0.0004317355456830304 66 188 0
0.008856732084267571 -0.0031421730379391764 -0.0004285337327859891 66 188 0
0.008856732084267571 -0.0025772494373140597 -0.0004253329973962327 65 189 0
0.008856732084267571 -0.0020123252979353003 -0.0001914993702274393 29 225 0
0.008856732084267571 -0.0014474011585565412 -0.0007961986135205118 122 132 0
0.008856732084267571 -0.0008824770191777822 -0.0008619152440721186 132 122 0
0.008856732084267571 -0.00031755287979902305 -0.0013769303235222036 212 42 0
0.008856732084267571 0.0002473712595797361 -0.0010003145897721256 154 100 0
0.008856732084267571 0.0008122953989584952 -0.0010660312203237326 164 90 0
0.008856732084267571 0.0013772195383372544 -0.00043578050803049563 67 187 0
0.008856732084267571 0.0019421436777160136 -0.0007835400579376611 120 134 0
0.008856732084267571 0.002507067817094773 -0.0007803387837942622 120 134 0
0.008856732084267571 0.003071991956473532 -0.0007098197032739147 109 145 0
0.008856732084267571 0.003636916095852291 0.00031281983315921625 0 211 43
0.008291807944888811 -0.00709664201359049 0.0010838371746573568 0 105 149
0.008291807944888811 -0.006531717874211731 0.0011861745065467706 0 91 163
0.008291807944888811 -0.005966793734832972 0.00013524016756615324 0 236 18
0.008291807944888811 -0.005401869595454213 0.0005339997535279407 0 181 73
0.008291807944888811 -0.004836945456075454 -0.0004010626845577988 61 193 0
0.008291807944888811 -0.004272021316696695 -0.000437811070508865 67 187 0
0.008291807944888811 -0.0037070971773179354 -0.0007191088935769244 110 144 0
0.008291807944888811 -0.0031421730379391764 -0.0006167721004411529 95 159 0
0.008291807944888811 -0.0025772494373140597 -0.000653520486392219 100 154 0
0.008291807944888811 -0.0020123252979353003 -0.0006227748935252576 95 159 0
0.008291807944888811 -0.0014474011585565412 -0.0010897805583899238 167 87 0
0.008291807944888811 -0.0008824770191777822 -0.0010590355042766047 163 91 0
0.008291807944888811 -0.00031755287979902305 -0.0011295545847969522 173 81 0
0.008291807944888811 0.0002473712595797361 -0.0008859253389012525 136 118 0
0.008291807944888811 0.0008122953989584952 -0.0009910647284850146 152 102 0
0.008291807944888811 0.0013772195383372544 -0.0011780795866181892 181 73 0
0.008291807944888811 0.0019421436777160136 -0.0008303200367110239 127 127 0
0.008291807944888811 0.002507067817094773 -0.0003868616772966325 59 195 0
0.008291807944888811 0.003071991956473532 -0.0007634784885539953 117 137 0
0.008291807944888811 0.003636916095852291 -0.00021656703845668963 33 221 0
0.008291807944888811 0.004201840369919461 0.0008855569778606899 0 133 121
0.007726883805510053 -0.00709664201359049 0.001663947701709311 0 25 229
0.007726883805510053 -0.006531717874211731 0.0009286895944747107 0 127 127
0.007726883805510053 -0.005966793734832972 0.0002470164632711759 0 220 34
0.007726883805510053 -0.005401869595454213 0.00021627087040421443 0 225 29
0.007726883805510053 -0.004836945456075454 -0.00041502879523085985 63 191 0
0.007726883805510053 -0.004272021316696695 -0.0006068983624360922 93 161 0
0.007726883805510053 -0.0037070971773179354 -0.0006036960107854085 92 162 0
0.007726883805510053 -0.0031421730379391764 -0.0007955661167442833 122 132 0
0.007726883805510053 -0.0025772494373140597 -0.0010391953626399833 160 94 0
0.007726883805510053 -0.0020123252979353003 -0.0011049114544379476 170 84 0
0.007726883805510053 -0.0014474011585565412 -0.001135657047304909 174 80 0
0.007726883805510053 -0.0008824770191777822 -0.0012013736778565159 185 69 0
0.007726883805510053 -0.00031755287979902305 -0.001130854058582526 174 80 0
0.007726883805510053 0.0002473712595797361 -0.0011965706891341327 184 70 0
0.007726883805510053 0.0008122953989584952 -0.001009555831000958 155 99 0
0.007726883805510053 0.0013772195383372544 -0.0010403014238679195 160 94 0
0.007726883805510053 0.0019421436777160136 -0.0008064677966991261 124 130 0
0.007726883805510053 0.002507067817094773 -0.0006194529385659513 95 159 0
0.007726883805510053 0.003071991956473532 -0.0005143151652431166 79 175 0
0.007726883805510053 0.003636916095852291 0.00011593554705012031 0 239 15
0.007726883805510053 0.004201840369919461 0.0009896802780748036 0 118 136
0.007161959666131294 -0.007661566152969249 0.000983252408366811 0 119 135
0.007161959666131294 -0.00709664201359049 0.0012790728746205754 0 78 176
0.007161959666131294 -0.006531717874211731 0.0005030860695245368 0 185 69
0.007161959666131294 -0.005966793734832972 0.00012646925826717412 0 237 17
0.007161959666131294 -0.005401869595454213 -0.000202551362448524 31 223 0
0.007161959666131294 -0.004836945456075454 -0.0005791681737058867 89 165 0
0.007161959666131294 -0.004272021316696695 -0.0005823694478492856 89 165 0
0.007161959666131294 -0.0037070971773179354 -0.0008636678096709873 133 121 0
0.007161959666131294 -0.0031421730379391764 -0.000900415656868411 138 116 0
0.007161959666131294 -0.0025772494373140597 -0.0010055539689448883 154 100 0
0.007161959666131294 -0.0020123252979353003 -0.0010760735882188782 165 89 0
0.007161959666131294 -0.0014474011585565412 -0.0014526893219689561 223 31 0
0.007161959666131294 -0.0008824770191777822 -0.0011049297720617907 170 84 0
0.007161959666131294 -0.00031755287979902305 -0.0016555182157687726 255 0 0
0.007161959666131294 0.0002473712595797361 -0.0012120609338616662 186 68 0
0.007161959666131294 0.0008122953989584952 -0.0010201897503955065 157 97 0
0.007161959666131294 0.0013772195383372544 -0.0010233921020461902 157 97 0
0.007161959666131294 0.0019421436777160136 -0.0009576754714945833 147 107 0
0.007161959666131294 0.002507067817094773 -0.000661855005240819 101 153 0
0.007161959666131294 0.003071991956473532 -0.0003660350777406971 56 198 0
0.007161959666131294 0.003636916095852291 0.00031563859221648004 0 211 43
0.007161959666131294 0.004201840369919461 0.00042875800075211425 0 195 59
0.007161959666131294 0.00476676450929822 0.001193159986274692 0 90 164
0.006597035526752534 -0.007661566152969249 0.0009051843118085462 0 130 124
0.006597035526752534 -0.00709664201359049 0.0012342065487851717 0 85 169
0.006597035526752534 -0.006531717874211731 0.0005773667279764242 0 175 79
0.006597035526752534 -0.005966793734832972 -0.00010430694198075288 16 238 0
0.006597035526752534 -0.005401869595454213 -3.378840021404781e-05 5 249 0
0.006597035526752534 -0.004836945456075454 -0.0006906276822691528 106 148 0
0.006597035526752534 -0.004272021316696695 -0.0007563443128207596 116 138 0
0.006597035526752534 -0.0037070971773179354 -0.0008220609433723664 126 128 0
0.006597035526752534 -0.0031421730379391764 -0.0010139305105775988 156 98 0
0.006597035526752534 -0.0025772494373140597 -0.0011162678424670126 171 83 0
0.006597035526752534 -0.0020123252979353003 -0.0010795194565159465 166 88 0
0.006597035526752534 -0.0014474011585565412 -0.0012713890237211788 195 59 0
0.006597035526752534 -0.0008824770191777822 -0.0012681882883314225 195 59 0
0.006597035526752534 -0.00031755287979902305 -0.0011630488987476604 179 75 0
0.006597035526752534 0.0002473712595797361 -0.0009760345793681281 150 104 0
0.006597035526752534 0.0008122953989584952 -0.0008708962672916509 134 120 0
0.006597035526752534 0.0013772195383372544 -0.000765758493968816 117 137 0
0.006597035526752534 0.0019421436777160136 -0.0010093861236035884 155 99 0
0.006597035526752534 0.002507067817094773 4.1547676623386396e-05 0 249 5
0.006597035526752534 0.003071991956473532 4.474841201314279e-05 0 248 6
0.006597035526752534 0.003636916095852291 0.0006749991243063797 0 162 92
0.006032111387373775 -0.008226490292348008 0.0011383364156196485 0 98 156
0.006032111387373775 -0.007661566152969249 0.0009513220962401164 0 124 130
0.006032111387373775 -0.00709664201359049 0.0004420237316899987 0 194 60
0.006032111387373775 -0.006531717874211731 0.00037150518992329356 0 203 51
0.006032111387373775 -0.005966793734832972 -0.00029715704081523237 45 209 0
0.006032111387373775 -0.005401869595454213 -0.00048417189894840707 74 180 0
0.006032111387373775 -0.004836945456075454 -0.0006711867570815817 103 151 0
0.006032111387373775 -0.004272021316696695 -0.0007079351430326479 109 145 0
0.006032111387373775 -0.0037070971773179354 -0.0008949494624121801 137 117 0
0.006032111387373775 -0.0031421730379391764 -0.0010000877744886574 154 100 0
0.006032111387373775 -0.0025772494373140597 -0.0015093861390387752 232 22 0
0.006032111387373775 -0.0020123252979353003 -0.000962475227695112 148 106 0
0.006032111387373775 -0.0014474011585565412 -0.0010329932307081746 159 95 0
0.006032111387373775 -0.0008824770191777822 -0.0013142915925298765 202 52 0
0.006032111387373775 -0.00031755287979902305 -0.0011224220253246442 172 82 0
0.006032111387373775 0.0002473712595797361 -0.0011591704112757103 178 76 0
0.006032111387373775 0.0008122953989584952 -0.0011284248184087488 173 81 0
0.006032111387373775 0.0013772195383372544 -0.0011316255537985051 174 80 0
0.006032111387373775 0.0019421436777160136 -0.0007328659678367175 112 142 0
0.006032111387373775 0.002507067817094773 9.012116627244328e-05 0 242 12
0.006032111387373775 0.003071991956473532 0.00038594109377256523 0 201 53
0.006032111387373775 0.003636916095852291 -0.00028272113696596076 43 211 0
0.006032111387373775 0.004201840369919461 0.00019792792513994285 0 227 27
0.005467187247995016 -0.007661566152969249 0.0007792732755403775 0 147 107
0.005467187247995016 -0.00709664201359049 0.00043151372563321217 0 195 59
0.005467187247995016 -0.006531717874211731 0.0005020333449072021 0 185 69
0.005467187247995016 -0.005966793734832972 -0.00023322476232739826 35 219 0
0.005467187247995016 -0.005401869595454213 -0.0004250943295326307 65 189 0
0.005467187247995016 -0.004836945456075454 -0.000772853879439796 119 135 0
0.005467187247995016 -0.004272021316696695 -0.0008751906725755676 134 120 0
0.005467187247995016 -0.0037070971773179354 -0.0010670607785344423 164 90 0
0.005467187247995016 -0.0031421730379391764 -0.0007857624167127406 121 133 0
0.005467187247995016 -0.0025772494373140597 -0.0011335214278662637 174 80 0
0.005467187247995016 -0.0020123252979353003 -0.0011642670207332251 179 75 0
0.005467187247995016 -0.0014474011585565412 -0.0013561365879384574 208 46 0
0.005467187247995016 -0.0008824770191777822 -0.001386882180805419 213 41 0
0.005467187247995016 -0.00031755287979902305 -0.0009198765159407527 141 113 0
0.005467187247995016 0.0002473712595797361 -0.0011117460831459852 171 83 0
0.005467187247995016 0.0008122953989584952 -0.0010066083098231502 155 99 0
0.005467187247995016 0.0013772195383372544 -0.0008195934516899756 126 128 0
0.005467187247995016 0.0019421436777160136 -0.00031029616464714276 47 207 0
0.005467187247995016 0.002507067817094773 1.872607232948268e-05 0 252 2
0.005467187247995016 0.003071991956473532 0.0009834986187814076 0 119 135
0.005467187247995016 0.003636916095852291 0.0016521611188967547 0 27 227
0.004902263108616257 -0.008226490292348008 0.0007224924129023375 0 155 99
0.004902263108616257 -0.007661566152969249 0.000753236928262014 0 151 103
0.004902263108616257 -0.00709664201359049 0.0004719396439475971 0 190 64
0.004902263108616257 -0.006531717874211731 4.933979082930874e-06 0 254 0
0.004902263108616257 -0.005966793734832972 -0.00032408825789369456 49 205 0
0.004902263108616257 -0.005401869595454213 -0.0006053866197153963 93 161 0
0.004902263108616257 -0.004836945456075454 -0.0007105243930382311 109 145 0
0.004902263108616257 -0.004272021316696695 -0.0008156637826219933 125 129 0
0.004902263108616257 -0.0037070971773179354 -0.0009208015559448281 141 113 0
0.004902263108616257 -0.0031421730379391764 -0.000991320097711533 152 102 0
0.004902263108616257 -0.0025772494373140597 -0.0010618397169855232 163 91 0
0.004902263108616257 -0.0020123252979353003 -0.001166977490308358 179 75 0
0.004902263108616257 -0.0014474011585565412 -0.0011012608597567512 169 85 0
0.004902263108616257 -0.0008824770191777822 -0.0005862457803066662 90 164 0
0.004902263108616257 -0.00031755287979902305 -0.0012164964925999032 187 67 0
0.004902263108616257 0.0002473712595797361 -0.0011857508997329415 182 72 0
0.004902263108616257 0.0008122953989584952 -0.0011200348079349772 172 82 0
0.004902263108616257 0.0013772195383372544 -0.0010543181773833704 162 92 0
0.004902263108616257 0.0019421436777160136 -0.001023572584516409 157 97 0
0.004902263108616257 0.002507067817094773 0.0001452588303010308 0 234 20
0.004902263108616257 0.003071991956473532 0.0013140913226257556 0 74 180
0.004902263108616257 0.003636916095852291 0.0012435727808590505 0 83 171
0.004337338969237497 -0.007661566152969249 0.0007629657415372574 0 149 105
0.004337338969237497 -0.00709664201359049 0.0003642061555754698 0 204 50
0.004337338969237497 -0.006531717874211731 1.6447144421946844e-05 0 252 2
0.004337338969237497 -0.005966793734832972 -4.926948612965997e-05 7 247 0
0.004337338969237497 -0.005401869595454213 -0.0004480290720914475 69 185 0
0.004337338969237497 -0.004836945456075454 -0.0007957886219986128 122 132 0
0.004337338969237497 -0.004272021316696695 -0.0006087737638654382 93 161 0
0.004337338969237497 -0.0037070971773179354 -0.0008006433310706706 123 131 0
0.004337338969237497 -0.0031421730379391764 -0.0009925134370295456 152 102 0
0.004337338969237497 -0.0025772494373140597 -0.001184383004234778 182 72 0
0.004337338969237497 -0.0020123252979353003 -0.0012500996347863849 192 62 0
0.004337338969237497 -0.0014474011585565412 -0.00106308477665321 163 91 0
0.004337338969237497 -0.0008824770191777822 -0.0012549543438584426 193 61 0
0.004337338969237497 -0.00031755287979902305 -0.0011844358020917374 182 72 0
0.004337338969237497 0.0002473712595797361 -0.0013763059080506123 211 43 0
0.004337338969237497 0.0008122953989584952 -0.0007460546570037328 114 140 0
0.004337338969237497 0.0013772195383372544 -0.0004647579114429584 71 183 0
0.004337338969237497 0.0019421436777160136 -0.0001834595496212566 28 226 0
0.004337338969237497 0.002507067817094773 0.0006585396617760903 0 164 90
0.004337338969237497 0.003071991956473532 -0.00010586232374648734 16 238 0
0.0037724148298587386 -0.007661566152969249 0.0007338633472797482 0 153 101
0.0037724148298587386 -0.00709664201359049 0.00022456606023691538 0 224 30
0.0037724148298587386 -0.006531717874211731 -5.673230158478639e-05 8 246 0
0.0037724148298587386 -0.005966793734832972 -0.00038575292230048447 59 195 0
0.0037724148298587386 -0.005401869595454213 -0.0004908923118842467 75 179 0
0.0037724148298587386 -0.004836945456075454 -0.0005614103148973093 86 168 0
0.0037724148298587386 -0.004272021316696695 -0.0007952439420661027 122 132 0
0.0037724148298587386 -0.0037070971773179354 -0.0008657624838328078 133 121 0
0.0037724148298587386 -0.0031421730379391764 -0.0010995955722479587 169 85 0
0.0037724148298587386 -0.0025772494373140597 -0.0010688505181346397 164 90 0
0.0037724148298587386 -0.0020123252979353003 -0.0011393695986549872 175 79 0
0.0037724148298587386 -0.0014474011585565412 -0.001142570872798386 175 79 0
0.0037724148298587386 -0.0008824770191777822 -0.0012477097236285057 192 62 0
0.0037724148298587386 -0.00031755287979902305 -0.0010558390789159884 162 92 0
0.0037724148298587386 0.0002473712595797361 -0.0011609779297461081 178 76 0
0.0037724148298587386 0.0008122953989584952 -0.0009691072850335909 149 105 0
0.0037724148298587386 0.0013772195383372544 -0.000725479116645176 111 143 0
0.0037724148298587386 0.0019421436777160136 -0.00028202183473806944 43 211 0
0.0037724148298587386 0.002507067817094773 0.0007547055706913147 0 151 103
0.003207490690479979 -0.007661566152969249 0.0015393186297333362 0 43 211
0.003207490690479979 -0.00709664201359049 0.0003704869455390751 0 203 51
0.003207490690479979 -0.006531717874211731 -2.8272640422712413e-05 4 250 0
0.003207490690479979 -0.005966793734832972 -0.00027190188631841223 41 213 0
0.003207490690479979 -0.005401869595454213 -0.0004637714535236446 71 183 0
0.003207490690479979 -0.004836945456075454 -0.0006556410207288769 100 154 0
0.003207490690479979 -0.004272021316696695 -0.0008475105879341094 130 124 0
0.003207490690479979 -0.0037070971773179354 -0.0009498479198235232 146 108 0
0.003207490690479979 -0.0031421730379391764 -0.0010521852517129371 162 92 0
0.003207490690479979 -0.0025772494373140597 -0.0010829303058262562 166 88 0
0.003207490690479979 -0.0020123252979353003 -0.001326558474214671 204 50 0
0.003207490690479979 -0.0014474011585565412 -0.001289810088263605 198 56 0
0.003207490690479979 -0.0008824770191777822 -0.0011846723149407702 182 72 0
0.003207490690479979 -0.00031755287979902305 -0.0011479239289897039 176 78 0
0.003207490690479979 0.0002473712595797361 -0.000866626644675287 133 121 0
0.003207490690479979 0.0008122953989584952 -0.0005853282828535853 90 164 0
0.003207490690479979 0.0013772195383372544 0.0003497341552321543 0 206 48
0.003207490690479979 0.0019421436777160136 0.0006787558534551374 0 161 93
0.00264256655110122 -0.008226490292348008 0.0012992699405453153 0 76 178
0.00264256655110122 -0.007661566152969249 0.0011122553517889618 0 101 153
0.00264256655110122 -0.00709664201359049 0.0003706722767920756 0 203 51
0.00264256655110122 -0.006531717874211731 -0.0001799161669149064 27 227 0
0.00264256655110122 -0.005966793734832972 -0.00036693102504808104 56 198 0
0.00264256655110122 -0.005401869595454213 -0.0004720698758782008 72 182 0
0.00264256655110122 -0.004836945456075454 -0.0006590847340113754 101 153 0
0.00264256655110122 -0.004272021316696695 -0.0010357004677614533 159 95 0
0.00264256655110122 -0.0037070971773179354 -0.0009333631358720394 143 111 0
0.00264256655110122 -0.0031421730379391764 -0.000867647044074075 133 121 0
0.00264256655110122 -0.0025772494373140597 -0.0011014801324892261 169 85 0
0.00264256655110122 -0.0020123252979353003 -0.0011382274409330072 175 79 0
0.00264256655110122 -0.0014474011585565412 -0.0012433668305167694 191 63 0
0.00264256655110122 -0.0008824770191777822 -0.0010514967245578947 161 93 0
0.00264256655110122 -0.00031755287979902305 -0.001088244033001676 167 87 0
0.00264256655110122 0.0002473712595797361 -0.0010225274024500692 157 97 0
0.00264256655110122 0.0008122953989584952 -0.0008306578352448366 127 127 0
0.00264256655110122 0.0013772195383372544 -0.00043189824928304907 66 188 0
0.00264256655110122 0.0019421436777160136 0.0005106356243160961 0 184 70
0.00264256655110122 0.002507067817094773 0.0017473621200383624 0 14 240
0.0020776423443782557 -0.007661566152969249 0.0012076912495186754 0 88 166
0.0020776423443782557 -0.00709664201359049 0.0005763921226372436 0 175 79
0.0020776423443782557 -0.006531717874211731 6.137650443351619e-05 0 246 8
0.0020776423443782557 -0.005966793734832972 -0.0002863830454736492 44 210 0
0.0020776423443782557 -0.005401869595454213 -0.0004782526126788816 73 181 0
0.0020776423443782557 -0.004836945456075454 -0.0004077340709121765 62 192 0
0.0020776423443782557 -0.004272021316696695 -0.0008511918915729255 131 123 0
0.0020776423443782557 -0.0037070971773179354 -0.0010430625362854427 160 94 0
0.0020776423443782557 -0.0031421730379391764 -0.0008092294478702918 124 130 0
0.0020776423443782557 -0.0025772494373140597 -0.0013242445273203768 203 51 0
0.0020776423443782557 -0.0020123252979353003 -0.0013549901201873383 208 46 0
0.0020776423443782557 -0.0014474011585565412 -0.0008456917556372205 130 124 0
0.0020776423443782557 -0.0008824770191777822 -0.0010375624003497379 159 95 0
0.0020776423443782557 -0.00031755287979902305 -0.0007562640385280361 116 138 0
0.0020776423443782557 0.0002473712595797361 -0.0007530622256309948 115 139 0
0.0020776423443782557 0.0008122953989584952 -0.0005192285984622014 79 175 0
0.0020776423443782557 0.0013772195383372544 0.00035451559380883963 0 206 48
0.0020776423443782557 0.0019421436777160136 0.0014054496634126356 0 61 193
0.001512718238671599 -0.008226490292348008 0.0012265858785128088 0 86 168
0.001512718238671599 -0.007661566152969249 0.0014184554457180411 0 59 195
0.0015127182386715991 -0.00709664201359049 0.000284363404518996 0 215 39
0.0015127182386715991 -0.006531717874211731 -0.00026622503918798606 41 213 0
0.0015127182386715991 -0.005966793734832972 -0.0002694273908386698 41 213 0
0.0015127182386715991 -0.005401869595454213 -0.00045644224897184443 70 184 0
0.0015127182386715991 -0.004836945456075454 -0.0006434565683513766 99 155 0
0.0015127182386715991 -0.004272021316696695 -0.0006466578424947755 99 155 0
0.0015127182386715993 -0.0037070971773179354 -0.0013882403787380192 213 41 0
0.0015127182386715991 -0.0031421730379391764 -0.0008732247605342919 134 120 0
0.0015127182386715991 -0.0025772494373140597 -0.0008764271121849757 134 120 0
0.0015127182386715993 -0.0020123252979353003 -0.0012054488104079586 185 69 0
0.0015127182386715993 -0.0014474011585565412 -0.0010135792432027263 156 98 0
0.0015127182386715993 -0.0008824770191777822 -0.001390194976952804 214 40 0
0.0015127182386715993 -0.00031755287979902305 -0.0009914353909910164 152 102 0
0.0015127182386715993 0.0002473712595797361 -0.0009606897981240549 147 107 0
0.0015127182386715991 0.0008122953989584952 -0.00041377888678039186 63 191 0
0.0015127182386715991 0.0013772195383372544 0.0004684733030121157 0 190 64
0.001512718238671599 0.0019421436777160136 0.0013807173693258065 0 64 190
0.001512718238671599 0.002507067817094773 0.001446433730500592 0 55 199
0.0009477940950838272 -0.007661566152969249 0.0010932524333126972 0 104 150
0.0009477940950838272 -0.00709664201359049 0.0005782368151089697 0 175 79
0.0009477940950838273 -0.006531717874211731 -0.0002447503190001911 37 217 0
0.0009477940950838273 -0.005966793734832972 -0.00024154958361043467 37 217 0
0.0009477940950838273 -0.005401869595454213 -0.00027229463772375376 41 213 0
0.0009477940950838273 -0.004836945456075454 -0.00037463196961316764 57 197 0
0.0009477940950838274 -0.004272021316696695 -0.0008180892515202742 126 128 0
0.0009477940950838274 -0.0037070971773179354 -0.0011139097177740383 171 83 0
0.0009477940950838274 -0.0031421730379391764 -0.0010771613318229722 165 89 0
0.0009477940950838274 -0.0025772494373140597 -0.001040412945871906 160 94 0
0.0009477940950838274 -0.0020123252979353003 -0.0008533986264923739 131 123 0
0.0009477940950838274 -0.0014474011585565412 -0.001097027333634431 168 86 0
0.0009477940950838274 -0.0008824770191777822 -0.0008157289718127295 125 129 0
0.0009477940950838274 -0.00031755287979902305 -0.0007789811246153057 119 135 0
0.0009477940950838273 0.0002473712595797361 -0.00031197492099699706 48 206 0
0.0009477940950838272 0.0008122953989584952 0.00046401134534539915 0 191 63
0.0009477940950838271 0.0013772195383372544 0.0014287833530436816 0 58 196
0.0009477940950838271 0.0019421436777160136 0.0018054001643010443 0 6 248
0.0003828699262419782 -0.008226490292348008 0.0009236075313655409 0 127 127
0.0003828699262419782 -0.007661566152969249 0.000818469758042706 0 142 112
0.0003828699262419783 -0.00709664201359049 0.00018821904574946915 0 229 25
0.0003828699262419783 -0.006531717874211731 -0.0001408031912271563 21 233 0
0.0003828699262419783 -0.005966793734832972 -0.00021132119424021893 32 222 0
0.00038286992624197834 -0.005401869595454213 -0.0003164595063166962 48 206 0
0.00038286992624197834 -0.004836945456075454 -0.000503474364449871 77 177 0
0.0003828699262419784 -0.004272021316696695 -0.0007847727262715727 120 134 0
0.0003828699262419784 -0.0037070971773179354 -0.0010186058146867236 156 98 0
0.0003828699262419784 -0.0031421730379391764 -0.0009878602218197621 152 102 0
0.0003828699262419784 -0.0025772494373140597 -0.000957115167706443 147 107 0
0.0003828699262419784 -0.0020123252979353003 -0.0009938635536575092 153 101 0
0.0003828699262419784 -0.0014474011585565412 -0.0009631179607905477 148 106 0
0.0003828699262419784 -0.0008824770191777822 -0.0009323723679235862 143 111 0
0.00038286992624197834 0.0002473712595797361 -0.0006055390869962084 93 161 0
0.00038286992624197823 0.0008122953989584952 0.00039902149345744846 0 200 54
0.0003828699262419781 0.0013772195383372544 0.0013415556364334148 0 70 184
0.0003828699262419782 0.0019421436777160136 0.0010125336688336106 0 115 139
-0.00018205414579257565 -0.007661566152969249 0.0007940254277777628 0 145 109
-0.0001820541457925756 -0.00709664201359049 0.00044626587787059745 0 193 61
-0.0001820541457925755 -0.006531717874211731 -0.00031813610765198016 49 205 0
-0.00018205414579257556 -0.005966793734832972 0.00023245233605500177 0 222 32
-0.0001820541457925755 -0.005401869595454213 -0.00024819618729725936 38 216 0
-0.00018205414579257554 -0.004836945456075454 -1.4363098882108425e-05 2 252 0
-0.00018205414579257546 -0.004272021316696695 -0.0006456622257635402 99 155 0
-0.00018205414579257543 -0.0037070971773179354 -0.0008892903941519552 136 118 0
-0.00018205414579257543 -0.0031421730379391764 -0.0008525430857081738 131 123 0
-0.00018205414579257543 -0.0025772494373140597 -0.0007820234664341839 120 134 0
-0.00018205414579257546 -0.0020123252979353003 -0.0007115054634211212 109 145 0
-0.00018205414579257546 -0.0014474011585565412 -0.0007422494400271554 114 140 0
-0.00018205414579257548 -0.0008824770191777822 -0.0003656337062770776 56 198 0
-0.0001820541457925755 -0.00031755287979902305 -0.0002604959329542428 40 214 0
-0.0001820541457925756 0.0002473712595797361 0.00036975477933899413 0 204 50
-0.0001820541457925757 0.0008122953989584952 0.0013345278645445614 0 71 183
-0.00018205414579257575 0.0013772195383372544 0.001801533798786049 0 6 248
-0.0007469782851713348 -0.008226490292348008 0.000909205568995743 0 129 125
-0.0007469782851713348 -0.007661566152969249 0.0005801838707727601 0 175 79
-0.0007469782851713347 -0.00709664201359049 0.00020356813702268226 0 226 28
-0.0007469782851713347 -0.006531717874211731 -0.00012545409995394318 19 235 0
-0.0007469782851713347 -0.005966793734832972 -0.00016220248590500936 24 230 0
-0.0007469782851713347 -0.005401869595454213 -0.00023272048891807197 35 219 0
-0.0007469782851713346 -0.004836945456075454 -0.0005140188507397738 79 175 0
-0.0007469782851713346 -0.004272021316696695 -0.0006191582403235359 95 159 0
-0.0007469782851713347 -0.0037070971773179354 -0.00042728759561101867 65 189 0
-0.0007469782851713346 -0.0031421730379391764 -0.0008039044068683814 123 131 0
-0.0007469782851713346 -0.0025772494373140597 -0.0007731588140014198 119 135 0
-0.0007469782851713347 -0.0020123252979353003 -0.0004253992640942544 65 189 0
-0.0007469782851713346 -0.0014474011585565412 -0.0008020149978443322 123 131 0
-0.0007469782851713346 -0.0008824770191777822 -0.0005061950703442104 77 177 0
-0.0007469782851713347 -0.00031755287979902305 9.850471170250462e-05 0 241 13
-0.0007469782851713349 0.0013772195383372544 0.0017603689798510527 0 12 242
-0.0013119024245500939 -0.007661566152969249 0.0007144482822670138 0 156 98
-0.0013119024245500939 -0.00709664201359049 0.0003156881575515838 0 211 43
-0.0013119024245500939 -0.006531717874211731 -3.207085360193913e-05 4 250 0
-0.0013119024245500939 -0.005966793734832972 -0.00022394203706809887 34 220 0
-0.0013119024245500939 -0.005401869595454213 -3.6927178934924184e-05 5 249 0
-0.0013119024245500939 -0.004836945456075454 -0.0005175757022871853 79 175 0
-0.0013119024245500939 -0.004272021316696695 -0.0006199130341765992 95 159 0
-0.0013119024245500939 -0.0037070971773179354 -0.0005493934149026092 84 170 0
-0.0013119024245500939 -0.0031421730379391764 -0.0005801390077695707 89 165 0
-0.0013119024245500939 -0.0025772494373140597 -0.0006458556383211776 99 155 0
-0.0013119024245500939 -0.0020123252979353003 -0.0002692399045710998 41 213 0
-0.0013119024245500939 -0.0014474011585565412 -0.00029998388117713395 46 208 0
-0.0013119024245500939 -0.0008824770191777822 -0.0002294658781640713 35 219 0
-0.0013119024245500939 -0.00031755287979902305 0.00014714985558600649 0 234 20
-0.001311902424550094 0.0008122953989584952 0.0018195877027211492 0 4 250
-0.0018768265639288531 -0.008226490292348008 0.0008546826228731832 0 137 117
-0.0018768265639288531 -0.007661566152969249 0.0006676688422472935 0 163 91
-0.0018768265639288531 -0.00709664201359049 0.0002006620998753423 0 227 27
-0.0018768265639288531 -0.006531717874211731 1.3648319249452478e-05 0 253 1
-0.0018768265639288531 -0.005966793734832972 -0.00045335842312249863 69 185 0
-0.0018768265639288531 -0.005401869595454213 -0.0002097297159804413 32 222 0
-0.0018768265639288531 -0.004836945456075454 -0.00039674403535997356 61 193 0
-0.0018768265639288531 -0.004272021316696695 -0.0005018823474364509 77 177 0
-0.0018768265639288531 -0.0037070971773179354 -0.0004711378320767742 72 182 0
-0.0018768265639288531 -0.0031421730379391764 -0.0002792671873642569 43 211 0
-0.0018768265639288531 -0.0025772494373140597 -0.00060828888558724 93 161 0
-0.0018768265639288531 -0.0020123252979353003 -0.0005059520924514684 77 177 0
-0.0018768265639288531 -0.0014474011585565412 -0.0002101316261977041 32 222 0
-0.0018768265639288531 -0.0008824770191777822 -0.00017938764959166993 27 227 0
-0.0018768265639288531 -0.00031755287979902305 0.00026407124857636387 0 218 36
-0.0018768265639288533 0.0002473712595797361 0.0011165847760596368 0 101 153
-0.0018768265639288533 0.0008122953989584952 0.0011823014066112436 0 92 162
-0.002441750703307612 -0.007661566152969249 0.0007437537866477238 0 152 102
-0.002441750703307612 -0.00709664201359049 0.0003959947754942009 0 200 54
-0.002441750703307612 -0.006531717874211731 4.823522558703555e-05 0 248 6
-0.002441750703307612 -0.005966793734832972 0.0003295325099014524 0 209 45
-0.002441750703307612 -0.005401869595454213 3.371204364768808e-05 0 250 4
-0.002441750703307612 -0.004836945456075454 -3.200458690391873e-05 4 250 0
-0.002441750703307612 -0.004272021316696695 -0.0004307641728657063 66 188 0
-0.002441750703307612 -0.0037070971773179354 -0.0004964802646636706 76 178 0
-0.002441750703307612 -0.0031421730379391764 -0.00042596118414332313 65 189 0
-0.002441750703307612 -0.0025772494373140597 -0.000721781111643445 111 143 0
-0.002441750703307612 -0.0020123252979353003 -0.0002547754467787788 39 215 0
-0.002441750703307612 -0.0014474011585565412 -0.0002855210396457403 43 211 0
-0.002441750703307612 -0.0008824770191777822 0.0001814851639725684 0 230 24
-0.002441750703307612 -0.00031755287979902305 0.0009574714303149645 0 123 131
-0.003006674842686371 -0.008226490292348008 0.0010142679168086354 0 115 139
-0.003006674842686371 -0.007661566152969249 0.0006852462185856525 0 160 94
-0.003006674842686371 -0.00709664201359049 0.0003086304848355747 0 212 42
-0.003006674842686371 -0.006531717874211731 0.00020349109525181255 0 226 28
-0.003006674842686371 -0.005966793734832972 1.647623711863789e-05 0 252 2
-0.003006674842686371 -0.005401869595454213 -0.0001705386210145368 26 228 0
-0.003006674842686371 -0.004836945456075454 -0.0002756763943373716 42 212 0
-0.003006674842686371 -0.004272021316696695 -0.0004626912524705463 71 183 0
-0.003006674842686371 -0.0037070971773179354 -0.000649706110603721 100 154 0
-0.003006674842686371 -0.0031421730379391764 -0.0009310044724254227 143 111 0
-0.003006674842686371 -0.0025772494373140597 -0.0006351840061716584 97 157 0
-0.003006674842686371 -0.0020123252979353003 -0.0005694673756200515 87 167 0
-0.003006674842686371 -0.0014474011585565412 -0.0002736463706126448 42 212 0
-0.003006674842686371 -0.0008824770191777822 0.0001251121378418579 0 237 17
-0.003006674842686371 -0.00031755287979902305 0.0006720235879391635 0 162 92
-0.003006674842686371 0.0002473712595797361 0.0014950115301787879 0 49 205
-0.0035715989820651307 -0.00709664201359049 9.667618184005128e-05 0 241 13
-0.0035715989820651307 -0.006531717874211731 0.00020181449391652856 0 227 27
-0.0035715989820651307 -0.005966793734832972 9.944926711296153e-06 0 253 1
-0.0035715989820651307 -0.005401869595454213 -5.577170384031066e-05 8 246 0
-0.0035715989820651307 -0.004836945456075454 -0.00015810903572972454 24 230 0
-0.0035715989820651307 -0.004272021316696695 -0.00045392896322984645 69 185 0
-0.0035715989820651307 -0.0037070971773179354 -0.0006975571316182613 107 147 0
-0.0035715989820651307 -0.0031421730379391764 -0.0007283027244852228 112 142 0
-0.0035715989820651307 -0.0025772494373140597 -0.0006915543385341567 106 148 0
-0.0035715989820651307 -0.0020123252979353003 -0.00010065526979227258 15 239 0
-0.0035715989820651307 -0.0014474011585565412 8.63595883409021e-05 0 243 11
-0.0035715989820651307 -0.0008824770191777822 0.0004629753220909799 0 191 63
-0.0035715989820651307 -0.00031755287979902305 0.0012389621271870184 0 84 170
-0.004136523121443889 -0.007661566152969249 0.0006855182891750863 0 160 94
-0.004136523121443889 -0.00709664201359049 0.00035649605219846087 0 205 49
-0.004136523121443889 -0.006531717874211731 0.00016948173281892864 0 231 23
-0.004136523121443889 -0.005966793734832972 0.00013273442437514735 0 236 18
-0.004136523121443889 -0.005401869595454213 9.598603842408119e-05 0 241 13
-0.004136523121443889 -0.004836945456075454 -0.0002806307728332815 43 211 0
-0.004136523121443889 -0.004272021316696695 -0.00038576908490975875 59 195 0
-0.004136523121443889 -0.0037070971773179354 -0.0007147907831327418 110 144 0
-0.004136523121443889 -0.0031421730379391764 -0.0006840451902657803 105 149 0
-0.004136523121443889 -0.0025772494373140597 -0.0004921756230605479 75 179 0
-0.004136523121443889 -0.0020123252979353003 -9.341603709876032e-05 14 240 0
-0.004136523121443889 -0.0014474011585565412 -6.26704442317988e-05 9 245 0
-0.004136523121443889 -0.0008824770191777822 0.0005140173809297125 0 184 70
-0.004136523121443889 -0.00031755287979902305 0.0008098378471834769 0 143 111
-0.004136523121443889 0.0002473712595797361 0.001603469103446359 0 34 220
-0.004701447260822648 -0.00709664201359049 0.0007259555213159626 0 155 99
-0.004701447260822648 -0.006531717874211731 0.0001790456874795843 0 230 24
-0.004701447260822648 -0.005966793734832972 0.0005556614212296621 0 178 76
-0.004701447260822648 -0.005401869595454213 0.0004899447906780553 0 187 67
-0.004701447260822648 -0.004836945456075454 0.00024631662228964034 0 221 33
-0.004701447260822648 -0.004272021316696695 -0.0003005942890540228 46 208 0
-0.004701447260822648 -0.0037070971773179354 -0.00033133934316734187 51 203 0
-0.004701447260822648 -0.0031421730379391764 -5.004098134564006e-05 7 247 0
-0.004701447260822648 -0.0025772494373140597 2.0477021667422573e-05 0 252 2
-0.004701447260822648 -0.0020123252979353003 0.00020749187980059725 0 226 28
-0.004701447260822648 -0.0014474011585565412 0.00010515454791118336 0 240 14
-0.004701447260822648 -0.0008824770191777822 0.0007354057989580628 0 153 101
-0.004701447260822648 -0.00031755287979902305 0.00043958533270429834 0 194 60
-0.005266371400201407 -0.00709664201359049 0.0008921346210812801 0 132 122
-0.005266371400201407 -0.006531717874211731 0.0004251289562166138 0 196 58
-0.005266371400201407 -0.005966793734832972 0.00045587293282264797 0 192 62
-0.005266371400201407 -0.005401869595454213 0.0005215906408815397 0 183 71
-0.005266371400201407 -0.004836945456075454 0.0004848422549304735 0 188 66
-0.005266371400201407 -0.004272021316696695 0.00029782793555094126 0 213 41
-0.005266371400201407 -0.0037070971773179354 0.00029462558390025754 0 214 40
-0.005266371400201407 -0.0031421730379391764 0.00029142484851050115 0 214 40
-0.005266371400201407 -0.0025772494373140597 0.000254676462559435 0 219 35
-0.005266371400201407 -0.0020123252979353003 0.0002179280766083688 0 224 30
-0.005266371400201407 -0.0014474011585565412 0.0002836447071599756 0 215 39
-0.005266371400201407 -0.0008824770191777822 0.00024689632120890944 0 221 33
-0.005266371400201407 -0.00031755287979902305 0.00098215442844351 0 119 135
-0.005266371400201407 0.0002473712595797361 0.0015588422536050213 0 40 214
-0.005831295539580166 -0.006531717874211731 0.0010464315092625078 0 110 144
-0.005831295539580166 -0.005966793734832972 0.0005314158910587804 0 181 73
-0.005831295539580166 -0.005401869595454213 0.001122315498554307 0 100 154
-0.005831295539580166 -0.004836945456075454 0.0011255173114513484 0 100 154
-0.005831295539580166 -0.004272021316696695 0.0012306556235278255 0 85 169
-0.005831295539580166 -0.0037070971773179354 0.00016140204444320438 0 232 22
-0.005831295539580166 -0.0031421730379391764 0.0009373899270465278 0 125 129
-0.005831295539580166 -0.0025772494373140597 0.0006937606811508281 0 159 95
-0.005831295539580166 -0.0020123252979353003 0.0005914233492614142 0 173 81
-0.005831295539580166 -0.0014474011585565412 0.0005257067187098074 0 182 72
-0.005831295539580166 -0.0008824770191777822 0.0006308461082935695 0 168 86
-0.005831295539580166 -0.00031755287979902305 0.0012610957430795216 0 81 173
-0.005831295539580166 0.0002473712595797361 0.0013662348632864625 0 66 188
-0.005831295539580166 0.0008122953989584952 0.001695255753378982 0 21 233
-0.006396219678958925 -0.005966793734832972 0.0009608925159444799 0 122 132
-0.006396219678958925 -0.005401869595454213 0.0012045206843328948 0 89 165
-0.006396219678958925 -0.004836945456075454 0.0012352662771998562 0 84 170
-0.006396219678958925 -0.004272021316696695 0.0012320655418101 0 85 169
-0.006396219678958925 -0.0037070971773179354 0.0014756934408216935 0 51 203
-0.006396219678958925 -0.0031421730379391764 0.001008687506580206 0 116 138
-0.006396219678958925 -0.0025772494373140597 0.0008216726484470314 0 141 113
-0.006396219678958925 -0.0020123252979353003 0.0005878395600318805 0 174 80
-0.006396219678958925 -0.0014474011585565412 0.0005846388246421241 0 174 80
-0.006396219678958925 -0.0008824770191777822 0.000547890438691058 0 179 75
-0.006396219678958925 -0.00031755287979902305 0.0007915186070794728 0 146 108
-0.006396219678958925 0.0002473712595797361 0.0008222636611927919 0 141 113
-0.006396219678958925 0.0008122953989584952 0.0007855152752417257 0 146 108
-0.006396219678958925 0.0013772195383372544 0.0007823145398519693 0 147 107
-0.006396219678958925 0.0019421436777160136 0.0008480311704035761 0 138 116
-0.006396219678958925 0.002507067817094773 0.0014527304136966485 0 54 200
-0.006396219678958925 0.003071991956473532 0.0013475912934897076 0 69 185
-0.006396219678958925 0.005331688648676979 0.0015887244937599668 0 36 218
-0.006396219678958925 0.005896612768062927 0.0015855237583702105 0 36 218
-0.006396219678958925 0.006461536893762394 0.0015150044084730418 0 46 208
-0.006396219678958925 0.007026461066813257 0.0013279895503398671 0 72 182
-0.006396219678958925 0.007591385206192016 0.0016238097472168103 0 31 223
-0.006396219678958925 0.008156309345570776 0.0018156806613061488 0 4 250
-0.006396219678958925 0.009286157489639884 0.0018205356397550277 0 4 250
-0.006396219678958925 0.009851081629018642 0.001851280963245168 0 0 254
-0.006396219678958925 0.01154585404715492 0.001180714777134247 0 92 162
-0.006396219678958925 0.01211077818653368 0.0008516930789112641 0 137 117
-0.006396219678958925 0.012675702325912438 0.0007465547668347868 0 152 102
-0.006396219678958925 0.013240626465291198 0.0011900125874955356 0 91 163
-0.006396219678958925 0.014370474744048716 0.0011153240925363185 0 101 153
-0.006961143818337685 -0.004836945456075454 0.0017814531036480755 0 9 245
-0.006961143818337685 -0.004272021316696695 0.0018519713760379592 0 0 255
-0.006961143818337685 -0.0037070971773179354 0.0017862547454863525 0 9 245
-0.006961143818337685 -0.0031421730379391764 0.00159438517828112 0 35 219
-0.006961143818337685 -0.0025772494373140597 0.0011509265494899074 0 96 158
-0.006961143818337685 -0.0020123252979353003 0.0012560656696968483 0 82 172
-0.006961143818337685 -0.0014474011585565412 0.000775416876967766 0 148 106
-0.006961143818337685 -0.0008824770191777822 0.0001441177500863342 0 235 19
-0.006961143818337685 -0.00031755287979902305 0.00047313944830931716 0 189 65
-0.006961143818337685 0.0002473712595797361 0.0003708026551735457 0 203 51
-0.006961143818337685 0.0008122953989584952 0.0001789325492146709 0 230 24
-0.006961143818337685 0.0013772195383372544 0.00018213382335806975 0 229 25
-0.006961143818337685 0.0019421436777160136 0.0002872726741881894 0 215 39
-0.006961143818337685 0.002507067817094773 0.00035779121595489453 0 205 49
-0.006961143818337685 0.003071991956473532 1.0031666047729129e-05 0 253 1
-0.006961143818337685 0.003636916095852291 0.0010326706637272176 0 112 142
-0.006961143818337685 0.004201840369919461 0.0005892123043128262 0 173 81
-0.006961143818337685 0.00476676450929822 0.000870510666134528 0 135 119
-0.006961143818337685 0.005331688648676979 0.0003898616040286244 0 201 53
-0.006961143818337685 0.005896612768062927 0.0003930639556793081 0 200 54
-0.006961143818337685 0.006461536893762394 0.00029072662378989424 0 214 40
-0.006961143818337685 0.007026461066813257 0.00025998103092293273 0 219 35
-0.006961143818337685 0.007591385206192016 0.0002967294168739989 0 214 40
-0.006961143818337685 0.008156309345570776 0.0004018677289504762 0 199 55
-0.006961143818337685 0.008721233350261124 0.0006357008173656271 0 167 87
-0.006961143818337685 0.009286157489639884 0.0003398808898655052 0 208 46
-0.006961143818337685 0.009851081629018642 0.0001480097063993455 0 234 20
-0.006961143818337685 0.010416005768397402 0.0007782609574462249 0 147 107
-0.006961143818337685 0.01098092990777616 0.00017356117539950994 0 231 23
-0.006961143818337685 0.01154585404715492 7.122438226373848e-05 0 245 9
-0.006961143818337685 0.01211077818653368 0.00014174400153772846 0 235 19
-0.006961143818337685 0.012675702325912438 0.00042304182460578776 0 196 58
-0.006961143818337685 0.013240626465291198 0.0007043391089202047 0 158 96
-0.006961143818337685 0.013805550604669956 0.0009856374707419063 0 119 135
-0.006961143818337685 0.014370474744048716 0.0010223858566929726 0 114 140
-0.006961143818337685 0.014935398883427474 0.0012562192144849448 0 82 172
-0.006961143818337685 0.015500323561559877 0.001585240104577464 0 36 218
-0.007526067957716444 -0.0037070971773179354 0.0016676230790580583 0 25 229
-0.007526067957716444 -0.0031421730379391764 0.0016308746931069922 0 30 224
-0.007526067957716444 -0.0025772494373140597 0.0012542589593569143 0 82 172
-0.007526067957716444 -0.0020123252979353003 0.0010672441012237396 0 108 146
-0.007526067957716444 -0.0014474011585565412 0.0008334110128085887 0 140 114
-0.007526067957716444 -0.0008824770191777822 0.0005995784631470801 0 172 82
-0.007526067957716444 -0.00031755287979902305 0.0002705567649240972 0 217 37
-0.007526067957716444 0.0002473712595797361 -0.00010605896882598064 16 238 0
-0.007526067957716444 0.0008122953989584952 -0.0002930738269591553 45 209 0
-0.007526067957716444 0.0013772195383372544 -0.0005269074541279487 81 173 0
-0.007526067957716444 0.0019421436777160136 -0.0006320452274507836 97 157 0
-0.007526067957716444 0.002507067817094773 -0.0006013007120911069 92 162 0
-0.007526067957716444 0.003071991956473532 -0.0005355846202931426 82 172 0
-0.007526067957716444 0.003636916095852291 -0.000538785355682899 82 172 0
-0.007526067957716444 0.004201840369919461 -0.000609304974956889 93 161 0
-0.007526067957716444 0.00476676450929822 -0.0006798229779699516 104 150 0
-0.007526067957716444 0.005331688648676979 -0.0006141068861719873 94 160 0
-0.007526067957716444 0.005896612768062927 -0.00031828641991822284 49 205 0
-0.007526067957716444 0.006461536893762394 -0.0003888049616849279 59 195 0
-0.007526067957716444 0.007026461066813257 -0.00042555334763599406 65 189 0
-0.007526067957716444 0.007591385206192016 -0.00039480775476903254 60 194 0
-0.007526067957716444 0.008156309345570776 -0.00032909112421742573 50 204 0
-0.007526067957716444 0.008721233350261124 -0.00036583951016849194 56 198 0
-0.007526067957716444 0.009286157489639884 -0.00030012287961688513 46 208 0
-0.007526067957716444 0.009851081629018642 -0.0002693772867499236 41 213 0
-0.007526067957716444 0.010416005768397402 -0.0005032109139187171 77 177 0
-0.007526067957716444 0.01098092990777616 -0.00020739044766495264 31 223 0
