ply
format ascii 1.0
element vertex 725
property float x
property float y
property float z
end_header
-0.003749753678255244 0.005168257518764214 -0.0020877642091363664
-0.003901921788579582 0.004750179071687016 -0.0020852428860962387
-0.0040540898989039195 0.004332100624609818 -0.00178863585460931
-0.004206258088861027 0.003914021958743383 -0.001705833827145397
-0.0043584261991853656 0.0034959435116661847 -0.0016230314504355186
-0.004510594349326088 0.003077864955194368 -0.0017036278732120984
-0.004662762499466811 0.002659786398722552 -0.001701106317341327
-0.0048149306296993415 0.0022417078969480444 -0.0018522144528105848
-0.004967098748111382 0.0018236294276500649 -0.0017966771265491837
-0.005119266880210306 0.001405550920747685 -0.001649392303079366
-0.005271435020396932 0.000987472391624523 -0.0014278542948886746
-0.005423603170537655 0.0005693938351527065 -0.0015789624303579324
-0.005575771280861993 0.00015131538807550878 -0.001603176002390682
-0.005727939351369946 -0.0002667629496070701 -0.001683772425167262
-0.005880107541327053 -0.0006848416154735055 -0.0015364876016974443
-0.006032275651651392 -0.0011029200625507032 -0.0015075461706146591
-0.0061844437619757294 -0.001520998509627901 -0.0014786050887778395
-0.006336611951932837 -0.0019390771754943365 -0.0015028186608105891
-0.006488779982624405 -0.0023571554037822963 -0.0014200166333466762
-0.006640948172581513 -0.0027752340696487318 -0.0017340624472126358
-0.006793116362538621 -0.0031933127355151672 -0.0015125240897759789
-0.006945284393230188 -0.0036113909638031275 -0.001483582542277872
-0.007097452583187297 -0.004029469629669563 -0.0013362977188080543
-0.007249620773144404 -0.004447548295535998 -0.0004000635526608669
-0.007401788803835972 -0.004865626523823958 -0.00039754237513989145
-0.0075539571530586205 -0.005283705627268869 -0.00031473956187255616
-0.007706125183750188 -0.005701783855556829 -1.8133279809261956e-05
-0.0013534894985396467 0.010451109359599914 -0.0033762904349714513
-0.001657825559922783 0.009614952903023994 -0.003749426687136292
-0.001809993909145431 0.009196873799579083 -0.003557555843144655
-0.0019621619398369986 0.008778795571291123 -0.003586497157812118
-0.002114330129794106 0.008360716905424687 -0.0035059007350355382
-0.0022664980012201334 0.007942639114715202 -0.0033547917846590276
-0.0024186661911772414 0.007524560448848768 -0.003383733099326491
-0.002570834381134349 0.007106481782982332 -0.00319186202250421
-0.002723002411825917 0.006688403554694372 -0.0031943828798830505
-0.0028751706017830247 0.0062703248888279365 -0.0033416675869375463
-0.0030273387917401327 0.005852246222961501 -0.0028874936979264017
-0.0031795068224317003 0.005434167994673541 -0.002262464258819818
-0.0033316750123888084 0.005016089328807105 -0.0019484183285385364
-0.0034838431227131464 0.004598010881729908 -0.0019509400008246296
-0.003636011233037484 0.0041799324346527104 -0.0017998309340327972
-0.003788179422994592 0.0037618537687862746 -0.00171923532616347
-0.00394034753331893 0.003343775321709077 -0.0017481759423390024
-0.004092515683459652 0.0029256967652372605 -0.0016964203678071492
-0.004244683833600375 0.002507618208765444 -0.0018805776489898556
-0.004396851963832906 0.0020895397069909368 -0.001963379560038447
-0.004549020082244947 0.001671461237692957 -0.0019659011159092184
-0.00470118821434387 0.001253382730790577 -0.00156029756180942
-0.004853356354530497 0.0008353042016674152 -0.0019280910491943353
-0.00500552450467122 0.0004172256451955987 -0.001847494975663721
-0.005157692614995557 -8.528018815990506e-07 -0.0018500166479498141
-0.00530986068550351 -0.0004189311395641779 -0.0017694202251732343
-0.005462028875460618 -0.0008370098054306134 -0.00168882415164262
-0.005614196985784956 -0.001255088252507811 -0.001771626062691211
-0.005766365096109294 -0.0016731666995850089 -0.001579755102284252
-0.005918533286066402 -0.002091245365451444 -0.0017270399257540696
-0.006070701316757969 -0.0025093235937394044 -0.0017028260044753545
-0.006222869506715078 -0.00292740225960584 -0.0016510708956047886
-0.006375037696672185 -0.0033454809254722753 -0.0015993153210729354
-0.006527205727363753 -0.003763559153760235 -0.0015751013997942203
-0.006679373917320861 -0.0041816378196266706 -0.0013421264011412852
-0.006831542107277969 -0.004599716485493106 -0.001371067366562783
-0.006983710137969537 -0.005017794713781066 -0.0005545860622078175
-0.007135878487192185 -0.005435873817225977 -1.772913492459279e-05
-0.007288046517883753 -0.005853952045513937 -0.00038552284240722597
-0.00744021454857532 -0.006272030273801897 -6.984609626669541e-06
-0.0007832429210290391 0.010717020432353256 -0.001573656219989061
-0.001087579300943255 0.009880863100620385 -0.003093905514106154
-0.0012397473316348227 0.009462784872332425 -0.0034724434372037645
-0.0013919156808574716 0.009044705768887516 -0.0035530398599803443
-0.0015440837115490394 0.008626627540599556 -0.0036047955509275194
-0.0016962519015061473 0.00820854887473312 -0.003629009006544947
-0.0018484197729321749 0.0077904710840236355 -0.0035734721459448333
-0.002000587962889283 0.0073723924181572 -0.0036252271384000774
-0.0021527561528463897 0.006954313752290764 -0.0032241269946098323
-0.0023049241835379577 0.006536235524002804 -0.003538171993568539
-0.0024570923734950653 0.006118156858136369 -0.0031370716169476505
-0.0026092605634521733 0.005700078192269933 -0.00305426912382245
-0.002761428594143741 0.005281999963981973 -0.002686475636437535
-0.002913596784100849 0.004863921298115538 -0.00199835211969912
-0.003065764894425187 0.00444584285103834 -0.001630558515898883
-0.0032179330047495246 0.004027764403961142 -0.0013714352389797564
-0.0033701011947066327 0.003609685738094707 -0.00118727795779705
-0.0035222693050309703 0.003191607291017509 -0.001158336526714265
-0.0036744374551716933 0.0027735287345456924 -8.443892875220572e-05
-0.003826605605312416 0.002355450178073876 -0.0012806352460756894
-0.003978773735544947 0.001937371676299369 -0.001594681059941649
-0.0041309418539569875 0.0015192932070013892 -0.0019732189830392595
-0.004283109986055911 0.0011012147000990092 -0.002053815638646483
-0.004435278126242537 0.0006831361709758474 -0.0020512947812676425
-0.00458744627638326 0.00026505761450403085 -0.0019957565236836667
-0.004739614386707598 -0.00015302083257316687 -0.0019402191974222656
-0.004891782457215551 -0.0005710991702557457 -0.0017929348396137352
-0.0050439506471726585 -0.0009891778361221812 -0.0017639934085309501
-0.005196118757496997 -0.0014072562831993788 -0.0017614713869988914
-0.005348286867821335 -0.0018253347302765767 -0.0017059344099834557
-0.005500455057778442 -0.002243413396143012 -0.0017301478656008835
-0.00565262308847001 -0.002661491624430972 -0.0017012069001793857
-0.005804791278427118 -0.0030795702902974074 -0.0016456695739179845
-0.005956959468384226 -0.003497648956163843 -0.0016167280264198776
-0.0061091274990757935 -0.003915727184451803 -0.0016684836009517308
-0.006261295689032902 -0.004333805850318238 -0.0016395421698689456
-0.00641346387899001 -0.004751884516184674 -0.001492257346399128
-0.006565631909681577 -0.005169962744472634 -0.0015440129209309812
-0.006717800258904226 -0.0055880418479175445 -0.0013224745634943243
-0.006869968289595793 -0.006006120076205505 -0.0006343513377942139
-0.0003651642551626037 0.01056485224239615 -0.0020172162912786003
-0.0005173326043852518 0.010146773138951237 -0.001438160077668726
-0.0006695006350768195 0.009728694910663279 -0.0030629041139036413
-0.0008216686657683873 0.009310616682375318 -0.0032844415400177236
-0.0009738370149910354 0.008892537578930408 -0.003505980130285024
-0.0011260050456826036 0.008474459350642448 -0.003561518387869
-0.0012781732356397114 0.008056380684776012 -0.003617055248469114
-0.001430341107065739 0.007638302894066527 -0.003645996563136577
-0.0015825092970228468 0.0072202242282000915 -0.003674938110634684
-0.0017346774869799548 0.006802145562333656 -0.003623182419687509
-0.0018868455176715225 0.006384067334045697 -0.0037059849128127094
-0.0020390137076286303 0.005965988668179261 -0.0035548761952668424
-0.002191181897585738 0.005547910002312826 -0.0033630044199526306
-0.0023433499282773055 0.0051298317740248655 -0.0027839480899274345
-0.0024955181182344135 0.00471175310815843 -0.0017641214653849597
-0.0026476862285587516 0.004293674661081232 -0.001385583076626062
-0.002799854338883089 0.0038755962140040344 -0.0013049870030954476
-0.0029520225288401972 0.003457517548137599 -0.001072011655196547
-0.003104190639164535 0.0030394391010604015 -0.0007981312228366728
-0.003256358789305258 0.002621360544588585 -0.0012634990271180864
-0.0034085269394459805 0.002203281988116768 -0.0010716272518038745
-0.003560695069678511 0.0017852034863422611 -0.0010198716772720213
-0.003712863188090552 0.0013671250170442814 -0.0014209729852154847
-0.0038650313201894753 0.0009490465101419014 -0.0017175793182104822
-0.004017199460376102 0.0005309679810187396 -0.0018648641416802998
-0.004169367610516825 0.00011288942454692302 -0.0020864026155322786
-0.004321535720841162 -0.0003051890225302747 -0.0018125221831724043
-0.0044737037913491155 -0.0007232673602128536 -0.0020716451108455654
-0.004625871981306223 -0.001141346026079289 -0.002127182902768254
-0.0047780400916305615 -0.0015594244731564867 -0.0019353121751919384
-0.004930208201954899 -0.0019775029202336843 -0.0018835557857528325
-0.005082376391912007 -0.0023955815861001198 -0.002251349156722426
-0.005234544422603574 -0.00281365981438808 -0.0017541662091389294
-0.005386712612560683 -0.0032317384802545155 -0.0017831076402217145
-0.0055388808025177904 -0.003649817146120951 -0.0017025112174451347
-0.005691048833209358 -0.004067895374408911 -0.001621914678253233
-0.0058432170231664665 -0.004485974040275347 -0.0013078688643872734
-0.005995385213123574 -0.004904052706141782 -0.001675662817433476
-0.006147553243815142 -0.0053221309344297415 -0.0017046042485162611
-0.00629972159303779 -0.005740210037874653 -0.0012074199039489027
-0.006451889623729358 -0.006158288266162612 -0.0010155488271266218
-0.006604057654420925 -0.006576366494450573 -0.0002732498978730286
-9.925393851881638e-05 0.00999460494899413 -0.0015430421335622664
-0.0002514219692103841 0.00957652672070617 -0.0022144450340420003
-0.0004035899999019518 0.00915844849241821 -0.002932889852672815
-0.0005557583491245999 0.0087403693889733 -0.0038534104824066158
-0.0007079263798161677 0.008322291160685339 -0.0035942872054874893
-0.0008600945697732756 0.007904212494818904 -0.0036748838610947128
-0.001012262441199303 0.007486134704109419 -0.003825992345809936
-0.001164430631156411 0.007068056038242984 -0.003823471255600452
-0.001316598821113519 0.0066499773723765485 -0.003847685176879167
-0.0014687668518050866 0.006231899144088588 -0.00381874362938106
-0.0016209350417621946 0.005813820478222153 -0.003789802314713597
-0.0017731032317193024 0.005395741812355717 -0.0034931958653032775
-0.0019252712624108703 0.004977663584067758 -0.002996837720274925
-0.002077439452367978 0.004559584918201322 -0.0012614870211109515
-0.002229607562692316 0.004141506471124125 -0.0010926066897809501
-0.0023817756730166537 0.0037234280240469263 -0.0007959995418786998
-0.0026861119732980994 0.0028872709111032934 -0.0003935047425329681
-0.0028382801234388224 0.002469192354631477 -0.0003909835650119926
-0.002990448273579545 0.00205111379815966 -0.00020682651665992991
-0.0031426164038120753 0.001633035296385153 -0.00043980171903967814
-0.0032947845222241166 0.0012149568270871734 -0.0004640156112145628
-0.00344695265432304 0.0007968783201847934 -0.0008132638176903124
-0.0035991207945096667 0.00037879979106163154 -0.0010871437843888994
-0.0037512889446503894 -3.927876541018502e-05 -0.0016044424846768375
-0.0039034570549747274 -0.00045735721248738276 -0.0015755010535940524
-0.00405562512548268 -0.0008754355501699614 -0.0019540390931069847
-0.004207793315439788 -0.0012935142160363968 -0.001951518352143466
-0.004359961425764126 -0.0017115926631135947 -0.0016923950752243395
-0.004512129536088464 -0.0021296711101907923 -0.0017441501840949054
-0.004664297726045571 -0.002547749776057228 -0.0015968653606250878
-0.004816465756737139 -0.002965828004345188 -0.0014495810028165575
-0.004968633946694247 -0.0033839066702116235 -0.0014206395717337723
-0.005120802136651355 -0.003801985336078059 -0.0013651021290570493
-0.005272970167342923 -0.004220063564366019 -0.0013095652684569354
-0.005425138357300031 -0.004638142230232454 -0.0012540270108729597
-0.005577306547257139 -0.00505622089609889 -0.0014051352627575393
-0.005729474577948706 -0.00547429912438685 -0.0013223332352936264
-0.005881642927171355 -0.005892378227831761 -0.0014029293088242407
-0.006033810957862922 -0.006310456456119721 -0.0005532376817427571
0.0004709930765702672 0.010260515862481933 -0.0020314261782914396
0.0003188247273476191 0.009842436759037022 -0.0015551906544715162
0.00016665669665605137 0.009424358530749062 -0.0030274437740445133
1.4488665964483664e-05 0.009006280302461101 -0.003739980980753898
-0.0001376796832581645 0.00858820119901619 -0.0033092575613409276
-0.0002898477139497322 0.00817012297072823 -0.0035683813039213415
-0.00044201590390684014 0.007752044304861796 -0.003597321920096874
-0.0005941837753328675 0.007333966514152311 -0.0037814788520336147
-0.0007463519652899755 0.0069158878482858755 -0.003810420166701078
-0.0008985201552470834 0.00649780918241944 -0.0038932226598262783
-0.0010506881859386511 0.006079730954131481 -0.003869008738547563
-0.0012028563758957592 0.005661652288265045 -0.0038979500532150264
-0.001355024565852867 0.00524357362239861 -0.0038737361319363113
-0.0015071925965444348 0.0048254953941106495 -0.0037931397091597314
-0.0016593607865015426 0.004407416728244214 -0.003414601786062121
-0.0018115288968258805 0.003989338281167016 -0.0012139511527493592
-0.0019636970071502183 0.0035712598340898187 -0.0004955062759108838
-0.0021158651971073263 0.0031531811682233833 -1.9271250494056937e-05
-0.003485378389108292 -0.0006095254024444906 -0.0008970400085672733
-0.0036375464596162446 -0.0010276037401270694 -0.0006640650099143383
-0.0037897146495733526 -0.0014456824059935049 -0.0013521881774067874
-0.003941882759897691 -0.0018637608530707025 -0.0014077255036681886
-0.004094050870222028 -0.0022818393001479004 -0.0013835116988047953
-0.004246219060179136 -0.002699917966014336 -0.0014124531298875804
-0.0043983870908707035 -0.0031179961943022957 -0.0013318565906956788
-0.004550555280827812 -0.003536074860168731 -0.0013607980217784639
-0.0047027234707849195 -0.003954153526035167 -0.0012802020646631713
-0.004854891501476487 -0.004372231754323126 -0.001006321632303297
-0.005007059691433596 -0.004790310420189562 -0.0010618598898872729
-0.005159227881390703 -0.005208389086055997 -0.0008288844255730507
-0.005311395912082271 -0.0056264673143439576 -0.0007771279779262837
-0.005463564261304919 -0.006044546417788868 -0.0007796499994583425
-0.005615732291996487 -0.0064626246460768285 -0.00037404595059342644
0.0007369031744248169 0.009690268648712684 -0.0015899793943390248
0.0005847351437332488 0.009272190420424724 -0.002238128567114472
0.00043256711304168107 0.008854112192136764 -0.003132259007543325
0.00028039876381903293 0.008436033088691853 -0.003324130084365606
0.00012823073312746524 0.008017954860403893 -0.003557105548679828
-2.3937456829642695e-05 0.007599876194537458 -0.003830985631793737
-0.00017610532825567017 0.007181798403827973 -0.003982093650847673
-0.0003282735182127781 0.006763719737961538 -0.00395315233618021
-0.00048044170816988603 0.006345641072095102 -0.003977366257458925
-0.0006326097388614537 0.005927562843807143 -0.0040579624474048615
-0.0007847779288185616 0.0055094841779407076 -0.0038364243227988477
-0.0009369461187756696 0.005091405512074272 -0.0038339039310812946
-0.0010891141494672374 0.004673327283786312 -0.003985011950135231
-0.0012412823394243452 0.004255248617919876 -0.0038377267774194475
-0.001393450449748683 0.0038371701708426785 -0.0031746050808578725
-0.0038281406131019384 -0.0028520860763386734 -0.00031106895767152277
-0.003980308643793506 -0.0032701643046266337 -0.00028212834149599043
-0.004132476833750614 -0.003688242970493069 -0.0003627248224802312
-0.004284645023707722 -0.004106321636359505 -6.611769640585375e-05
-0.004436813054399289 -0.004524399864647465 -1.0580331945675103e-05
0.0013071499707246628 0.009956179641833257 -0.0013405628269538281
0.0011549816215020144 0.009538100538388347 -0.0018059306312352417
0.0010028135908104465 0.009120022310100387 -0.002677434356883168
0.0008506455601188789 0.008701944081812426 -0.003045227844268083
0.0006984772108962308 0.008283864978367516 -0.0034130213316529985
0.0005463091802046631 0.007865786750079555 -0.0035603060387074943
0.00039414099024755514 0.00744770808421312 -0.0037075909785926338
0.00024197311882152769 0.007029630293503636 -0.0038548752199858423
8.980492886441976e-05 0.0066115516276372 -0.003910412546247244
-6.236326109268817e-05 0.006193472961770765 -0.003939353860914707
-0.00021453129178425587 0.0057753947334828045 -0.003941875416785479
-0.0003666994817413638 0.005357316067616369 -0.003708899952471256
-0.0005188676716984717 0.004939237401749934 -0.003968023229390383
-0.0006710357023900394 0.004521159173461974 -0.0042646294459700584
-0.0008232038923471473 0.004103080507595539 -0.003788394387811422
-0.0009753720026714852 0.003685002060518341 -0.003817335935309529
-0.001127540112995823 0.003266923613441143 -0.003765580244362354
-0.0012797083029529308 0.0028488449475747076 -0.003186523215845227
0.0015730600685792122 0.00938593242806401 -0.0012761228717863558
0.0014208920378876444 0.008967854199776049 -0.002196644898504019
0.0012687240071960766 0.008549775971488089 -0.0033652603160589933
0.0011165556579734285 0.008131696868043178 -0.0032179756090044975
0.0009643876272818607 0.007713618639755218 -0.003567223437130451
0.0008122194373247528 0.007295539973888782 -0.0037183319218456745
0.0006600515658987254 0.006877462183179298 -0.00391020392999053
0.0005078833759416175 0.006459383517312863 -0.003961958922445774
0.00035571518598450947 0.006041304851446427 -0.003986171912401915
0.00020354715529294178 0.005623226623158467 -0.0039836508221924305
5.137896533583384e-05 0.0052051479572920315 -0.0039008480962365866
-0.00010078922462127408 0.004787069291425596 -0.0038180460687726736
-0.0002529572553128418 0.004368991063137637 -0.0037891047541052103
-0.0004051254452699497 0.003950912397271201 -0.003760164137929678
-0.0005572935555942875 0.003532833950194003 -0.003993139136582613
-0.0007094616659186254 0.0031147555031168055 -0.0039376006461679935
-0.0008616298558757333 0.00269667683725037 -0.003326467704027891
0.002143306974273677 0.009651843381368198 -0.0010016250889748333
0.0019911386250510287 0.009233764277923285 -0.0012231626315042374
0.001838970594359461 0.008815686049635327 -0.00205083261243999
0.0016868025636678932 0.008397607821347366 -0.0028785031754523516
0.0015346342144452452 0.007979528717902456 -0.0029613052029162645
0.0013824661837536774 0.007561450489614495 -0.0036244273651391268
0.0012302979937965695 0.007143371823748059 -0.003707229858264327
0.001078130122370542 0.006725294033038575 -0.003854514565318823
0.0009259619324134341 0.00630721536717214 -0.00388345611281693
0.000773793742456326 0.005889136701305704 -0.004494589287787676
0.0006216257117647585 0.005471058473017744 -0.003915532026439905
0.0004694575218076505 0.0050529798071513084 -0.003944473806768656
0.00031728933185054255 0.004634901141284873 -0.004166012164205313
0.00016512130115897485 0.004216822912996914 -0.003892131382599473
1.2953111201866938e-05 0.0037987442471304777 -0.003947668708860874
-0.00013921499912247087 0.0033806658000532803 -0.003923454787582159
-0.0002913831094468087 0.0029625873529760824 -0.0037315841764211655
-0.0004435512994039166 0.002544508687109647 -0.003915741108357906
-0.0005957194097282545 0.002126430240032449 -0.003835144452750683
-0.0007478875598689773 0.0017083516835606327 -0.003602169454097748
0.0025613854213508746 0.009499675271043858 -0.0006403742590919136
0.002257049041436659 0.008663517939310987 -0.0017996358219534159
0.002104881010745091 0.008245439711023029 -0.002471038606017828
0.0019527126615224428 0.007827360607578117 -0.00316586229018867
0.001800544630830875 0.007409282379290157 -0.00331697054207325
0.0016483764408737672 0.006991203713423722 -0.0036662195343524218
0.0014962085694477396 0.0065731259227142375 -0.0034820623695850372
0.0013440403794906317 0.006155047256847802 -0.003958297427743673
0.0011918721895335237 0.0057369685909813666 -0.0040388936176896095
0.0010397041588419559 0.005318890362693406 -0.004036371596157551
0.0008875359688848482 0.004900811696826971 -0.003980835434049368
0.0007353677789277402 0.004482733030960535 -0.003978313412517309
0.0005831997482361724 0.004064654802672576 -0.004626463167369366
0.0004310315582790645 0.00364657613680614 -0.004099853802472353
0.00027886344795472666 0.0032284976897289422 -0.0040443153120577335
0.00012669533763038894 0.002810419242651745 -0.003897031070664525
-2.5472852326718978e-05 0.0023923405767853094 -0.003977627493441105
-0.0001776409626510569 0.0019742621297081115 -0.004001840483397245
-0.0003298091127917797 0.0015561835732362948 -0.0036340472288429737
-0.00048197726293250245 0.0011381050167644782 -0.002996570896357298
0.002827295628600043 0.008929428017458226 -0.0014625471085309982
0.0026751275979084756 0.008511349789170265 -0.0014914877247065306
0.0025229595672169075 0.008093271560882305 -0.0022279033437371254
0.0023707912179942595 0.007675192457437394 -0.0028119422495365143
0.002218623187302692 0.007257114229149434 -0.0032455618493258953
0.002066454997345584 0.006839035563282999 -0.0036133553367108107
0.0019142871259195562 0.006420957772573514 -0.003797512501478195
0.0017621189359624482 0.006002879106707079 -0.003880314528942108
0.0016099507460053404 0.0055848004408406435 -0.003963116556406021
0.0014577827153137725 0.005166722212552683 -0.003992057871073484
0.0013056145253566647 0.004748643546686248 -0.004047595430165529
0.0011534463353995567 0.004330564880819812 -0.004306719172745943
0.001001278304707989 0.003912486652531853 -0.003992673009634018
0.0008491101147508811 0.003494407986665417 -0.0034753745421767235
0.0006969420044265433 0.0030763295395882196 -0.004187910817563534
0.0005447738941022055 0.0026582510925110218 -0.004036802798509598
0.0003926057041450975 0.0022401724266445863 -0.004220959730446339
0.00024043759382075976 0.0018220939795673887 -0.003842422040179372
8.826944368003689e-05 0.001404015423095572 -0.003844942431896925
-6.389870646068599e-05 0.0009859368666237554 -0.0037931872066110373
-0.00021606683669321629 0.0005678583648492483 -0.003560211742296815
0.003093206089427237 0.008359181662670521 -0.0013251127675175667
0.002941038058735669 0.007941103434382561 -0.001973262755200267
0.002788869709513021 0.00752302433093765 -0.0025523195508867502
0.0026367016788214535 0.00710494610264969 -0.0030495033133774996
0.0024845334888643454 0.0066868674367832545 -0.0035466873086988926
0.002332365617438318 0.00626878964607377 -0.0036977960262447596
0.0021801974274812098 0.005850710980207335 -0.00404704362154007
0.002028029237524102 0.005432632314340899 -0.003964241594076157
0.0018758612068325343 0.005014554086052939 -0.00404483824968338
0.0017236930168754263 0.004596475420186504 -0.004069051239639521
0.0015715248269183185 0.004178396754320068 -0.004120807163417339
0.0014193567962267506 0.0037603185260321084 -0.0041450210846960545
0.0012671886062696428 0.003342239860165673 -0.004142499063163996
0.001115020495945305 0.002924161413088475 -0.004139977041631937
0.0009628523856209672 0.0025060829660112777 -0.004084440413862467
0.0008106841956638592 0.002088004300144842 -0.004028903320431709
0.0006585160853395214 0.0016699258530676444 -0.003999962005764246
0.0005063479351987986 0.0012518472965958277 -0.003852676600217819
0.0003541797850580756 0.0008337687401240113 -0.004126557614654303
0.0002020116548255454 0.00041569023834950406 -0.003321170574054122
4.984353641350439e-05 -2.3882309484756474e-06 -0.0030245643574744463
0.0035112846014574896 0.008207013528705204 -0.001757150748744607
0.003359116570765922 0.007788935300417244 -0.0018126876093447208
0.0032069482215432736 0.007370856196972334 -0.0025954735465347767
0.003054780190851706 0.006952777968684373 -0.0030290938448160887
0.002902612000894598 0.006534699302817938 -0.00366656924597919
0.0027504441294685707 0.006116621512108454 -0.003642356488853693
0.0025982759395114627 0.005698542846242018 -0.004043456632643938
0.0024461077495543547 0.005280464180375583 -0.004045978654175997
0.002293939718862787 0.004862385952087623 -0.004048499278724194
0.002141771528905679 0.004444307286221187 -0.004024285823106766
0.001989603338948571 0.004026228620354752 -0.004107088781893253
0.0018374353082570034 0.003608150392066792 -0.004162626340985298
0.0016852671182998953 0.0031900717262003564 -0.004082029685378075
0.0015330990079755575 0.002771993279123159 -0.004229314159601927
0.0013809308976512197 0.002353914832045961 -0.004312117118388414
0.0012287627076941119 0.0019358361661795257 -0.003998071886599064
0.001076594597369774 0.001517757719102328 -0.004080873914062977
0.0009244264472290511 0.0010996791626305114 -0.004000277258455753
0.0007722582970883284 0.0006816006061586947 -0.0038491692394018173
0.0006200901668557981 0.00026352210438418763 -0.003247158834710717
0.000467922048443757 -0.00015455636491379206 -0.0037435174454003572
0.0003157539163448336 -0.000572634871816172 -0.0033942684531211853
0.0001635857761582071 -0.0009907134009393339 -0.002792259445413947
0.003777195072540429 0.0076367671701847144 -0.0016753878444433214
0.003625026723317781 0.007218688066739803 -0.0021516229026019573
0.0034728586926262134 0.0068006098384518435 -0.00275363284163177
0.0033206905026691054 0.006382531172585408 -0.0032298678997904062
0.0031685226312430778 0.005964453381875923 -0.0036840427201241255
0.0030163544412859697 0.0055463747160094876 -0.003835151204839349
0.0028641862513288617 0.005128296050143052 -0.0039862594567239285
0.002712018220637294 0.004710217821855093 -0.0040380144491791725
0.002559850030680186 0.004292139155988657 -0.004118611104786396
0.002407681840723078 0.003874060490122222 -0.0041992077603936195
0.0022555138100315104 0.0034559822618342615 -0.004143669269979
0.0021033456200744024 0.003037903595967826 -0.004457714967429638
0.0019511775097500648 0.0026198251488906287 -0.004161108750849962
0.001799009399425727 0.002201746701813431 -0.004185322672128677
0.0016468412094686191 0.0017836680359469954 -0.004237078130245209
0.0014946730991442813 0.0013655895888697977 -0.004052921198308468
0.0013425049490035583 0.0009475110323979811 -0.0040239798836410046
0.0011903367988628356 0.0005294324759261644 -0.003802441991865635
0.0010381686686303053 0.00011135397415165728 -0.0037999204359948635
0.0008860005502182641 -0.0003067244951463224 -0.003717118175700307
0.0007338324181193408 -0.0007248030020487023 -0.003661579918116331
0.0005816642779327142 -0.0011428815311718642 -0.00322796031832695
0.004347441605006505 0.007902677268240144 -0.000499079702422023
0.004195273574314937 0.007484599039952184 -0.0007956868503242733
0.0040431052250922885 0.007066519936507273 -0.0019912454299628735
0.0038909371944007205 0.006648441708219313 -0.0028409366495907307
0.0037387690044436124 0.006230363042352877 -0.0033675460144877434
0.003586601133017585 0.005812285251643393 -0.003735339967533946
0.0034344329430604768 0.005394206585776958 -0.0036835845094174147
0.003282264753103369 0.004976127919910522 -0.003980190493166447
0.003130096722411801 0.004558049691622562 -0.004276796709746122
0.0029779285324546935 0.0041399710257561265 -0.004084926098585129
0.0028257603424975855 0.003721892359889691 -0.004167728126049042
0.002673592311806018 0.0033038141316017312 -0.00411597266793251
0.00252142412184891 0.0028857354657352958 -0.004337511491030455
0.002369256011524572 0.002467657018658098 -0.004256914835423231
0.002217087901200234 0.0020495785715809005 -0.00425943685695529
0.002064919711243126 0.001631499905714465 -0.004261957015842199
0.0019127516009187885 0.0012134214586372672 -0.004110848996788263
0.0017605834507780655 0.0007953429021654506 -0.003959740977734327
0.0016084153006373427 0.0003772643456936341 -0.003988682292401791
0.0014562471704048124 -4.081415608087309e-05 -0.003908085636794567
0.0013040790519927713 -0.0004588926253788528 -0.003756977617740631
0.0011519109198938479 -0.0008769711322812327 -0.0037859182339161634
0.0009997427797072214 -0.0012950496614043945 -0.003471872303634882
0.0008475746295664985 -0.0017131282178762112 -0.0033912768121808767
0.0006954065192421606 -0.002131206664953409 -0.002985672326758504
0.004461183781564105 0.00691435178636655 -0.0015723740216344597
0.004309015750872537 0.00649627355807859 -0.0026572558563202624
0.004156847560915429 0.006078194892212154 -0.0033286586403846745
0.004004679689489402 0.00566011710150267 -0.003520529251545668
0.0038525114995322934 0.005242038435636235 -0.004099586512893438
0.003700343309575186 0.004823959769769799 -0.003802979597821832
0.003548175278883618 0.004405881541481839 -0.004117025062441826
0.00339600708892651 0.0039878028756154035 -0.004168781917542219
0.003243838898969402 0.0035697242097489684 -0.004249377641826868
0.0030916708682778345 0.0031516459814610086 -0.004220436792820692
0.0029395026783207265 0.002733567315594573 -0.004301032517105341
0.0027873345679963885 0.0023154888685173753 -0.0043252455070614815
0.002635166457672051 0.0018974104214401774 -0.004269708413630724
0.002482998267714943 0.001479331755573742 -0.004048170521855354
0.002330830157390605 0.0010612533084965443 -0.004199279006570578
0.002178662007249882 0.0006431747520247278 -0.003977741114795208
0.0020264938571091596 0.00022509619555291117 -0.004058335907757282
0.001874325726876629 -0.00019298230622159598 -0.00391105143353343
0.001722157608464588 -0.0006110607755195756 -0.003935265354812145
0.0015699894763656645 -0.0010291392824219555 -0.0036761418450623755
0.001417821336179038 -0.0014472178115451173 -0.0035933398175984625
0.0012656531860383152 -0.001865296368016934 -0.0035378024913370614
0.0011134850757139774 -0.002283374815094132 -0.003170009003952146
0.0009613170052060246 -0.0027014531527767105 -0.0024818845558911566
0.004879262338035921 0.006762183636225827 -0.0022994431201368575
0.004727094307344353 0.006344105407937868 -0.0023549813777208333
0.004574926117387246 0.005926026742071432 -0.003204671666026116
0.004422758245961218 0.005507948951361947 -0.0034637954086065297
0.0042705900560041105 0.005089870285495512 -0.003897415474057198
0.004118421866047002 0.004671791619629076 -0.003980218432843685
0.0039662538353554344 0.004253713391341117 -0.003982739523053169
0.003814085645398327 0.003835634725474681 -0.004065541550517082
0.003661917455441219 0.0034175560596082454 -0.00414834450930357
0.003509749424749651 0.0029994778313202856 -0.004407467320561409
0.003357581234792543 0.00258139916545385 -0.004409988410770893
0.003205413124468205 0.0021633207183766523 -0.004060741048306227
0.0030532450141438675 0.0017452422712994546 -0.004357347264885902
0.0029010768241867595 0.0013271636054330192 -0.004276750609278679
0.002748908713862422 0.0009090851583558215 -0.004332289099693298
0.002596740563721699 0.000491006601884005 -0.003983039874583483
0.002444572413580976 7.292804541218836e-05 -0.004130324348807335
0.002292404283348446 -0.00034515045636231877 -0.003938453737646341
0.0021402361649364046 -0.0007632289256602984 -0.004522492177784443
0.0019880680328374814 -0.0011813074325626783 -0.003851089626550675
0.0018358998926508547 -0.0015993859616858402 -0.0033969148062169556
0.0016837317425101319 -0.002017464518157657 -0.0036935210227966313
0.001531563632185794 -0.0024355429652348545 -0.0034605457913130526
0.0013793955616778412 -0.0028536213029174335 -0.003309437539428473
0.0012272273717207332 -0.003271699968783869 -0.002960189245641232
0.005145172754421551 0.006191937297613529 -0.0021757388021796946
0.004993004564464443 0.005773858631747094 -0.0028007687069475655
0.004840836693038416 0.0053557808410376094 -0.003231492126360536
0.0046886685030813075 0.004937702175171174 -0.0038335015997290616
0.0045365003131242 0.0045196235093047385 -0.003857714589685202
0.004384332282432632 0.004101545281016778 -0.00404958613216877
0.004232164092475524 0.0036834666151503432 -0.003902300959452987
0.004079995902518416 0.003265387949283908 -0.0041761817410588264
0.003927827871826849 0.002847309720995948 -0.0044091567397117615
0.0037756596818697406 0.0024292310551295125 -0.004353619180619717
0.0036234915715454025 0.0020111526080523147 -0.004270817153155804
0.003471323461221065 0.0015930741609751168 -0.004322572611272335
0.003319155271263957 0.0011749954951086813 -0.004138415679335594
0.0031669871609396193 0.0007569170480314837 -0.004219012334942818
0.0030148190107988962 0.0003388384915596671 -0.0040717278607189655
0.0028626508606581736 -7.924006491214946e-05 -0.004095940850675106
0.0027104827304256433 -0.0004973185666866567 -0.0038368180394172673
0.002558314612013602 -0.0009153970359846363 -0.003861031029373408
0.002406146479914679 -0.0013334755428870161 -0.0038320904131978755
0.002253978339728052 -0.001751554072010178 -0.003776552621275187
0.0021018101895873293 -0.0021696326284819946 -0.003693749895319343
0.0019496420792629915 -0.0025877110755591925 -0.0035464649554342036
0.0017974740087550387 -0.003005789413241771 -0.0034636629279702906
0.0016453058187979306 -0.0034238680791082066 -0.0032421245705336337
0.0014931377084735928 -0.0038419465261854044 -0.0031593220774084334
0.001340969598149255 -0.004260024973262602 -0.002471199026331306
0.005563251201498749 0.0060397691872891915 -0.002087989822030068
0.005411083011541641 0.005621690521422756 -0.002699124393984676
0.005258915140115614 0.005203612730713272 -0.003066917881369591
0.005106746950158505 0.004785534064846836 -0.00365095678716898
0.004954578760201398 0.004367455398980401 -0.003910080064088106
0.00480241072950983 0.003949377170692441 -0.004057363606989384
0.004650242539552722 0.003531298504826005 -0.004086304921656847
0.004498074349595614 0.0031132198389595698 -0.004169108811765909
0.0043459063189040465 0.00269514161067161 -0.004224644973874092
0.004193738128946938 0.0022770629448051745 -0.004253586754202843
0.0040415700186226 0.0018589844977279766 -0.0043091238476336
0.003889401908298263 0.001440906050650779 -0.004391925875097513
0.0037372337183411547 0.0010228273847843435 -0.004340170882642269
0.003585065608016817 0.0006047489377071458 -0.004342692904174328
0.003432897457876094 0.0001866703812353292 -0.00415082136169076
0.0032807293077353715 -0.0002314081752364874 -0.0041266074404120445
0.003128561177502841 -0.0006494866770109946 -0.004046011716127396
0.0029763930590908 -0.0010675651463089742 -0.004128813743591309
0.0028242249269918767 -0.0014856436532113542 -0.003854933893308044
0.0026720567868052498 -0.001903722182334516 -0.003703825175762177
0.002519888636664527 -0.0023218007388063327 -0.00378662720322609
0.002367720526340189 -0.00273987918588353 -0.0037060312461107974
0.0022155524558322365 -0.003157957523566109 -0.0036254355218261485
0.0020633842658751285 -0.0035760361894325446 -0.0033924605231732134
0.0019112161555507907 -0.0039941146365097425 -0.0033682466018944983
0.0017590480452264528 -0.00441219308358694 -0.00285094790160656
0.001606879855269345 -0.004830271749453376 -0.002879889449104667
0.0058291614586188385 0.005469522411098418 -0.002318721963092685
0.005676993587192812 0.005051444620388933 -0.002836020197719336
0.005524825397235703 0.004633365954522498 -0.0032667429186403756
0.005372657207278596 0.0042152872886560624 -0.003672346938401461
0.005220489176587028 0.003797209060368103 -0.003986392635852099
0.0050683209866299195 0.0033791303945016676 -0.004038148093968631
0.004916152796672812 0.002961051728635232 -0.004118744283914567
0.004763984765981244 0.002542973500347272 -0.004089803900569678
0.004611816576024136 0.0021248948344808364 -0.004141559824347497
0.004459648465699798 0.0017068163874036388 -0.004292667843401433
0.004307480355375461 0.0012887379403264411 -0.0041453829035162934
0.004155312165418353 0.0008706592744600057 -0.00422597909346223
0.004003144055094015 0.00045258082738280794 -0.0040786946192383775
0.003850975904953292 3.450227091099136e-05 -0.004049753304570914
0.0036988077548125694 -0.0003835762855608252 -0.003865596372634173
0.003546639624580039 -0.0008016547873353324 -0.003681440139189363
0.0033944715061679977 -0.001219733256633312 -0.003914415370672942
0.0032423033740690745 -0.001637811763535692 -0.003911893349140883
0.0030901352338824476 -0.0020558902926588536 -0.0038563560228794817
0.002937967083741725 -0.0024739688491306703 -0.003773553296923638
0.002785798973417387 -0.002892047296207868 -0.0036907508037984376
0.0026336309029094344 -0.0033101256338904468 -0.0036352139431983237
0.0024814627129523263 -0.0037282042997568822 -0.0034879290033131842
0.0023292946026279887 -0.00414628274683408 -0.003432390978559852
0.0021771264923036507 -0.004564361193911278 -0.003349588951095939
0.0020249583023465426 -0.004982439859777713 -0.0032023040112107997
0.0018727902716549753 -0.005400518088065674 -0.0028345105238258843
0.006247240124485275 0.00531735422114131 -0.0026328763924539094
0.006095072253059247 0.004899276430431826 -0.0026618179399520163
0.0059429040631021396 0.00448119776456539 -0.0033743544481694703
0.00579073587314503 0.004063119098698955 -0.0036334777250885968
0.005638567842453463 0.0036450408704109954 -0.004001270979642869
0.005486399652496355 0.00322696220454456 -0.004056809470057488
0.0053342314625392465 0.0028088835386781245 -0.004112346563488246
0.005182063431847679 0.0023908053103901643 -0.004195148590952159
0.005029895241890571 0.001972726644523729 -0.0042240903712809095
0.004877727131566234 0.0015546481974465312 -0.004279627464711667
0.004725559021241896 0.0011365697503693335 -0.0042554144747555265
0.004573390831284788 0.0007184910845028981 -0.004231200553476811
0.00442122272096045 0.00030041263742570034 -0.004378485959023238
0.004269054570819727 -0.00011766591904611625 -0.0041455100290477285
0.004116886420679004 -0.0005357444755179329 -0.0040649143047630796
0.003964718290446474 -0.00095382297729244 -0.004013158380985261
0.0038125501720344328 -0.0013719014465904196 -0.004068695940077306
0.0036603820399355095 -0.0017899799534927996 -0.003988099284470082
0.0035082138997488826 -0.0022080584826159612 -0.003990621306002141
0.00335604574960816 -0.002626137039087778 -0.003910024650394917
0.003203877639283822 -0.0030442154861649758 -0.003858269657939673
0.0030517095687758694 -0.0034622938238475544 -0.003666398581117392
0.0028995413788187622 -0.0038803724897139903 -0.002497782930731774
0.0027473732684944246 -0.0042984509367911886 -0.003527296474203468
0.0025952051581700866 -0.0047165293838683855 -0.0035030825529247527
0.0024430369682129785 -0.005134608049734821 -0.00342248659580946
0.002290868937521411 -0.005552686278022781 -0.0031084406655281786
0.0021387007475643033 -0.005970764943889217 -0.002460291609168053
0.006513150481347207 0.004747108399740258 -0.0023847662378102545
0.006360982291390099 0.004329029733873823 -0.0029867761768400673
0.006208814101432991 0.003910951068007387 -0.0034839606378227477
0.006056646070741423 0.0034928728397194274 -0.003938134759664536
0.005904477880784314 0.003074794173852992 -0.004018730483949185
0.005752309690827207 0.0026567155079865565 -0.003935928456485272
0.005600141660135639 0.0022386372796985967 -0.00424997415393591
0.005447973470178531 0.0018205586138321612 -0.004221032839268447
0.005295805359854193 0.0014024801667549634 -0.004165494348853827
0.0051436372495298555 0.0009844017196777657 -0.004162974189966918
0.004991469059572748 0.0005663230538113303 -0.004243570379912854
0.004839300949248409 0.0001482446067341325 -0.0037472120020538573
0.004687132799107687 -0.0002698339497376841 -0.004096460063010455
0.004534964648966964 -0.0006879125062095007 -0.004067519679665566
0.0043827965187344334 -0.0011059910079840077 -0.004064997658133508
0.004230628400322393 -0.0015240694772819874 -0.004009460099041463
0.004078460268223469 -0.0019421479841843674 -0.003862175857648254
0.003926292128036843 -0.0023602265133075293 -0.003913931082934142
0.0037741239778961207 -0.002778305069779346 -0.0032013948075473313
0.003621955867571782 -0.0031963835168565434 -0.0037804511375725274
0.0034697877970638292 -0.0036144618545391224 -0.0036976491101086144
0.003317619607106721 -0.0040325405204055574 -0.0036951270885765557
0.0031654514967823844 -0.004450618967482756 -0.0033273336011916403
0.0030132833864580455 -0.004868697414559953 -0.0035603085998445754
0.0028611151965009384 -0.005286776080426389 -0.003338770475238562
0.0027089471658093708 -0.005704854308714349 -0.0028734034858644013
0.002556778975852263 -0.006122932974580784 -0.0018573850393295295
0.006931229147213643 0.00459494020978315 -0.0021500065922737126
0.006779060957256534 0.004176861543916714 -0.0030647281091660265
0.006626892767299427 0.003758782878050279 -0.0035300950985401873
0.006474724736607858 0.00334070464976232 -0.0039311954751610765
0.00632255654665075 0.0029226259838958843 -0.004013997502624989
0.006170388356693642 0.002504547318029449 -0.004096800461411477
0.006018220326002075 0.0020864690897414886 -0.004152338020503522
0.005866052136044966 0.0016683904238750534 -0.004071741364896298
0.0057138840257206286 0.0012503119767978555 -0.004047527443617583
0.005561715915396291 0.0008322335297206579 -0.00419481284916401
0.005409547725439183 0.0004141548638542224 -0.0041705998592078694
0.005257379615114845 -3.923583222975309e-06 -0.0041731209494173535
0.005105211464974123 -0.0004220021396947919 -0.004175642039626838
0.0049530433148334 -0.0008400806961666085 -0.004178163129836322
0.004800875184600869 -0.0012581591979411156 -0.0040975669398903855
0.004648707066188828 -0.0016762376672390953 -0.004073353484272958
0.004496538934089906 -0.0020943161741414757 -0.00290473853237927
0.004344370793903278 -0.002512394703264637 -0.00395328737795353
0.004192202643762555 -0.0029304732597364535 -0.0039822286926209935
0.004040034533438218 -0.0033485517068136514 -0.0039016322698444132
0.0038878664629302647 -0.00376663004449623 -0.0037505235522985463
0.0037356982729731566 -0.004184708710362666 -0.0036699275951832537
0.003583530162648819 -0.004602787157439864 -0.0036457136739045386
0.003431362052324481 -0.005020865604517061 -0.0036214997526258235
0.003279193862367374 -0.005438944270383497 -0.0031673260964453225
0.003127025831675806 -0.005857022498671457 -0.00289344578050077
0.0029748576417186986 -0.006275101164537893 -0.002314388751983643
0.0028226894517615906 -0.006693179830404328 -0.0023433300666511063
0.002670521421070023 -0.007111258058692288 -0.0007704384624958045
0.007197139185544495 0.004024693513225147 -0.002064734464511276
0.007044970995587387 0.0036066148473587116 -0.003093626582995058
0.006892802964895819 0.0031885366190707518 -0.0035698621068149814
0.00674063477493871 0.0027704579532043163 -0.00394840119406581
0.0065884665849816025 0.002352379287337881 -0.003972614184021951
0.006436298554290035 0.001934301059049921 -0.003943673335015775
0.006284130364332926 0.0015162223931834856 -0.0042577194981277
0.006131962254008589 0.0010981439461062877 -0.0035451818257570275
0.005979794143684251 0.0006800654990290901 -0.003696291008964182
0.005827625953727144 0.00026198683316265456 -0.004045539069920779
0.005675457843402805 -0.00015609161391454314 -0.004126135725528003
0.005523289693262083 -0.0005741701703863597 -0.004123613703995944
0.00537112154312136 -0.0009922487268581763 -0.004147827625274659
0.005218953412888829 -0.0014103272286326834 -0.004000542219728232
0.005066785294476788 -0.001828405697930663 -0.003945005591958762
0.004914617162377865 -0.002246484204833043 -0.004136876203119756
0.004762449022191239 -0.002664562733956205 -0.004081339109688998
0.004610280872050516 -0.0030826412904280216 -0.003934054635465146
0.004458112761726179 -0.0035007197375052194 -0.003532953094691039
0.004305944691218226 -0.003918798075187798 -0.003273829584941269
0.004153776501261118 -0.0043368767410542335 -0.003506805747747422
0.00400160839093678 -0.004754955188131431 -0.0033595210406929263
0.003849440280612442 -0.005173033635208629 -0.003212236100807787
0.003697272090655334 -0.005591112301075065 -0.0028444426134228715
0.0035451040599637665 -0.006009190529363025 -0.0022069658152759084
0.003392935870006659 -0.00642726919522946 -0.0010603361297398812
0.003240767680049551 -0.006845347861095896 -0.00011155546235386349
0.0074630496614538225 0.0034544466574016035 -0.0028635975904762754
0.007310881630762255 0.0030363684291136437 -0.003231391543522478
0.0071587134408051456 0.0026182897632472087 -0.003894512541592122
0.007006545250848038 0.0022002110973807732 -0.0040417974814772615
0.00685437722015647 0.0017821328690928132 -0.0039612022228539
0.006702209030199362 0.0013640542032263777 -0.0038806055672466764
0.006550040919875024 0.0009459757561491799 -0.0038000091444700965
0.006397872809550687 0.0005278973090719822 -0.0038555464707314977
0.006245704619593579 0.00010981864320554676 -0.0038844880182296046
0.006093536509269241 -0.00030825980387165096 -0.0038602740969508895
0.005941368359128518 -0.0007263383603434675 -0.0038627961184829482
0.005789200208987795 -0.0011444169168152842 -0.003918333444744349
0.005637032078755265 -0.0015624954185897912 -0.0039208545349538335
0.005484863960343224 -0.001980573887887771 -0.0040036565624177465
0.0053326958282443005 -0.002398652394790151 -0.003811785951256753
0.005180527688057674 -0.0028167309239133125 -0.003660677932202817
0.005028359537916952 -0.0032348094803851296 -0.003386797383427621
0.004876191427592614 -0.0036528879274623275 -0.003194925608113409
0.004724023357084661 -0.0040709662651449065 -0.0031974476296454677
0.004571855167127554 -0.004489044931011342 -0.0032802496571093806
0.004419687056803215 -0.00490712337808854 -0.00270119239576161
0.004267518946478878 -0.005325201825165737 -0.0024682169314473876
0.00411535075652177 -0.005743280491032172 -0.0021189693361520776
0.003963182725830202 -0.0061613587193201326 -0.003076726337894798
0.0038110145358730943 -0.006579437385186568 -0.0007180299144238241
0.00772896029662869 0.0028842002391565357 -0.0028996337205171594
0.007576792106671582 0.0024661215732901002 -0.003050741972401739
0.007424623916714474 0.0020480429074236648 -0.0034563459921628245
0.007272455886022906 0.0016299646791357052 -0.0038348848465830096
0.007120287696065798 0.0012118860132692693 -0.0034337835386395463
0.006968119585741461 0.0007938075661920714 -0.0034048419911414394
0.006815951475417122 0.00037572911911487415 -0.00383556541055441
0.006663783285460015 -4.234954675156171e-05 -0.0033701988868415364
0.006511615175135677 -0.00046042799382875943 -0.003222913946956397
0.006359447024994955 -0.000878506550300576 -0.003274669637903572
0.006207278874854232 -0.0012965851067723926 -0.0030531310476362714
0.006055110744621701 -0.0017146636085468997 -0.002868975047022105
0.00590294262620966 -0.0021327420778448794 -0.0032475132029503593
0.005750774494110737 -0.0025508205847472594 -0.0030085928738117227
0.00559860635392411 -0.002968899113870421 -0.0034393153619021186
0.005446438203783387 -0.0033869776703422377 -0.0029680440202355394
0.00529427009345905 -0.0038050561174194355 -0.002807108452543617
0.005142102022951097 -0.004223134455102014 -0.0028940571937710055
0.004989933832993989 -0.00464121312096845 -0.0026231256779283294
0.004837765722669651 -0.0050592915680456475 -0.0006955458666197963
0.004685597612345313 -0.005477370015122845 -0.0003363185678608723
0.007842702145002434 0.001895874876732097 -0.0029977194499224433
0.007690534114310866 0.0014777966484441371 -0.003256843192502857
0.007538365924353758 0.0010597179825777017 -0.0033396449871361264
0.00738619781402942 0.0006416395355005038 -0.0035238023847341546
0.0072340297037050815 0.00022356108842330657 -0.003552743699401618
0.007081861513747975 -0.00019451757744312932 -0.0030985688790678987
0.006929693403423636 -0.000612596024520327 -0.002784523181617261
0.006777525253282914 -0.0010306745809921436 -0.002633414929732681
0.006625357103142191 -0.0014487531374639602 -0.002136230468750001
0.00647318897290966 -0.0018668316392384673 -0.0024871195200830707
0.0063210208544976195 -0.002284910108536447 -0.002066107466816903
