ply
format ascii 1.0
element vertex 775
property float x
property float y
property float z
end_header
0.05368749044248102 -0.016238161870111612 0.08957313920997534
0.05373949463155349 -0.01571829478855862 0.08999083207022979
0.05378492777214419 -0.01520967267395166 0.09060731422134195
0.05382951216843365 -0.014702503006642824 0.09124947283462494
0.053900207017813284 -0.01415065079243755 0.09110173034336164
0.05229171486036097 -0.023234326593010952 0.0894953406694601
0.052577260509657095 -0.020591311208366807 0.0908116232736492
0.05270201134191605 -0.01951608069919986 0.09101950217307433
0.052768835835638336 -0.018970851967966093 0.09098884597096535
0.05289468830829623 -0.018324609270108174 0.08917245799318223
0.05295344879561363 -0.017793180022039362 0.08938575818052374
0.05302027328933592 -0.0172479512908056 0.08935510197841474
0.05308826627401854 -0.016700722749564367 0.08928909709243663
0.05315182137568506 -0.01616108871138683 0.08935734834840126
0.05321753005581041 -0.015617769276783981 0.0893604489155793
0.053274796650010434 -0.015088896696050706 0.08961894194852796
0.053296015672320785 -0.014621711950296813 0.09096795672591121
0.05152210711714455 -0.024850208635831397 0.09038391564481169
0.05168515579023196 -0.023709439062694446 0.08943319869868938
0.05172456046804916 -0.023211133944480822 0.09023205313351149
0.051818156354110335 -0.022620091240733945 0.08939150259486232
0.051864483285754465 -0.022109939407214077 0.08998094636446329
0.05190825279113988 -0.02160416407066058 0.0906477581452429
0.05199054837008837 -0.02103246019928816 0.09014906442716256
0.0520553781426745 -0.020490645013595113 0.09017875311540369
0.05212020793830011 -0.019948829788474814 0.0902084411066472
0.052225745713356996 -0.019337351054252334 0.08900662103064073
0.052273022754007054 -0.018825573676221424 0.08956732012671446
0.05235908580260327 -0.018247422206059884 0.08895465350554825
0.0524160398629028 -0.01771908427776488 0.08922260225420606
0.052488228550244535 -0.017164675857762997 0.08902966688940442
0.05255305838880746 -0.0166228603755884 0.08905935442994847
0.05261568918430676 -0.01608480809294459 0.08915556806787198
0.0526815893610403 -0.015541160952187173 0.08915287542335011
0.05273359355011277 -0.015021293870634179 0.08957056828360455
0.05275097955296674 -0.014560668531223142 0.09103554069266441
0.05105580185767906 -0.024223562571332034 0.09006067820077789
0.05112379488529897 -0.023676333773036507 0.08999467286410029
0.051207816971094756 -0.023101675348447228 0.08944374835320397
0.05127137213873807 -0.022562041013788142 0.08951199846147151
0.05134882329404247 -0.021998626619924633 0.08915986306496275
0.05141237843096646 -0.021458992337835214 0.08922811410256042
0.051471138823332985 -0.020927563986559424 0.08944141376937452
0.051528405382275544 -0.020398691649738027 0.08969990702069014
0.051600906608055906 -0.019843748385955658 0.08949751665114257
0.051690024541578096 -0.019260368755830384 0.08879243444942489
0.05175465004599559 -0.018718903132130486 0.08882830271836763
0.051822642980061076 -0.01817167486108597 0.08876229851542151
0.05188726852427418 -0.017630208802131977 0.0887981672769605
0.05195297716914206 -0.01708688961144101 0.08880126806250549
0.05201760267041786 -0.01654542380954132 0.08883713727474393
0.05208008024559111 -0.016007633731248413 0.08893798617902499
0.052138840705330876 -0.015476204713949065 0.08915128635240091
0.05220021363652444 -0.014940305001413336 0.0892855532711709
0.05223706217654943 -0.0144463736244983 0.09016173928286081
0.05036725721641912 -0.025269850827124817 0.0904878760925179
0.050490351645779745 -0.024197455270168033 0.09074586328297646
0.05059756097848674 -0.023583116016718506 0.08949347475342465
0.05067718960909392 -0.02301597606631367 0.0890754623407701
0.05074201945987481 -0.022474160379654443 0.08910515035994479
0.05080899722139859 -0.021928668995673258 0.08906985915174197
0.05087707960386256 -0.021381287285362153 0.08900115062604777
0.05093403358457088 -0.020852950227575336 0.0892690983895131
0.05099993377212596 -0.0203093032518753 0.08926640456936298
0.051083515605275215 -0.019735397859910325 0.08872880040748835
0.051151597987739175 -0.01918801614959922 0.08866009188179415
0.05121968033040754 -0.018640634874542206 0.08859138286350372
0.05128665807517521 -0.018095143886387867 0.08855609046570706
0.05134812041950979 -0.01755909097849743 0.08868765328009594
0.051412950215135415 -0.01701727575337713 0.08871734127133946
0.05147669686716896 -0.016477313917048104 0.08877979768927644
0.05154044351152266 -0.015937352093861493 0.08884225433954594
0.051599049061373366 -0.015406188172244676 0.08906024089243657
0.051649627005825885 -0.014888761808280774 0.08952108092431438
0.05169495970189529 -0.014380311583338771 0.09014060175262019
0.04989884333460127 -0.024646812266850466 0.0902283979338162
0.04998102161075044 -0.024075308400234335 0.08973325628752259
0.050075823311056714 -0.023482202199106975 0.08885622710176651
0.05013830082653655 -0.02294441277369521 0.08895707526715319
0.05021080209211252 -0.022389469074658743 0.08875468539020184
0.0502765107998155 -0.02184614940928643 0.0887577859713455
0.050341136320989105 -0.021304683389759695 0.08879365542988205
0.05040576177025133 -0.020763218227598725 0.08882952367089361
0.05046302832151406 -0.020234345903919745 0.08908801715454176
0.05054705047014495 -0.019659687004649127 0.08853709243924408
0.0506138750190225 -0.019114457811876436 0.08850643626506625
0.05069503554709339 -0.018544695974117176 0.08804208213639654
0.05074774626848184 -0.01802361999473397 0.08843839992502282
0.05081457082503923 -0.01747839078881886 0.08840774351851248
0.05085918864709877 -0.016971164103913364 0.08904889007731794
0.05093501248756635 -0.01641053470058665 0.08874598383950486
0.05099963800420182 -0.015869068872402123 0.08878185258707824
0.0510621155640154 -0.015331278820394053 0.08888270195602435
0.05109421322947558 -0.014845477565725771 0.08990261282202236
0.049297454262022596 -0.0251130773734798 0.09000985167693797
0.04935891649604663 -0.024577025388667215 0.0901414144354645
0.04945717699680082 -0.02397800017829533 0.08915974860151317
0.04950918121345092 -0.023458132865972876 0.08957744147573322
0.0496037444061051 -0.022865435554815294 0.08870762430059119
0.04966964464881544 -0.02232178811757633 0.08870493050837223
0.04974334787720081 -0.021764787512081232 0.08846617849907908
0.04980481023689505 -0.021228734577905965 0.08859774084880287
0.04987071036929485 -0.020685088063744854 0.08859504700072157
0.04993445697839109 -0.020145126484470123 0.08865750386935803
0.05001408565647371 -0.01957798608566878 0.08823949171696718
0.050077832336084885 -0.019038024018570292 0.08830194814886974
0.050144810065492894 -0.018492533056700785 0.08826665621573815
0.05020176406295733 -0.017964195603087124 0.0885346051687973
0.05026984649918012 -0.017416813800779102 0.08846589501677539
0.05034054132866195 -0.016864961804200874 0.08831815227921397
0.05039417280499359 -0.016342309962880552 0.08868661596680714
0.05044475076480578 -0.015824883572631815 0.08914745553401988
0.050521495371038075 -0.015262678472425364 0.08881669401954545
0.05056877238550695 -0.01475090095562191 0.08937739475591247
0.050598333886322996 -0.014269439813140007 0.0904740304204727
0.04873661245478847 -0.025079082910533346 0.09055560795357802
0.048824800365555615 -0.02449729555298367 0.08987865768070567
0.04891127862565945 -0.0239184331685339 0.08925343165542433
0.048976987325682605 -0.023375113516304013 0.08925653246890052
0.049061858178819126 -0.022799002604989363 0.0886799307988358
0.04913270796566546 -0.022246885064332096 0.08852750194202336
0.0491973334714794 -0.021705419071090186 0.088563371865225
0.0492681832736854 -0.021153301504148087 0.08841094254374751
0.04934068448270965 -0.02059835863619256 0.0882085509846061
0.04940750895339245 -0.020053129944386044 0.08817789547949471
0.04947321760594016 -0.019509810740552663 0.08818099603270717
0.04954004214713789 -0.01896458156092239 0.08815034009086188
0.049602519664014175 -0.018426791765968613 0.08825118991050747
0.049669344165416296 -0.01788156302159243 0.08822053347606594
0.04972810464505387 -0.017350133786666035 0.08843383389573999
0.04979381329760158 -0.01680681458283265 0.08843693444895245
0.049851079884121775 -0.016277942015241794 0.08869542771423365
0.049909840336181704 -0.01574651301108486 0.08890872811994212
0.0499712132980946 -0.015210613245979466 0.08904299410938199
0.05001583115541161 -0.014703386317162087 0.0896841404498205
0.05005267969927651 -0.014209454933675845 0.09056032634534414
0.04815127228256957 -0.025517885281939552 0.08985155624344549
0.04820656104044206 -0.024992397168373384 0.09016988421080084
0.04829604850932229 -0.024408385890536635 0.08945361932376261
0.04837279314313222 -0.023846180559560722 0.08912285782325376
0.04844801909018574 -0.023286574141440898 0.08883804008106294
0.04852476361368514 -0.022724369733542832 0.08850727852469174
0.048589593449106364 -0.02218255407316844 0.08853696700853149
0.0486632966928514 -0.02162555344138851 0.08829821453457326
0.04872919691252225 -0.0210819060435768 0.08829552143935192
0.04879727920771517 -0.020534525216916295 0.08822681216079778
0.04886425694480301 -0.019989034241904374 0.08819151999533364
0.04894100148505852 -0.019426829438179468 0.08786075962855629
0.04899463299664763 -0.018904177352947266 0.08822922309778251
0.04907692859619214 -0.018332473079176792 0.08773053045312974
0.04912750656682586 -0.01781504685398544 0.08819136884471424
0.049186112090495365 -0.01728388279359607 0.08840935703789819
0.049250941901480653 -0.01674206754219094 0.08843904456447665
0.04931357269697995 -0.01620401525954713 0.08853525820240016
0.04936886143495465 -0.01567852736360801 0.08885358592345739
0.049424150180609173 -0.015153039454526474 0.08917191341218209
0.049467127249522534 -0.014648620389844574 0.08986269736587416
0.0495282455405301 -0.014113156440411596 0.09000466773442697
0.049568582947544855 -0.013613254601691575 0.09077530751605659
0.04761143093206362 -0.025447952108947413 0.08976198653550735
0.04766566029936585 -0.024924276919449394 0.09011236349790341
0.04775134607098406 -0.024346771446609947 0.08951110867430767
0.04783782433876772 -0.023767909049017762 0.0888858824166938
0.04790030194919844 -0.023230118726812982 0.0889867311026079
0.04798598770161707 -0.022652613286829576 0.08838547685984346
0.04805281225049463 -0.022107384094056885 0.08835482068566564
0.048119636799372194 -0.02156215490128419 0.08832416451148782
0.04819048658621852 -0.021010037360626926 0.0881717356546754
0.04825847949584807 -0.020462809498551664 0.08810573049446797
0.048322034585296623 -0.019923175664858756 0.08817398127180195
0.04839288431698768 -0.019371058585740415 0.08802155238705836
0.04845750987656045 -0.018829592500501594 0.08805742068393226
0.04851888275713689 -0.018293693058162575 0.08819168828573427
0.04857764320465868 -0.01776226424534786 0.08840498798047955
0.04863901617110971 -0.01722636428890025 0.08853925468088261
0.04870038910544497 -0.016690464754564316 0.08867352065635689
0.0487728903434433 -0.016135521286297316 0.08847113076543997
0.04880408520626556 -0.015651264988396658 0.08951835348230565
0.048868710738260684 -0.015109799133927298 0.08955422176521396
0.04891332859557769 -0.014602572205109922 0.09019536810565247
0.046996932054759855 -0.02593665346919516 0.0899400525455896
0.0470676269278772 -0.025384801030791628 0.08979231018445814
0.047148605107416114 -0.02481535087702692 0.08933347421370093
0.04721558276630919 -0.024269860402981173 0.08929818271730323
0.047301645870060666 -0.023691708471280708 0.08868551612406819
0.04737234075469776 -0.023139856013163554 0.08853777341443796
0.04744303552902432 -0.02258800447812425 0.08839003064894535
0.04750893577173466 -0.022044357040885285 0.0883873368567264
0.04757963064101209 -0.021492504609052963 0.08823959461176122
0.04764771303883572 -0.020945122872457023 0.08817088562140196
0.047728691108064096 -0.02037567364177017 0.0877120495947824
0.047775968117994824 -0.01986389631630893 0.08827274962018626
0.047842945809003674 -0.019318405420151508 0.08823745884871732
0.04791664906042854 -0.018761404775229168 0.08799870614242655
0.04797525459038143 -0.018230241071239394 0.08821669244901907
0.04804115477793651 -0.017686594095539358 0.08821399862886894
0.04810490144218802 -0.017146632054725698 0.08827645552543659
0.04816973119941448 -0.01660481689531748 0.08830614467834276
0.048221735388486946 -0.01608494981376449 0.08872383753859722
0.048260203482180394 -0.015588246911495506 0.08955102833648616
0.048315492235514755 -0.015062758989271554 0.08986935559287833
0.0484015553116886 -0.01448460728834055 0.0892566889856777
0.04845094659923668 -0.013969211637999258 0.08975342811115991
0.04653078427525067 -0.02530973621729663 0.089612022986518
0.04660660814329588 -0.02474910658320045 0.08930911676267049
0.046669085605016904 -0.0242113172497856 0.08940996655438492
0.04675727362609459 -0.023629528969158077 0.0887330163373749
0.046828123412940924 -0.02307741142850081 0.08858058748056248
0.0469039471706756 -0.022516782717482486 0.08827768120085264
0.04697194017525602 -0.021969553958614205 0.08821167656117263
0.04704278997746202 -0.021417436391672103 0.08805924723969515
0.04709854210567148 -0.020891155317266062 0.08836355719136464
0.04717436584036666 -0.020330526645674987 0.0880606516086524
0.047240074492914376 -0.019787207441841603 0.08806375216186486
0.04731092422460544 -0.019235090362723264 0.08791132327712127
0.04737663293230843 -0.018691770697350955 0.0879144238582649
0.0474264595235496 -0.018175630299901768 0.08839799320017214
0.04749730925524066 -0.017623513220783427 0.08824556431542854
0.04755868224473119 -0.01708761322490857 0.08837983031883401
0.04761744267689332 -0.016556184438378682 0.08859313047824434
0.0476659198724506 -0.016042353064157223 0.08911752298341709
0.047720149208335276 -0.015518678111999877 0.08946790004801385
0.04775409327433831 -0.015029717131280084 0.09043195306186351
0.04779748549960403 -0.014524587613848882 0.09111017758350927
0.045925536473523695 -0.02578260630809552 0.08951022273801375
0.04598928317617436 -0.02524264420156978 0.0895726784729187
0.04606298638920007 -0.024685643622359518 0.08933392692829059
0.04614261500444758 -0.024118503698239514 0.08891591498030112
0.04621784100525993 -0.023558897188122777 0.08863109561178256
0.04629154425668479 -0.023001896543200437 0.0883923429054918
0.046359626528838224 -0.02245451575596718 0.08832363432393527
0.04642770895738118 -0.02190713396680157 0.08825492440424587
0.04649579133984515 -0.021359752256490463 0.08818621587855169
0.04656276910904876 -0.020814260859366867 0.08815092443801632
0.046629746790981336 -0.02026877034589387 0.08811563224462102
0.04669782912596986 -0.019721389083979274 0.08804692345866312
0.0467604598862117 -0.019183337045247346 0.08814313731495357
0.04680875467494004 -0.018669817638359565 0.08867304889340338
0.04689359210684462 -0.01809376355329936 0.08809745998877938
0.04695733871594087 -0.017553801974024633 0.08815991685741582
0.0470199695620573 -0.017015749421184105 0.08825612981230732
0.04708260032997896 -0.01647769736930976 0.08835234343626523
0.04714634696665285 -0.015937735559265566 0.08841480031886727
0.047173779994380514 -0.015459916850649544 0.08957582717716506
0.04720121298754894 -0.0149820982011744 0.09073685508095924
0.047268190725335 -0.01443660704139147 0.09070156374262454
0.04544664066141417 -0.025177505055238365 0.08956785740594318
0.045524091816718563 -0.024614090661374852 0.08921572200943441
0.045599915559093575 -0.02405346197664136 0.08891281619438964
0.045666740107971136 -0.02350823278386867 0.0888821600202118
0.04574419126327554 -0.022944818390005162 0.08853002462370303
0.04582001501333038 -0.022384189692129252 0.08822711857632572
0.045878775500647784 -0.02185276044406044 0.08844041876366723
0.04594962528749411 -0.02130064290340317 0.08828798990685481
0.04602047509737994 -0.020748525323318653 0.08813556035304479
0.046091324766235904 -0.020196408718881655 0.08798313167270254
0.046158149267638025 -0.019651179974505474 0.08795247523826102
0.046216909699800156 -0.01911975118797559 0.08816577539767136
0.04628775948664649 -0.018567633647318324 0.08801334654085893
0.046350237034242105 -0.01802984379979488 0.0881141954311744
0.04642108678129283 -0.017477726694391706 0.08796176608176573
0.046465704650827805 -0.0169704995610897 0.08860291290083491
0.04652145677764082 -0.01644421885622567 0.08890722119824551
0.04657720887059282 -0.01591793802573151 0.08921153136828196
0.04661507033436522 -0.01542227324293915 0.09005707411291952
0.0467041882479896 -0.014838893830440925 0.08935199166490375
0.04490523716465225 -0.025110245590288873 0.08952555320215613
0.044986215313471835 -0.02454079548909383 0.08906671816072906
0.045059918454586165 -0.02398379576724934 0.08882796539857594
0.04513514440163969 -0.023424189349129515 0.08854314765638513
0.04520322683786248 -0.022876807546821493 0.08847443750436322
0.04527020447371606 -0.022331317112202997 0.08843914670496311
0.04534239323157273 -0.021776908204377353 0.08824621090342757
0.04540937100077634 -0.021231416807253753 0.08821091946289222
0.04548155974327334 -0.020677007925712945 0.08801798412602177
0.04554530631257398 -0.020137046781692307 0.08808044050206197
0.04561228404198199 -0.019591555819822803 0.08804514856893039
0.04567711381456811 -0.019049740634129755 0.08807483725717151
0.045745196235431246 -0.018502358858106565 0.08800612756981464
0.045803801734664806 -0.017971195206686455 0.0882241148057373
0.04587188410037267 -0.017423813892202194 0.08815540509044927
0.04593048964708167 -0.016892649792385576 0.08837339258663564
0.045987443682945266 -0.016364312273059834 0.08864134037803212
0.04603802167347678 -0.015846885830241436 0.08910217901591473
0.046069669823016725 -0.015361853827493723 0.09013568876970984
0.04433720514168975 -0.025088555668759956 0.09028882999926197
0.04443922746601877 -0.024483092888817056 0.08919336037237732
0.044516678511012625 -0.0239196794180314 0.0888412249200062
0.04458917983034742 -0.02336473562699802 0.08863883341672714
0.04466002961719375 -0.022812618086340757 0.08848640455991472
0.04473087929372954 -0.02226050146876134 0.08833397564723995
0.04480172908057588 -0.02170838392810407 0.08818154679042751
0.04486972210819579 -0.02116115512980854 0.08811554145374992
0.044937715135815716 -0.020613926331513016 0.08804953611707231
0.04500342371016866 -0.020070607628645806 0.0880526373393512
0.04507592494362886 -0.01951566435172102 0.0878502467374711
0.04513948001771774 -0.018976030544312943 0.08791849797947014
0.04520085299952844 -0.018440130561580503 0.08805276421520813
0.04526440808897699 -0.017900496727887592 0.08812101499254212
0.04532016018507068 -0.017374216075593227 0.08842532421928284
0.04537591231328014 -0.016847935001187187 0.08872963417095235
0.04541080432711465 -0.016357351990775582 0.08966500874001213
0.045465033678358996 -0.015833677012333406 0.09001538533994381
0.043737804636243556 -0.025551418707134076 0.09001012512989
0.043808499513200816 -0.024999566262159337 0.08986238265259228
0.04389688934874084 -0.024417432618540718 0.08917932708512481
0.043979184893130095 -0.023845728806309176 0.08868063441254088
0.04404987977776719 -0.023293876348192022 0.08853289170291062
0.04411796219863032 -0.022746494572168832 0.08846418201555378
0.04418865697295687 -0.022194643037129532 0.08831643925006118
0.04426540156836765 -0.021632437771865697 0.08798567891121498
0.04432686391270223 -0.02109638486397526 0.08811724172560385
0.044389494758818655 -0.020558332311134735 0.08821345468049534
0.04446168339100512 -0.020003924352671777 0.08802051928776254
0.044527583547840865 -0.019460277429541407 0.08801782639694256
0.04459566591354872 -0.018912896115057143 0.08794911668165453
0.04465427148329722 -0.01838173197581328 0.08816710348084328
0.044720171640132964 -0.017838085052682907 0.08816441059002329
0.04478280240805463 -0.017300033000808557 0.0882606242139812
0.044841407993162795 -0.01676886883527986 0.08847861054850491
0.04489341215465762 -0.016249001984496327 0.08889630339479376
0.04492806579872821 -0.01575882671020719 0.08983889004429554
0.044953332453397124 -0.015284715293282305 0.09106545465737918
0.04326312229094253 -0.02493910699233598 0.08994029276097754
0.0433479932313501 -0.024362995197370726 0.08936369184377276
0.043429153727305214 -0.023793233781723145 0.08889933699017427
0.04350497759535043 -0.02323260414762697 0.08859643076632677
0.04357582738219676 -0.022680486606969703 0.08844400190951435
0.04363830488231694 -0.02214269720784277 0.0885448505395661
0.04371718225152194 -0.021576842148959833 0.08814956890076409
0.04378803207676744 -0.021024724542590485 0.08799713888228901
0.043845298698545095 -0.020495851731087745 0.08825563192920326
0.04392645918682038 -0.019926090328582582 0.08779127730793729
0.04399216783936809 -0.019382771124749197 0.08779437786114977
0.044040644961268735 -0.0188689400601517 0.08831877174635212
0.04411149478651423 -0.018316822453782352 0.08816634172787703
0.044167246859568424 -0.017790541840915233 0.08847065165161537
0.04423187232558676 -0.017249076282927423 0.08850652108222076
0.04428913893200476 -0.016720203497709515 0.08876501459380008
0.0443259874674916 -0.016226272312136695 0.0896411998945268
0.044357182318794104 -0.015742016033949664 0.09068842295989128
0.0426554597500589 -0.02541610918944862 0.08991154041334724
0.04271406533516705 -0.02488494502391992 0.09012952674787092
0.04281497919863994 -0.024281379141515177 0.08906759060474392
0.04289727474302919 -0.023709675329283635 0.08856889793216
0.04296210460916974 -0.023167859616339576 0.08859858548666961
0.04303279949380684 -0.022616007158222425 0.08845084277703938
0.04310349425277373 -0.022064155649467954 0.08830310047621184
0.04316832408051513 -0.021522340002235976 0.08833278919238413
0.04325671391221524 -0.020940206365188563 0.08764973374108295
0.04330500867022426 -0.02042668701087045 0.08817964624886289
0.043369838426054276 -0.019884872221004244 0.08820933374751018
0.04344506435635169 -0.01932526619871126 0.08792451481572554
0.04350366988630458 -0.01879410249472149 0.08814250112231804
0.04358041448171536 -0.018231897229457658 0.08781174078347184
0.043632418643210186 -0.017712030378674123 0.08822943362976073
0.043696165252306435 -0.017172068799399396 0.08829189049839717
0.0437434423097126 -0.016660291025541642 0.08885259078406474
0.043780019378501775 -0.016166824398106055 0.08973698857515315
0.043815639494856576 -0.015674995209845582 0.0906503372209259
0.043878270301875626 -0.015136942907488144 0.0907465505103506
0.04218210972726692 -0.024801517531302286 0.08980140299734478
0.04226327033737248 -0.024231755186005646 0.08933704808344235
0.042354257477745356 -0.023645177535935976 0.08857541469343676
0.04241888302963829 -0.023103711463839573 0.0886112832226432
0.04248459172198161 -0.0225603918247521 0.0886143842684519
0.042552584639290986 -0.022013163949534422 0.08854837887591195
0.04263146199313633 -0.021447308916936317 0.08815309770177501
0.042705628607218334 -0.020889515324316515 0.08790032721213094
0.042769183736462484 -0.020349881055369515 0.08796857848206113
0.0428327387553961 -0.019810247709500364 0.088036829696129
0.0428914992029179 -0.01927881889668565 0.08825012939087429
0.04296400045173776 -0.01872387559347603 0.08804773832432912
0.04301975257226739 -0.018197594532212407 0.08835204850833114
0.04308330766939577 -0.01765796068537708 0.0884202990533326
0.04313313424527728 -0.017141820314212727 0.08890386885990488
0.043173102053400685 -0.016642550782656525 0.08968569070412699
0.04320704610334583 -0.01615359001299257 0.09064974335551225
0.04325975681391275 -0.015632513868551984 0.0910460623197668
0.041580462949899595 -0.0252682248626986 0.08959065748862487
0.041648545332363555 -0.02472084315238749 0.08952194896293067
0.04173338281942341 -0.02414478860578836 0.08894636008623782
0.04180860870992522 -0.023585183018749473 0.08866154066185694
0.04187558646376917 -0.02303969164791071 0.08862624968598665
0.0419436688615928 -0.022492309911314772 0.08855754069562739
0.04201436363591936 -0.02194045837627547 0.0884097979301348
0.04208806687966439 -0.02138345774449554 0.08817104545617656
0.04216025562984122 -0.020829048849812314 0.08797810988697358
0.04222400229409274 -0.020289086808998658 0.08804056678354119
0.04228774887107321 -0.019749125651835606 0.08810302292724888
0.04235364905094845 -0.019205478689277983 0.0881003293394313
0.04241739566772452 -0.01866551709686084 0.08816278597573521
0.042481142331976036 -0.018125555056047182 0.08822524287230282
0.04257273615742523 -0.017537938824961963 0.08744525756347978
0.04260016911917611 -0.01706012041282749 0.08860628556947463
0.042632843667426736 -0.016573331761061755 0.08960874525591844
0.042667497276239856 -0.016083156730684493 0.09055133212378715
0.04274272324179473 -0.015523550464479634 0.09026651297363555
0.041106993265581065 -0.02465383803961868 0.08948414109216048
0.04118281712594645 -0.024093208418664917 0.0891812351006455
0.04127193495683794 -0.02350982969847508 0.08847615261073297
0.041319094674092643 -0.02299825272759851 0.08904040270516583
0.04139915870788193 -0.02243036694195055 0.0886092217404269
0.04145642522702889 -0.021901495040383245 0.08886771449914627
0.04154129616743646 -0.02132538324541799 0.0882911135819415
0.04161379744837209 -0.020770439520096693 0.0880887232403251
0.041677352616015406 -0.02023080518543761 0.08815697334859265
0.04173983007773642 -0.01969301585202276 0.08825782314030706
0.04180230764837153 -0.01915522596507207 0.08835867133362492
0.04186801624716042 -0.0186119068532356 0.08836177351316511
0.041920727016024305 -0.018090830425455888 0.0887580915620551
0.041982099950359564 -0.017554930891119952 0.08889235753752939
0.042026717780098935 -0.01704770419307204 0.08953350386400233
0.04206066185448002 -0.016558743014438822 0.09049755747264891
0.042110488434201454 -0.016042602636703263 0.09098112716305493
0.040496258477067996 -0.02513609774215667 0.08954833128319671
0.04057148446252067 -0.02457649125832476 0.08926351237934323
0.04064822906561128 -0.024014285979918507 0.0889327518081645
0.04072345495611309 -0.023454680392879616 0.08864793238378361
0.04078935519882343 -0.022911032955640655 0.08864523859156466
0.04085633294498755 -0.022365541597944308 0.08860994784802691
0.04093003607842204 -0.021808541889242236 0.08837119531820632
0.040998118514644834 -0.02126116008693421 0.0883024851661844
0.041056724061353835 -0.020729995987117594 0.08852047266237076
0.04113346869516377 -0.020167790656141677 0.0881897111618619
0.041197215256784575 -0.019627829525263457 0.08825216777023465
0.04125084670553859 -0.0191051779147126 0.08862063144386224
0.0413275912457941 -0.018542973110987692 0.08828987107708487
0.041382880026706086 -0.018017484957994278 0.08860819834744263
0.041428313124359496 -0.017508863100441613 0.08922468094925429
0.04152287637216894 -0.016916165327745106 0.08835486380204342
0.041634059415012636 -0.016295025905454275 0.08698226142498437
0.04156946993542661 -0.01597468454039982 0.09092717938509261
0.04002486831826201 -0.02451815214283927 0.08937890272038337
0.04010231948892607 -0.023954737722690925 0.08902676685920952
0.04017814323130108 -0.02339410903795743 0.08872386104416474
0.04024899307190624 -0.02284199140530325 0.0885714305610246
0.04030775355922364 -0.02231056215723444 0.08878473074836611
0.04038781748270239 -0.02174267729466433 0.08835354972776484
0.04045581051032231 -0.0211954484963688 0.08828754439108723
0.04051828808235386 -0.020657658239876094 0.08838839423866399
0.040583996790056844 -0.020114338574503787 0.08839149481980763
0.04065082122862387 -0.019569110304808946 0.08836083858976745
0.040703531942332484 -0.019048034338568158 0.08875715661072628
0.040769240541121375 -0.01850471522673169 0.08876025879026647
0.04083171816691175 -0.017966924878242075 0.08886110701151549
0.04088442888062037 -0.017445848912001283 0.08925742503247432
0.04098020779973914 -0.016851070773632758 0.08835083103935096
0.040960520685850536 -0.016453888089868883 0.0909373511255445
0.03941333399747589 -0.025001779864944777 0.08946727709870604
0.03948402885139365 -0.024449927459397287 0.08931953531840592
0.039563657615350856 -0.023882786546487348 0.0889015222646161
0.039634352351278254 -0.023330935077160126 0.0887537806607862
0.03971398111523546 -0.02276379416425019 0.08833576760699638
0.03977093518321483 -0.022235456222812776 0.08860371612332166
0.039841629942181725 -0.021683604714058304 0.08845597382249412
0.03990971234000536 -0.021136222977462364 0.08838726483213485
0.03997345904265603 -0.020596260870936623 0.08844972056703983
0.040032064597044864 -0.02006509675797759 0.08866770783089364
0.04010729047218701 -0.019505491197223536 0.08838288887117782
0.040168752776725984 -0.01896943872458719 0.08851445119297045
0.04022404147944321 -0.01844395107255995 0.08883277913239462
0.040287788197453545 -0.01790398893974938 0.08889523440263453
0.040338366114328436 -0.017386562806554942 0.08935607442054676
0.04037589206474688 -0.016891472367852933 0.09021176636557203
0.04043852288782381 -0.016353419854439655 0.09030798001746113
0.03893926907609964 -0.02438841155900371 0.08937876623967039
0.03901509292110536 -0.02382778196433478 0.08907586071282049
0.03909091667884004 -0.023267153253316453 0.08877295443311066
0.03914666883776883 -0.02274087212634075 0.08907726345545001
0.03922083545185083 -0.02218307853372095 0.08882449296580594
0.03928765989041785 -0.021637850264026114 0.08879383673576577
0.03936511104572225 -0.0210744358701626 0.08844170133925698
0.039431935571560314 -0.02052920671681716 0.08841104586207676
0.03949441316663136 -0.019991416420897207 0.08851189501265593
0.03956857964736332 -0.01943362379078251 0.08825912516414708
0.0396184062386045 -0.018917483393333327 0.08874269450605432
0.039684114891152214 -0.018374164189499945 0.08874579505926679
0.039733941522188995 -0.01785802335679667 0.08922936489377024
0.03977390927515713 -0.017358754286779392 0.09001118671006117
0.0383235780661713 -0.02487915300341701 0.08959289699645277
0.03839880405546389 -0.024319546513013893 0.08930807797643302
0.038475548650874665 -0.023757341247750058 0.08897731763758683
0.03854363097678692 -0.023209960368519886 0.08890860742970257
0.03861432586142401 -0.022658107910402733 0.08876086472007232
0.03868502074606111 -0.022106255452285582 0.08861312201044207
0.03875310301821454 -0.021558874665052328 0.08854441342888553
0.038823797902851634 -0.02100702220693517 0.08839667071925528
0.03889449278748873 -0.020455169748818013 0.08824892800962503
0.03896819603891359 -0.019898169103895674 0.08801017530333426
0.039023484686475554 -0.01937268191340736 0.08832850321482726
0.03908611545439722 -0.01883462986153301 0.08842471683878518
0.03914140414175478 -0.018309142235790603 0.08874304524287442
0.03919340838912421 -0.017789274870898483 0.08916073718776434
0.039240685376015445 -0.01727749758486449 0.08972143791016579
0.039279153419091765 -0.016780794952792222 0.09054862939108674
0.03793997952240021 -0.023680097489011585 0.08875851040879743
0.03800135238622054 -0.02314419844249941 0.0888927768210056
0.038072202173066866 -0.022592080901842143 0.08874034796419318
0.03813902672194443 -0.022046851709069455 0.08870969179001537
0.038207019631573975 -0.021499623846994196 0.08864368662980794
0.03828118623029631 -0.020941830280659227 0.08839091660482891
0.03835368751123194 -0.02038688655533793 0.08818852626321252
0.03841939621893493 -0.01984356688996562 0.08819162684435616
0.038482951237868546 -0.01930393354409647 0.08825987805842403
0.03852882468940274 -0.018794558113526084 0.08886303894514998
0.03858758512156487 -0.018263129326996197 0.08907633910456032
0.03864029589042876 -0.017742052899216484 0.0894726571534503
0.038680263628037226 -0.017242783855484042 0.0902544794344063
0.037314130961959284 -0.024188220597212876 0.0892799163779222
0.03738935697045147 -0.023628614073953717 0.08899509677707111
0.03746005172941836 -0.02307676256519925 0.08884735447624359
0.03752595193372954 -0.02253311519367237 0.08884466184568729
0.03759185216876004 -0.021989467769575822 0.08884196828580089
0.03766859669225944 -0.02142726336167776 0.08851120672942968
0.037736679090083075 -0.020879881625081816 0.08844249773907042
0.03781190507553576 -0.020320275141249906 0.08815767883521695
0.037875651747467105 -0.019780313087293836 0.08822013549945204
0.037934257222264726 -0.01924914984484299 0.08843812177811337
0.03798626138375956 -0.01872928299405946 0.08885581462440226
0.0380500079928558 -0.01818932141478473 0.0889182714930387
0.038096334939859595 -0.017679169554980036 0.0895077147979746
0.03815162364257682 -0.017153681902952793 0.08982604273739879
0.03819102839090895 -0.01665537629691541 0.090624896735487
0.036835236540568445 -0.02358311738783012 0.0893375159696944
0.036917414706407074 -0.023011614444291836 0.08884237426753845
0.0369701254829508 -0.022490538003369705 0.0892386920840959
0.03703695002414852 -0.021945308823739434 0.08920803614225062
0.037109451194773616 -0.021390366021495986 0.08900564574477186
0.03719162950932194 -0.02081886208916777 0.08851050293681557
0.037257338193985426 -0.020275542463222707 0.08851360421495683
0.03731309032219489 -0.01974926138881667 0.08881791416662632
0.037375567837674734 -0.019211471963404905 0.088918762332013
0.037434328269836864 -0.01868004317687502 0.08913206249142336
0.03750232124230151 -0.018132814840118416 0.08906605712681458
0.03754693910415666 -0.01762558771995883 0.08970720417821627
0.03762110566308339 -0.017067794588877954 0.08945443366064101
0.036287602304704625 -0.023526520945320015 0.08948371291361248
0.036367230919952136 -0.02295938102120001 0.08906570096562301
0.03643097763796247 -0.022419418888389442 0.0891281562358629
0.03649360842264025 -0.02188136644068825 0.08922437104941466
0.03655950855504005 -0.021337719926527138 0.08922167720133337
0.036630203424317484 -0.020785867494694816 0.08907393495636817
0.036695033290458035 -0.020244051781750753 0.0891036225108778
0.03675986310283977 -0.01970223616080361 0.08913331169171516
0.03682576323523957 -0.0191585896466425 0.08913061784363387
0.03689166341511481 -0.01861494268408488 0.0891279242558163
0.036954294183036474 -0.018076890632210532 0.0892241378797742
0.03702019442574681 -0.01753324319497157 0.08922144408755525
0.03706146171762843 -0.017031750237523263 0.08996395187051162
0.03710778861331688 -0.016521598832686283 0.09055339503135008
0.03580507430880042 -0.022927635721733754 0.08965121908444378
0.03588623491890598 -0.022357873376437114 0.08918686417054135
0.03593210840639587 -0.021848497517183846 0.08979002566602981
0.03599673381725894 -0.021307032420734957 0.08982589506870403
0.0360581067913898 -0.020771132451144928 0.08996016153677455
0.036156951811829034 -0.020171106958313423 0.0889608126414359
0.03619691957387344 -0.019671837505611724 0.08974263587965318
0.03626942077521786 -0.019116894650798612 0.0895402445528443
0.03633741374768251 -0.01856966631404201 0.08947423918823554
0.036404238241404804 -0.018024437582808243 0.08944358298612654
0.03646561118481634 -0.017488537665787885 0.08957785038352718
0.03651022904527504 -0.016981310915170304 0.09021899578067
0.036571601937371224 -0.01644541145311766 0.0903532630339732
0.03662583134691253 -0.015921736191336355 0.09070363871854036
0.03533019948454183 -0.022315653817571317 0.08958721664182656
0.035387153575560694 -0.021787315836706653 0.08985516446115424
0.03545090013334158 -0.02124735471239964 0.08991762118569326
0.035515729945723315 -0.020705539091452493 0.0899473103665306
0.03557268404442201 -0.020177201097445408 0.09021525795352575
0.03565231278149981 -0.01961006023053393 0.0897972457128998
0.035723007555826365 -0.019058208695494627 0.0896495029474072
0.0357951962431681 -0.018503800275492744 0.08945656758260559
0.03586002600039456 -0.017961985116084527 0.08948625673551178
0.0359259262431049 -0.017418337678845566 0.08948356294329282
0.035982880278968496 -0.01689000015951982 0.08975151073468932
0.0360466269034244 -0.016350038553960257 0.0898139671386607
0.03611252714613474 -0.015806391116721292 0.08981127334644176
0.036177356903361206 -0.015264575957313075 0.08984096249934795
0.036239987698860505 -0.014726523674669265 0.08993717613727145
0.036285420847131045 -0.014217901546919891 0.09055365805605109
0.03635350324425645 -0.013670519995094957 0.09048494823856239
0.03660471987440517 -0.011517124265696049 0.09084882396874534
0.03666954965723202 -0.010975308917625094 0.09087851301650499
0.036736527410085915 -0.010429817785121715 0.09084322097713576
0.03680722227098529 -0.009877965551202815 0.09069547813737366
0.036862511008959986 -0.009352477655263695 0.0910138058584309
0.03692111652425144 -0.008821313792787751 0.09123179345681794
0.037050416899744046 -0.0077382978811639126 0.09130203738831341
0.03711416354793767 -0.007198336051406094 0.09136449392241665
0.03732974264090556 -0.005536799597710316 0.0908155467543997
0.03740496862635824 -0.004977193113878408 0.09053072785054622
0.0374730509690266 -0.004429811838821394 0.0904620188322558
0.03752362897177609 -0.003912385191518363 0.09092285794876906
0.03765546742104928 -0.002825025717046649 0.09091632017419744
0.03489114029020535 -0.021211507848748274 0.09043063157375071
0.03495361790447597 -0.02067371751997228 0.09053148014349853
0.035020442453353534 -0.020128488327199587 0.09050082396932072
0.03509129224019987 -0.01957637078654232 0.09034839511250828
0.03517016952597375 -0.01901051660473878 0.08995311260468007
0.03523154241806994 -0.01847461714268614 0.09008737985798329
0.0353116064082237 -0.017906731798863477 0.08965619851681439
0.03539647734863127 -0.01733062000389823 0.08907959759960961
0.03545070667997781 -0.016806945243083096 0.08942997395324319
0.0355186996370828 -0.01625971693261133 0.08936396905329948
0.03558954943928879 -0.015707599365669227 0.089211539731822
0.035654174928346626 -0.015166133768254163 0.08924740846542978
0.03571554785186036 -0.01463023406886085 0.08938167561653232
0.03577802543471344 -0.014092443977425529 0.08948252428848083
0.03585384926750119 -0.013531814587241231 0.08917961828300028
0.03588594695216094 -0.013046013299716908 0.09019952856816696
0.0359648243129879 -0.012480158438747394 0.08980424633456804
0.03602057640593989 -0.011953877608253234 0.09010855650460449
0.03610064042140222 -0.011385992129332216 0.08967737482191959
0.036165265893821366 -0.010844526415537707 0.08971324472820977
0.03623325888589199 -0.010297297914718439 0.08964723937352964
0.0362989675583375 -0.009753978493258007 0.08965034017304023
0.036362522667683854 -0.009214344441938051 0.08971859119667233
0.03642389561423708 -0.00867844470311749 0.08985285765077727
0.03648116218853931 -0.00814957234001126 0.09011135043742781
0.03655532875200418 -0.007591779017588175 0.08985858063081573
0.0366261785650317 -0.007039661615703454 0.08970615013371
0.036670796406989045 -0.0065324347131709105 0.09034729693881359
0.03675481857097959 -0.005957775787615459 0.08979637175885084
0.036822811520404744 -0.005410547490286105 0.08973036709123967
0.036885289092436296 -0.004872757233793403 0.08983121693881643
0.036941041180850155 -0.004346476594641456 0.0901355263978897
0.03699679333977894 -0.0038201954676657505 0.09043983542022907
0.03705254540899322 -0.0032939148613698455 0.09074414546013365
0.03711610054207729 -0.002754280585851635 0.09081239661389762
0.037173367049704496 -0.002225408703997956 0.09107088972111578
0.03722759657339626 -0.0017017325125675896 0.091421265345379
0.034481896313012336 -0.02005634036810642 0.09037209916772107
0.03454779655188275 -0.019512692937438663 0.09036940549166839
0.03462454104082291 -0.018950488588681473 0.09003864498079357
0.034695235870304736 -0.018398636592103248 0.08989090224323217
0.03476742455764647 -0.017844228172101365 0.08969796687843053
0.034839613284783806 -0.017289819316845388 0.08950503200622513
0.03491483921508122 -0.016730213294552404 0.08922021307444049
0.03499158376301656 -0.01616800847768508 0.08888945247533059
0.035062278647653655 -0.015616156019567924 0.08874170976570035
0.03513446735035505 -0.015061747573281208 0.08854877393623366
0.035202549705241386 -0.014514366093739565 0.08848006539657388
0.03526629638031442 -0.013974404217983289 0.08854252111751325
0.035328927191173386 -0.013436351909054647 0.0886387342907717
0.035393756975977485 -0.012894536518876966 0.08866842345764345
0.03546073474832279 -0.012349045299953164 0.08863313107381238
0.03552771247458911 -0.011803554159883862 0.08859784008397649
0.035590343271659254 -0.01126550196633995 0.08869405325025215
0.03564563199613696 -0.01074001413222118 0.08901238120069604
0.035712609729791275 -0.010194523032573842 0.08897708974215816
0.03577850993724414 -0.009650875839246759 0.08897439616830616
0.035842256581597856 -0.009110914016060147 0.08903685281857567
0.035904887377097155 -0.008572861733416337 0.08913306645649918
0.035970787556972396 -0.008029214770858715 0.08913037286868158
0.03603341836015153 -0.007491162475072488 0.08922658627427256
0.03609716499682541 -0.006951200665028295 0.0892890431568746
0.03616935372710444 -0.006396791987972115 0.08909610734137349
0.036224642429821666 -0.005871304335944874 0.08941443528079766
0.0362883890619574 -0.005331342717242895 0.08947689145243654
0.0363469946317059 -0.004800178577999029 0.08969487825162528
0.036398998793200736 -0.004280311727215499 0.09011257109791417
0.0364576043783089 -0.0037491475616868004 0.09033055743243784
0.036509608535963814 -0.0032292807174744793 0.09074825039489297
0.036568214121071974 -0.0026981165519457807 0.09096623672941667
0.03662516806722106 -0.0021697795532998384 0.09123418553837838
0.03668377375112001 -0.0016386144844069128 0.09145217227726322
0.034000418472796994 -0.019455655596116672 0.09050781112777519
0.03407458496888862 -0.018897862939717142 0.09025504081460128
0.03414708618698915 -0.018342919689077187 0.09005265067738624
0.03421958744732876 -0.01778797636615394 0.08985025926234227
0.03429043723417509 -0.017235858825496678 0.08969783040552984
0.03437691545448332 -0.016656996876300997 0.08907260388765229
0.034443739940525776 -0.01611176815820965 0.08904194791787581
0.03453192795392364 -0.015529979890724539 0.08836499793319834
0.034584638636912926 -0.015008903977053416 0.08876131688348729
0.03467847387191659 -0.014417451861525977 0.08791352464199823
0.034752640458420955 -0.01385965849967564 0.08766075413838856
0.03480246706955993 -0.01334351788459941 0.0881443237265939
0.034868175726645786 -0.012800198489423813 0.08814742499076955
0.034930653294139205 -0.012262408424273324 0.08824827412738312
0.03499527880309483 -0.011720942609231216 0.08828414310728903
0.035060987431032205 -0.011177623355725183 0.08828724482914697
0.03509684688737064 -0.010685384626162283 0.08919335271242969
0.03518253273759001 -0.010107878521150037 0.08859209781052747
0.035247158246545646 -0.009566412706107927 0.0886279667904334
0.03530963581403906 -0.009028622640957438 0.08872881592704697
0.035371008760592286 -0.008492722902136877 0.08886308238115191
0.03543563422661063 -0.007951257344149061 0.0888989518117573
0.03550245874791055 -0.007406028382145835 0.0888682956236139
0.035563831686783946 -0.006870128656467688 0.08900256231005137
0.0356273867961303 -0.006330494605147733 0.08907081333368345
0.03568161615819617 -0.005806819791762936 0.0894211887579869
0.035742989046452435 -0.005270920336281503 0.08955545612745638
0.03580025570662926 -0.004742047459066681 0.08981394801270796
0.03585448502261614 -0.004218372724536383 0.09016432483100661
0.035910237143145764 -0.003692091663272759 0.09046863501500864
0.03596750371744799 -0.00316321930016653 0.09072712780165917
0.03602021448247196 -0.0026421428789580224 0.09112344596671544
0.03345666299496659 -0.019392422322106008 0.09053668073568119
0.033527357773133065 -0.0188405707804955 0.09038893785402233
0.0335954401081216 -0.018293189518580902 0.09032022906806443
0.03367506878620421 -0.017726049119779555 0.08990221691567359
0.033745763651641725 -0.017174196694518445 0.08975447478687466
0.033840326907131006 -0.016581498908679517 0.08888465740733129
0.03392516435439525 -0.016005444797334484 0.0883090680380422
0.03400039033984793 -0.015445838313502575 0.08802424913418873
0.03407257905022917 -0.014891429854073442 0.08783131307238949
0.034144767726749375 -0.014337021269014179 0.08763837888321613
0.03420623005886598 -0.013800968565608371 0.08776994121897434
0.03427105988974907 -0.013259153096576194 0.08779962899185093
0.03433252220650601 -0.012723100419455218 0.08793119179227418
0.03439626885853955 -0.012183138583126193 0.08799364821021116
0.03446001552593276 -0.011643176720512335 0.08805610416348307
0.03452264631532308 -0.011105124540110837 0.08815231756209126
0.034576277755118234 -0.010582472800038115 0.0885207821760687
0.0346443601481119 -0.01003509130834877 0.0884520722383768
0.034705822464868835 -0.009499038631227794 0.08858363503880007
0.034768453283407635 -0.008960986309156732 0.08867984797972599
0.034827058825578495 -0.008429822400682331 0.08889783476494915
0.03492350075226424 -0.007833909664357906 0.08797118327195548
0.034953062291479445 -0.007352448456163921 0.08906781777485304
0.035015693086978744 -0.006814396173520109 0.08916403141277654
0.03507429860611012 -0.006283232304472956 0.0893820188949973
0.03513290413606301 -0.005752068600483184 0.08960000520158982
0.0351898581719266 -0.0052237310811574416 0.08986795299298633
0.03524846375703476 -0.004692566915628743 0.09008593932751001
0.03534397494953399 -0.004098246935040626 0.089187444678805
0.03536588435487031 -0.0036298805604163377 0.09051557463413498
0.03541316134944138 -0.0031181032612399317 0.0910762751242039
0.03546516556609148 -0.002598235948917475 0.09149396799842395
0.033112664727029055 -0.017694727275543033 0.09049522090486041
0.033186831329591306 -0.01713693370263686 0.0902424507637151
0.0332778185635186 -0.016550355525316182 0.08948081623997803
0.03337069676405322 -0.015960541356501243 0.08866197563840598
0.03344652061673877 -0.015399911748689897 0.08835906987922355
0.03352234442962872 -0.014839282576132644 0.08805616362744488
0.033598168262416475 -0.014278653185948346 0.08775325762196433
0.03366901802168517 -0.013726535876060542 0.08760082875118631
0.03372324738060935 -0.01320286088447595 0.08795120511878547
0.033791240365291964 -0.012655632343234715 0.08788520023280734
0.03385261333488469 -0.012119732564986902 0.08801946598991468
0.03391137378694463 -0.011588303560829972 0.08823276639562315
0.03397599926675178 -0.011046837887457426 0.08826863583321135
0.034030228604499134 -0.0105231629708356 0.0886190126625297
0.034094854128522596 -0.009981697183073039 0.08865488094140107
0.03415060622147459 -0.009455416352578877 0.08895919111143753
0.034213083765928506 -0.008917626326855638 0.0890600409450487
0.03426731316325185 -0.008393951269558962 0.0894104161509852
0.034333021762040734 -0.007850632157722495 0.08941351833052538
0.034381498972957676 -0.0073368007572162 0.08993791037103308
0.03444949194996046 -0.006789572229117384 0.08987190571738748
0.034513047059306814 -0.006249938177797428 0.08994015674101959
0.03456575777301543 -0.005728862211556638 0.0903364747619784
0.0346303832467136 -0.0051873966404264085 0.09037234396025126
0.03468914373019109 -0.004655967398928805 0.09058564426375905
0.03474790416235322 -0.004124538612398919 0.0907989444231694
0.034805170826369955 -0.00359566572861289 0.09105743619225472
0.03485788150935924 -0.003074589814941767 0.09145375514254366
0.03271695336985815 -0.016516400236524308 0.09002726601711744
0.03279793146736239 -0.015946950590296983 0.08956843083159292
0.03287467609349249 -0.015384745272463482 0.08923766956341661
0.03294837928976209 -0.014827745089080068 0.08899891682919465
0.03302208247521016 -0.014270744740639272 0.08876016527060097
0.03309277733226962 -0.013718892513291581 0.08861242254700513
0.03315975508925526 -0.013173401320652613 0.08857713062783912
0.033223501741288804 -0.012633439484323586 0.08863958704577608
0.03330956482514248 -0.012055287770250165 0.08802692020624293
0.033354149213752106 -0.011548118116083746 0.08866907905185845
0.03341897903852621 -0.011006302749293881 0.08869876658541971
0.03348272566938293 -0.010466340987927623 0.08876122346507588
0.03353801439170613 -0.009940853171837717 0.08907955141442872
0.033600645210244924 -0.009402800849766656 0.08917576435535463
0.033659250744735955 -0.008871636954434669 0.08939375137291032
0.033721881563274755 -0.00833358463236361 0.08948996431383623
