ply
format ascii 1.0
element vertex 724
property float x
property float y
property float z
end_header
-0.004157478614080921 0.00493979041933087 -0.0017114348011091345
-0.004375949253164455 0.004561388172476145 -0.001285581500269472
-0.004594419950455651 0.004182985824802794 -0.001283104647882282
-0.004812890589539185 0.0038045835779480694 -0.0012017856352031224
-0.005031361243174635 0.003426181305888688 -0.000984215061180293
-0.005249831879074938 0.003047779064547482 -0.0011726495577022427
-0.005468302521341704 0.002669376812179239 -0.0011181068839505308
-0.005686773174977153 0.0022909745401198576 -0.0011418871581554406
-0.005905243843164518 0.00191257224285582 -0.001087343669496476
-0.006123714482248053 0.0015341699960010953 -0.0010060247732326382
-0.006342185121331587 0.0011557677491463708 -0.0009514820412732653
-0.006560655702207461 0.0007773656031102721 -0.0009490055963397018
-0.006779126399498656 0.00039896325543692146 -0.0010281581198796623
-0.00699759698037453 2.0561109400822892e-05 -0.0009468392236158244
-0.007216067677665725 -0.00035784123827252787 -0.001025991747155785
-0.007434538258541599 -0.0007362433843086264 -0.0010235152440145605
-0.007653008839417472 -0.001114645530344725 -0.00018904311582446025
-0.00787147965312399 -0.001493048079655328 -0.0007802701438777141
-0.008089950233999863 -0.0018714502256914265 -0.00020669201330747382
-0.008308420814875737 -0.002249852371727525 1.0878560715355723e-05
-0.0002835462427082706 0.01077575578813059 -0.0035218095872551194
-0.0007204874044600186 0.010018951496058394 -0.003570810426026582
-0.0009389584509971794 0.009640548543473286 -0.0036253540311008683
-0.0011574287990424093 0.009262146800711692 -0.0035745245404541484
-0.0013758996127489257 0.008883744251401088 -0.003523695981130003
-0.0015943699607941556 0.008505342508639494 -0.0034445442724972955
-0.0018128405416700292 0.008126940362603396 -0.00329614127986133
-0.0020313113553765464 0.007748537813292793 -0.003067338839173316
-0.00224978193625242 0.007370135667256694 -0.0029189372435212127
-0.0024682525171282935 0.006991733521220596 -0.002730502746999263
-0.0026867233308348107 0.006613330971909993 -0.0025821004528552285
-0.0029051939117106843 0.006234928825873894 -0.0024336979258805505
-0.0031236644925865574 0.005856526679837796 -0.002354546217247843
-0.003342135189877753 0.005478124332164445 -0.0021257426124066106
-0.0035606057707536264 0.005099722186128346 -0.0020465904381126157
-0.003779076468044822 0.004721319838454996 -0.0019957623444497577
-0.003997547107128356 0.004342917591600271 -0.0020770812407135955
-0.004216017804419552 0.00396451524392692 -0.0016093758167698973
-0.004434488443503086 0.003586112997072196 -0.0012376172235235565
-0.004652959097138536 0.0032077107250128144 -0.0014551869826391333
-0.004871429733038839 0.0028293084836716084 -0.0014576638350263231
-0.005089900375305605 0.0024509062313033654 -0.0014338836772367352
-0.0053083710289410545 0.002072503959243984 -0.0014101034030318254
-0.0055268416971284194 0.0016941016619799465 -0.0018359571695327752
-0.005745312336211954 0.0013156994151252218 -0.0013682513963431113
-0.005963782975295488 0.0009372971682704972 -0.0013444724027067416
-0.006182253556171362 0.0005588950222343986 -0.001265319413505494
-0.006400724253462557 0.0001804926745610479 -0.001241539255715906
-0.006619194834338431 -0.00019790947147505067 -0.0012699622893705958
-0.006837665531629626 -0.0005763118191484014 -0.0012724383268505328
-0.0070561361125055 -0.0009547139651845 -0.0013269813498482102
-0.0072746066933813735 -0.0013331161112205986 -0.001355403685010969
-0.007493077507087891 -0.0017115186605312015 -0.0013045750092715018
-0.007711548087963764 -0.0020899208065673 -0.0011561732972040766
-0.007930018668839637 -0.0024683229526033987 -0.0007578342338092619
-0.008148489482546154 -0.0028467255019140013 -0.00026955470093525876
9.485630660233235e-05 0.010557284974424073 -0.0034788297489285465
-0.0003420848551494156 0.009800480682351877 -0.0035427948459982868
-0.0005605559016865756 0.009422077729766769 -0.0035403189249336715
-0.0007790262497318055 0.009043675987005175 -0.003537842538207769
-0.0009974970634383227 0.008665273437694571 -0.003483299864456057
-0.0012159674114835526 0.008286871694932977 -0.003428756725043058
-0.0014344379923594262 0.007908469548896879 -0.003374214051291346
-0.0016529088060659432 0.007530066999586276 -0.0031933551654219623
-0.0018713793869418168 0.007151664853550177 -0.0028321489226073022
-0.0020898499678176905 0.006773262707514079 -0.0027776062488555904
-0.0023083207815242078 0.006394860158203476 -0.002486312529072165
-0.0025267913624000813 0.006016458012167377 -0.0023416660260409112
-0.0027452619432759544 0.005638055866131279 -0.0020503711421042676
-0.00296373264056715 0.005259653518457928 -0.0020478952210396524
-0.0031822032214430234 0.004881251372421829 -0.0017566004535183304
-0.003400673918734219 0.004502849024748479 -0.0016752815572544926
-0.0036191445578177533 0.004124446777893754 -0.0015939621953293675
-0.0038376152551089487 0.003746044430220403 -0.0016731150681152933
-0.004056085894192483 0.0033676421833656787 -0.0016706386813893908
-0.004274556547827933 0.0029892399113062972 -0.001819040393456816
-0.004493027183728236 0.002610837669965091 -0.0017644977197051042
-0.004711497825995002 0.0022324354175968482 -0.0016198508674278849
-0.0049299684796304515 0.001854033145537467 -0.0014022807590663427
-0.0051484391478178165 0.0014756308482734293 -0.001550682471133768
-0.005366909786901351 0.0010972286014187046 -0.0015744622796773904
-0.005585380425984885 0.00071882635456398 -0.0016536151524633163
-0.005803851006860759 0.0003404242085278814 -0.001508968300186097
-0.006022321704151954 -3.797813914546934e-05 -0.0014805452665314072
-0.006240792285027828 -0.0004163802851815679 -0.0014521225821226829
-0.006459262982319023 -0.0007947826328549186 -0.0014759023906663054
-0.006677733563194897 -0.001173184778891017 -0.0013945833779871457
-0.0068962041440707705 -0.0015515869249271158 -0.001703004585579037
-0.007114674957777288 -0.0019299894742377188 -0.0014854340115562075
-0.007333145538653161 -0.002308391620273817 -0.0014570108614861959
-0.007551616119529035 -0.002686793766309916 -0.0013123640092089766
-0.007770086933235552 -0.0030651963156205185 -0.00039289821870624954
-0.007988557514111426 -0.0034435984616566174 -0.00039042218122631246
-0.008207028327817943 -0.00382200101096722 -0.00030910241184756095
-0.00842549914152446 -0.004200403560277823 -1.7808504708227065e-05
0.00047325845263843043 0.0103388143935482 -0.0033158194273710247
3.631729088668332e-05 0.009582010101476003 -0.0036822727415710683
-0.00018215375565047752 0.009203607148890895 -0.003493838012218475
-0.00040062410369570743 0.008825205406129301 -0.0035222612787038084
-0.0006190949174022247 0.008446802856818697 -0.003443108173087239
-0.0008375652654474545 0.008068401114057103 -0.003294705646112561
-0.0010560358463233281 0.007689998968021005 -0.0033231286797672506
-0.0012745066600298451 0.007311596418710402 -0.003134694183245301
-0.0014929772409057187 0.0069331942726743034 -0.0031371698714792724
-0.0017114478217815923 0.006554792126638205 -0.0032818168401718135
-0.0019299186354881095 0.006176389577327602 -0.0028357771225273605
-0.0021483892163639833 0.0057979874312915035 -0.0022219424135982986
-0.0023668597972398564 0.0054195852852554054 -0.001913521206006407
-0.002585330494531052 0.0050411829375820545 -0.0019159977091476315
-0.0028038010754069254 0.004662780791545956 -0.0017675950657576316
-0.0030222717726981208 0.0042843784438726055 -0.0016884430078789585
-0.0032407424117816552 0.0039059761970178805 -0.0017168652266263955
-0.0034592131090728506 0.0035275738493445296 -0.0016660366673022502
-0.003677683748156385 0.003149171602489805 -0.001846895553171634
-0.003896154401791835 0.0027707693304304237 -0.0019282144494354718
-0.004114625037692138 0.0023923670890892176 -0.0019306909525766962
-0.004333095679958904 0.0020139648367209747 -0.0015323518309742206
-0.0045515663335943535 0.0016355625646615934 -0.0018935579573735588
-0.004770037001781718 0.0012571602673975557 -0.0018144054338335984
-0.004988507640865253 0.000878758020542831 -0.0018168819369748228
-0.005206978279948787 0.0005003557736881064 -0.0017377289477735751
-0.005425448860824661 0.00012195362765200784 -0.0016585764242336147
-0.005643919558115856 -0.0002564487200213429 -0.0017398954369127744
-0.00586239013899173 -0.0006348508660574414 -0.0015514608239755028
-0.006080860836282925 -0.0010132532137307922 -0.001696107792668044
-0.006299331417158799 -0.0013916553597668906 -0.0016723275184631341
-0.006517801998034672 -0.0017700575058029893 -0.0016214993083849543
-0.00673627281174119 -0.002148460055113592 -0.001570670749060809
-0.006954743392617063 -0.0025268622011496906 -0.0015468904748558992
-0.007173213973492937 -0.0029052643471857895 -0.001318088150583207
-0.007391684787199454 -0.003283666896496392 -0.0013465108349919313
-0.0076101553680753276 -0.003662069042532491 -0.0005446531577035779
-0.007828626181781845 -0.004040471591843094 -1.7411597582394606e-05
-0.008047096995488362 -0.004418874141153697 -0.00037861792952753544
-0.008265567576364236 -0.004797276287189795 -6.859511813672142e-06
0.001070131179550403 0.010498745958708424 -0.0015454712556675072
0.0006331900177986558 0.009741941666636228 -0.0030384920537471767
0.0004147194369227822 0.00936353952060013 -0.00341025018133223
0.0001962483903856214 0.008985136568015022 -0.0034894032869487997
-2.2221957659608497e-05 0.008606734825253428 -0.003540231846272945
-0.00024069277136612655 0.008228332275942826 -0.0035640115384012456
-0.0004591631194113556 0.00784993053318123 -0.003509469330310821
-0.00067763370028723 0.007471528387145132 -0.0035602976568043228
-0.0008961045139937463 0.007093125837834529 -0.003166381269693374
-0.0011145750948696198 0.00671472369179843 -0.003474801545962691
-0.0013330456757454933 0.006336321545762332 -0.0030808849260210987
-0.0015515164894520106 0.005957918996451729 -0.0029995655640959735
-0.0017699870703278841 0.00557951685041563 -0.002638359554111957
-0.0019884576512037575 0.005201114704379532 -0.0019625604618340726
-0.002206928348494953 0.004822712356706181 -0.0016013544518500562
-0.0024253989293708264 0.004444310210670082 -0.0013468721881508823
-0.002643869626662022 0.004065907862996732 -0.0011660131858661766
-0.0028623402657455563 0.003687505616142007 -0.0011375901522114869
-0.0030808109630367517 0.003309103268468656 -8.292658458230964e-05
-0.003299281602120286 0.0029307010216139315 -0.0012576984008774157
-0.003517752255755736 0.00255229874955455 -0.0015661194920539852
-0.003736222891656039 0.002173896508213344 -0.0019378777360543604
-0.003954693533922805 0.001795494255845101 -0.002017030725255608
-0.0041731641875582546 0.0014170919837857199 -0.0020145550370216365
-0.0043916348557456195 0.0010386896865216821 -0.0019600116647779937
-0.004610105494829154 0.0006602874396669574 -0.00190546887461096
-0.0048285761339126885 0.0002818851928122328 -0.001760822487995028
-0.005047046714788562 -9.651695322386572e-05 -0.0017323993379250164
-0.005265517412079757 -0.00047491930089721646 -0.0017299224855378266
-0.005483987992955631 -0.000853321446933315 -0.001675380277447402
-0.005702458690246826 -0.0012317237946066657 -0.0016991600859910245
-0.0059209292711227 -0.0016101259406427642 -0.0016707374015823002
-0.0061393998519985735 -0.0019885280866788627 -0.0016161947278305884
-0.006357870665705091 -0.0023669306359894657 -0.0015877716941758986
-0.006576341246580964 -0.002745332782025564 -0.001638600253500044
-0.006794811827456838 -0.003123734928061663 -0.0016101772198453541
-0.007013282641163355 -0.0035021374773722656 -0.001465530251152813
-0.007231753222039229 -0.0038805396234083646 -0.0015163589268922801
-0.007450224035745746 -0.0042589421727189675 -0.0012987883528694506
-0.007668694849452262 -0.0046373447220295705 -0.0006229897844605142
0.0014485335272237535 0.01028027526141723 -0.0019810870289802547
0.00123006294634788 0.00990187311538113 -0.0014124019071459766
0.0010115923654720064 0.009523470969345032 -0.0030080459546297784
0.0007931217845961328 0.009145068823308934 -0.003225615713745355
0.0005746507380589719 0.008766665870723826 -0.003443186171352863
0.000356180390013742 0.008388264127962232 -0.0034977297764271493
0.00013770957630722483 0.00800986157865163 -0.003552271984517574
-8.076077173800506e-05 0.007631459835890035 -0.0035806950181722637
-0.0002992313526138786 0.007253057689853936 -0.0036091180518269535
-0.0005177021663203958 0.006874655140543333 -0.003558289492502808
-0.0007361727471962694 0.006496252994507235 -0.0036396088544279333
-0.0009546433280721428 0.006117850848471136 -0.003491206560283899
-0.00117311414177866 0.0057394482991605334 -0.003302771365270018
-0.0013915847226545336 0.005361046153124435 -0.00273408624343574
-0.0016100553035304072 0.0049826440070883365 -0.0017325251828879114
-0.0018285260008216026 0.0046042416594149855 -0.0013607665896415706
-0.002046996581697476 0.0042258395133788875 -0.0012816140661016102
-0.0022654672789886713 0.0038474371657055365 -0.0010528113925829525
-0.002483937918072206 0.0034690349188508116 -0.0007838362944312389
-0.002702408615363401 0.003090632571177461 -0.0012408691691234703
-0.0029208792544469357 0.002712230324322736 -0.0010524338576942678
-0.0031393499080823854 0.002333828052263355 -0.0010016051819548006
-0.0033578205439826884 0.001955425810922149 -0.0013955226168036457
-0.0035762911862494543 0.001577023558553906 -0.0016868165694177146
-0.003794761839884904 0.001198621286494525 -0.001831463421694934
-0.0040132325080722685 0.0008202189892304872 -0.0020490339957177635
-0.004231703147155803 0.0004418167423757625 -0.0017800589557737108
-0.0044501737862393375 6.341449552103787e-05 -0.0020345407538115974
-0.004668644367115211 -0.0003149876505150607 -0.0020890838932245965
-0.0048871150644064065 -0.0006933899981884115 -0.0019006497459486123
-0.00510558564528228 -0.00107179214422451 -0.0018498203717172142
-0.005324056342573475 -0.0014501944918978607 -0.0022110263817012306
-0.005542526923449349 -0.0018285966379339594 -0.001722748158499598
-0.0057609975043252225 -0.002206998783970058 -0.0017511713085696097
-0.00597946831803174 -0.002585401333280661 -0.001672018319368362
-0.006197938898907613 -0.0029638034793167596 -0.0015928654465824361
-0.006416409479783487 -0.003342205625352858 -0.0012844442389905448
-0.006634880293490004 -0.003720608174663461 -0.0016456508310511704
-0.006853350874365878 -0.00409901032069956 -0.0016740738647058602
-0.007071821688072395 -0.004477412870010162 -0.0011857943609356876
-0.007290292501778912 -0.004855815419320765 -0.0009973598644137378
-0.007508763082654786 -0.005234217565356864 -0.0002683558559510852
0.0016084652940212309 0.009683402418089935 -0.0015154054854065175
0.0013899947131453569 0.009305000272053837 -0.0021747832652181383
0.0011715241322694833 0.008926598126017739 -0.0028803602326661344
0.0009530530857323224 0.00854819517343263 -0.0037843941245228048
0.0007345827376870925 0.008169793430671037 -0.003529911860823631
0.0005161119239805753 0.007791390881360434 -0.0036090647336095567
0.00029764157593534544 0.00741298913859884 -0.003757467027753591
7.917099505947192e-05 0.007034586992562741 -0.003754990873858332
-0.0001392998186470453 0.006656184443252138 -0.00377877103164792
-0.0003577703995229188 0.00627778229721604 -0.0037503479979932304
-0.0005762409803987923 0.005899380151179941 -0.0037219249643385406
-0.0007947117941053095 0.005520977601869338 -0.0034306310117244716
-0.001013182374981183 0.00514257545583324 -0.002943162806332111
-0.0012316529558570562 0.004764173309797141 -0.00123889313545078
-0.0014501236531482516 0.00438577096212379 -0.001073037507012486
-0.0016685942340241252 0.004007368816087692 -0.0007817427976988252
-0.002105535570398855 0.003250564221559616 -0.0003864568716380741
-0.0023240062676900502 0.0028721618738862657 -0.000383980834158137
-0.0025424769067735847 0.0024937596270315407 -0.0002031221520155664
-0.0027609475604090344 0.0021153573549721597 -0.00043192465091124134
-0.0029794181963093374 0.0017369551136309537 -0.0004557048669084902
-0.0031978888385761034 0.0013585528612627105 -0.0007986978744156654
-0.003416359492211553 0.0009801505892033293 -0.0010676725069060917
-0.003634830160398918 0.0006017482919392916 -0.0015757060609757896
-0.0038533007994824525 0.0002233460450845669 -0.0015472830273210998
-0.004071771438565987 -0.00015505620177015754 -0.001919041271321475
-0.004290242019441861 -0.0005334583478062561 -0.0019165655830875035
-0.0045087127167330555 -0.0009118606954796071 -0.0016620834358036514
-0.004727183297608929 -0.0012902628415157056 -0.0017129115294665094
-0.0049456539949001245 -0.0016686651891890563 -0.00156826467718929
-0.005164124575775998 -0.002047067335225155 -0.001423618290573358
-0.005382595156651872 -0.0024254694812612535 -0.0013951951405033465
-0.005601065970358389 -0.0028038720305718565 -0.0013406524667516346
-0.005819536551234262 -0.003182274176607955 -0.00128611025866121
-0.006038007132110136 -0.0035606763226440534 -0.0012315667700022455
-0.006256477945816653 -0.003939078871954656 -0.0013799684820696707
-0.006474948526692527 -0.004317481017990755 -0.001298649585805833
-0.006693419340399044 -0.0046958835673013575 -0.0013778021093457933
-0.006911890154105561 -0.0050742861166119604 -0.0005433288752101357
0.002205338222570455 0.00984333386683484 -0.0019950421992689367
0.0019868676416945814 0.00946493172079874 -0.0015273364260792728
0.0017683970608187078 0.009086529574762641 -0.0029732205439358945
0.0015499264799428343 0.008708127428726543 -0.003672996070235967
0.0013314554334056734 0.008329724476141435 -0.0032499870285391803
0.0011129850853604435 0.007951322733379841 -0.0035044697578996416
0.0008945142716539262 0.0075729201840692385 -0.0035328920930624004
0.0006760439236086964 0.0071945184413076445 -0.003713750513270497
0.0004575733427328229 0.006816116295271546 -0.0037421735469251867
0.00023910252902630566 0.006437713745960943 -0.003823492908850312
2.063194815043213e-05 0.0060593115999248446 -0.003799712751060724
-0.00019783863272544142 0.005680909453888746 -0.0038281357847154136
-0.0004163094464319586 0.005302506904578143 -0.0038043556269258256
-0.0006347800273078321 0.004924104758542045 -0.0037252027541398998
-0.0008532506081837057 0.004545702612505946 -0.0033534443937242027
-0.001071721305474901 0.004167300264832595 -0.001192208612337708
-0.0012901918863507747 0.0037888981187964963 -0.0004866314702667292
-0.00150866258364197 0.0034104957711231457 -1.892609361675531e-05
-0.003474898451809102 4.875347793371514e-06 -0.0008809735882095989
-0.0036933690908926365 -0.00037352689906135314 -0.0006521712639369067
-0.00391183967176851 -0.0007519290450974517 -0.0013279698323458429
-0.004130310369059705 -0.0011303313927708025 -0.0013825125060975547
-0.004348780949935579 -0.001508733538806901 -0.001358732231892645
-0.004567251647226774 -0.0018871358864802517 -0.0013871553819626565
-0.004785722228102648 -0.0022655380325163504 -0.0013080023927614088
-0.0050041928089785215 -0.002643940178552449 -0.0013364255428314205
-0.005222663622685039 -0.003022342727863052 -0.00125727301929146
-0.005441134203560912 -0.0034007448738991503 -0.0009882978629320856
-0.005659604784436786 -0.003779147019935249 -0.0010428413515910502
-0.005878075598143303 -0.004157549569245852 -0.0008140386780723926
-0.006096546179019177 -0.004535951715281951 -0.0007632092456333336
-0.006315016992725694 -0.004914354264592553 -0.0007656860980205235
-0.00653348780643221 -0.005292756813903156 -0.0003673465980682518
0.0023652697877306803 0.009246461139922866 -0.0015615021111443637
0.0021467992068548063 0.008868058993886768 -0.0021980425808578725
0.0019283286259789327 0.00848965684785067 -0.0030761586967855688
0.0017098575794417719 0.008111253895265562 -0.0032645931933075185
0.001491387231396542 0.007732852152503968 -0.00349339609965682
0.0012729164176900247 0.007354449603193365 -0.0037623706739395853
0.0010544460696447948 0.006976047860431771 -0.003910772502422333
0.0008359754887689214 0.006597645714395672 -0.003882349235936999
0.0006175046750624041 0.006219243165085069 -0.0039061296265572305
0.00039903409418653063 0.005840841019048971 -0.003985282499343157
0.00018056351331065707 0.005462438873012872 -0.003767711808905005
-3.7907300395860125e-05 0.005084036323702269 -0.0037652368191629644
-0.00025637788127173366 0.004705634177666171 -0.003913638647645712
-0.00047484846214760723 0.004327232031630072 -0.003768991213291883
-0.0006933191594388026 0.003948829683956721 -0.003117746207863092
-0.0041888495011906755 -0.0021056064673561255 -0.0003054975531995293
-0.004407320082066549 -0.002484008613392224 -0.0002770752762444314
-0.004625790662942423 -0.0028624107594283224 -0.00035622823634184864
-0.00484426147664894 -0.0032408133087389254 -6.493349064839973e-05
-0.005062732057524813 -0.003619215454775024 -1.039083326759251e-05
0.0029621427162799044 0.00940639258866777 -0.0013165526324883101
0.0027436721354040304 0.00902799044263167 -0.0017735855653882025
0.002525201554528157 0.008649588296595572 -0.0026294800918549295
0.0023067309736522833 0.008271186150559474 -0.002990686101838946
0.0020882599271151224 0.007892783197974367 -0.003351892344653606
0.0018697895790698927 0.0075143814552127725 -0.0034965390805155034
0.0016513187653633755 0.0071359789059021695 -0.0036411860492080446
0.0014328484173181456 0.0067575771631405756 -0.0037858325522392984
0.001214377836442272 0.006379175017104477 -0.0038403752259910102
0.000995907022735755 0.006000772467793874 -0.0038687982596457
0.0007774364418598813 0.005622370321757776 -0.0038712741807103153
0.0005589658609840079 0.005243968175721677 -0.0036424715071916576
0.00034049504727749064 0.004865565626411074 -0.0038969537708908315
0.00012202446640161707 0.004487163480374976 -0.004188247956335545
-9.644611447425647e-05 0.004108761334338877 -0.003720542415976524
-0.00031491681176545183 0.003730358986665526 -0.0037489654496312137
-0.0005333873926413253 0.0033519568406294277 -0.0036981368903070684
-0.0007518580899325207 0.0029735544929560768 -0.0031294508371502157
0.0031220742814401293 0.008809519861755797 -0.00125326681882143
0.0029036037005642557 0.008431117715719699 -0.002157301874831319
0.0026851331196883817 0.0080527155696836 -0.003304986981675029
0.002466662073151221 0.007674312617098493 -0.0031603400129824877
0.0022481917251059914 0.007295910874336899 -0.0035033326130360365
0.002029720911399474 0.006917508325026296 -0.003651734907180071
0.001811250563354244 0.006539106582264702 -0.0038401701021939516
0.0015927799824783705 0.006160704436228603 -0.0038909984286874533
0.0013743091687718535 0.005782301886918 -0.003914777655154467
0.00115583858789598 0.005403899740881902 -0.003912301734089851
0.0009373680070201063 0.005025497594845803 -0.003830981906503439
0.0007188971933135891 0.0046470950455352 -0.003749663010239601
0.0005004266124377156 0.004268692899499102 -0.0037212399765849113
0.000281956031561842 0.003890290753463003 -0.0036928176414221525
6.348533427064664e-05 0.0035118884057896527 -0.0039216200821101665
-0.0001549852466052269 0.003133486259753554 -0.00386707647703588
-0.00037345594389642225 0.002755083912080203 -0.003266888903453946
0.0037189471091707274 0.008969451368708362 -0.0009836854878813026
0.003500476528294854 0.008591049222672262 -0.0012012552469968794
0.0032820059474189802 0.008212647076636164 -0.0020141012500971556
0.0030635353665431067 0.007834244930600066 -0.002826947718858719
0.002845064320005946 0.0074558419780149585 -0.0029082666151225567
0.002626593971960716 0.0070774402352533645 -0.003559512086212635
0.0024081231582541987 0.0066990376859427615 -0.00364083144813776
0.0021896528102089688 0.0063206359431811675 -0.0037854784168303013
0.001971182229333095 0.005942233797145069 -0.003813901450484991
0.0017527114156265782 0.005563831247834466 -0.004414089024066925
0.0015342408347507046 0.0051854291017983676 -0.0038454029709100723
0.001315770253874831 0.004807026955762269 -0.0038738262373954058
0.0010972994401683138 0.004428624406451666 -0.004091396927833557
0.0008788288592924403 0.004050222260415568 -0.0038224211893975735
0.0006603582784165667 0.0036718201143794687 -0.0038769638631492853
0.00044188758112537137 0.003293417766706118 -0.0038531837053596973
0.00022341700024949783 0.0029150156206700197 -0.003664749674499035
4.94630295830245e-06 0.0025366132729966687 -0.0038456080947071314
-0.00021352433612523202 0.0021582110261419442 -0.0037664552219212055
-0.00043199503341642735 0.0017798086784685935 -0.0035376527812331915
0.004097349406434765 0.008750980700520997 -0.0006289048469625412
0.003660408244683018 0.0079941764084488 -0.0017674034461379051
0.003441937663807144 0.0076157742624127014 -0.002426780993118882
0.0032234666172699833 0.0072373713098275935 -0.0031091601122170687
0.0030049962692247534 0.0068589695670659995 -0.0032575619406998158
0.002786525455518236 0.0064805670177553966 -0.003600555704906583
0.0025680551074730063 0.006102165274993803 -0.003419696819037199
0.0023495845265971327 0.005723763128957704 -0.0038874021265655756
0.002131113712890616 0.0053453605796471015 -0.0039665549993515015
0.0019126431320147421 0.004966958433611003 -0.003964078146964312
0.0016941725511388686 0.004588556287574904 -0.003909536637365818
0.0014757017374323513 0.004210153738264301 -0.003907059784978628
0.0012572311565564778 0.0038317515922282027 -0.00454360106959939
0.0010387605756806042 0.003453349446192104 -0.004026423208415508
0.0008202898783894089 0.0030749470985187532 -0.0039718798361718655
0.0006018192975135355 0.0026965449524826548 -0.0038272333331406116
0.0003833486002223401 0.002318142604809304 -0.003906386438757181
0.0001648779611388056 0.0019397403579545793 -0.003930165432393551
-5.3592736152389756e-05 0.0015613380102812286 -0.0035689594224095345
-0.0002720633752359241 0.0011829357634265038 -0.002942900639027357
0.004257281097618273 0.008154107900849448 -0.0014363521477207541
0.004038810516742399 0.00777570575481335 -0.0014647743664681911
0.0038203399358665256 0.007397303608777252 -0.002188000362366438
0.0036018688893293647 0.007018900656192144 -0.0027615788858383894
0.003383398541284135 0.00664049891343055 -0.003187432186678052
0.0031649277275776176 0.006262096364119947 -0.0035486381966620684
0.0029464573795323877 0.005883694621358353 -0.003729497315362096
0.002727986798656514 0.005505292475322255 -0.0038108162116259336
0.002509515984949997 0.005126889926011652 -0.0038921351078897715
0.0022910454040741234 0.004748487779975553 -0.003920558374375105
0.00207257482319825 0.004370085633939454 -0.003975100815296173
0.0018541040094917326 0.003991683084628852 -0.004229583311825991
0.001635633428615859 0.003613280938592753 -0.003921162337064743
0.0014171628477399854 0.0032348787925566545 -0.003413128899410367
0.00119869215044879 0.0028564764448833035 -0.004112903494387865
0.0009802215695729165 0.002478074298847205 -0.003964501898735762
0.0007617508722817212 0.0020996719511738545 -0.0041453600861132145
0.0005432802331981867 0.0017212697043191296 -0.0037736024241894484
0.0003248095359069914 0.0013428673566457789 -0.0037760776467621326
0.00010633889682345695 0.0009644651097910542 -0.003725249320268631
-0.00011213175681199273 0.000586062837731673 -0.0034964466467499733
0.0044172127667477055 0.007557235113910826 -0.0013013794086873531
0.004198742185871832 0.007178832967874728 -0.001937920693308115
0.003980271139334671 0.00680043001528962 -0.0025066060479730368
0.0037618007912894416 0.006422028272528026 -0.002994885202497244
0.0035433299775829243 0.006043625723217423 -0.003483164357021451
0.0033248596295376944 0.005665223980455829 -0.0036315666511654854
0.003106389048661821 0.005286821834419731 -0.003974559251219034
0.0028879182349553036 0.004908419285109128 -0.0038932401221245527
0.00266944765407943 0.004530017139073029 -0.003972392994910479
0.0024509770732035565 0.00415161499303693 -0.003996172454208136
0.0022325062594970393 0.0037732124437263276 -0.004047001712024212
0.0020140356786211657 0.003394810297690229 -0.004070781636983156
0.0017955650977452922 0.0030164081516541306 -0.004068304784595966
0.0015770944004540968 0.0026380058039807796 -0.0040658279322087765
0.0013586238195782232 0.002259603657944681 -0.004011286422610283
0.0011401531222870278 0.0018812013102713304 -0.003956743516027927
0.0009216824832034934 0.0015027990634166057 -0.003928320482373238
0.000703211785912298 0.001124396715743255 -0.003783673280850053
0.00048474114682876357 0.0007459944688885305 -0.004052648786455393
0.00026627049319331397 0.0003675921968291492 -0.0032616867683827877
4.779985729301103e-05 -1.081004451205684e-05 -0.0029703928157687187
0.004795615010451848 0.007338764476646281 -0.001725679263472557
0.004577144429575975 0.006960362330610183 -0.0017802214715629816
0.004358673383038814 0.006581959378025075 -0.0025489875115454197
0.004140203034993584 0.006203557635263481 -0.002974841045215726
0.003921732221287067 0.005825155085952878 -0.0036008991301059723
0.0037032618732418367 0.005446753343191284 -0.0035771201364696026
0.003484791292365963 0.005068351197155186 -0.003971036523580551
0.003266320478659446 0.004689948647844583 -0.003973513375967741
0.0030478498977835724 0.004311546501808484 -0.003975988365709782
0.0028293793169076992 0.003933144355772386 -0.003952208906412125
0.002610908503201182 0.0035547418064617825 -0.004033528733998537
0.0023924379223253084 0.003176339660425684 -0.0040880716405808926
0.002173967341449435 0.0027979375143895855 -0.004008918534964323
0.0019554966441582395 0.0024195351667162346 -0.004153565037995577
0.0017370260632823657 0.002041133020680136 -0.004234884865581989
0.0015185553659911705 0.0016627306730067854 -0.003926464356482029
0.001300084726907636 0.0012843284261520609 -0.004007783252745867
0.0010816140296164406 0.00090592607847871 -0.0039286306127905846
0.0008631433905329062 0.0005275238316239854 -0.0037802287843078375
0.0006446727368974566 0.00014912155956460415 -0.0031890005338937044
0.00042620210099715355 -0.00022928068177660186 -0.0036764692049473524
0.00020773145873038764 -0.0006076829341448451 -0.0033334754407405853
-1.0739194905061939e-05 -0.0009860852062042263 -0.002742248587310314
0.004955546701635356 0.006741891676974733 -0.0016453808639198544
0.004737075655098195 0.006363488724389625 -0.0021130861714482307
0.004518605307052965 0.005985086981628031 -0.0027043139562010765
0.004300134493346448 0.005606684432317428 -0.003172019263729453
0.004081664145301218 0.005228282689555834 -0.003618059679865837
0.0038631935644253446 0.004849880543519736 -0.003766461741179228
0.0036447227507188274 0.004471477994209133 -0.0039148638024926186
0.003426252169842954 0.004093075848173034 -0.003965691663324833
0.0032077815889670802 0.0037146737021369358 -0.0040448447689414024
0.002989310775260563 0.0033362711528263328 -0.004123997874557972
0.0027708401943846894 0.0029578690067902343 -0.004069454036653042
0.002552369613508816 0.002579466860754136 -0.004377875477075577
0.0023338989162176205 0.002201064513080785 -0.004086581524461508
0.002115428335341747 0.0018226623670446866 -0.004110361449420452
0.0018969576380505515 0.0014442600193713359 -0.004161189775913954
0.0016784869989670173 0.0010658577725166111 -0.003980331122875214
0.0014600163016758219 0.0006874554248432603 -0.003951908089220524
0.0012415456625922874 0.0003090531779885357 -0.003734338330104947
0.0010230750089568377 -6.93490940708455e-05 -0.0037318619433790445
0.0008046043730565348 -0.0004477513354120515 -0.0036505425814539194
0.0005861337307897688 -0.0008261535877802947 -0.0035959992092102766
0.0003676630771543192 -0.001204555859839676 -0.003170145908370614
0.005552419529365954 0.006901823183927297 -0.0004901409265585246
0.0053339489484900806 0.006523421037891199 -0.0007814356940798464
0.00511547790195292 0.0061450180853060915 -0.0019555811304599047
0.00489700755390769 0.005766616342544497 -0.0027900540735572577
0.0046785367402011726 0.005388213793233894 -0.0033072317019104958
0.004460066392155943 0.0050098120504723 -0.0036684381775557995
0.004241595811280069 0.004631409904436202 -0.003617609618231654
0.004023124997573552 0.004253007355125599 -0.003908902872353792
0.0038046544166976783 0.0038746052090894998 -0.004200196824967861
0.0035861838358218047 0.0034962030630534013 -0.004011762794107199
0.0033677130221152875 0.0031178005137427983 -0.0040930816903710365
0.003149242441239414 0.0027393983677067 -0.004042253829538822
0.002930771860363541 0.0023609962216706013 -0.00425982428714633
0.0027123011630723454 0.0019825938739972504 -0.00418067118152976
0.002493830582196472 0.0016041917279611521 -0.00418314803391695
0.0022753598849052765 0.0012257893802878014 -0.004185623489320278
0.002056889245821742 0.0008473871334330767 -0.0040372214280068874
0.0018384185485305466 0.0004689847857597259 -0.003888819832354784
0.0016199479094470121 9.058253890500124e-05 -0.003917242866009474
0.0014014772558115624 -0.00028781973315437996 -0.003838089993223548
0.0011830066199112594 -0.0006662219744955859 -0.003689688164740801
0.0009645359776444934 -0.0010446242268638292 -0.0037181104999035597
0.0007460653240090437 -0.0014230264989232104 -0.0034096892923116684
0.0005275946558216789 -0.0018014287961872482 -0.003330537350848317
0.00030912401673814443 -0.002179831043041973 -0.0029321974143385887
0.005493880249626271 0.005926547388014896 -0.001544211991131306
0.005275409901581041 0.005548145645253301 -0.002609662944450975
0.0050569390878745235 0.005169743095942698 -0.0032690407242625956
0.004838468739829294 0.004791341353181104 -0.003457474755123258
0.00461999815895342 0.004412939207145006 -0.004026160575449467
0.004401527345246903 0.004034536657834403 -0.0037348663900047545
0.004183056764371029 0.0036561345117983044 -0.004043287131935358
0.003964586183495156 0.003277732365762206 -0.004094116855412722
0.0037461153697886385 0.002899329816451603 -0.0041732690297067165
0.003527644788912765 0.0025209276704155044 -0.004144846927374601
0.0033091742080368913 0.002142525524379406 -0.004223999101668596
0.003090703510745696 0.0017641231767060552 -0.004247778095304966
0.0028722329298698224 0.0013857210306699567 -0.004193235654383898
0.002653762232578627 0.001007318682996606 -0.003975665662437677
0.0024352915934950925 0.0006289164361418813 -0.004124067723751068
0.002216820896203897 0.0002505140884685305 -0.003906497731804848
0.0019983502571203626 -0.00012788815838619415 -0.003985648974776268
0.0017798796034849131 -0.0005062904304455753 -0.0038410027045756583
0.0015614089675846101 -0.0008846926717867813 -0.0038647828623652463
0.0013429383253178442 -0.0012630949241550246 -0.0036103003658354287
0.0011244676716823945 -0.0016414971962144058 -0.003528981236740947
0.0009059970034950296 -0.0020198994934784434 -0.0034744385629892354
0.0006875263644114952 -0.0023983017403331683 -0.003113232553005219
0.0004690557253279609 -0.002776703987187893 -0.0024374327622354035
0.005872282597299621 0.005708076690723701 -0.0022582588717341427
0.005653812249254392 0.005329674947962107 -0.002312802476808429
0.0054353414355478745 0.004951272398651504 -0.0031472744885832076
0.0052168710875026445 0.004572870655889909 -0.003401756985113025
0.004998400506626771 0.004194468509853811 -0.003827610751613975
0.004779929692920254 0.003816065960543208 -0.003908930812031031
0.00456145911204438 0.0034376638145071094 -0.003911406733095646
0.004342988531168507 0.0030592616684710105 -0.003992725629359484
0.004124517717461989 0.002680859119160408 -0.004074045456945896
0.0039060471365861154 0.002302456973124309 -0.004328527022153139
0.0036875765557102423 0.0019240548270882105 -0.004331003408879042
0.003469105858419047 0.0015456524794148598 -0.003988010808825493
0.0032506352775431733 0.0011672503333787613 -0.004279304761439562
0.003032164580251978 0.0007888479857054106 -0.00420015212148428
0.0028136939411684435 0.00041044573885068593 -0.0042546954937279224
0.002595223243877248 3.204339117733521e-05 -0.003911701496690512
0.0023767526047937136 -0.0003463588556773894 -0.0040563479997217655
0.002158281951158264 -0.0007247611277367706 -0.0038679139688611035
0.0019398113152579608 -0.0011031633690779766 -0.004441491793841124
0.001721340672991195 -0.0014815656214462198 -0.0037821147125214343
0.0015028700193557452 -0.001859967893505601 -0.0033360742963850503
0.0012843993511683803 -0.0022383701907696387 -0.0036273682489991192
0.0010659287120848458 -0.0026167724376243632 -0.0033985655754804616
0.0008474580730013114 -0.002995174684479088 -0.0032501637469977145
0.0006289874921254379 -0.0033735768305151867 -0.002907170914113522
0.00603221439529049 0.005111204367086233 -0.00213677017018199
0.0058137435815839725 0.00473280181777563 -0.002750605577602983
0.005595273233538743 0.004354400075014035 -0.003173614386469126
0.005376802652662869 0.003975997928977937 -0.0037648417055606846
0.005158331838956352 0.0035975953796673343 -0.0037886211648583417
0.004939861258080478 0.003219193233631236 -0.003977056127041578
0.004721390677204605 0.002840791087595137 -0.0038324086926877503
0.0045029198634980875 0.0024623885382845344 -0.004101383965462446
0.004284449282622214 0.0020839863922484355 -0.004330186638981104
0.00406597870174634 0.001705584246212337 -0.004275643732398748
0.0038475080044551454 0.0013271818985389862 -0.004194324836134911
0.003629037423579272 0.0009487797525028878 -0.004245153162628412
0.0034105667262880764 0.000570377404829537 -0.004064294509589672
0.003192096087204542 0.0001919751579748124 -0.004143447615206242
0.0029736253899133465 -0.00018642718969853834 -0.003998801112174988
0.002755154750829812 -0.000564829436553263 -0.004022580571472645
0.0025366840971943624 -0.0009432317086126441 -0.003768098540604115
0.0023182134612940593 -0.0013216339499538502 -0.003791877999901772
0.0020997428190272934 -0.0017000362023220934 -0.003763455664739013
0.0018812721653918437 -0.002078438474381475 -0.0037089127581566577
0.0016628014972044788 -0.0024568407716455123 -0.0036275929305702452
0.0014443308581209443 -0.002835243018500237 -0.003482945961877704
0.00122586021903741 -0.0032136452653549617 -0.0034016270656138663
0.0010073896381615364 -0.0035920474113910602 -0.003184056375175715
0.000788918940870341 -0.003970449759064411 -0.00310273701325059
0.0005704483599944675 -0.004348851905100509 -0.0024269386194646363
0.006410616742963841 0.004892733669795038 -0.0020505930297076706
0.0061921459292573235 0.004514331120484435 -0.002650781767442823
0.0059736755812120935 0.00413592937772284 -0.0030119877774268393
0.00575520500033622 0.003757527231686742 -0.003585566300898791
0.005536734186629703 0.003379124682376139 -0.0038400485645979647
0.005318263605753829 0.0030007225363400405 -0.003984693903476
0.005099793024877956 0.0026223203903039415 -0.004013117402791977
0.004881322211171438 0.002243917840993339 -0.004094437696039677
0.004662851630295565 0.0018655156949572403 -0.0041489796712994576
0.004444381049419691 0.0014871135489211416 -0.004177402704954147
0.004225910352128496 0.0011087112012477909 -0.0042319451458752155
0.004007439771252622 0.0007303090552116924 -0.004313264507800341
0.0037889690739614274 0.00035190670753834164 -0.004262436181306839
0.003570498434877893 -2.649553931638301e-05 -0.004264913033694029
0.0033520277375866975 -0.00040489788698973376 -0.004076478071510792
0.003133557098503163 -0.0007833001338444584 -0.00405269768089056
0.0029150864448677133 -0.0011617024059038395 -0.003973545506596565
0.0026966158089674103 -0.0015401046472450456 -0.00405486486852169
0.0024781451667006443 -0.0019185068996132888 -0.0037858900614082818
0.0022596745130651946 -0.00229690917167267 -0.0036374877672642474
0.0020412038448778297 -0.0026753114689367077 -0.003718806896358729
0.0018227332057942952 -0.003053713715791432 -0.0036396542564034466
0.001604262566710761 -0.003432115962646157 -0.0035605020821094517
0.0013857919858348874 -0.0038105181086822556 -0.0033316998742520814
0.001167321288543692 -0.004188920456355607 -0.0033079197164624934
0.0009488507076678184 -0.004567322602391705 -0.0027998860459774737
0.000730380010376623 -0.004945724950065056 -0.0028283090796321635
0.0065705478736561695 0.004295860656023883 -0.0022771924268454318
0.0063520775256109396 0.003917458913262288 -0.002785225631669164
0.006133606944735066 0.00353905676722619 -0.0032082337420433764
0.005915136131028549 0.003160654217915587 -0.0036065732128918175
0.005696665550152675 0.0027822520718794887 -0.003914994187653066
0.005478194969276802 0.00240384992584339 -0.003965822514146567
0.005259724155570284 0.0020254473765327873 -0.004044975619763137
0.005041253574694411 0.0016470452304966886 -0.004016553517431022
0.004822782993818537 0.0012686430844605899 -0.004067382309585811
0.004604312296527342 0.0008902407367872392 -0.004215783905237914
0.004385841715651468 0.0005118385907511406 -0.004071136936545373
0.004167371018360273 0.0001334362430777899 -0.004150289576500655
0.0039489003792767385 -0.00024496600377693476 -0.004005643073469401
0.0037304296819855435 -0.0006233683514502854 -0.0039772200398147115
0.003511959042902009 -0.00100177059830501 -0.0037963616196066145
0.0032934883892665593 -0.0013801728703643913 -0.0036155036650598054
0.0030750177533662563 -0.0017585751117055973 -0.003844306338578463
0.0028565471110994904 -0.0021369773640738405 -0.003841829486191273
0.0026380764574640407 -0.002515379636133222 -0.0037872868124395613
0.0024196057892766757 -0.0028937819333972594 -0.003705966984853149
0.0022011351501931412 -0.003272184180251984 -0.0036246476229280238
0.0019826645111096068 -0.003650586427106709 -0.0035701054148375992
0.0017641939302337334 -0.004028988573142807 -0.003425458446145058
0.001545723232942538 -0.004407390920816158 -0.0033709150739014153
0.0013272526520666645 -0.004785793066852256 -0.0032895961776375775
0.001108781954775469 -0.005164195414525607 -0.0031449492089450364
0.0008903113738995955 -0.005542597560561706 -0.00278374319896102
0.006948950019692269 0.0040773900751480095 -0.0025857202708721165
0.006730479671647039 0.003698988332386415 -0.0026141433045268063
0.006512009090771166 0.0033205861863503166 -0.003313918132334948
0.006293538277064648 0.002942183637039714 -0.003568400396034122
0.006075067696188774 0.0025637814910036156 -0.003929606173187495
0.0058565971153129006 0.0021853793449675167 -0.003984150011092425
0.005638126301606383 0.001806976795656914 -0.0040386924520134935
0.00541965572073051 0.0014285746496208154 -0.004120011348277331
0.005201185139854636 0.0010501725035847167 -0.004148434381932021
0.004982714442563441 0.0006717701559113661 -0.0042029772885143766
0.004764243861687567 0.0002933680098752675 -0.0041791978292167195
0.004545773164396372 -8.503433779808323e-05 -0.004155417438596488
0.004327302525312837 -0.0004634365846528079 -0.004300064872950316
0.004108831828021642 -0.0008418389323261586 -0.004071261733770371
0.0038903611889381075 -0.0012202411791808832 -0.0039921095594763764
0.003671890535302658 -0.0015986434512402644 -0.0039412807673215875
0.0034534198994023548 -0.0019770456925814707 -0.003995823208242656
0.003234949257135589 -0.0023554479449497136 -0.0039166705682873735
0.003016478603500139 -0.002733850217009095 -0.003919147420674563
0.002798007935312774 -0.0031122525142731326 -0.0038399943150579934
0.0025795372962292397 -0.003490654761127857 -0.0037891662213951354
0.0023610666571457052 -0.003869057007982582 -0.003600731492042542
0.0021425960762698325 -0.004247459154018681 -0.002453046385198832
0.0019241253789786374 -0.004625861501692032 -0.003464120673015714
0.0017056547981027638 -0.00500426364772813 -0.003440340515226126
0.0014871841008115684 -0.005382665995401481 -0.0033611881081014876
0.0012687135199356948 -0.00576106814143758 -0.0030527669005095963
0.0010502429390598213 -0.006139470287473678 -0.002416226547211409
0.0071088822209576415 0.003480517518679898 -0.0023420539218932395
0.006890411640081768 0.0031021153726437994 -0.0029332817066460852
0.006671940826375251 0.0027237128233331964 -0.003421561094000936
0.006453470245499377 0.0023453106772970984 -0.0038676005788147454
0.0062349996646235036 0.0019669085312609995 -0.003946752753108741
0.006016528850916986 0.0015885059819503967 -0.0038654338568449025
0.005798058270041113 0.0012101038359142982 -0.0041738548316061505
0.005579587689165239 0.0008317016898781996 -0.004145431797951461
0.005361116991874044 0.0004532993422048488 -0.004090888425707818
0.00514264641099817 7.48971961687503e-05 -0.00408841297030449
0.004924175713706975 -0.00030350515150460045 -0.0041675660759210595
0.00470570507462344 -0.0006819073983593251 -0.003680097404867411
0.004487234377332245 -0.001060309746032676 -0.004023090470582248
0.0042687637382487105 -0.0014387119928874004 -0.0039946683682501325
0.004050293084613261 -0.0018171142649467816 -0.003992191515862943
0.0038318224487129578 -0.002195516506287988 -0.003937648609280587
0.003613351806446192 -0.002573918758656231 -0.0037930023390799765
0.003394881152810742 -0.0029523210307156123 -0.0038438304327428345
0.0031764104846233776 -0.0033307233279796502 -0.0031440563034266238
0.0029579398455398427 -0.0037091255748343743 -0.0037127411924302582
0.0027394692064563082 -0.004087527821689099 -0.0036314222961664204
0.0025209986255804347 -0.004465929967725197 -0.0036289454437792306
0.0023025279282892397 -0.004844332315398549 -0.003267739433795214
0.002084057347413366 -0.005222734461434647 -0.0034965416416525845
0.001865586650122171 -0.005601136809107998 -0.0032789714168757205
0.0016471160692462974 -0.005979538955144097 -0.0028219395317137246
0.0014286454883704238 -0.006357941101180195 -0.0018241183133795862
0.00748728436699374 0.0032620469378040243 -0.0021114989649504427
0.007268813786117867 0.002883644791767926 -0.003009837353602052
0.00705034297241135 0.002505242242457323 -0.003466869238764048
0.006831872391535475 0.002126840096421225 -0.0038607858587056403
0.006613401810659602 0.001748437950385126 -0.003942104987800122
0.006394930996953084 0.0013700354010745231 -0.004023424815386535
0.006176460416077211 0.0009916332550384246 -0.004077967256307603
0.005957989835201337 0.000613231109002326 -0.003998814616352321
0.005739519137910142 0.00023482876132897528 -0.003975034225732089
0.005521048557034268 -0.00014357338470712328 -0.004119681660085917
0.005302577859743073 -0.000521975732380474 -0.00409590220078826
0.005084107220659538 -0.0009003779792351986 -0.004098378121852876
0.004865636523368343 -0.0012787803269085495 -0.004100854042917491
0.0046471658842848085 -0.001657182573763274 -0.004103329963982106
0.004428695230649359 -0.0020355848458226554 -0.004024177324026824
0.004210224594749056 -0.0024139870871638614 -0.004000397864729167
0.003991753952482291 -0.002792389339532105 -0.002852713223546744
0.00377328329884684 -0.003170791611591486 -0.0038824819494038825
0.0035548126306594752 -0.0035491939088555234 -0.003910904750227929
0.0033363419915759408 -0.003927596155710248 -0.0038317518774420027
0.0031178713524924063 -0.004305998402564973 -0.003683349816128612
0.0028994007716165327 -0.004684400548601071 -0.00360419717617333
0.0026809300743253373 -0.005062802896274422 -0.003580417018383742
0.0024624594934494638 -0.005441205042310521 -0.003556636860594154
0.0022439887961582697 -0.005819607389983872 -0.0031105978414416318
0.002025518215282396 -0.006198009536019971 -0.002841622801497579
0.0018070476344065223 -0.006576411682056069 -0.0022729367483407263
0.001588576820700005 -0.006954814231366672 -0.002301359781995416
0.0013701062398241315 -0.0073332163774027705 -0.0007566395215690141
0.007647215932153966 0.0026651742108920523 -0.0020277539733797316
0.0074287451184474485 0.0022867716615814493 -0.0030382182449102406
0.007210274537571575 0.0019083695155453506 -0.0035059240180999045
0.0069918039566957005 0.0015299673695092525 -0.0038776830770075326
0.006773333142989183 0.0011515648201986496 -0.0039014625363051896
0.00655486256211331 0.000773162674162551 -0.0038730402011424307
0.006336391981237436 0.0003947605281264525 -0.0041814614087343225
0.006117921283946242 1.635818045310128e-05 -0.0034816858824342494
0.005899450703070367 -0.00036204396558299685 -0.0036300884094089274
0.005680980005779172 -0.0007404463132563476 -0.003973081707954408
0.005462509366695637 -0.0011188485601110723 -0.00405223434790969
0.005244038669404442 -0.001497250907784423 -0.0040497574955225
0.0050255680303209075 -0.0018756531546391475 -0.004073537886142732
0.004807097376685458 -0.002254055426698529 -0.003928890451788903
0.004588626740785155 -0.002632457668039735 -0.0038743487093597655
