ply
format ascii 1.0
element vertex 720
property float x
property float y
property float z
end_header
0.005647253698149176 -0.011051820434348311 -0.0006660672370344385
0.004446236735736478 -0.011338717311456442 -0.00105455727316439
0.004869264145279931 -0.01098375516813065 -0.0006647630361840115
0.0052922915548233845 -0.010628793024804859 -0.0015491647645831093
0.005715318964366838 -0.010273830881479066 -0.0015191104030236587
0.00613834637391029 -0.009918868738153275 -0.0007146264542825506
0.006561373694274434 -0.00956390666965781 -0.001964878290891646
0.0028221925421389473 -0.01198057618222971 0.00045285798842087524
0.0032452199516824006 -0.01162561403890392 0.00038861884968355434
0.003668247361225854 -0.011270651895578127 -0.0008203021716326462
0.004091274592410686 -0.010915689901912988 -0.0008503562421537923
0.0045143020019541395 -0.010560727758587195 -0.0012838436523452388
0.004937329411497593 -0.010205765615261405 -0.001471400726586579
0.005360356821041046 -0.009850803471935612 -0.002113472670316695
0.0057833842305844985 -0.009495841328609821 -0.0017918477533385145
0.006206411550948642 -0.009140879260114356 -0.0016090377466753112
0.006629438960492095 -0.008785917116788564 -0.0006093903793953346
0.0003520933510958899 -0.013332359489315217 -0.0002108467306243243
0.0007751207606393431 -0.012977397345989425 -0.0004858206957578646
0.0011981481701827962 -0.012622435202663634 7.790178642608353e-05
0.002044202989269703 -0.01191251091601205 -0.0028461401816457497
0.0024672303988131556 -0.011557548772686258 0.000144507648656146
0.002890257808356609 -0.011202586629360467 -0.002826551208272575
0.003313285217900062 -0.010847624486034674 -0.0028296816162765013
0.0037363124490848946 -0.010492662492369536 -0.003012491855770348
0.004159339858628348 -0.010137700349043743 -0.0029482527170330273
0.004582367268171801 -0.009782738205717952 -0.002558458363637327
0.005005394677715254 -0.00942777606239216 -0.001967354444786905
0.005428422087258707 -0.009072813919066369 -0.001350248581729828
0.00585144940762285 -0.008717851850570904 -0.0015330584719777094
0.0062744768171663036 -0.008362889707245112 -0.0009693360188975917
0.006697504172366114 -0.00800792760951905 -0.00016485201194882265
-0.0016949777169692323 -0.014329180054432318 -0.0025811193045228707
-0.000848922897882326 -0.013619255767780735 -0.0009704019757919002
-0.0004258954883388728 -0.013264293624454944 0.000513528590090574
-2.8687922299026432e-06 -0.012909332079771763 -0.0006953937700018275
0.00042015861731355055 -0.012554369936445972 -0.0014141196152195321
0.0008431860268570037 -0.01219940779312018 -0.0008365053217858064
0.001266213436400457 -0.011844445649794389 -0.0012699937215074884
0.00168924084594391 -0.011489483506468596 -0.0013342328602448093
0.002112268255487363 -0.011134521363142805 -0.003206844441592692
0.0025352956650308163 -0.010779559219817013 -0.003024034202098845
0.0029583230745742696 -0.010424597076491222 -0.003088273340836166
0.003381350305759102 -0.010069635082826083 -0.0031883092597126948
0.0038043777153025553 -0.00971467293950029 -0.003152387216687201
0.004227405124846009 -0.009359710796174498 -0.00318244146183133
0.004650432534389462 -0.009004748652848707 -0.002953865565359591
0.005073459943932914 -0.008649786509522915 -0.001620941446162759
0.005496487264297058 -0.00829482444102745 -0.0010433262214064585
0.005919514673840511 -0.007939862297701657 -0.0003896974085364479
-0.0033190220889253836 -0.014971039074866242 -0.001567303086630999
-0.002472967269838477 -0.014261114788214657 -0.0025964623782783734
-0.0020499398602950238 -0.013906152644888866 -0.0018206739332526911
-0.0016269124507515707 -0.013551190501563073 -0.0027050757780671107
-0.0012038850412081177 -0.013196228358237283 -0.0021413529757410275
-0.0007808576316646644 -0.01284126621491149 -0.0014992813812568773
-0.00035783093555569434 -0.01248630467022831 -0.002037492115050553
6.519647398775886e-05 -0.012131342526902518 -0.002040621358901261
0.00048822388353121204 -0.011776380383576727 -0.0020437510684132563
0.0009112512930746652 -0.011421418240250935 -0.0032940029632300125
0.0013342787026181184 -0.011066456096925144 -0.002759389346465467
0.0017573061121615716 -0.010711493953599351 -0.0034130180720239865
0.0021803335217050247 -0.01035653181027356 -0.0031748663168400513
0.002603360931248478 -0.010001569666947768 -0.00340344221331179
0.0030263881624333104 -0.009646607673282629 -0.0034065723884850727
0.0034494155719767636 -0.009291645529956837 -0.003342333249747752
0.0038724429815202165 -0.008936683386631046 -0.003378254361450671
0.00429547039106367 -0.008581721243305253 -0.002988460240885614
0.004718497800607123 -0.008226759099979462 -0.0015381082193925966
0.005141525120971266 -0.007871797031483998 -0.0008193821413442481
0.005564552530514719 -0.007516834888158205 -0.00025565965916029995
0.00598757988571453 -0.007161872790432143 -0.0010787280043587078
-0.00325095622406511 -0.014193050235431479 -0.0019134406466037024
-0.0028279288145216567 -0.013838088092105686 -0.0020134772639721623
-0.0024049014049782034 -0.013483125948779895 -0.0026045809499919406
-0.0019818739954347506 -0.013128163805454103 -0.0025686598382890216
-0.0015588465858912973 -0.012773201662128312 -0.002958454191684722
-0.001135819176347844 -0.01241823951880252 -0.0029225321486592284
-0.0007127924802388739 -0.01206327797411934 -0.002739722374826669
-0.00028976507069542075 -0.011708315830793547 -0.0025111460126936427
0.0001332623388480324 -0.011353353687467756 -0.0027492966037243596
0.0005562897483914856 -0.010998391544141964 -0.00349651277065277
0.0009793171579349387 -0.010643429400816173 -0.0034933839924633494
0.001402344567478392 -0.01028846725749038 -0.003593419445678591
0.001825371977021845 -0.00993350511416459 -0.003590290201827883
0.0022483993865652983 -0.009578542970838797 -0.0036203444469720117
0.0026714266177501307 -0.009223580977173658 -0.0036172145046293727
0.003094454027293584 -0.008868618833847866 -0.0035482815001159898
0.003517481436837037 -0.008513656690522075 -0.003365471260622143
0.0039405088463804906 -0.008158694547196282 -0.00326269632205367
0.004363536255923943 -0.007803732403870492 -0.002408595755696296
0.0047865635762880865 -0.007448770335375026 -0.00037232117028906833
0.00520959098583154 -0.007093808192049234 0.0003862189478240918
-0.004451973186477808 -0.01447994711253961 -0.001400045584887265
-0.0040289457769343544 -0.014124984969213817 -0.0009302031830884506
-0.0036059183673909016 -0.013770022825888026 -0.0012051761150360097
-0.0031828909578474483 -0.013415060682562234 -0.002506637480109929
-0.002759863548303995 -0.013060098539236441 -0.002963144099339842
-0.0023368361387605422 -0.01270513639591065 -0.0029662738088518372
-0.001913808729217089 -0.012350174252584858 -0.00303520681336522
-0.0014907813196736357 -0.011995212109259067 -0.0031379808206111184
-0.0010677546235646656 -0.011640250564575886 -0.0028998302295804015
-0.0006447272140212124 -0.011285288421250095 -0.002935752272605895
-0.00022169980447775926 -0.010930326277924302 -0.0035133669152855864
0.0002013276050656939 -0.010575364134598511 -0.003616140689700841
0.0006243550146091471 -0.010220401991272719 -0.0037189153954386702
0.0010473824241526003 -0.009865439847946928 -0.0037878493312746278
0.0014704098336960534 -0.009510477704621136 -0.0036878129467368117
0.0018934372432395066 -0.009155515561295345 -0.003690942656248807
0.002316464474424339 -0.008800553567630206 -0.0036608888767659655
0.0027394918839677923 -0.008445591424304413 -0.0036308346316218367
0.003162519293511245 -0.00809062928097862 -0.0034432788379490367
0.0035855467030546984 -0.00773566713765283 -0.003009790088981389
0.004008574112598151 -0.007380704994327038 -0.0024156090803444377
0.004431601432962295 -0.007025742925831573 -0.0005822863313369443
0.004854628842505748 -0.006670780782505781 0.00033905694726854666
-0.004383907920260147 -0.013701957559670365 -0.0016816154820844522
-0.003960880510716695 -0.013346995416344574 -0.0022162292152643195
-0.003537853101173241 -0.012992033273018781 -0.003137572202831506
-0.0031148256916297876 -0.012637071129692989 -0.0030686396639794103
-0.0026917982820863348 -0.012282108986367198 -0.00330678978934884
-0.0022687708725428815 -0.011927146843041405 -0.0033368442673236123
-0.0018457434629994282 -0.011572184699715615 -0.0033337143249809733
-0.0014227167668904581 -0.011217223155032433 -0.0033305855467915526
-0.000999689357347005 -0.010862261011706642 -0.0031020091846585265
-0.0005766619478035509 -0.01050729886838085 -0.0036931131035089484
-0.00015363453826009778 -0.010152336725055059 -0.0037573522422462693
0.0002693928712833554 -0.009797374581729267 -0.004260788206011056
0.0006924202808268085 -0.009442412438403476 -0.003892639884725212
0.0011154476903702617 -0.009087450295077683 -0.003956879023462533
0.001538475099913714 -0.008732488151751892 -0.0033407981973141423
0.0019615023310985474 -0.008377526158086753 -0.00368073908612132
0.0023845297406420007 -0.008022564014760961 -0.003677609842270612
0.0028075571501854535 -0.007667601871435169 -0.003608676139265298
0.003230584559728906 -0.007312639728109378 -0.002609028480947017
0.003653611969272359 -0.006957677584783586 -0.0005886897561140349
0.004076639289636502 -0.00660271551628812 -3.103414928773324e-05
-0.0051618971738080855 -0.013633892650169946 -0.0018553459085524074
-0.004738869764264632 -0.013278930506844153 -0.0017553094075992695
-0.00431584235472118 -0.012923968363518362 -0.002782615600153803
-0.003892814945177726 -0.01256900622019257 -0.002392821479588746
-0.003469787535634273 -0.012214044076866777 -0.0033068608026951543
-0.00304676012609082 -0.011859081933540986 -0.0033427830785512916
-0.0026237327165473667 -0.011504119790215194 -0.003617756534367799
-0.0022007053070039135 -0.011149157646889403 -0.00351772061549127
-0.0017776786108949433 -0.010794196102206222 -0.0035536426585167638
-0.0013546512013514903 -0.01043923395888043 -0.003523588413372635
-0.000931623791808037 -0.010084271815554638 -0.00398009456694126
-0.0005085963822645839 -0.009729309672228847 -0.003950040787458419
-8.556897272113067e-05 -0.009374347528903055 -0.0040189740248024455
0.0003374584368223225 -0.009019385385577264 -0.003780822502449154
0.0007604858463657756 -0.008664423242251472 -0.003883597906678914
0.0011835132559092289 -0.00830946109892568 -0.004066408146172761
0.0016065404870940613 -0.007954499105260542 -0.0037264672573655835
0.0020295678966375146 -0.007599536961934749 -0.003292979206889867
0.0024525953061809674 -0.007244574818608958 -0.0036611284594982854
0.0028756227157244207 -0.006889612675283166 -0.0031265132129192344
0.003298650125267874 -0.006534650531957374 -0.0020491681061685077
0.0037216774456320166 -0.006179688463461909 0.00034727965248748747
-0.005516859317133878 -0.013210865240626491 -0.0012882779119536272
-0.005093831907590425 -0.0128559030973007 -0.0020070052705705157
-0.004670804498046972 -0.012500940953974908 -0.0026733523700386277
-0.004247777088503519 -0.012145978810649116 -0.0027034068480134
-0.0038247496789600654 -0.011791016667323325 -0.0033205130603164426
-0.0034017222694166125 -0.011436054523997532 -0.0035080688539892426
-0.0029786948598731593 -0.011081092380671741 -0.0035049384459853164
-0.002555667450329705 -0.010726130237345949 -0.0036924947053194037
-0.0021326407542207352 -0.01037116869266277 -0.003930646460503339
-0.001709613344677282 -0.010016206549336977 -0.003994884900748729
-0.0012865859351338287 -0.009661244406011186 -0.004024939611554145
-0.0008635585255903755 -0.009306282262685393 -0.004089178517460822
-0.00044053111604692237 -0.008951320119359603 -0.004020244348794221
-1.7503706503469173e-05 -0.00859635797603381 -0.0040844837203621856
0.000405523703039984 -0.00824139583270802 -0.0039016734808683387
0.0008285511125834372 -0.007886433689382227 -0.0039317277260124675
0.0012515783437682696 -0.007531471695717088 -0.0037031513638794413
0.0016746057533117218 -0.007176509552391296 -0.0035203411243855945
0.002097633162855175 -0.006821547409065504 -0.003417567117139696
0.002520660572398628 -0.006466585265739713 -0.0028014862909913054
0.0029436879819420814 -0.006111623122413921 -0.001947385841049253
-0.006294848870003123 -0.01314279997440883 -0.0019536691252142182
-0.00587182146045967 -0.012787837831083039 -0.0016644996358081692
-0.005448794050916216 -0.012432875687757246 -0.0024230401031672946
-0.005025766641372763 -0.012077913544431456 -0.002791189355775713
-0.00460273923182931 -0.011722951401105663 -0.0031128127593547097
-0.004179711822285857 -0.01136798925777987 -0.003480962011963128
-0.0037566844127424038 -0.01101302711445408 -0.003484091255813836
-0.00333365700319895 -0.010658064971128289 -0.0037590654101222745
-0.002910629593655497 -0.010303102827802496 -0.003794986987486481
-0.002487602897546527 -0.009948141283119317 -0.0038977614603936664
-0.0020645754880030736 -0.009593179139793524 -0.0039666956290602675
-0.0016415480784596204 -0.009238216996467733 -0.004334843717515468
-0.001218520668916167 -0.008883254853141941 -0.003994903061538934
-0.000795493259372714 -0.00852829270981615 -0.00453311251476407
-0.00037246584982926083 -0.008173330566490358 -0.004099625628441571
5.0561559714192325e-05 -0.007818368423164567 -0.003912068437784909
0.0004735889692576455 -0.007463406279838774 -0.003915198612958192
0.0008966162004424779 -0.007108444286173635 -0.003850959474220871
0.001319643609985931 -0.006753482142847844 -0.0035617898683995
0.0017426710195293839 -0.006398519999522051 -0.003272620728239416
0.002165698429072837 -0.0060435578561962595 -0.002606273163110017
0.00258872583861629 -0.005688595712870468 -0.0024956970009952775
0.003011753158980433 -0.005333633644375002 -0.001748480950482189
-0.006649811013328915 -0.012719772564865377 -0.002029982162639498
-0.006226783603785461 -0.012364810421539585 -0.0017083572456613177
-0.005803756194242008 -0.012009848278213794 -0.002350429305806755
-0.005380728784698556 -0.011654886134888002 -0.003016777103766798
-0.004957701375155102 -0.011299923991562209 -0.002947844099253415
-0.004534673965611648 -0.010944961848236418 -0.0035899155773222438
-0.004111646556068195 -0.010589999704910627 -0.0036541547160595647
-0.0036886191465247417 -0.010235037561584835 -0.0037183938547968856
-0.0032655917369812885 -0.009880075418259044 -0.0039059496484696856
-0.0028425650408723186 -0.009525113873575863 -0.004005986265838145
-0.0024195376313288653 -0.009170151730250072 -0.003970064222812652
-0.001996510221785412 -0.00881518958692428 -0.004157620016485452
-0.0015734828122419588 -0.008460227443598489 -0.004154491238296031
-0.0011504554026985057 -0.008105265300272696 -0.004051715601235627
-0.0007274279931550526 -0.007750303156946904 -0.0038689058274030677
-0.00030440058361159934 -0.007395341013621113 -0.003766131354495882
0.00011862682593185383 -0.007040378870295321 -0.003663357347249984
0.0005416540571166862 -0.006685416876630182 -0.0039015074726194135
0.0009646814666601386 -0.0063304547333043895 -0.0028742016293108455
0.0013877088762035918 -0.005975492589978598 -0.0028710728511214248
0.0018107362857470448 -0.005620530446652806 -0.002254992024973034
0.002233763695290498 -0.0052655683033270145 -0.0001965937117347487
-0.0074278005661981596 -0.012651707298647716 -0.0018020719289779657
-0.007004773156654706 -0.012296745155321923 -0.0019848817028105255
-0.006581745747111253 -0.011941783011996132 -0.0024827294982969757
-0.0061587183375678 -0.01158682086867034 -0.0025516625028103586
-0.005735690928024347 -0.011231858725344549 -0.0032052914611995216
-0.005312663518480894 -0.010876896582018757 -0.0033881017006933685
-0.00488963610893744 -0.010521934438692966 -0.0035709117073565717
-0.004466608699393987 -0.010166972295367173 -0.003606833983212709
-0.004043581289850533 -0.009812010152041382 -0.0037896437570452686
-0.0036205538803070806 -0.00945704800871559 -0.003892418229952454
-0.0031975271841981107 -0.00910208646403241 -0.0043902662582695475
-0.0027744997746546574 -0.008747124320706618 -0.0038556512445211406
-0.002351472365111204 -0.008392162177380827 -0.0039245840162038794
-0.0019284449555677509 -0.008037200034055034 -0.004199557937681674
-0.0015054175460242978 -0.007682237890729243 -0.004012002144008874
-0.0010823901364808446 -0.007327275747403451 -0.004047924187034368
-0.0006593627269373915 -0.006972313604077659 -0.004017869941890239
-0.0002363353173939383 -0.006617351460751868 -0.0040209987200796595
0.00018669191379089414 -0.006262389467086729 -0.0036312043666839595
0.0006097193233343469 -0.005907427323760936 -0.0028267202433198686
0.0010327467328778 -0.005552465180435145 -0.0025375513359904285
0.0014557741424212531 -0.005197503037109353 -0.003191180061548948
0.0018788015519647064 -0.004842540893783561 -0.0027213373687118288
-0.007359735299980498 -0.011873717745778471 -0.002153062261641025
-0.006936707890437045 -0.011518755602452678 -0.0024930031504482027
-0.006513680480893591 -0.011163793459126888 -0.0024240689817816015
-0.006090653071350139 -0.010808831315801095 -0.003142796456813812
-0.005667625661806686 -0.010453869172475302 -0.003330352250486612
-0.005244598252263232 -0.010098907029149512 -0.0036702931392937894
-0.004821570842719778 -0.00974394488582372 -0.003770329058170318
-0.004398543433176325 -0.009388982742497928 -0.003957885317504405
-0.003975516023632873 -0.009034020599172137 -0.003682911396026611
-0.0035524893275239024 -0.008679059054488956 -0.004022852052003144
-0.003129461917980449 -0.008324096911163165 -0.004052906297147273
-0.002706434508436996 -0.007969134767837373 -0.004240462090820073
-0.0022834070988935425 -0.007614172624511581 -0.004270516335964202
-0.0018603796893500895 -0.0072592104811857894 -0.0038140104152262207
-0.0014373522798066362 -0.006904248337859998 -0.00400156620889902
-0.0010143248702631832 -0.006549286194534206 -0.0038987922016531225
-0.0005912974607197299 -0.006194324051208414 -0.0037159819621592756
-0.00016827022953489797 -0.005839362057543275 -0.0032181350979954
0.0002547571800085552 -0.005484399914217483 -0.0028965102974325414
0.0006777845895520084 -0.005129437770891691 -0.001953428611159324
0.0011008119990954615 -0.0047744756275659 -0.0012997995363548394
-0.008137724852849743 -0.01180565247956081 -0.0022085665259510274
-0.00771469744330629 -0.011450690336235017 -0.0021785132121294733
-0.007291670033762836 -0.011095728192909226 -0.0024534862022846933
-0.006868642624219383 -0.010740766049583433 -0.002909992123022675
-0.006445615214675931 -0.010385803906257643 -0.0032316171564161773
-0.0060225878051324774 -0.01003084176293185 -0.003506591077893972
-0.005599560395589024 -0.00967587961960606 -0.00360936508513987
-0.005176532986045571 -0.009320917476280267 -0.0037121404893696304
-0.004753505576502118 -0.008965955332954476 -0.0038149144966155286
-0.004330478166958664 -0.008610993189628683 -0.003883847733959555
-0.0039074514708496945 -0.008256031644945504 -0.003952781669795512
-0.003484424061306241 -0.007901069501619711 -0.004055555909872054
-0.003061396651762788 -0.0075461073582939195 -0.00399131653830409
-0.0026383692422193347 -0.007191145214968128 -0.0034878805745393033
-0.0022153418326758814 -0.006836183071642336 -0.004103961400687694
-0.0017923144231324283 -0.0064812209283165445 -0.004073907155543565
-0.0013692870135889753 -0.006126258784990753 -0.004009668249636888
-0.000946259604045522 -0.005771296641664961 -0.00394542934373021
-0.0005232323728606897 -0.005416334647999822 -0.003915375098586082
-0.00010020496331723646 -0.00506137250467403 -0.0027728222776204343
0.0003228224462262167 -0.004706410361348238 -0.001630268525332212
0.0007458498557696699 -0.004351448218022446 -0.0016992016462609168
0.001168877265313123 -0.003996486074696655 0.0005312648136168723
-0.00806965943697143 -0.011027663105050186 -0.002169003244489431
-0.007646632027427975 -0.010672700961724393 -0.0025587975978851314
-0.007223604617884522 -0.010317738818398602 -0.0028987380210310216
-0.00680057720834107 -0.00996277667507281 -0.002962976926937699
-0.006377549798797616 -0.009607814531747017 -0.0033527712803333993
-0.005954522389254163 -0.009252852388421226 -0.003692712169140577
-0.00553149497971071 -0.008897890245095434 -0.00350990192964673
-0.0051084675701672565 -0.008542928101769643 -0.00369745772331953
-0.004685440160623803 -0.00818796595844385 -0.003885014215484261
-0.004262413464514833 -0.007833004413760671 -0.004072569776326418
-0.00383938605497138 -0.007478042270434879 -0.0041368091478943825
-0.003416358645427927 -0.0071230801271090875 -0.003953998908400536
-0.0029933312358844735 -0.006768117983783295 -0.004141554702073336
-0.0025703038263410203 -0.006413155840457503 -0.004072621464729309
-0.0021472764167975674 -0.006058193697131712 -0.0042601777240633965
-0.0017242490072541142 -0.00570323155380592 -0.003644096432253718
-0.0013012215977106609 -0.005348269410480128 -0.003369124140590429
-0.0008781943665258286 -0.004993307416814989 -0.0030941502191126342
-0.00045516695698237536 -0.004638345273489198 -0.0022710815537720914
-3.213954743892217e-05 -0.004283383130163406 -0.0030182974878698583
-0.00842462158029722 -0.010604635695506731 -0.0021974511910229917
-0.008001594170753768 -0.01024967355218094 -0.0026952980551868673
-0.007578566761210314 -0.009894711408855148 -0.002970271976664662
-0.007155539351666861 -0.009539749265529357 -0.0032918953802436586
-0.006732511942123408 -0.009184787122203565 -0.0033946710173040624
-0.006309484532579955 -0.008829824978877772 -0.003463603556156158
-0.0058864571230365014 -0.008474862835551981 -0.003692179918289184
-0.005463429713493048 -0.008119900692226189 -0.003761112922802567
-0.005040402303949595 -0.007764938548900397 -0.003989688586443663
-0.004617375607840625 -0.007409977004217218 -0.003959634806960821
-0.004194348198297172 -0.007055014860891426 -0.004028568509966135
-0.0037713207887537185 -0.006700052717565634 -0.004031697753816843
-0.003348293379210265 -0.006345090574239842 -0.0041344729252159595
-0.002925265969666812 -0.00599012843091405 -0.003946916200220585
-0.002502238560123359 -0.005635166287588258 -0.004049690905958414
-0.002079211150579906 -0.005280204144262467 -0.003862134180963039
-0.0016561837410364526 -0.004925242000936675 -0.003623983589932322
-0.0012331565098516201 -0.004570280007271536 -0.00319049647077918
-0.000810129100308167 -0.0042153178639457445 -0.0021770775783807035
-0.0003871016907647141 -0.003860355720619953 -0.000968156615272164
3.592571877873912e-05 -0.0035053935772941607 0.00030890779453329774
-0.008779583723623013 -0.010181608285963279 -0.0014101050328463314
-0.008356556314079559 -0.009826646142637487 -0.002552657853811979
-0.007933528904536106 -0.009471683999311696 -0.0029424522072076793
-0.007510501494992653 -0.009116721855985903 -0.0031806039623916145
-0.0070874740854492 -0.008761759712660112 -0.0033681597560644145
-0.006664446675905746 -0.00840679756933432 -0.0035557155497372146
-0.006241419266362293 -0.008051835426008527 -0.0037432713434100147
-0.00581839185681884 -0.0076968732826827365 -0.0038433079607784744
-0.005395364447275387 -0.007341911139356945 -0.0039433445781469345
-0.004972337751166417 -0.006986949594673764 -0.003973398357629776
-0.004549310341622963 -0.006631987451347973 -0.004211548715829849
-0.00412628293207951 -0.006277025308022181 -0.004175626672804356
-0.003703255522536057 -0.005922063164696389 -0.004072852898389101
-0.0032802281129926036 -0.005567101021370598 -0.00403693038970232
-0.0028572007034491508 -0.005212138878044806 -0.0037619576323777433
-0.0024341732939056975 -0.0048571767347190134 -0.0034869837108999486
-0.0020111458843622442 -0.004502214591393222 -0.002572944154962897
-0.0015881186531774118 -0.004147252597728083 -0.0022513198200613256
-0.001165091243633959 -0.003792290454402291 -0.001006941311061382
-0.0007420638340905057 -0.0034373283110764995 0.00020862196106463698
-0.00955757320166193 -0.010113543108924927 -0.001644756644964218
-0.009134545792118478 -0.009758580965599136 -0.0018275666516274212
-0.008711518382575025 -0.009403618822273344 -0.0025524767115712166
-0.008288490973031571 -0.009048656678947553 -0.003090686397626996
-0.007865463563488119 -0.00869369453562176 -0.003273496637120843
-0.0074424361539446645 -0.008338732392295968 -0.003376271575689316
-0.007019408744401211 -0.007983770248970177 -0.0035590818151831627
-0.006596381334857758 -0.0076288081056443855 -0.00392723036929965
-0.006173353925314305 -0.007273845962318594 -0.0038271937519311905
-0.005750326515770852 -0.006918883818992801 -0.003762955078855157
-0.0053272998196618815 -0.006563922274309622 -0.003991530742496252
-0.004904272410118428 -0.00620896013098383 -0.004027451854199171
-0.004481245000574976 -0.005853997987658038 -0.004130227491259575
-0.004058217591031523 -0.005499035844332246 -0.0039426712319254875
-0.003635190181488069 -0.005144073701006454 -0.0039785923436284065
-0.003212162771944616 -0.0047891115576806625 -0.003914353437721729
-0.0027891353624011628 -0.004434149414354871 -0.0037267974112182856
-0.0023661079528577095 -0.004079187271029079 -0.0033370032906532288
-0.0019430807216728773 -0.0037242252773639403 -0.0024156603030860424
-0.0015200533121294242 -0.0033692631340381486 -0.0012067388743162153
-0.0010970259025859712 -0.0030143009907123565 -0.00022476373123936336
-0.00948950793544427 -0.009335553556055682 -0.0017342764185741542
-0.009066480525900816 -0.008980591412729892 -0.0023513820488005877
-0.008643453116357364 -0.008625629269404099 -0.0028548187110573053
-0.00822042570681391 -0.008270667126078308 -0.003194759599864483
-0.007797398297270456 -0.007915704982752516 -0.003382315393537283
-0.007374370887727003 -0.007560742839426724 -0.0033133823890239
-0.0069513434781835505 -0.007205780696100932 -0.0037468699738383293
-0.006528316068640097 -0.006850818552775141 -0.003934426698833704
-0.006105288659096644 -0.006495856409449349 -0.003705850802361965
-0.005682261962987674 -0.0061408948647661684 -0.0042092869989573956
-0.005259234553444221 -0.005785932721440377 -0.004239341244101524
-0.0048362071439007675 -0.005430970578114585 -0.003741493448615074
-0.004413179734357314 -0.005076008434788793 -0.003929050173610449
-0.003990152324813861 -0.004721046291463002 -0.003654076252132654
-0.0035671249152704077 -0.00436608414813721 -0.003650946542620659
-0.0031440975057269544 -0.0040111220048114175 -0.0034223701804876328
-0.0027210700961835016 -0.003656159861485626 -0.0025682703126221895
-0.002298042864998669 -0.003301197867820487 -0.0015409642364829777
-0.001875015455455216 -0.0029462357244946953 -0.0008873353945091366
-0.01026749745089835 -0.009267488334427676 -0.001715806545689702
-0.009844470041354898 -0.008912526191101885 -0.001528250752016902
-0.009421442631811444 -0.008557564047776092 -0.0026368452236056328
-0.008998415222267991 -0.008202601904450301 -0.0031750549096614122
-0.008575387812724539 -0.007847639761124509 -0.003178185084834695
-0.008152360403181085 -0.007492677617798718 -0.0033609953243285418
-0.007729332993637632 -0.007137715474472926 -0.0035438050981611013
-0.007306305584094178 -0.006782753331147134 -0.0035469343420118093
-0.006883278174550725 -0.006427791187821342 -0.004271843936294317
-0.006460250765007273 -0.0060728290444955505 -0.0037684075068682432
-0.006037224068898302 -0.005717867499812371 -0.003771537682041526
-0.005614196659354849 -0.005362905356486578 -0.004093162249773741
-0.005191169249811396 -0.005007943213160787 -0.003905606223270297
-0.004768141840267943 -0.004652981069834995 -0.004273754544556141
-0.00434511443072449 -0.004298018926509203 -0.003883960423991084
-0.003922087021181036 -0.003943056783183412 -0.0038539059460163116
-0.003499059611637583 -0.00358809463985762 -0.003319291165098548
-0.00307603220209413 -0.003233132496531828 -0.0024568745866417885
-0.002653004970909298 -0.002878170502866689 -0.001565140439197421
-0.0022299775613658446 -0.0025232083595408974 -0.0015009015332907438
-0.010199432156619318 -0.008489498815000673 -0.0018461423460394144
-0.009776404747075864 -0.008134536671674882 -0.002349579008296132
-0.009353377337532411 -0.007779574528349089 -0.0031540628988295794
-0.008930349927988957 -0.007424612385023298 -0.0031509341206401587
-0.008507322518445505 -0.007069650241697506 -0.003180987900123
-0.00808429510890205 -0.006714688098371714 -0.00328102451749146
-0.007661267699358598 -0.006359725955045923 -0.003714511403813958
-0.007238240289815145 -0.006004763811720131 -0.004003681242465973
-0.006815212880271692 -0.005649801668394339 -0.003967758733779192
-0.006392186184162722 -0.005294840123711159 -0.003931836690753698
-0.0059691587746192685 -0.004939877980385367 -0.0037490269169211388
-0.005546131365075815 -0.0045849158370595755 -0.003987178206443787
-0.005123103955532362 -0.004229953693733784 -0.003712204284965992
-0.004700076545988909 -0.0038749915504079917 -0.0036762827076017857
-0.004277049136445455 -0.0035200294070822 -0.003219776088371873
-0.0038540217269020026 -0.003165067263756408 -0.0024612362030893564
-0.0034309943173585493 -0.0028101051204306162 -0.0015181550988927484
-0.003007967086173717 -0.0024551431267654774 -0.001150005729869008
-0.01097742170013477 -0.008421433559930426 -0.002011973178014159
-0.010554394290591318 -0.008066471416604633 -0.0021147471852600574
-0.010131366881047864 -0.0077115092732788415 -0.0027308280114084482
-0.009708339471504412 -0.00735654712995305 -0.003052452811971307
-0.00928531206196096 -0.007001584986627258 -0.0031213853508234024
-0.008862284652417505 -0.0066466228433014665 -0.003224159823730588
-0.008439257242874053 -0.006291660699975675 -0.003406970063224435
-0.008016229833330599 -0.005936698556649883 -0.0036819439847022295
-0.007593202423787145 -0.0055817364133240914 -0.003910520114004612
-0.007170175014243693 -0.0052267742699983 -0.0038804656360298395
-0.006747148318134722 -0.004871812725315119 -0.0038504116237163544
-0.006324120908591269 -0.004516850581989328 -0.0038863338995724916
-0.005901093499047817 -0.004161888438663536 -0.003856279654428363
-0.005478066089504363 -0.003806926295337744 -0.0038262251764535904
-0.00505503867996091 -0.003451964152011952 -0.004649294074624777
-0.004632011270417457 -0.0030970020086861605 -0.003506740089505911
-0.0042089838608740035 -0.002742039865360369 -0.0025247649755328894
-0.0037859564513305502 -0.0023870777220345767 -0.0016034216387197375
-0.0033629292201457182 -0.002032115728369438 -0.0019250463228672743
-0.010909356359086783 -0.0076434440962404905 -0.002138641895726323
-0.01048632894954333 -0.007288481952914699 -0.0024785827845335007
-0.010063301539999877 -0.006933519809588907 -0.0032257987186312675
-0.009640274130456424 -0.0065785576662631155 -0.002687589032575488
-0.00921724672091297 -0.006223595522937324 -0.00315743125975132
-0.008794219311369518 -0.005868633379611532 -0.002928855363279581
-0.008371191901826064 -0.0055136712362857405 -0.003545961109921336
-0.007948164492282611 -0.005158709092959949 -0.0037841119337826967
-0.007525137082739158 -0.004803746949634156 -0.0037481908220797777
-0.007102110386630188 -0.004448785404950977 -0.0036792566534131765
-0.006679082977086735 -0.004093823261625185 -0.003610324114561081
-0.006256055567543281 -0.003738861118299393 -0.003640376729890704
-0.005833028157999828 -0.003383898974973601 -0.0032722284086048603
-0.005410000748456375 -0.0030289368316478095 -0.003169454401358962
-0.0049869733389129225 -0.0026739746883220174 -0.0025533735752105713
-0.004563945929369469 -0.0023190125449962257 -0.001610291423276067
-0.004140918519826016 -0.001964050401670434 -0.0011537851532921197
-0.011687345837125702 -0.0075753789192021396 -0.0020260512828826904
-0.011264318427582248 -0.007220416775876348 -0.0023476756177842617
-0.010841291018038796 -0.006865454632550556 -0.0027158239390701056
-0.010418263608495341 -0.0065104924892247645 -0.003037448739632964
-0.009995236198951889 -0.006155530345898973 -0.0030733710154891014
-0.009572208789408437 -0.005800568202573181 -0.003142303554341197
-0.009149181379864983 -0.0054456060592473895 -0.0034172774758189917
-0.00872615397032153 -0.005090643915921597 -0.0035200531128793955
-0.008303126560778076 -0.004735681772595805 -0.003332496155053377
-0.007880099151234624 -0.004380719629270014 -0.0037006456404924393
-0.007457072455125653 -0.004025758084586834 -0.003670591162517667
-0.0070340450455821995 -0.003670795941261042 -0.0033306502737104893
-0.006611017636038747 -0.0033158337979352502 -0.003698798594996333
-0.006187990226495294 -0.002960871654609458 -0.003409629687666893
-0.005764962816951841 -0.0026059095112836664 -0.002818525303155184
-0.005341935407408387 -0.0022509473679578748 -0.0037325648590922356
-0.004918907997864934 -0.0018959852246320833 -0.005155764054507017
-0.004495880588321481 -0.0015410230813062912 -0.0011940244585275652
-0.004072853357136649 -0.0011860610876411521 0.0005046022706665096
-0.01161928057090804 -0.006797389366332895 -0.0022164299152791504
-0.011196253161364588 -0.006442427223007103 -0.002606224734336138
-0.010773225751821134 -0.006087465079681311 -0.0029461651574820284
-0.010350198342277682 -0.00573250293635552 -0.0031337223481386904
-0.009927170932734227 -0.005377540793029728 -0.0029509121086448435
-0.009504143523190775 -0.005022578649703936 -0.0034207543358206753
-0.009081116113647321 -0.004667616506378145 -0.003520790953189135
-0.008658088704103869 -0.004312654363052353 -0.003451856784522534
-0.008235061294560414 -0.00395769221972656 -0.0034819110296666626
-0.007812034598451445 -0.0036027306750433807 -0.0035461501684039835
-0.007389007188907992 -0.0032477685317175886 -0.0031780018471181397
-0.006965979779364539 -0.002892806388391797 -0.0032080546952784066
-0.0065429523698210855 -0.0025378442450660053 -0.003139122156426311
-0.006119924960277632 -0.0021828821017402136 -0.002770973835140467
-0.005696897550734179 -0.0018279199584144217 -0.003722256282344461
-0.005273870141190726 -0.0014729578150886296 -0.0011361371725797655
-0.012397270123777285 -0.006729324100115233 -0.0020793483126908545
-0.011974242714233831 -0.006374361956789441 -0.002262157620862127
-0.011551215304690379 -0.00601939981346365 -0.002718664705753327
-0.011128187895146927 -0.005664437670137858 -0.0029014737810939555
-0.010705160485603472 -0.005309475526812066 -0.0033579808659851555
-0.01028213307606002 -0.004954513383486275 -0.0031198295764625077
-0.009859105666516566 -0.004599551240160483 -0.0033026393502950673
-0.009436078256973113 -0.004244589096834691 -0.003405413823202253
-0.00901305084742966 -0.003889626953508899 -0.0033753605093806986
-0.008590023437886207 -0.0035346648101831075 -0.003187803784385324
-0.008166996741777236 -0.0031797032654999275 -0.0035094281192868952
-0.007743969332233784 -0.0028247411221741354 -0.0034093922004103665
-0.0073209419226903305 -0.0024697789788483437 -0.0031202225945889954
-0.006897914513146877 -0.002114816835522552 -0.0030901697464287285
-0.006474887103603424 -0.0017598546921967601 -0.002656680997461081
-0.006051859694059971 -0.0014048925488709685 -0.0018233346054330473
-0.005628832284516518 -0.0010499304055451764 -0.0017590954666957264
-0.005205804874973065 -0.0006949682622193845 0.0004713717789854851
-0.012329204857559624 -0.005951334547245988 -0.0021877831313759093
-0.011906177448016171 -0.005596372403920196 -0.0025277235545217995
-0.011483150038472717 -0.005241410260594405 -0.002867664443328977
-0.011060122628929265 -0.004886448117268613 -0.0025926916860044007
-0.01063709521938581 -0.004531485973942821 -0.002881861058995128
-0.010214067809842358 -0.00417652383061703 -0.002946100197732449
-0.009791040400298904 -0.0038215616872912376 -0.0033358945511281495
-0.009368012990755452 -0.003466599543965446 -0.003400133224204183
-0.008944985581212 -0.0031116374006396543 -0.003331199521198869
-0.008521958885103029 -0.002756675855956474 -0.003620368661358953
-0.008098931475559575 -0.002401713712630682 -0.003163862740620971
-0.007675904066016122 -0.0020467515693048904 -0.0031939169857651
-0.007252876656472669 -0.0016917894259790987 -0.002737410366535187
-0.006829849246929216 -0.0013368272826533069 -0.0019788704812526707
-0.006406821837385763 -0.0009818651393275152 -0.0007286187610588972
-0.013107194260768217 -0.005883269459386948 -0.001923351082950831
-0.012684166851224763 -0.005528307316061156 -0.002244975417852402
-0.01226113944168131 -0.005173345172735364 -0.002613123739138246
-0.011838112032137856 -0.004818383029409573 -0.002715899143368006
-0.011415084622594404 -0.004463420886083781 -0.002898709382861853
-0.010992057213050951 -0.0041084587427579885 -0.0030815196223557
-0.010569029803507497 -0.0037534965994321973 -0.0031842936296015982
-0.010146002393964045 -0.003398534456106405 -0.003367103869095445
-0.00972297498442059 -0.003043572312780614 -0.003549914108589292
-0.009299947574877137 -0.0026886101694548223 -0.0038248880300670867
-0.008876920878768168 -0.0023336486247716418 -0.0035357184242457156
-0.008453893469224715 -0.0019786864814458497 -0.0034714792855083947
-0.008030866059681261 -0.001623724338120058 -0.0031823092140257363
-0.007607838650137809 -0.0012687621947942663 -0.002792516024783254
-0.007184811240594355 -0.0009138000514684745 -0.002257900778204203
-0.006761783831050902 -0.0005588379081426828 -0.0014534159563481812
-0.006338756421507449 -0.000203875764816891 0.00021472520893439602
-0.012616101585007101 -0.004750317763191911 -0.002820312744006515
-0.012193074175463649 -0.0043953556198661195 -0.0027175380382686858
-0.011770046765920196 -0.004040393476540328 -0.002905093831941486
-0.011347019356376742 -0.0036854313332145357 -0.0029693329706788067
-0.01092399194683329 -0.003330469189888744 -0.0030693695880472664
-0.010500964537289836 -0.002975507046562952 -0.0033585384953767066
-0.010077937127746382 -0.0026205449032371607 -0.003596689319238067
-0.00965490971820293 -0.002265582759911369 -0.003626743564382196
-0.009231883022093958 -0.0019106212152281887 -0.0035908215213567023
-0.008808855612550506 -0.0015556590719023966 -0.003013207577168942
-0.008385828203007054 -0.0012006969285766047 -0.002830397337675095
-0.0079628007934636 -0.000845734785250813 -0.002462249016389251
-0.007539773383920147 -0.0004907726419250213 -0.0017037085490301258
-0.007116745974376694 -0.0001358104985992295 -5.0581744289957536e-05
-0.013394091137876346 -0.0046822524969742495 -0.0022447095252573494
-0.012971063728332894 -0.004327290353648458 -0.002566334325820208
-0.01254803631878944 -0.003972328210322666 -0.002749143866822124
-0.012125008909245987 -0.003617366066996874 -0.0027850652113556866
-0.011701981499702535 -0.0032624039236710824 -0.0028209872543811802
-0.01127895409015908 -0.0029074417803452907 -0.0031891367398202424
-0.010855926680615628 -0.0025524796370194986 -0.003291911212727428
-0.010432899271072174 -0.002197517493693708 -0.003613535547628999
-0.010009871861528722 -0.0018425553503679162 -0.0035834810696542267
-0.009586845165419751 -0.001487593805684735 -0.0033959252759814267
-0.009163817755876299 -0.0011326316623589433 -0.00300613115541637
-0.008740790346332844 -0.0007776695190331516 -0.0029760766774415974
-0.008317762936789392 -0.0004227073757073598 -0.002412354573607445
-0.007894735527245938 -6.7745232381568e-05 -0.002123184967786074
-0.007471708117702485 0.0002872169109442238 -0.0013473967555910355
-0.013326025871658684 -0.003904262944105005 -0.002205181401222945
-0.012902998462115232 -0.003549300800779213 -0.0027397950179874906
-0.01247997105257178 -0.0031943386574534213 -0.0023716466967016467
-0.012056943643028326 -0.0028393765141276296 -0.0024358858354389676
-0.011633916233484873 -0.002484414370801838 -0.002674036659300328
-0.011210888823941419 -0.002129452227476046 -0.003208651440218092
-0.010787861414397967 -0.0017744900841502541 -0.0032387052197009334
-0.010364834004854512 -0.0014195279408244625 -0.0029637312982231387
-0.009941807308745543 -0.0010645663961412822 -0.0028947985265403995
-0.00951877989920209 -0.0007096042528154905 -0.0027119885198771962
-0.009095752489658637 -0.00035464210948969873 -0.0028120249044150123
-0.008672725080115183 3.2003383609306153e-07 -0.002195943612605334
-0.00824969767057173 0.00035528217716188483 -0.0024851129855960616
-0.007826670261028276 0.0007102443204876766 -0.0010011828271672136
-0.013680988014984477 -0.0034812355345615518 -0.002042738487944008
-0.013257960605441025 -0.0031262733912357597 -0.0024992444086819896
-0.01283493319589757 -0.002771311247909968 -0.0024691917933523664
-0.012411905786354118 -0.0024163491045841763 -0.002404951490461827
-0.011988878376810664 -0.0020613869612583846 -0.0024408737663179645
-0.011565850967267212 -0.0017064248179325928 -0.0026236833073198804
-0.011142823557723757 -0.0013514626746068009 -0.0026268137153238067
-0.010719796148180305 -0.0009965005312810092 -0.0026299424935132274
-0.010296769452071334 -0.000641538986597829 -0.0026658647693693647
-0.009873742042527882 -0.0002865768432720372 -0.0027017868123948583
-0.00945071463298443 6.838530005375456e-05 -0.0026375476736575374
-0.009027687223440975 0.0004233474433795463 -0.0026734699495136746
-0.008604659813897523 0.0007783095867053381 -0.0019547424744814643
-0.008181632404354069 0.0011332717300311299 -0.00139102025423199
-0.0077586049948106155 0.0014882338733569216 -0.000615232973359526
-0.013612922748766815 -0.0027032459816923064 -0.0018919105641543874
-0.013189895339223363 -0.0023482838383665147 -0.002395347226411105
-0.012766867929679909 -0.001993321695040723 -0.0018177327001467356
-0.012343840520136456 -0.0016383595517149312 -0.0018146028742194184
-0.011920813110593002 -0.0012833974083891395 -0.0017118284013122329
-0.01149778570104955 -0.0009284352650633477 -0.002757041947916151
-0.011074758291506098 -0.0005734731217375559 -0.0019985006656497726
-0.010651731595397127 -0.00021851157705437573 -0.0022366524208337077
-0.010228704185853673 0.00013645056627141605 -0.0023366888053715238
-0.00980567677631022 0.0004914127095972078 -0.0024009279441088447
-0.009382649366766768 0.0008463748529229996 -0.002298152307048441
-0.008959621957223314 0.0012013369962487915 -0.0016820726450532683
-0.008536594547679861 0.0015562991395745831 -0.00157929735723883
-0.008113567138136407 0.0019112612829003748 -0.0012576737208291897
-0.007690539728592955 0.0022662234262261667 -0.000982699799351395
-0.007267512497408122 0.0026211854198913056 -0.0006610752316191801
-0.006844485087864669 0.0029761475632170973 -0.0004324991023167976
-0.006421457678321215 0.003331109706542889 0.0005105817690491668
-0.005152375538870166 0.004395996061689938 0.0005446142167784265
-0.004729348129326713 0.00475095820501573 0.00035705830669030466
-0.004306320774126902 0.005105920302741792 0.0003270042361691586
-0.003460265989875664 0.005815844560162779 0.00026203729794360616
-0.0030372386695115216 0.0061708066286582436 0.0005370112485252312
-0.001768156708419093 0.00723569283414464 0.0001266445033252231
0.0007700073921243846 0.009365465394778085 0.00012434598465915688
-0.013544857183227848 -0.0019252567855403031 -0.0019755263347178706
-0.013121829773684396 -0.0015702946422145115 -0.0017373757436871537
-0.012698802364140942 -0.0012153324988887196 -0.001707321382127703
-0.01227577495459749 -0.0008603703555629279 -0.0017104501603171238
-0.011852747545054035 -0.0005054082122371361 -0.0014722996857017287
-0.011429720135510583 -0.0001504460689113443 -0.001928805955685676
-0.011006693439401612 0.00020451547577183586 -0.0021116163115948447
-0.01058366602985816 0.0005594776190976276 -0.00234019197523594
-0.010160638620314707 0.0009144397624234194 -0.0023433207534253606
-0.009737611210771253 0.0012694019057492112 -0.002379243029281498
-0.0093145838012278 0.001624364049075003 -0.0021410922054201373
-0.008891556391684347 0.0019793261924007945 -0.002111038425937296
-0.008468528982140894 0.0023342883357265866 -0.002146960701793433
-0.00804550157259744 0.0026892504790523783 -0.002150089479982854
-0.007622474341412608 0.003044212472717517 -0.002085850341245533
-0.007199446931869155 0.003399174616043309 -0.001494746422395111
-0.0067764195223257015 0.0037541367593691005 -0.0015975217102095493
-0.006353392112782248 0.004109098902694892 -0.0007351051317527899
-0.005930364703238796 0.004464061046020684 -0.0007050510612316438
-0.005507337382874652 0.00481902311451615 -0.000708180887158961
-0.005084309973331199 0.005173985257841941 -0.001361809903755785
-0.004661282618131388 0.005528947355568003 -0.0013649386819452056
-0.004238255243423603 0.005883909469663199 -0.0014338725013658413
-0.0038152278338801503 0.00623887161298899 -0.0016166827408596882
-0.0033922005135160077 0.006593833681484455 -0.0013275134842842826
-0.0029691731931518646 0.006948795749979921 -0.0011399564100429424
-0.0025461457836084113 0.0073037578933057125 -0.0009524005581624815
-0.002123118552423579 0.007658719886970851 -0.0011352105066180238
-0.0017000911428801258 0.008013682030296643 -0.0011051564943045386
-0.0012770637333366728 0.008368644173622436 -0.000917600409593434
-0.0008540363237932195 0.008723606316948226 -0.0008175641996786007
-0.00043100891424976636 0.009078568460274019 -0.0017606463516131052
-7.9815047063132e-06 0.00943353060359981 -0.0020822708029299983
0.00041504554811989844 0.009788492447604297 -0.002185045275837184
0.0008380729576633516 0.010143454590930088 -0.0017515575746074328
0.0012611003672068047 0.01049841673425588 -0.0006090038805268714
0.0016841281334674994 0.010853379176902978 -0.0018245668616145858
0.0021071555430109525 0.011208341320228769 -0.000374079361790792
-0.013476791917010187 -0.0011472672326710582 -0.000985858612693847
-0.013053764507466734 -0.0007923050893452664 -0.0011734144063666472
-0.01263073709792328 -0.0004373429460194746 -0.001104481518268586
-0.012207709688379828 -8.238080269368282e-05 -0.001168720657005907
-0.011784682278836375 0.00027258134063210893 -0.001356276450678707
-0.011361655582727405 0.0006275428853152891 -0.001789764850400389
-0.01093862817318395 0.0009825050286410809 -0.0016869895625859508
-0.010515600763640498 0.0013374671719668728 -0.002156832022592426
-0.010092573354097046 0.0016924293152926644 -0.0027739377692341813
-0.009669545944553591 0.002047391458618456 -0.00245231343433261
-0.009246518535010139 0.002402353601944248 -0.002552349353209139
-0.008823491125466685 0.00275731574527004 -0.002739905612543226
-0.008400463715923233 0.0031122778885958316 -0.002736776368692518
-0.0079774364847384 0.0034672398822609704 -0.0026340014301240453
-0.007554409075194946 0.003822202025586762 -0.0025650681927800187
-0.007131381665651493 0.004177164168912554 -0.0029050090815871963
-0.00670835425610804 0.0045321263122383455 -0.0019053620053455242
-0.0062853268465645875 0.004887088455564137 -0.0023388501722365626
-0.005862299526200444 0.005242050524059603 -0.002063876250758768
-0.005439272116656991 0.0055970126673853945 -0.002533718943595887
-0.00501624476145718 0.0059519747651114565 -0.002530588535591961
-0.004593217386749395 0.006306936879206652 -0.002630624920129777
-0.0041701899772059415 0.0066618990225324436 -0.0026606793981045493
-0.0037471626568417993 0.007016861091027908 -0.002624757122248412
-0.0033241353364776563 0.007371823159523374 -0.0025219826493412265
-0.002901107926934203 0.007726785302849166 -0.0022934067528694877
-0.0024780806957493706 0.008081747296514305 -0.0025825758930295714
-0.0020550532862059177 0.008436709439840097 -0.002770133316516877
-0.0016320258766624645 0.008791671583165888 -0.0021540517918765554
-0.0012089984671190112 0.00914663372649168 -0.0027451561763882646
-0.000785971057575558 0.009501595869817471 -0.002845192328095437
-0.0003629436480321049 0.009856558013143264 -0.0027762581594288358
6.0083404794106784e-05 0.010211519857147749 -0.0025012847036123284
0.00048311081433756 0.010566482000473542 -0.0022263117134571084
0.0009061382238810131 0.010921444143799332 -0.0019513377919793138
0.0013291659901417078 0.01127640658644643 -0.0019154156325384983
0.001752193399685161 0.011631368729772223 -0.0016868395032361158
0.002175220809228614 0.011986330873098014 -0.0013652159832417974
-0.01383175406033598 -0.0007242398231276048 7.954095053719255e-05
-0.013408726650792525 -0.0003692776798018131 -0.0006453689420595775
-0.012985699241249073 -1.431553647602132e-05 -0.0008281788905151198
-0.012562671831705619 0.00034064660684977047 -0.0012846852187067281
-0.012139644422162166 0.0006956087501755622 -0.0013206073781475436
-0.011716617726053195 0.0010505702948587425 -0.0016887556994333874
-0.011293590316509743 0.0014055324381845341 -0.0018715659389272343
-0.01087056290696629 0.001760494581510326 -0.002100141718983651
-0.010447535497422836 0.0021154567248361177 -0.0023287171497941026
