ply
format ascii 1.0
element vertex 714
property float x
property float y
property float z
end_header
-7.21190543505135e-05 -0.004115987956670333 -0.0012854313888329416
0.0001714739529756126 -0.004115987956670333 -0.0012854313888329416
0.00041990890636716457 -0.004114932651777972 -0.00118542969606103
0.0006688658660617885 -0.004113877346885611 -0.0010854354538697153
0.0009183466947046337 -0.004112822158408571 -0.0009854337610978037
0.001162723875638586 -0.004112822158408571 -0.0009854337610978037
0.0014129879465666828 -0.00411176685351621 -0.000885432068325892
0.0016576263634828147 -0.00411176685351621 -0.000885432068325892
0.0019022647803989467 -0.00411176685351621 -0.000885432068325892
0.002146903662976366 -0.00411176685351621 -0.000885432068325892
0.0023984743794766483 -0.004110711548623849 -0.0007854303755539804
0.0026433749636975345 -0.004110711548623849 -0.0007854303755539804
0.002895729853805643 -0.004109656243731488 -0.0006854286827820688
0.0031408907426861343 -0.004109656243731488 -0.0006854286827820688
0.0033940302720633564 -0.0041086010552544485 -0.0005854344405907541
0.0036476922734049377 -0.004107545750362087 -0.0004854327478188425
0.003910377859171968 -0.004105435140577365 -0.00028542936227501925
0.00417410978585158 -0.0041033246472079645 -8.543342731179293e-05
0.004971576160785299 -0.004096992934269119 0.0005145692787390799
0.005268912068602186 -0.004091716526222635 0.001014570292018041
0.005578930727240187 -0.004085384929699112 0.001614565547488317
0.005871424688991648 -0.004081163826544989 0.0020145648679953665
0.006506100534495455 -0.004068500400667299 0.003214570280097112
-0.009149278276565927 -0.003856595178281177 -8.543342731179293e-05
-0.008872008644941705 -0.003864495005605031 -0.0006854286827820688
-0.008617189475301164 -0.0038671283201847564 -0.000885432068325892
-0.008372551058385032 -0.0038671283201847564 -0.000885432068325892
-0.00811930070162143 -0.0038697616347644816 -0.0010854354538697153
-0.007875184756669658 -0.0038697616347644816 -0.0010854354538697153
-0.007631068811717886 -0.0038697616347644816 -0.0010854354538697153
-0.007383431536111492 -0.0038710782920543443 -0.00118542969606103
-0.007139577059972543 -0.0038710782920543443 -0.00118542969606103
-0.006895722583833593 -0.0038710782920543443 -0.00118542969606103
-0.006651868340525288 -0.0038710782920543443 -0.00118542969606103
-0.006405537477660436 -0.003872394949344207 -0.0012854313888329416
-0.00616194447033431 -0.003872394949344207 -0.0012854313888329416
-0.005918351346592862 -0.003872394949344207 -0.0012854313888329416
-0.005674758455682057 -0.003872394949344207 -0.0012854313888329416
-0.005431165448355931 -0.003872394949344207 -0.0012854313888329416
-0.005187572441029805 -0.003872394949344207 -0.0012854313888329416
-0.004943979375496018 -0.003872394949344207 -0.0012854313888329416
-0.004700386309962231 -0.003872394949344207 -0.0012854313888329416
-0.003969881678897399 -0.003875028263923932 -0.0014854347743767649
-0.0037272099242205503 -0.003876344804798473 -0.0015854290165680796
-0.0034844010322945896 -0.003876344804798473 -0.0015854290165680796
-0.003241592140368629 -0.003876344804798473 -0.0015854290165680796
-0.002999965911697108 -0.0038776614620883356 -0.0016854307093399912
-0.0027574183139609876 -0.0038776614620883356 -0.0016854307093399912
-0.0025148707162248674 -0.0038776614620883356 -0.0016854307093399912
-0.002272323234904069 -0.0038776614620883356 -0.0016854307093399912
-0.0020297756371679488 -0.0038776614620883356 -0.0016854307093399912
-0.0017872280394318285 -0.0038776614620883356 -0.0016854307093399912
-0.0015446804416957083 -0.0038776614620883356 -0.0016854307093399912
-0.001299120713922638 -0.003876344804798473 -0.0015854290165680796
-0.0010563116473736945 -0.003876344804798473 -0.0015854290165680796
-0.0008135028136553946 -0.003876344804798473 -0.0015854290165680796
-0.000566897909122962 -0.003875028263923932 -0.0014854347743767649
-0.0003238276065918389 -0.003875028263923932 -0.0014854347743767649
-7.643806279029278e-05 -0.0038737116066340695 -0.0013854330816048532
0.0001714739529756126 -0.003872394949344207 -0.0012854313888329416
0.00041990890636716457 -0.0038710782920543443 -0.00118542969606103
0.0006688658660617885 -0.0038697616347644816 -0.0010854354538697153
0.0009129818110135612 -0.0038697616347644816 -0.0010854354538697153
0.001162723875638586 -0.003868444977474619 -0.0009854337610978037
0.001407100590911251 -0.003868444977474619 -0.0009854337610978037
0.0016576263634828147 -0.0038671283201847564 -0.000885432068325892
0.0019022647803989467 -0.0038671283201847564 -0.000885432068325892
0.002146903662976366 -0.0038671283201847564 -0.000885432068325892
0.0023915416142312107 -0.0038671283201847564 -0.000885432068325892
0.0026433749636975345 -0.0038658116628948937 -0.0007854303755539804
0.002888274616595846 -0.0038658116628948937 -0.0007854303755539804
0.0031408907426861343 -0.003864495005605031 -0.0006854286827820688
0.0033940302720633564 -0.0038631784647304903 -0.0005854344405907541
0.0036476922734049377 -0.0038618618074406277 -0.0004854327478188425
0.004429862140711885 -0.0038552785209913145 1.456826546011869e-05
0.004695424116250616 -0.0038526452064115892 0.00021457165100394193
0.004952483116683107 -0.0038513286655370484 0.00031456589319525663
0.005229681036469084 -0.0038473785772521387 0.0006145709715109915
0.005538654751178366 -0.0038394788663436066 0.0012145662269812674
0.005840433998998743 -0.0038328955798942934 0.0017145672402602286
0.0061342346063223896 -0.0038276290671501647 0.002114566560767278
0.006473540565964323 -0.0038170959252465855 0.0029145652017813772
0.006761454283293825 -0.0038131458369616757 0.003214570280097112
-0.008877098322811978 -0.0036177557577912103 -0.0005854344405907541
-0.008617189475301164 -0.0036224897868533026 -0.000885432068325892
-0.008372551058385032 -0.0036224897868533026 -0.000885432068325892
-0.008123606671545165 -0.0036240677965406667 -0.0009854337610978037
-0.007879229490611213 -0.0036240677965406667 -0.0009854337610978037
-0.007631068811717886 -0.0036256458062280308 -0.0010854354538697153
-0.007386953332427401 -0.0036256458062280308 -0.0010854354538697153
-0.007142837620306272 -0.0036256458062280308 -0.0010854354538697153
-0.006898721675354499 -0.0036256458062280308 -0.0010854354538697153
-0.006651868340525288 -0.003627223815915395 -0.00118542969606103
-0.006408013864386338 -0.003627223815915395 -0.00118542969606103
-0.0061641596210780325 -0.003627223815915395 -0.00118542969606103
-0.005920305144939083 -0.003627223815915395 -0.00118542969606103
-0.005676450785215456 -0.003627223815915395 -0.00118542969606103
-0.005432596425491828 -0.003627223815915395 -0.00118542969606103
-0.0051887420657682004 -0.003627223815915395 -0.00118542969606103
-0.004943979375496018 -0.003628801825602759 -0.0012854313888329416
-0.004700386309962231 -0.003628801825602759 -0.0012854313888329416
-0.0044567933317399356 -0.003628801825602759 -0.0012854313888329416
-0.0042132003244138095 -0.003628801825602759 -0.0012854313888329416
-0.003969744483440626 -0.003630379835290123 -0.0013854330816048532
-0.0037268114054701063 -0.003631957844977487 -0.0014854347743767649
-0.0034844010322945896 -0.0036335357382495295 -0.0015854290165680796
-0.003241592140368629 -0.0036335357382495295 -0.0015854290165680796
-0.002998783248442668 -0.0036335357382495295 -0.0015854290165680796
-0.0027559742983090463 -0.0036335357382495295 -0.0015854290165680796
-0.0025148707162248674 -0.0036351138643522154 -0.0016854307093399912
-0.002272323234904069 -0.0036351138643522154 -0.0016854307093399912
-0.0020297756371679488 -0.0036351138643522154 -0.0016854307093399912
-0.0017872280394318285 -0.0036351138643522154 -0.0016854307093399912
-0.0015446804416957083 -0.0036351138643522154 -0.0016854307093399912
-0.0013021330767902317 -0.0036351138643522154 -0.0016854307093399912
-0.0010563116473736945 -0.0036335357382495295 -0.0015854290165680796
-0.0008135028136553946 -0.0036335357382495295 -0.0015854290165680796
-0.000566897909122962 -0.003631957844977487 -0.0014854347743767649
-0.0003238276065918389 -0.003631957844977487 -0.0014854347743767649
-7.643806279029278e-05 -0.003630379835290123 -0.0013854330816048532
0.0001714739529756126 -0.003628801825602759 -0.0012854313888329416
0.00041990890636716457 -0.003627223815915395 -0.00118542969606103
0.0006688658660617885 -0.0036256458062280308 -0.0010854354538697153
0.0009129818110135612 -0.0036256458062280308 -0.0010854354538697153
0.001162723875638586 -0.0036240677965406667 -0.0009854337610978037
0.001407100590911251 -0.0036240677965406667 -0.0009854337610978037
0.0016576263634828147 -0.0036224897868533026 -0.000885432068325892
0.0019022647803989467 -0.0036224897868533026 -0.000885432068325892
0.002146903662976366 -0.0036224897868533026 -0.000885432068325892
0.0023915416142312107 -0.0036224897868533026 -0.000885432068325892
0.00263618049680863 -0.0036224897868533026 -0.000885432068325892
0.002888274616595846 -0.0036209117771659385 -0.0007854303755539804
0.0031408907426861343 -0.0036193336510632525 -0.0006854286827820688
0.0033860525628892 -0.0036193336510632525 -0.0006854286827820688
0.0036476922734049377 -0.003616177748103846 -0.0004854327478188425
0.003910377859171968 -0.003613021612313796 -0.00028542936227501925
0.004165346971747023 -0.003611443719041754 -0.00018543512008370455
0.004420838556286436 -0.0036098657093543898 -8.543342731179293e-05
0.0046861388301817 -0.0036067096899796616 0.00011456995823203031
0.004952483116683107 -0.0036035536706049334 0.00031456589319525663
0.005219873278435808 -0.003600397651230205 0.0005145692787390799
0.005508447303470713 -0.0035940856124807487 0.0009145685992461294
0.005819773539003473 -0.0035846174379412423 0.0015145713052970022
0.006102459742721659 -0.003579883525294472 0.0018145689330321402
0.006408421560224634 -0.0035719933604423295 0.0023145699463111014
0.006739225476082903 -0.0035609474090461026 0.003014566894553289
0.007028185068663698 -0.0035562133799840103 0.003314564522288427
-0.00888218846634354 -0.0033704939215977083 -0.0004854327478188425
-0.008622018382850545 -0.003376012007852305 -0.0007854303755539804
-0.008372551058385032 -0.0033778513699371706 -0.000885432068325892
-0.008123606671545165 -0.003379690732022036 -0.0009854337610978037
-0.007879229490611213 -0.003379690732022036 -0.0009854337610978037
-0.007634852076846618 -0.003379690732022036 -0.0009854337610978037
-0.007390475361573953 -0.003379690732022036 -0.0009854337610978037
-0.007142837620306272 -0.0033815302105222236 -0.0010854354538697153
-0.006898721675354499 -0.0033815302105222236 -0.0010854354538697153
-0.00665460596323337 -0.0033815302105222236 -0.0010854354538697153
-0.006410490251112241 -0.0033815302105222236 -0.0010854354538697153
-0.006166374538991112 -0.0033815302105222236 -0.0010854354538697153
-0.005922258710454661 -0.0033815302105222236 -0.0010854354538697153
-0.005678143114748854 -0.0033815302105222236 -0.0010854354538697153
-0.005432596425491828 -0.0033833694561917673 -0.00118542969606103
-0.0051887420657682004 -0.0033833694561917673 -0.00118542969606103
-0.004944887647836912 -0.0033833694561917673 -0.00118542969606103
-0.004700386309962231 -0.003385208818276633 -0.0012854313888329416
-0.0044567933317399356 -0.003385208818276633 -0.0012854313888329416
-0.0042132003244138095 -0.003385208818276633 -0.0012854313888329416
-0.003969607287983853 -0.003385208818276633 -0.0012854313888329416
-0.0037268114054701063 -0.003388887658861686 -0.0014854347743767649
-0.0034837411320428136 -0.003388887658861686 -0.0014854347743767649
-0.0032406708877193513 -0.003388887658861686 -0.0014854347743767649
-0.002998783248442668 -0.0033907269045312296 -0.0015854290165680796
-0.0027559742983090463 -0.0033907269045312296 -0.0015854290165680796
-0.002513165231760103 -0.0033907269045312296 -0.0015854290165680796
-0.002270356398041803 -0.0033907269045312296 -0.0015854290165680796
-0.0020275474479081812 -0.0033907269045312296 -0.0015854290165680796
-0.0017847386141898814 -0.0033907269045312296 -0.0015854290165680796
-0.0015419295476409378 -0.0033907269045312296 -0.0015854290165680796
-0.001299120713922638 -0.0033907269045312296 -0.0015854290165680796
-0.0010563116473736945 -0.0033907269045312296 -0.0015854290165680796
-0.0008099679788234415 -0.003388887658861686 -0.0014854347743767649
-0.000566897909122962 -0.003388887658861686 -0.0014854347743767649
-0.00031976983413423924 -0.0033870482967768203 -0.0013854330816048532
-7.21190543505135e-05 -0.003385208818276633 -0.0012854313888329416
0.0001714739529756126 -0.003385208818276633 -0.0012854313888329416
0.00041990890636716457 -0.0033833694561917673 -0.00118542969606103
0.0006688658660617885 -0.0033815302105222236 -0.0010854354538697153
0.0009129818110135612 -0.0033815302105222236 -0.0010854354538697153
0.001162723875638586 -0.003379690732022036 -0.0009854337610978037
0.001407100590911251 -0.003379690732022036 -0.0009854337610978037
0.0016576263634828147 -0.0033778513699371706 -0.000885432068325892
0.0019022647803989467 -0.0033778513699371706 -0.000885432068325892
0.002146903662976366 -0.0033778513699371706 -0.000885432068325892
0.0023915416142312107 -0.0033778513699371706 -0.000885432068325892
0.00263618049680863 -0.0033778513699371706 -0.000885432068325892
0.002888274616595846 -0.003376012007852305 -0.0007854303755539804
0.0031331742694941577 -0.003376012007852305 -0.0007854303755539804
0.0033860525628892 -0.0033741725293521176 -0.0006854286827820688
0.0036394528625873146 -0.003372333283682574 -0.0005854344405907541
0.0038933756342497882 -0.0033704939215977083 -0.0004854327478188425
0.004165346971747023 -0.0033649758353431116 -0.00018543512008370455
0.004420838556286436 -0.003363136356842924 -8.543342731179293e-05
0.0046861388301817 -0.003359457632673193 0.00011456995823203031
0.004952483116683107 -0.003355778908503462 0.00031456589319525663
0.0052100655204025325 -0.0033539395464185964 0.00041456758596716825
0.005478240787085634 -0.0033502607058335434 0.0006145709715109915
0.005768121457692724 -0.0033429031410787593 0.001014570292018041
0.006070684879120928 -0.0033337063306544314 0.0015145713052970022
0.006354155256446939 -0.0033281882443998347 0.0018145689330321402
0.006694766930338484 -0.0033134732313055883 0.0026145675740462393
0.0069940576842394886 -0.003306115782966126 0.003014566894553289
0.007295437394675356 -0.003298758218211342 0.0034145662150603384
-0.008372551058385032 -0.003133212720190395 -0.000885432068325892
-0.0081279126414689 -0.003133212720190395 -0.000885432068325892
-0.007879229490611213 -0.003135313551088084 -0.0009854337610978037
-0.007634852076846618 -0.003135313551088084 -0.0009854337610978037
-0.007390475361573953 -0.003135313551088084 -0.0009854337610978037
-0.00714609818064 -0.003135313551088084 -0.0009854337610978037
-0.006898721675354499 -0.0031374143819857727 -0.0010854354538697153
-0.00665460596323337 -0.0031374143819857727 -0.0010854354538697153
-0.006410490251112241 -0.0031374143819857727 -0.0010854354538697153
-0.006166374538991112 -0.0031374143819857727 -0.0010854354538697153
-0.005922258710454661 -0.0031374143819857727 -0.0010854354538697153
-0.005678143114748854 -0.0031374143819857727 -0.0010854354538697153
-0.005432596425491828 -0.003139514980052818 -0.00118542969606103
-0.0051887420657682004 -0.003139514980052818 -0.00118542969606103
-0.004944887647836912 -0.003139514980052818 -0.00118542969606103
-0.0047010332299056235 -0.003139514980052818 -0.00118542969606103
-0.004457178870181996 -0.003139514980052818 -0.00118542969606103
-0.004213324495906453 -0.003139514980052818 -0.00118542969606103
-0.003969607287983853 -0.0031416158109505068 -0.0012854313888329416
-0.003726014280657727 -0.0031416158109505068 -0.0012854313888329416
-0.0034830811735833767 -0.0031437166418481956 -0.0013854330816048532
-0.0032406708877193513 -0.003145817239915241 -0.0014854347743767649
-0.002997600585188228 -0.003145817239915241 -0.0014854347743767649
-0.002754530282657105 -0.003145817239915241 -0.0014854347743767649
-0.002511459980125982 -0.003145817239915241 -0.0014854347743767649
-0.0022683897940101805 -0.003145817239915241 -0.0014854347743767649
-0.0020275474479081812 -0.003147917954397608 -0.0015854290165680796
-0.0017847386141898814 -0.003147917954397608 -0.0015854290165680796
-0.001539178886416811 -0.003145817239915241 -0.0014854347743767649
-0.0012961085838856879 -0.003145817239915241 -0.0014854347743767649
-0.0010530382813545647 -0.003145817239915241 -0.0014854347743767649
-0.0008099679788234415 -0.003145817239915241 -0.0014854347743767649
-0.0005631016054781857 -0.0031437166418481956 -0.0013854330816048532
-0.00031976983413423924 -0.0031437166418481956 -0.0013854330816048532
-7.21190543505135e-05 -0.0031416158109505068 -0.0012854313888329416
0.00017605466305885883 -0.003139514980052818 -0.00118542969606103
0.00041990890636716457 -0.003139514980052818 -0.00118542969606103
0.0006688658660617885 -0.0031374143819857727 -0.0010854354538697153
0.0009129818110135612 -0.0031374143819857727 -0.0010854354538697153
0.001162723875638586 -0.003135313551088084 -0.0009854337610978037
0.001407100590911251 -0.003135313551088084 -0.0009854337610978037
0.0016514777718452034 -0.003135313551088084 -0.0009854337610978037
0.0019022647803989467 -0.003133212720190395 -0.000885432068325892
0.002146903662976366 -0.003133212720190395 -0.000885432068325892
0.0023915416142312107 -0.003133212720190395 -0.000885432068325892
0.00263618049680863 -0.003133212720190395 -0.000885432068325892
0.002880818913724762 -0.003133212720190395 -0.000885432068325892
0.0031331742694941577 -0.0031311121221233498 -0.0007854303755539804
0.0033860525628892 -0.003129011291225661 -0.0006854286827820688
0.0036312134517696914 -0.003129011291225661 -0.0006854286827820688
0.0038933756342497882 -0.003124809862260927 -0.0004854327478188425
0.00415658508896504 -0.003120608200465549 -0.00028542936227501925
0.004942937060293299 -0.003110104511638392 0.00021457165100394193
0.005200257762369257 -0.003108003913571347 0.00031456589319525663
0.005468171327408892 -0.0031038024846066128 0.0005145692787390799
0.00573712890505467 -0.0030996010556418787 0.0007145652137023062
0.006028316221233946 -0.003091197964881767 0.0011145645342093558
0.0063324489212003765 -0.00308069427605461 0.001614565547488317
0.006628079577383142 -0.0030722914181251417 0.0020145648679953665
0.006948553263243776 -0.003059686898400296 0.0026145675740462393
0.00726052583664332 -0.003049183209573139 0.0031145685873252005
0.0075751126325098095 -0.003038679287915338 0.0036145696006041617
-0.008641333081725495 -0.0028767639688749205 -0.00038543105504693087
-0.008377118729952233 -0.0028862122363943945 -0.0007854303755539804
-0.0081279126414689 -0.0028885745361049067 -0.000885432068325892
-0.007390475361573953 -0.002890936602984775 -0.0009854337610978037
-0.00714609818064 -0.002890936602984775 -0.0009854337610978037
-0.006901720999706048 -0.002890936602984775 -0.0009854337610978037
-0.00665460596323337 -0.0028932986698646437 -0.0010854354538697153
-0.006410490251112241 -0.0028932986698646437 -0.0010854354538697153
-0.006166374538991112 -0.0028932986698646437 -0.0010854354538697153
-0.005922258710454661 -0.0028932986698646437 -0.0010854354538697153
-0.005678143114748854 -0.0028932986698646437 -0.0010854354538697153
-0.005432596425491828 -0.002895660736744512 -0.00118542969606103
-0.0051887420657682004 -0.002895660736744512 -0.00118542969606103
-0.004944887647836912 -0.002895660736744512 -0.00118542969606103
-0.0047010332299056235 -0.002895660736744512 -0.00118542969606103
-0.004457178870181996 -0.002895660736744512 -0.00118542969606103
-0.004213324495906453 -0.002895660736744512 -0.00118542969606103
-0.003969607287983853 -0.0028980228036243807 -0.0012854313888329416
-0.003726014280657727 -0.0028980228036243807 -0.0012854313888329416
-0.0034824212733316007 -0.0028980228036243807 -0.0012854313888329416
-0.003239749576862413 -0.002900385103334893 -0.0013854330816048532
-0.0029952352586793485 -0.0028980228036243807 -0.0012854313888329416
-0.0027530862670051637 -0.002900385103334893 -0.0013854330816048532
-0.002511459980125982 -0.0029027471702147613 -0.0014854347743767649
-0.0022683897940101805 -0.0029027471702147613 -0.0014854347743767649
-0.0020253194914790574 -0.0029027471702147613 -0.0014854347743767649
-0.0017822491889479342 -0.0029027471702147613 -0.0014854347743767649
-0.001539178886416811 -0.0029027471702147613 -0.0014854347743767649
-0.0012961085838856879 -0.0029027471702147613 -0.0014854347743767649
-0.0010497646825047913 -0.002900385103334893 -0.0013854330816048532
-0.0008064329111608448 -0.002900385103334893 -0.0013854330816048532
-0.0005593053018334094 -0.0028980228036243807 -0.0012854313888329416
-0.0003157120616766396 -0.0028980228036243807 -0.0012854313888329416
-7.21190543505135e-05 -0.0028980228036243807 -0.0012854313888329416
0.00017605466305885883 -0.002895660736744512 -0.00118542969606103
0.00041990890636716457 -0.002895660736744512 -0.00118542969606103
0.0006688658660617885 -0.0028932986698646437 -0.0010854354538697153
0.0009129818110135612 -0.0028932986698646437 -0.0010854354538697153
0.001162723875638586 -0.002890936602984775 -0.0009854337610978037
0.001407100590911251 -0.002890936602984775 -0.0009854337610978037
0.0016514777718452034 -0.002890936602984775 -0.0009854337610978037
0.0019022647803989467 -0.0028885745361049067 -0.000885432068325892
0.002146903662976366 -0.0028885745361049067 -0.000885432068325892
0.0023915416142312107 -0.0028885745361049067 -0.000885432068325892
0.00263618049680863 -0.0028885745361049067 -0.000885432068325892
0.002880818913724762 -0.0028885745361049067 -0.000885432068325892
0.003125457330640894 -0.0028885745361049067 -0.000885432068325892
0.0033780743880537567 -0.0028862122363943945 -0.0007854303755539804
0.0036312134517696914 -0.002883850169514526 -0.0006854286827820688
0.003884874521788698 -0.0028814881026346575 -0.0005854344405907541
0.004147823206183058 -0.0028767639688749205 -0.00038543105504693087
0.005458101867732149 -0.002857866968174685 0.00041456758596716825
0.0057164684450594005 -0.0028555049012948166 0.0005145692787390799
0.005985949425992113 -0.0028507807675350796 0.0007145652137023062
0.006299889883991819 -0.002836608133425225 0.001314567919753179
0.0065947354352441845 -0.002827159633075107 0.0017145672402602286
0.006903049773570639 -0.002815349065845121 0.0022145682535391897
0.00752751832365666 -0.0027917279313851486 0.003214570280097112
0.007867993093129737 -0.0027751932303954254 0.0039145672283393
-0.008136525046977656 -0.0026386888149727474 -0.0006854286827820688
-0.007883274224552768 -0.002643935886358131 -0.000885432068325892
-0.007638635574805993 -0.002643935886358131 -0.000885432068325892
-0.006901720999706048 -0.002646559422050823 -0.0009854337610978037
-0.00665460596323337 -0.0026491829577435146 -0.0010854354538697153
-0.006410490251112241 -0.0026491829577435146 -0.0010854354538697153
-0.006166374538991112 -0.0026491829577435146 -0.0010854354538697153
-0.005922258710454661 -0.0026491829577435146 -0.0010854354538697153
-0.005676450785215456 -0.0026518062606055628 -0.00118542969606103
-0.005432596425491828 -0.0026518062606055628 -0.00118542969606103
-0.0051887420657682004 -0.0026518062606055628 -0.00118542969606103
-0.004944887647836912 -0.0026518062606055628 -0.00118542969606103
-0.0047010332299056235 -0.0026518062606055628 -0.00118542969606103
-0.004457178870181996 -0.0026518062606055628 -0.00118542969606103
-0.004213324495906453 -0.0026518062606055628 -0.00118542969606103
-0.003969470107078995 -0.0026518062606055628 -0.00118542969606103
-0.003725615703699622 -0.0026518062606055628 -0.00118542969606103
-0.0034824212733316007 -0.0026544297962982546 -0.0012854313888329416
-0.0032388282660054746 -0.0026544297962982546 -0.0012854313888329416
-0.0029952352586793485 -0.0026544297962982546 -0.0012854313888329416
-0.0027516422513532224 -0.0026544297962982546 -0.0012854313888329416
-0.0025080491276117745 -0.0026544297962982546 -0.0012854313888329416
-0.00226445623670097 -0.0026544297962982546 -0.0012854313888329416
-0.00202309130221929 -0.0026570533319909464 -0.0013854330816048532
-0.001779759763705987 -0.0026570533319909464 -0.0013854330816048532
-0.0015364279923620406 -0.0026570533319909464 -0.0013854330816048532
-0.001290084090981144 -0.0026544297962982546 -0.0012854313888329416
-0.001046491083655018 -0.0026544297962982546 -0.0012854313888329416
-0.0008028978434982481 -0.0026544297962982546 -0.0012854313888329416
-0.0005593053018334094 -0.0026544297962982546 -0.0012854313888329416
-0.0003157120616766396 -0.0026544297962982546 -0.0012854313888329416
-6.780004591073422e-05 -0.0026518062606055628 -0.00118542969606103
0.00017605466305885883 -0.0026518062606055628 -0.00118542969606103
0.00042475038677130313 -0.0026491829577435146 -0.0010854354538697153
0.0006688658660617885 -0.0026491829577435146 -0.0010854354538697153
0.0009129818110135612 -0.0026491829577435146 -0.0010854354538697153
0.001162723875638586 -0.002646559422050823 -0.0009854337610978037
0.001407100590911251 -0.002646559422050823 -0.0009854337610978037
0.0016514777718452034 -0.002646559422050823 -0.0009854337610978037
0.0018958544871178684 -0.002646559422050823 -0.0009854337610978037
0.002146903662976366 -0.002643935886358131 -0.000885432068325892
0.0023915416142312107 -0.002643935886358131 -0.000885432068325892
0.00263618049680863 -0.002643935886358131 -0.000885432068325892
0.002880818913724762 -0.002643935886358131 -0.000885432068325892
0.003125457330640894 -0.002643935886358131 -0.000885432068325892
0.0033780743880537567 -0.0026413123506654392 -0.0007854303755539804
0.0036312134517696914 -0.0026386888149727474 -0.0006854286827820688
0.0038763743406501827 -0.0026386888149727474 -0.0006854286827820688
0.004139060392078501 -0.0026334419764180075 -0.0004854327478188425
0.004402791387435537 -0.002628194905032624 -0.00028542936227501925
0.004658282971974951 -0.0026255716021705757 -0.00018543512008370455
0.0054480324080554065 -0.0026124541565377603 0.00031456589319525663
0.005706138215061766 -0.0026098306208450685 0.00041456758596716825
0.005964765562709909 -0.0026072070851523767 0.0005145692787390799
0.006245623580214125 -0.0025993369437355886 0.0008145669064742178
0.006572507559355837 -0.0025809724267173897 0.0015145713052970022
0.006857546283897501 -0.002573102052469958 0.0018145689330321402
0.007503720237907511 -0.0025416203226495872 0.003014566894553289
0.007807192630168539 -0.0025311266455401073 0.0034145662150603384
-0.007638635574805993 -0.002399297469441999 -0.000885432068325892
-0.007393997390720505 -0.002399297469441999 -0.000885432068325892
-0.00714609818064 -0.002402182473947514 -0.0009854337610978037
-0.006901720999706048 -0.002402182473947514 -0.0009854337610978037
-0.00665460596323337 -0.0024050672456223856 -0.0010854354538697153
-0.006410490251112241 -0.0024050672456223856 -0.0010854354538697153
-0.0061641596210780325 -0.002407952017297257 -0.00118542969606103
-0.005920305144939083 -0.002407952017297257 -0.00118542969606103
-0.005676450785215456 -0.002407952017297257 -0.00118542969606103
-0.005432596425491828 -0.002407952017297257 -0.00118542969606103
-0.0051887420657682004 -0.002407952017297257 -0.00118542969606103
-0.004943979375496018 -0.0024108367889721285 -0.0012854313888329416
-0.004700386309962231 -0.0024108367889721285 -0.0012854313888329416
-0.004457178870181996 -0.002407952017297257 -0.00118542969606103
-0.004213324495906453 -0.002407952017297257 -0.00118542969606103
-0.003969470107078995 -0.002407952017297257 -0.00118542969606103
-0.003725615703699622 -0.002407952017297257 -0.00118542969606103
-0.003481761314872164 -0.002407952017297257 -0.00118542969606103
-0.0032388282660054746 -0.0024108367889721285 -0.0012854313888329416
-0.0029940525954249087 -0.002407952017297257 -0.00118542969606103
-0.002750198235701281 -0.002407952017297257 -0.00118542969606103
-0.0025063437595623317 -0.002407952017297257 -0.00118542969606103
-0.00226445623670097 -0.0024108367889721285 -0.0012854313888329416
-0.0020208631129595223 -0.0024108367889721285 -0.0012854313888329416
-0.0017772701056333962 -0.0024108367889721285 -0.0012854313888329416
-0.00153367709830727 -0.0024108367889721285 -0.0012854313888329416
-0.001290084090981144 -0.0024108367889721285 -0.0012854313888329416
-0.001046491083655018 -0.0024108367889721285 -0.0012854313888329416
-0.0007993630086662951 -0.002407952017297257 -0.00118542969606103
-0.0005555087653579894 -0.002407952017297257 -0.00118542969606103
-0.00031165428921903996 -0.002407952017297257 -0.00118542969606103
-6.780004591073422e-05 -0.002407952017297257 -0.00118542969606103
0.00017605466305885883 -0.002407952017297257 -0.00118542969606103
0.00042475038677130313 -0.0024050672456223856 -0.0010854354538697153
0.0006688658660617885 -0.0024050672456223856 -0.0010854354538697153
0.0009129818110135612 -0.0024050672456223856 -0.0010854354538697153
0.001157097755965334 -0.0024050672456223856 -0.0010854354538697153
0.001407100590911251 -0.002402182473947514 -0.0009854337610978037
0.0016514777718452034 -0.002402182473947514 -0.0009854337610978037
0.0018958544871178684 -0.002402182473947514 -0.0009854337610978037
0.002146903662976366 -0.002399297469441999 -0.000885432068325892
0.0023915416142312107 -0.002399297469441999 -0.000885432068325892
0.00263618049680863 -0.002399297469441999 -0.000885432068325892
0.002880818913724762 -0.002399297469441999 -0.000885432068325892
0.003125457330640894 -0.002399297469441999 -0.000885432068325892
0.0033780743880537567 -0.0023964126977671276 -0.0007854303755539804
0.0036229740409520683 -0.0023964126977671276 -0.0007854303755539804
0.0038763743406501827 -0.0023935276932616125 -0.0006854286827820688
0.004130297577973944 -0.002390642921586741 -0.0005854344405907541
0.0043847442185846386 -0.0023877581499118696 -0.0004854327478188425
0.004648998617228609 -0.002381988373731483 -0.00028542936227501925
0.005437963879701239 -0.0023675640496958385 0.00021457165100394193
0.005695807053741556 -0.0023646795108516108 0.00031456589319525663
0.005943581699427706 -0.0023646795108516108 0.00031456589319525663
0.006213063611682993 -0.002358909734671224 0.0005145692787390799
0.006516934610005957 -0.0023444854106355797 0.001014570292018041
0.006823418899473291 -0.002330061319430579 0.0015145713052970022
0.007120878673192602 -0.0023185217670698057 0.0019145706258040518
0.007770712724920851 -0.0022839038084794174 0.0031145685873252005
0.008100333861109359 -0.0022665947127689014 0.0037145712933760733
-0.007149358740973729 -0.002154659052525867 -0.000885432068325892
-0.006901720999706048 -0.002157805293013562 -0.0009854337610978037
-0.00665460596323337 -0.0021609515335012566 -0.0010854354538697153
-0.005920305144939083 -0.0021640975411583076 -0.00118542969606103
-0.005676450785215456 -0.0021640975411583076 -0.00118542969606103
-0.005432596425491828 -0.0021640975411583076 -0.00118542969606103
-0.005187572441029805 -0.0021672437816460024 -0.0012854313888329416
-0.004943979375496018 -0.0021672437816460024 -0.0012854313888329416
-0.004700386309962231 -0.0021672437816460024 -0.0012854313888329416
-0.004457178870181996 -0.0021640975411583076 -0.00118542969606103
-0.004213324495906453 -0.0021640975411583076 -0.00118542969606103
-0.003969332911622222 -0.0021609515335012566 -0.0010854354538697153
-0.0037252171558453473 -0.0021609515335012566 -0.0010854354538697153
-0.003481101414620388 -0.0021609515335012566 -0.0010854354538697153
-0.0032369857607069197 -0.0021609515335012566 -0.0010854354538697153
-0.0029928700485857907 -0.0021609515335012566 -0.0010854354538697153
-0.00274875422004934 -0.0021609515335012566 -0.0010854354538697153
-0.002504638391512889 -0.0021609515335012566 -0.0010854354538697153
-0.0022605227958070817 -0.0021609515335012566 -0.0010854354538697153
-0.002016406967270631 -0.0021609515335012566 -0.0010854354538697153
-0.0017722912551495018 -0.0021609515335012566 -0.0010854354538697153
-0.0015281755430283728 -0.0021609515335012566 -0.0010854354538697153
-0.0012840598309072438 -0.0021609515335012566 -0.0010854354538697153
-0.0010399441187861147 -0.0021609515335012566 -0.0010854354538697153
-0.000795828173834342 -0.0021609515335012566 -0.0010854354538697153
-0.0005517126945438567 -0.0021609515335012566 -0.0010854354538697153
-0.00030759698242272763 -0.0021609515335012566 -0.0010854354538697153
-6.348103747095494e-05 -0.0021609515335012566 -0.0010854354538697153
0.00018063490748081775 -0.0021609515335012566 -0.0010854354538697153
0.00042475038677130313 -0.0021609515335012566 -0.0010854354538697153
0.0006688658660617885 -0.0021609515335012566 -0.0010854354538697153
0.0009129818110135612 -0.0021609515335012566 -0.0010854354538697153
0.001157097755965334 -0.0021609515335012566 -0.0010854354538697153
0.0014012132352558193 -0.0021609515335012566 -0.0010854354538697153
0.0016514777718452034 -0.002157805293013562 -0.0009854337610978037
0.0018958544871178684 -0.002157805293013562 -0.0009854337610978037
0.002140232133713108 -0.002157805293013562 -0.0009854337610978037
0.0023915416142312107 -0.002154659052525867 -0.000885432068325892
0.00263618049680863 -0.002154659052525867 -0.000885432068325892
0.002880818913724762 -0.002154659052525867 -0.000885432068325892
0.003125457330640894 -0.002154659052525867 -0.000885432068325892
0.003370096213218313 -0.002154659052525867 -0.000885432068325892
0.0036229740409520683 -0.0021515128120381723 -0.0007854303755539804
0.0038763743406501827 -0.0021483665715504776 -0.0006854286827820688
0.004121536626514536 -0.0021483665715504776 -0.0006854286827820688
0.005943581699427706 -0.0021169046323348175 0.00031456589319525663
0.006202210909720999 -0.0021137583918471228 0.00041456758596716825
0.0064724760642615375 -0.0021074659108717333 0.0006145709715109915
0.006789290583726507 -0.002088588933606852 0.0012145662269812674
0.007097603990730387 -0.0020728577311683784 0.0017145672402602286
0.007408530688878637 -0.0020571267615605484 0.0022145682535391897
0.007758552446064096 -0.002031957070489634 0.003014566894553289
0.008063069782253844 -0.002019372341369499 0.0034145662150603384
-0.006657343818772096 -0.0019134281120796095 -0.0009854337610978037
-0.006410490251112241 -0.0019168358213801275 -0.0010854354538697153
-0.006166374538991112 -0.0019168358213801275 -0.0010854354538697153
-0.005920305144939083 -0.0019202430650193583 -0.00118542969606103
-0.005676450785215456 -0.0019202430650193583 -0.00118542969606103
-0.005432596425491828 -0.0019202430650193583 -0.00118542969606103
-0.0051887420657682004 -0.0019202430650193583 -0.00118542969606103
-0.004943979375496018 -0.0019236507743198763 -0.0012854313888329416
-0.0047010332299056235 -0.0019202430650193583 -0.00118542969606103
-0.004457178870181996 -0.0019202430650193583 -0.00118542969606103
-0.004213448667399097 -0.0019168358213801275 -0.0010854354538697153
-0.003969332911622222 -0.0019168358213801275 -0.0010854354538697153
-0.0037252171558453473 -0.0019168358213801275 -0.0010854354538697153
-0.003481101414620388 -0.0019168358213801275 -0.0010854354538697153
-0.0032369857607069197 -0.0019168358213801275 -0.0010854354538697153
-0.002991687385331351 -0.0019134281120796095 -0.0009854337610978037
-0.0027473102043973985 -0.0019134281120796095 -0.0009854337610978037
-0.002502933023463446 -0.0019134281120796095 -0.0009854337610978037
-0.0022585559589448157 -0.0019134281120796095 -0.0009854337610978037
-0.0020141787780108633 -0.0019134281120796095 -0.0009854337610978037
-0.0017698018299075547 -0.0019134281120796095 -0.0009854337610978037
-0.0015254246489736023 -0.0019134281120796095 -0.0009854337610978037
-0.00128104746803965 -0.0019134281120796095 -0.0009854337610978037
-0.0010399441187861147 -0.0019168358213801275 -0.0010854354538697153
-0.000795828173834342 -0.0019168358213801275 -0.0010854354538697153
-0.0005517126945438567 -0.0019168358213801275 -0.0010854354538697153
-0.00030759698242272763 -0.0019168358213801275 -0.0010854354538697153
-6.348103747095494e-05 -0.0019168358213801275 -0.0010854354538697153
0.00018063490748081775 -0.0019168358213801275 -0.0010854354538697153
0.00042475038677130313 -0.0019168358213801275 -0.0010854354538697153
0.0006688658660617885 -0.0019168358213801275 -0.0010854354538697153
0.0009129818110135612 -0.0019168358213801275 -0.0010854354538697153
0.001157097755965334 -0.0019168358213801275 -0.0010854354538697153
0.001407100590911251 -0.0019134281120796095 -0.0009854337610978037
0.0016514777718452034 -0.0019134281120796095 -0.0009854337610978037
0.0018958544871178684 -0.0019134281120796095 -0.0009854337610978037
0.002140232133713108 -0.0019134281120796095 -0.0009854337610978037
0.0023915416142312107 -0.0019100204027790915 -0.000885432068325892
0.00263618049680863 -0.0019100204027790915 -0.000885432068325892
0.002880818913724762 -0.0019100204027790915 -0.000885432068325892
0.003125457330640894 -0.0019100204027790915 -0.000885432068325892
0.003370096213218313 -0.0019100204027790915 -0.000885432068325892
0.0036229740409520683 -0.001906612926309217 -0.0007854303755539804
0.0038678732281890926 -0.001906612926309217 -0.0007854303755539804
0.004121536626514536 -0.001903205217008699 -0.0006854286827820688
0.005417825891670328 -0.001879352416058291 1.456826546011869e-05
0.005675146593746286 -0.001875944706757773 0.00011456995823203031
0.005922398767468077 -0.001875944706757773 0.00011456995823203031
0.00619135727643643 -0.0018691297538180243 0.00031456589319525663
0.006450246325728041 -0.0018657220445175062 0.00041456758596716825
0.0067437870940533695 -0.001852091905807365 0.0008145669064742178
0.007074330239590746 -0.0018282386391956697 0.0015145713052970022
0.008038226752575976 -0.0017703099093932997 0.003214570280097112
-0.006166374538991112 -0.0016727198764283548 -0.0010854354538697153
-0.005922258710454661 -0.0016727198764283548 -0.0010854354538697153
-0.005676450785215456 -0.0016763885888804089 -0.00118542969606103
-0.005432596425491828 -0.0016763885888804089 -0.00118542969606103
-0.0051887420657682004 -0.0016763885888804089 -0.00118542969606103
-0.004944887647836912 -0.0016763885888804089 -0.00118542969606103
-0.0047010332299056235 -0.0016763885888804089 -0.00118542969606103
-0.004457564408624056 -0.0016727198764283548 -0.0010854354538697153
-0.004213448667399097 -0.0016727198764283548 -0.0010854354538697153
-0.003969195716165449 -0.0016690509311456572 -0.0009854337610978037
-0.003724818607991073 -0.0016690509311456572 -0.0009854337610978037
-0.003480441514368612 -0.0016690509311456572 -0.0009854337610978037
-0.0032360644498499814 -0.0016690509311456572 -0.0009854337610978037
-0.002991687385331351 -0.0016690509311456572 -0.0009854337610978037
-0.002745866188745457 -0.0016653819858629595 -0.000885432068325892
-0.0025012276554140034 -0.0016653819858629595 -0.000885432068325892
-0.0022565892384978714 -0.0016653819858629595 -0.000885432068325892
-0.002011950588751096 -0.0016653819858629595 -0.000885432068325892
-0.0017673121718349638 -0.0016653819858629595 -0.000885432068325892
-0.0015226737549188319 -0.0016653819858629595 -0.000885432068325892
-0.00128104746803965 -0.0016690509311456572 -0.0009854337610978037
-0.0010366702871056977 -0.0016690509311456572 -0.0009854337610978037
-0.0007922931061717453 -0.0016690509311456572 -0.0009854337610978037
-0.0005479163908990803 -0.0016690509311456572 -0.0009854337610978037
-0.000303539209965128 -0.0016690509311456572 -0.0009854337610978037
-5.916202903117566e-05 -0.0016690509311456572 -0.0009854337610978037
0.00018521515190277667 -0.0016690509311456572 -0.0009854337610978037
0.0004295918671754417 -0.0016690509311456572 -0.0009854337610978037
0.0006688658660617885 -0.0016727198764283548 -0.0010854354538697153
0.0009129818110135612 -0.0016727198764283548 -0.0010854354538697153
0.001157097755965334 -0.0016727198764283548 -0.0010854354538697153
0.001407100590911251 -0.0016690509311456572 -0.0009854337610978037
0.0016514777718452034 -0.0016690509311456572 -0.0009854337610978037
0.0018958544871178684 -0.0016690509311456572 -0.0009854337610978037
0.002140232133713108 -0.0016690509311456572 -0.0009854337610978037
0.0023915416142312107 -0.0016653819858629595 -0.000885432068325892
0.00263618049680863 -0.0016653819858629595 -0.000885432068325892
0.002880818913724762 -0.0016653819858629595 -0.000885432068325892
0.003125457330640894 -0.0016653819858629595 -0.000885432068325892
0.003370096213218313 -0.0016653819858629595 -0.000885432068325892
0.0036229740409520683 -0.0016617130405802618 -0.0007854303755539804
0.0038678732281890926 -0.0016617130405802618 -0.0007854303755539804
0.004121536626514536 -0.0016580438624669205 -0.0006854286827820688
0.00436669704973374 -0.0016580438624669205 -0.0006854286827820688
0.004621143690344435 -0.0016543751500148664 -0.0005854344405907541
0.0054077564319935855 -0.001636030423601378 -8.543342731179293e-05
0.005675146593746286 -0.0016286925330359827 0.00011456995823203031
0.005922398767468077 -0.0016286925330359827 0.00011456995823203031
0.00619135727643643 -0.001621354875301231 0.00031456589319525663
0.006450246325728041 -0.0016176856971878897 0.00041456758596716825
0.00670965970962916 -0.001614016751905192 0.0005145692787390799
0.00702777994334374 -0.0015920033130396496 0.0011145645342093558
0.0073490378028122005 -0.0015699896413434635 0.0017145672402602286
-0.005678143114748854 -0.0014286041643072258 -0.0010854354538697153
-0.004945795920177806 -0.0014286041643072258 -0.0010854354538697153
-0.004701680091641355 -0.0014286041643072258 -0.0010854354538697153
-0.004457949947066117 -0.0014246737502117048 -0.0009854337610978037
-0.00421357283889174 -0.0014246737502117048 -0.0009854337610978037
-0.003969058535260591 -0.0014207433361161838 -0.000885432068325892
-0.003724420031032968 -0.0014207433361161838 -0.000885432068325892
-0.002990504605661589 -0.0014207433361161838 -0.000885432068325892
-0.002745866188745457 -0.0014207433361161838 -0.000885432068325892
-0.0025012276554140034 -0.0014207433361161838 -0.000885432068325892
-0.0022565892384978714 -0.0014207433361161838 -0.000885432068325892
-0.002011950588751096 -0.0014207433361161838 -0.000885432068325892
-0.0017673121718349638 -0.0014207433361161838 -0.000885432068325892
-0.0015226737549188319 -0.0014207433361161838 -0.000885432068325892
-0.0012780353380027 -0.0014207433361161838 -0.000885432068325892
-0.0010333966882559243 -0.0014207433361161838 -0.000885432068325892
-0.0007887582713397923 -0.0014207433361161838 -0.000885432068325892
-0.0005441198544236603 -0.0014207433361161838 -0.000885432068325892
-0.000303539209965128 -0.0014246737502117048 -0.0009854337610978037
-5.916202903117566e-05 -0.0014246737502117048 -0.0009854337610978037
0.00018521515190277667 -0.0014246737502117048 -0.0009854337610978037
0.0004295918671754417 -0.0014246737502117048 -0.0009854337610978037
0.000673969048109394 -0.0014246737502117048 -0.0009854337610978037
0.0009183466947046337 -0.0014246737502117048 -0.0009854337610978037
0.001162723875638586 -0.0014246737502117048 -0.0009854337610978037
0.001407100590911251 -0.0014246737502117048 -0.0009854337610978037
0.0016514777718452034 -0.0014246737502117048 -0.0009854337610978037
0.0018958544871178684 -0.0014246737502117048 -0.0009854337610978037
0.002146903662976366 -0.0014207433361161838 -0.000885432068325892
0.0023915416142312107 -0.0014207433361161838 -0.000885432068325892
0.00263618049680863 -0.0014207433361161838 -0.000885432068325892
0.002880818913724762 -0.0014207433361161838 -0.000885432068325892
0.003125457330640894 -0.0014207433361161838 -0.000885432068325892
0.003370096213218313 -0.0014207433361161838 -0.000885432068325892
0.003614734164473158 -0.0014207433361161838 -0.000885432068325892
0.0038678732281890926 -0.0014168129220206629 -0.0007854303755539804
0.004112773812409979 -0.0014168129220206629 -0.0007854303755539804
0.00436669704973374 -0.0014128827407557856 -0.0006854286827820688
0.004621143690344435 -0.0014089525594909082 -0.0005854344405907541
0.004876111871596914 -0.0014050221453953873 -0.0004854327478188425
0.005141411214169603 -0.001397161550034989 -0.00028542936227501925
0.005397686972316843 -0.0013932313687701117 -0.00018543512008370455
0.005654485202428442 -0.0013893009546745907 -8.543342731179293e-05
0.005922398767468077 -0.0013814403593141924 0.00011456995823203031
0.006169650941189867 -0.0013814403593141924 0.00011456995823203031
0.0064391319221225795 -0.001373579763953794 0.00031456589319525663
0.006698283604380232 -0.0013696493498582731 0.00041456758596716825
0.00698123057841931 -0.0013578585732329975 0.0007145652137023062
0.0073133420711723384 -0.0013303463730562817 0.0014145696125250906
0.007612632825073343 -0.001314625182335485 0.0018145689330321402
0.007988541624542815 -0.00127532197270285 0.0028145709595900625
0.008691320433315379 -0.0012163676239151846 0.004314566548846349
-0.005189911690506596 -0.0011844884521860968 -0.0010854354538697153
-0.004457949947066117 -0.0011802970349390398 -0.0009854337610978037
-0.00421357283889174 -0.0011802970349390398 -0.0009854337610978037
-0.002990504605661589 -0.0011761051520306955 -0.000885432068325892
-0.002744422173093516 -0.0011719132691223513 -0.0007854303755539804
-0.002499522170949239 -0.0011719132691223513 -0.0007854303755539804
-0.0022546224016356054 -0.0011719132691223513 -0.0007854303755539804
-0.0020097223994913283 -0.0011719132691223513 -0.0007854303755539804
-0.0017648227465930167 -0.0011719132691223513 -0.0007854303755539804
-0.0015226737549188319 -0.0011761051520306955 -0.000885432068325892
-0.0012780353380027 -0.0011761051520306955 -0.000885432068325892
-0.0010333966882559243 -0.0011761051520306955 -0.000885432068325892
-0.0007887582713397923 -0.0011761051520306955 -0.000885432068325892
-0.0005441198544236603 -0.0011761051520306955 -0.000885432068325892
-0.00029948143750752835 -0.0011761051520306955 -0.000885432068325892
-5.4843020591396376e-05 -0.0011761051520306955 -0.000885432068325892
0.00018521515190277667 -0.0011802970349390398 -0.0009854337610978037
0.0004295918671754417 -0.0011802970349390398 -0.0009854337610978037
0.000673969048109394 -0.0011802970349390398 -0.0009854337610978037
0.0009183466947046337 -0.0011802970349390398 -0.0009854337610978037
0.001162723875638586 -0.0011802970349390398 -0.0009854337610978037
0.001407100590911251 -0.0011802970349390398 -0.0009854337610978037
0.0016514777718452034 -0.0011802970349390398 -0.0009854337610978037
0.0018958544871178684 -0.0011802970349390398 -0.0009854337610978037
0.002146903662976366 -0.0011761051520306955 -0.000885432068325892
0.0023915416142312107 -0.0011761051520306955 -0.000885432068325892
0.00263618049680863 -0.0011761051520306955 -0.000885432068325892
0.002880818913724762 -0.0011761051520306955 -0.000885432068325892
0.003125457330640894 -0.0011761051520306955 -0.000885432068325892
0.003370096213218313 -0.0011761051520306955 -0.000885432068325892
0.003614734164473158 -0.0011761051520306955 -0.000885432068325892
0.0038678732281890926 -0.0011719132691223513 -0.0007854303755539804
0.004112773812409979 -0.0011719132691223513 -0.0007854303755539804
0.00436669704973374 -0.0011677218518752943 -0.0006854286827820688
0.004611858404275518 -0.0011677218518752943 -0.0006854286827820688
0.005387618443962675 -0.0011509552515644918 -0.00028542936227501925
0.005911806835826975 -0.0011383800685007463 1.456826546011869e-05
0.006169650941189867 -0.001134188185592402 0.00011456995823203031
0.0064391319221225795 -0.0011258053510982882 0.00031456589319525663
0.006686907499131304 -0.0011258053510982882 0.00031456589319525663
0.006957956827279669 -0.0011174215852815996 0.0005145692787390799
0.007265747762319189 -0.0010964635677237402 0.001014570292018041
0.007600472546216589 -0.0010671217843491922 0.0017145672402602286
0.008652488007244212 -0.0009707131340701471 0.004014568921111211
0.00898916763722573 -0.0009455632336039434 0.004614571627162084
-0.004457949947066117 -0.0009359198540050875 -0.0009854337610978037
-0.003969058535260591 -0.0009314667351145636 -0.000885432068325892
-0.003724420031032968 -0.0009314667351145636 -0.000885432068325892
-0.0029893219424071494 -0.0009270136162240396 -0.0007854303755539804
-0.002742978041026253 -0.0009225604973335157 -0.0006854286827820688
-0.002497816802899796 -0.0009225604973335157 -0.0006854286827820688
