ply
format ascii 1.0
element vertex 652
property float x
property float y
property float z
property uchar red
property uchar green
property uchar blue
end_header
-0.00707654044693494 -0.0038412606168193946 0.06264309745579381 0 30 224
-0.00725858996591664 -0.004319429978211944 0.06288794132988132 0 13 241
-0.0074314972898954475 -0.004813177778224927 0.06291958452235245 0 13 241
-0.007611690965246985 -0.005294509675053337 0.06312114840988386 0 0 254
-0.007774814045857995 -0.005804929772650477 0.06292461904401293 0 17 237
-0.002808140259173292 0.00611273580538281 0.058676119949695085 56 198 0
-0.0031505513100533603 0.005119441246272065 0.058660036873577695 65 189 0
-0.003512162619812142 0.004158863072201806 0.05909170787457517 21 233 0
-0.0038806271582130115 0.0032099627625343506 0.05968319897135185 0 227 27
-0.004073822689688471 0.0027507859579594548 0.060187971463112666 0 190 64
-0.0042506597664450935 0.002263734435346882 0.060311258098133196 0 183 71
-0.004431045881224598 0.0017827304542590548 0.06051730975185711 0 169 85
-0.0046010310107036535 0.001284003250681866 0.06048080617304328 0 174 80
-0.004791390006897513 0.0008199930053854922 0.06091942950153205 0 143 111
-0.004975896712343995 0.0003460104884252281 0.06122157501545767 0 122 132
-0.005162462271588881 -0.00012446375283921372 0.061571733842296195 0 97 157
-0.005339299368183497 -0.0006115154296126172 0.0616950199861232 0 90 164
-0.005511952939275217 -0.00110569562316768 0.06172074555745011 0 90 164
-0.005692339054054721 -0.0015866996042555076 0.06192679721117401 0 76 178
-0.005855850399983317 -0.0020964580558049933 0.06173932257491169 0 93 161
-0.006038288256344483 -0.002573965877438771 0.061993221696647755 0 76 178
-0.006209612016279906 -0.0030704121089763403 0.061987935289291314 0 78 176
-0.006384997435171949 -0.003559937248709712 0.06207736866899639 0 74 180
-0.00655632120616493 -0.004056383414414097 0.06207208275796264 0 76 178
-0.006740827849061268 -0.0045303658499948034 0.062374227767016954 0 55 199
-0.0069094406584955985 -0.0050314314794784485 0.06230572112330602 0 63 191
-0.007082094165519093 -0.005525611782205422 0.06233144520053568 0 63 191
-0.007262480301654672 -0.006006615726902613 0.062537497352292 0 49 205
-0.0074393173570552204 -0.006493667285905821 0.06266078348928011 0 42 212
-0.00761197092814694 -0.006987847479460885 0.062686509060607 0 42 212
-0.001946079347919954 0.006891878539862622 0.05813447032707715 118 136 0
-0.002315524941709401 0.00594464994325156 0.05874884003689236 52 202 0
-0.002639466703384873 0.004919883815598241 0.05830204558022587 112 142 0
-0.002830759152275395 0.004457464168629655 0.05876243740750217 60 194 0
-0.0030049962977090174 0.003965982377156629 0.058825092580366375 56 198 0
-0.0031889273501449398 0.0034910189505913524 0.05911381363057016 25 229 0
-0.0033766367621406532 0.0030224938282048222 0.059490647571539844 0 244 10
-0.0035535849118450754 0.0025356315732923303 0.059616524473146054 0 237 17
-0.0037305329974812716 0.0020487692092079285 0.05974239988065503 0 229 25
-0.0039125825583244175 0.0015705997311823933 0.05998724377714494 0 213 41
-0.004089530643960613 0.0010837373670979922 0.060113119184653924 0 205 49
-0.0042841362957341325 0.0006269633998560371 0.06065077625868479 0 166 88
-0.004461084402726404 0.00014010107216227237 0.060776652164226175 0 159 95
-0.0046556900544999225 -0.00031667289507968273 0.06131430923825704 0 120 134
-0.004828597483741025 -0.0008104207036909511 0.06134595393166431 0 119 135
-0.005005545569377221 -0.001297283067775352 0.06147182933917329 0 112 142
-0.005189476621813144 -0.0017722464943406295 0.06176055038937707 0 92 162
-0.005352599692936139 -0.002282666564051077 0.061564021025794155 0 109 145
-0.005528175479240029 -0.0027718673158111397 0.06165789386633158 0 104 150
-0.005699737188566795 -0.003267908082877589 0.06165815653613295 0 106 148
-0.005875313018226493 -0.0037571087636965365 0.06175203037284206 0 101 153
-0.006052261103862689 -0.004243971127780938 0.06187790578035103 0 94 160
-0.006227836849616169 -0.004733171763610966 0.061971778614156425 0 89 165
-0.006400744216307127 -0.0052269194908426755 0.062003422802692394 0 89 165
-0.006569468055977106 -0.005727795925407514 0.06193750542950232 0 96 158
-0.006746416141613302 -0.0062146582894919145 0.062063380837011295 0 88 166
-0.006915139981283282 -0.0067155347240567525 0.06199746346382122 0 96 158
-0.007088047347974241 -0.007209282451288462 0.062029107652357175 0 95 159
-0.007303594926720966 -0.007630371488653049 0.06305513903132577 0 19 235
-0.007446074681170899 -0.008175967701964668 0.06237719885362182 0 73 181
-0.007648251306576905 -0.00861984077123652 0.06309141413025737 0 20 234
-0.007832182359179672 -0.009094804197517495 0.06338013518435204 0 0 254
-0.0011095256204966914 0.007714485377121033 0.05818765866707216 109 145 0
-0.0014525751906007672 0.00672227809944309 0.058186462305199936 116 138 0
-0.001622560256011596 0.006223550786693992 0.05814995723228886 124 130 0
-0.001797945738971866 0.005734025756132528 0.05823939210609117 116 138 0
-0.0019733311792199835 0.005244500652789792 0.05832882598382866 109 145 0
-0.0021501680271321065 0.0047574494920860876 0.058452111097396384 98 156 0
-0.002330554205979836 0.00427644562017017 0.05865816424521754 77 177 0
-0.0025150608900702427 0.003802463066819268 0.05896030926111075 44 210 0
-0.002695447004849748 0.003321459085731441 0.05916636091483466 23 231 0
-0.0028778848191424195 0.0028439511894762315 0.05942025904061275 0 252 2
-0.003058270955278 0.00236294724477904 0.05962631119236907 0 239 15
-0.003238657112769655 0.0018819433364724854 0.05983236384215781 0 225 29
-0.0034154941254580526 0.0013948917046880036 0.059955648983081096 0 218 36
-0.0036000008736166845 0.0009209092605090121 0.06025779549307155 0 197 57
-0.003776837907661157 0.00043385766511516667 0.060381081132027246 0 190 64
-0.003952223326553201 -5.5667474618205544e-05 0.06047051451173232 0 185 69
-0.004120836135987531 -0.0005567331041018511 0.06040200786802138 0 192 62
-0.004317586769093184 -0.0010098522227627222 0.06098968583046525 0 149 105
-0.0045094200392354 -0.0014713503132543146 0.061462689830596 0 115 139
-0.004671049924582156 -0.001984314807475811 0.06123133854025507 0 135 119
-0.004843703421950789 -0.0024784950826003947 0.061257062615881874 0 135 119
-0.005017702617349411 -0.002970382336704382 0.061314168711481404 0 133 121
-0.005191701823690207 -0.003462269622091076 0.06137127480889752 0 131 123
-0.00534265704563114 -0.003993423684807804 0.06089098600063228 0 170 84
-0.005539407658898799 -0.004446542649307844 0.061478664454269666 0 127 127
-0.005713406749678783 -0.0049384298966537055 0.06153576904903993 0 125 129
-0.005890243826435406 -0.005425481419266277 0.06165905568406046 0 118 136
-0.006064243022477685 -0.005917368675210423 0.06171616177976685 0 115 139
-0.00623556677211459 -0.006413814877305446 0.06171087537070069 0 118 136
-0.006408220321850235 -0.006907995107251145 0.06173660044399518 0 118 136
-0.006578205408617139 -0.007406722383609607 0.06170009586911651 0 123 131
-0.006749529200966195 -0.007903168512923355 0.061694810456115176 0 126 128
-0.006924914641214314 -0.008392693616266092 0.06178424433385267 0 121 133
-0.007105300755993819 -0.00887369759735392 0.06199029598757658 0 108 146
-0.007298496287469277 -0.009332874401928816 0.0624950684793374 0 71 183
-0.007496301314244276 -0.009784196651536318 0.06310733628735572 0 26 228
-0.0006174392075944581 0.007547300765491647 0.05827271302503682 103 151 0
-0.0009597218596773061 0.00655378666366881 0.05825363182114216 112 142 0
-0.001132629205012189 0.006060038900046463 0.0582852755116457 112 142 0
-0.0013055365717031479 0.005566291172814752 0.05831691970018167 111 143 0
-0.0014811123586506957 0.0050770904192145305 0.058410792540825957 103 151 0
-0.0016566880021780441 0.004587890173085723 0.05850466585214709 96 158 0
-0.001832263789125591 0.004098689419485502 0.05859853869279138 88 166 0
-0.0020143133499687382 0.003620519941459965 0.05884338258928129 62 192 0
-0.00220560579885926 0.0031581002944913797 0.05930377441655759 11 243 0
-0.002381181585806808 0.002668899540891158 0.059397647257201876 3 251 0
-0.002568890997802521 0.0022003744185046283 0.05977448119817155 0 230 24
-0.002749084651631139 0.001719042485001279 0.05997604458377967 0 217 37
-0.002936794106339003 0.0012505174353960218 0.06035287952081418 0 190 64
-0.0031097014516738857 0.0007567696717736751 0.06038452321131773 0 190 64
-0.00329741090638175 0.0002882446221684177 0.06076135814835224 0 163 91
-0.0034743589920179455 -0.00019861774191598318 0.06088723355586122 0 155 99
-0.0036513070990102175 -0.0006854800696097481 0.061013109461402606 0 148 106
-0.0038200309585181905 -0.0011863566583354165 0.06094719159701901 0 155 99
-0.003992938325209149 -0.0016801043855671266 0.06097883578555497 0 155 99
-0.004158113105500172 -0.0021870283980473457 0.0608301528956291 0 169 85
-0.004333688882792859 -0.0026762291240451782 0.06092402573467052 0 164 90
-0.004513882557333895 -0.003157561019317732 0.06112558961820419 0 150 104
-0.00469781359871226 -0.003632524511716194 0.06141431017208529 0 130 124
-0.004862988379003281 -0.004139448524196412 0.06126562728215942 0 144 110
-0.005034550099387606 -0.004635489225429676 0.06126589044828347 0 146 108
-0.005203273876507442 -0.005136365578614957 0.06119997257022209 0 153 101
-0.005383467551692134 -0.005617697475727669 0.06140153645386262 0 140 114
-0.005557704697125756 -0.006109179267200694 0.061464191626726825 0 137 117
-0.005731941821203302 -0.006600661095064356 0.061526846301558615 0 135 119
-0.005903503541587626 -0.00709670179629762 0.061527109467682674 0 137 117
-0.006080451627223823 -0.007583564160382022 0.06165298487519164 0 130 124
-0.006237425332890363 -0.008104462759502148 0.06131304956973601 0 158 96
-0.006421356385326286 -0.008579426186067426 0.0616017706199398 0 138 116
-0.0065955935307599085 -0.009070907977540453 0.061664425792804 0 135 119
-0.006775787205944602 -0.009552239874653166 0.061865989676444536 0 122 132
-0.006995690752009946 -0.009965906367353549 0.06299360399543025 0 37 217
-0.00716859809734483 -0.010459654130975896 0.0630252476859338 0 37 217
-0.007345546390469452 -0.010946516893359801 0.06315112411686316 0 30 224
-0.007533255801964632 -0.011415042016599238 0.06352795804616021 0 3 251
-0.00013150443354752444 0.007390598513077014 0.058501226117912954 80 174 0
-0.0004582844115622181 0.006370667938799585 0.05812061621217548 132 122 0
-0.000640722225854891 0.005893160042544376 0.05837451433795356 105 149 0
-0.0008120459754917967 0.005396713840449354 0.0583692279288874 109 145 0
-0.0009888830522484194 0.004909662317836782 0.05849251456390793 98 156 0
-0.0011692690449637997 0.004428658880611003 0.05869856718634111 77 177 0
-0.0013405927946007054 0.003932212678515983 0.058693280777274946 81 173 0
-0.0015230306088933774 0.003454704782260772 0.058947178903053045 54 200 0
-0.001695684179985097 0.00296052458870571 0.058972904474379945 54 200 0
-0.0018610513998709314 0.0024539284922503756 0.058828709354537455 75 179 0
-0.0020566916040017317 0.0019989173966090757 0.05939049261280415 11 243 0
-0.0022609314084787737 0.0015585599732741329 0.06015282206947998 0 206 48
-0.00244951859788276 0.0010915305788262136 0.06055012613873365 0 177 77
-0.002622172126262329 0.0005973503124898775 0.060575850713995724 0 178 76
-0.002802558283753984 0.00011634640418332269 0.060781903363784466 0 164 90
-0.002979395317798457 -0.0003707051912105225 0.06090518900274016 0 157 97
-0.003150719110147513 -0.0008671513205242708 0.060899903589738826 0 159 95
-0.0033261045915897007 -0.0013566765416372013 0.0609893374743152 0 155 99
-0.003489615925817081 -0.001866435057179712 0.06080186234162333 0 171 83
-0.003658228735251413 -0.002367500686663357 0.06073335569791239 0 179 75
-0.003830882253976122 -0.0028616809253973045 0.0607590802715716 0 179 75
-0.004024077784807923 -0.0033208577281320407 0.06126385276322556 0 142 112
-0.004178346241286445 -0.00384636610417405 0.06086082970145703 0 175 79
-0.004355183296686992 -0.004333417663177258 0.06098411583844514 0 168 86
-0.0045278368250665614 -0.004827597929513594 0.06100984041370721 0 168 86
-0.004704673860629116 -0.005314649334355973 0.06113312704188885 0 161 93
-0.004881510916029663 -0.005801700893359182 0.061256413178876964 0 154 100
-0.005050123725463995 -0.006302766522842827 0.06118790653516603 0 161 93
-0.005232561539756667 -0.006780274419098037 0.06144180466094412 0 144 110
-0.0053979287596425014 -0.007286870515553371 0.06129760954110163 0 157 97
-0.005571927955684781 -0.007778757771497518 0.06135471563680802 0 155 99
-0.005747313374576824 -0.00826828291123089 0.06144414901651309 0 150 104
-0.0059226988148249424 -0.008757808014573626 0.06153358289425058 0 146 108
-0.006096698010867221 -0.009249695270517772 0.061590688989956975 0 144 110
-0.006281204694957628 -0.009723677823868675 0.06189283400585018 0 123 131
-0.006452528465950609 -0.010220123989573058 0.061887548094816426 0 125 129
-0.006666404537382632 -0.01064406126632798 0.06287459923934621 0 51 203
-0.006866206553510976 -0.01109198140877686 0.06353343384081364 0 3 251
-0.007020474989513477 -0.011617489772718734 0.0631304105399918 0 36 218
-0.007212308248477122 -0.01207898788225855 0.06360341427943371 0 2 252
0.00044483389187829816 0.007868230041307104 0.06062211774992728 0 143 111
0.00017579108861379231 0.0067499156346863595 0.058895053307137554 40 214 0
2.206344232940586e-05 0.0062234857680005425 0.05847941856883726 93 161 0
-0.0001466603759844986 0.005722609297045069 0.058413500697614765 104 150 0
-0.0003168358308069082 0.005224206406819758 0.05838143558367532 112 142 0
-0.0004883975511912313 0.004728165705586494 0.05838169874979938 115 139 0
-0.0006639731520064291 0.004238965386676413 0.05847557106505569 107 147 0
-0.0008341486281849128 0.0037405625328417397 0.058443506449148655 114 140 0
-0.0010271174862768037 0.0032809994780517585 0.05894299282486631 58 196 0
-0.001184091234655495 0.002760100951712905 0.0586030585154755 102 152 0
-0.0013770601141034605 0.002300537933313561 0.059102545389225575 46 208 0
-0.001554008221095732 0.001813675605619796 0.05922842129476696 35 219 0
-0.0017453006699862544 0.0013512559586512098 0.05968881312204326 0 244 10
-0.0019527161655772335 0.0009163098957349158 0.06052520099475932 0 182 72
-0.002144008614467756 0.0004538902487663298 0.06098559282203562 0 149 105
-0.0023298314094126133 -1.7849658833202307e-05 0.06131843008151204 0 125 129
-0.0025118809702557605 -0.0004960191368587378 0.061563273978001945 0 109 145
-0.0026861181156893825 -0.0009875009283317633 0.06162592915086615 0 106 148
-0.0029129506595666323 -0.001389360634339961 0.06291512957984682 0 9 245
-0.003025523440868668 -0.001985918167543132 0.061539746552562585 0 117 137
-0.0031824971465352087 -0.002506816766663259 0.06119981124710695 0 145 109
-0.003336224783164735 -0.003033246605746688 0.06078417650720379 0 180 74
-0.0035049486008349824 -0.0035341230748620026 0.06071825863587444 0 187 67
-0.0036778559351123077 -0.004027870904317534 0.060749901830055304 0 187 67
-0.0038534317647720053 -0.004517071585136482 0.06084377566676442 0 182 72
-0.004029007551719553 -0.005006272338736704 0.060937648507408695 0 177 77
-0.0042092011643541025 -0.005487604154469859 0.06113921188617792 0 163 91
-0.004383438309787724 -0.005979085945942883 0.061201867059042125 0 161 93
-0.004556345697834758 -0.006472833636783958 0.0612335117456105 0 160 94
-0.00473192146342623 -0.006962034426774816 0.06132738408822237 0 155 99
-0.004903483183810554 -0.00745807512800808 0.06132764725434643 0 158 96
-0.0050777203078881 -0.007949556955871743 0.061390301929178215 0 155 99
-0.005253296094835648 -0.008438757709471964 0.0614841747698225 0 150 104
-0.00542753324026927 -0.00893023950094499 0.061546829942686704 0 147 107
-0.005597708695091679 -0.0094286423911703 0.06151476482874726 0 152 102
-0.005771945840525302 -0.009920124182643326 0.061577420001611455 0 149 105
-0.005952139515709994 -0.010401456079756038 0.06177898388525198 0 136 118
-0.006122314970532403 -0.010899858969981349 0.06174691877131253 0 141 113
-0.006306246187744601 -0.011374822867627404 0.06203563984887188 0 121 133
-0.006513661661979505 -0.011809768966934333 0.06287202722355552 0 59 195
0.0009614485688295635 0.007659249400891868 0.06013516295507612 0 183 71
0.0007595227164707589 0.007214949015708928 0.06084353010165272 0 131 123
0.0006685198495498448 0.0065816364654943844 0.058965127846151176 36 218 0
0.0005068899642030897 0.006068671971272889 0.05873377655581026 67 187 0
0.00034526012156848446 0.00555570740427012 0.0585024242694045 98 156 0
0.00017527505615765526 0.005056980091521022 0.05846591919649343 106 148 0
5.289926678600943e-06 0.004558252887943833 0.0584294156176796 113 141 0
-0.00016603365818203004 0.004061807156929588 0.05842412918125788 117 137 0
-0.00033735740781893524 0.0035653609548345682 0.05841884277219172 121 133 0
-0.0005127428480670541 0.003075835851491831 0.058508276649929206 114 140 0
-0.0006813556361453098 0.0025747701856175496 0.05843976950818586 126 128 0
-0.0008617417722808899 0.0020937662409203587 0.05864582165994218 105 149 0
-0.001044179629285713 0.0016162584174464218 0.0588997207817851 78 176 0
-0.0012461054816445172 0.0011719580322634817 0.0596080879283617 0 253 1
-0.0014702164521791373 0.0007654609680183915 0.060833821107344824 0 161 93
-0.0016620497223213534 0.0003039628775267987 0.06130682510747558 0 126 128
-0.001838886777721901 -0.00018308868147641033 0.061430111244463695 0 119 135
-0.002023393483168382 -0.0006570711984366746 0.06173225675838931 0 98 156
-0.002209959042413268 -0.0011275454397011164 0.06208241558522784 0 73 181
-0.0023593163585676697 -0.0016614225131683952 0.061564862006449506 0 115 139
-0.002541754215572493 -0.002138930336642332 0.06181876112829243 0 98 156
-0.0027171396558206113 -0.002628455439985068 0.06190819500602991 0 93 161
-0.0028697316190761627 -0.0031568204603326542 0.06146607589841019 0 130 124
-0.0030275831015073194 -0.0036762233296740118 0.061146610721131686 0 156 98
-0.0031929503316916715 -0.004182819455571894 0.06100241560299892 0 170 84
-0.003354580174326276 -0.004695784022574662 0.060771063316593175 0 190 64
-0.003541145733571161 -0.005166258263839105 0.06112122214343169 0 165 89
-0.0037008838138588374 -0.005682446195646789 0.060845754138946835 0 188 66
-0.003870868900625742 -0.00618117347200525 0.06080924956406818 0 193 61
-0.004053306693562339 -0.006658681404651096 0.061063147191813855 0 176 78
-0.004228692176522608 -0.007148206435212559 0.06115258206561617 0 171 83
-0.004382960622702613 -0.00767371478181202 0.06074955900213791 0 205 49
-0.0045807655854093856 -0.008125037140591434 0.06136182531605899 0 160 94
-0.004752089335046291 -0.008621483342686455 0.06135653890699283 0 162 92
-0.004928926411802915 -0.009108534865299028 0.06147982554201336 0 155 99
-0.005105763488559538 -0.0095955863879116 0.06160311217703389 0 148 106
-0.0052943506779635245 -0.010062615782359521 0.06200041624628756 0 119 135
-0.005448619102787454 -0.010588124165349617 0.06159739268477688 0 153 101
-0.0056199428524243596 -0.01108457036744464 0.061592106275710726 0 155 99
-0.005817748043975633 -0.01153589308813292 0.06220437411108461 0 110 144
-0.006000185858268305 -0.012013400984388129 0.062458272236862705 0 93 161
-0.006210328140269754 -0.012443700618063568 0.0633582498842748 0 26 228
0.0012590910816514395 0.007035015518127581 0.06075410778398652 0 141 113
0.0011201040819552297 0.0064834676696763245 0.05999471513644302 0 201 53
0.000983484830331018 0.0059278851913638995 0.059180105635149194 18 236 0
0.0008570365804320109 0.005354971381325844 0.05812830421238497 146 108 0
0.0006712137854871531 0.0048832314737263125 0.0584611414718614 110 144 0
0.0005024899671732491 0.004382355002770838 0.05839522360063891 121 133 0
0.0003373153730145766 0.0038754314249807593 0.05824654018532506 143 111 0
0.00016440802767969404 0.0033816836613584133 0.058278183875828615 142 112 0
-7.153671348555067e-06 0.0028856429237345115 0.05827844654392026 146 108 0
-0.00018139081678217664 0.002394161132261487 0.058341101716784464 142 112 0
-0.0003556279622157982 0.0019026793407884615 0.05840375688964866 137 117 0
-0.0005433373742115121 0.001434154218401931 0.05878059083061834 96 158 0
-0.00074110082070784 0.0009827611162252948 0.059391888969526435 27 227 0
-0.0010012259719309295 0.0006376320203674119 0.06145748757656381 0 115 139
-0.0011825066072817672 0.00015815229747715744 0.06168439981598436 0 100 154
-0.0013702160619896311 -0.0003103727521281 0.06206123475301886 0 73 181
-0.0017360355650363995 -0.0012637801876801526 0.06259104254318065 0 37 217
-0.0019089429515653517 -0.001757528069072694 0.0626226862405231 0 37 217
-0.0020909925010630832 -0.0022356975664307548 0.06286752987243328 0 20 234
-0.002252046702032544 -0.0027496430237060115 0.06262275338688542 0 41 213
-0.0024236083914059327 -0.0032456837337275233 0.0626230160533742 0 43 211
-0.0025788102682828672 -0.0037696015165496733 0.062241760990544195 0 75 179
-0.0027378056357631013 -0.00428705526190519 0.06194897142724584 0 100 154
-0.0028845490979514683 -0.004825386140376408 0.06137046265840313 0 146 108
-0.00305878624338509 -0.005316867931849433 0.06143311783126733 0 144 110
-0.003212513848475408 -0.005843297680765056 0.06101748308612814 0 178 76
-0.0033854211724542154 -0.006337045480778039 0.06104912627859928 0 178 76
-0.0035712439673990736 -0.006808785388377571 0.0613819635380757 0 154 100
-0.0037414194435775577 -0.007307188242212245 0.06134989892216867 0 159 95
-0.003921613118762251 -0.007788520139324958 0.061551462805809205 0 146 108
-0.004101806772590868 -0.008269852072828307 0.061753026191417315 0 132 122
-0.00427604391802449 -0.008761333864301333 0.06181568136428151 0 130 124
-0.004451619704972038 -0.009250534617901554 0.0619095542049258 0 125 129
-0.004627195470563511 -0.009739735407892412 0.06200342654753767 0 120 134
-0.004802771300223209 -0.010228936088711362 0.06209730038424678 0 115 139
-0.0049679460805142316 -0.01073586010119158 0.06194861749432091 0 128 126
-0.005144894166150427 -0.011222722465275982 0.062074492901829884 0 121 133
-0.0053136181705966835 -0.011723599370921597 0.062008575555995364 0 128 126
-0.005529165803400973 -0.012144688316172384 0.0630346081956085 0 51 203
0.0019507423046481336 0.007316154494882465 0.06018585546694689 0 185 69
0.0017539916913804745 0.006863035530382424 0.06077353392058428 0 142 112
0.0016553135577658138 0.006242801592948207 0.05907412202454515 31 223 0
0.0015183969655047625 0.0056877257814668195 0.058266446628552716 131 123 0
0.0013239370903014558 0.005230703411740582 0.05880070413332499 70 184 0
0.0011641990115318608 0.004714515289381431 0.05852523513961419 106 148 0
0.0009928752191828054 0.004218069160067683 0.05851994972661286 111 143 0
0.0008293640283756239 0.0037083111519965847 0.05833247506459784 136 118 0
0.0006580402787387187 0.0032118649499015646 0.05832718865553168 140 114 0
0.0004894274906604625 0.0027107992840272816 0.05825868151378833 152 102 0
0.00031542829461818356 0.0022189120280831365 0.05831578760949472 149 105 0
0.00014410454498127835 0.001722465825988115 0.05831050120042856 153 101 0
-2.9894651061001046e-05 0.0012305785700439688 0.05836760729613495 149 105 0
-0.0002067317278176238 0.0007435270474313961 0.05849089393115548 138 116 0
-0.00039856497660376456 0.0002820289205491669 0.058963897433253816 85 169 0
-0.0006821098834297319 -2.3193038897483887e-05 0.06157565432262118 0 111 143
-0.0008910515268760468 -0.00045553855415310504 0.06244763258771305 0 46 208
-0.0010878021182870975 -0.000908657555896687 0.06303531053164538 0 3 251
-0.0025986458069571367 -0.005429616772988008 0.06226316543059628 0 82 172
-0.0027831524498534745 -0.005903599208568715 0.0625653104396506 0 61 193
-0.0029212978706890987 -0.00645658110282983 0.061786291828764994 0 123 131
-0.0030912829788120786 -0.006955308342797655 0.06174978775191875 0 128 126
-0.003265282174854357 -0.007447195598741801 0.061806893847625145 0 126 128
-0.0034366059244912628 -0.007943641800836822 0.06180160743855899 0 129 125
-0.0036134430012478855 -0.008430693323449395 0.06192489407357951 0 122 132
-0.003784766750884791 -0.008927139525544416 0.06191960766451335 0 124 130
-0.003961603806285339 -0.009414191084547626 0.062042893801501464 0 117 137
-0.004148169365530224 -0.009884665325812067 0.062393052628339996 0 92 162
-0.004318154430941054 -0.010383392638561167 0.062356547555428916 0 97 157
-0.004502661136387536 -0.01085737515552143 0.06265869306935454 0 76 178
-0.004678046619347805 -0.011346900186082894 0.06274812794315685 0 72 182
-0.004850700291147574 -0.011841080959890643 0.06277385204774207 0 72 182
-0.005043895843979107 -0.012300257728074903 0.0632786250375353 0 35 219
0.0022500318399331196 0.006689113774667915 0.060766385545598524 0 145 109
0.0021098744205283702 0.006139560315046292 0.060034287564509306 0 203 51
0.0019820978868119736 0.005568909893422372 0.05901346226380434 45 209 0
0.001818974806034118 0.005058489796109534 0.05881693290182428 72 182 0
0.001657920616410072 0.0045445443195017525 0.0585721561516967 105 149 0
0.0014989252592283557 0.004027090603588784 0.05827936658668862 143 111 0
0.0013337506437136075 0.003520167062189341 0.05813068366940719 164 90 0
0.0011595134982799863 0.0030286852707163163 0.05819333884227139 160 94 0
0.0009879517992517372 0.002532644533092415 0.05819360151036304 164 90 0
0.0008192279809378332 0.0020317680621369416 0.05812768363914055 175 79 0
0.0006352969285019108 0.0015568046355716643 0.05841640468934434 144 110 0
0.0004623896258791776 0.0010630567991680444 0.05844804738378306 144 110 0
0.0002972148455881551 0.0005561327866878252 0.058299364493857184 165 89 0
0.00011702114904738698 7.480092596574926e-05 0.05850092887553013 144 110 0
-8.91359398046865e-05 -0.0003622894552022754 0.05930797018824585 51 203 0
-0.0029977523056424595 -0.008020118020377769 0.06312807233286055 0 29 225
-0.0031719894083639304 -0.008511599884632067 0.06319072650965991 0 27 227
-0.003340713226677835 -0.009012476355587542 0.06312480863843742 0 34 220
-0.003528422680718322 -0.009481001406330007 0.06350164355990842 0 7 247
-0.0037039984678327136 -0.009970202159645926 0.06359551640444358 0 2 252
0.0029045476455742923 0.007033531301003937 0.061064146354417766 0 122 132
0.002755190370613959 0.006499654345306852 0.06054659276880054 0 164 90
0.0026262749601122866 0.005930944563542556 0.059552326540674244 0 243 11
0.0024720065139322823 0.005405436216943096 0.059149303477195984 33 221 0
0.0023177380677522766 0.004879927870343635 0.05874628041371772 85 169 0
0.002152370847866442 0.004373331773888301 0.05860208529387523 105 149 0
0.001987003627980608 0.003866735677432967 0.05845789017403274 126 128 0
0.001821636551514973 0.003360140088449046 0.0583136955248671 147 107 0
0.0016516514433919938 0.0028614128484812217 0.058277191448020856 154 100 0
0.001480327693755088 0.0023649666463861994 0.05827190503895469 158 96 0
0.0013076741440194437 0.0018707864164405005 0.05829763011224918 159 95 0
0.001123167438572962 0.0013968038994802362 0.058599775626174806 126 128 0
0.0009634293384472919 0.0008806158135117214 0.05832430713049641 162 92 0
0.000805577855372478 0.0003612129423302047 0.05800484195332477 204 50 0
0.0006088272634608945 -9.190605856047184e-05 0.05859251990892975 137 117 0
0.0004375035138239891 -0.0005883522606554928 0.058587233499863584 141 113 0
0.0002621180735758704 -0.001077877363998229 0.05867666737760107 134 120 0
6.0192178504915855e-05 -0.0015221776763998962 0.05938503552024249 53 201 0
0.0032228127901865696 0.006374156085449282 0.06120215470382122 0 117 137
0.0030963646043557893 0.005801242166239318 0.06015035178695976 0 200 54
0.002982403614756362 0.005207050132438902 0.058807342345125205 78 176 0
0.0028022099395716687 0.004725718235326189 0.05900890622876573 57 197 0
0.0026470080406950005 0.004201800487054517 0.058627651664075 106 148 0
0.002481833281760054 0.003694876438183661 0.05847896827611671 127 127 0
0.002318710408470624 0.003184456739170328 0.05828243789071627 154 100 0
0.0021485349322921403 0.0026860538853356545 0.05825037327480924 162 92 0
0.001976973190551741 0.002190013220493026 0.05825063693896571 165 89 0
0.0018040658452168575 0.0016962654568706797 0.05828228062946926 165 89 0
0.0016271177168685111 0.0012094031655675514 0.05840815703304307 153 101 0
0.0014501696312323147 0.0007225408014831498 0.05853403244055204 141 113 0
0.001275932485798693 0.00023105901001012428 0.05859668761341624 137 117 0
0.0011016953830772218 -0.00026042285424417405 0.05865934179021561 133 121 0
0.000940641172097101 -0.0007743682944613198 0.058414565538120446 166 88 0
0.0007650653424374025 -0.0012635689752802685 0.05850843937482956 158 96 0
0.0005615249707835411 -0.0017051182283489813 0.05925445777191147 73 181 0
0.0038760661955027495 0.006720724735086047 0.061529355204702235 0 92 162
0.0037144363101559935 0.00620776024086455 0.06129800391436132 0 112 142
0.00358331464622398 0.005642809902968727 0.060355188418869984 0 187 67
0.003452193003648042 0.005077859528682268 0.05941237242534624 10 244 0
0.00328358019421371 0.004576793899198622 0.0593438657816353 22 232 0
0.0031441764093513313 0.004025956250407963 0.058594192734685205 114 140 0
0.0029755636212730756 0.0035248905845336816 0.058525685592941856 126 128 0
0.002810196566163516 0.0030182949591591244 0.058381490445743804 147 107 0
0.002638872816526611 0.002521848757064104 0.05837620403667764 151 103 0
0.002496852293109945 0.0019754700165647695 0.057687554403393765 236 18 0
0.0022949263980389903 0.0015311697041631028 0.05839592254603519 155 99 0
0.0021236026484020847 0.0010347235020680818 0.05839063613696903 159 95 0
0.0019619728057674794 0.0005217589350653124 0.05815928385056328 190 64 0
0.0017754072251665188 5.128473019150686e-05 0.058509443175434224 152 102 0
0.0016054221170435392 -0.00044744250977631815 0.05847293909858798 160 94 0
0.0014314229210012606 -0.0009393297657204642 0.05853004519429437 156 98 0
0.0012489851280646635 -0.0014168376983663103 0.05878394282204005 129 125 0
0.0010854737724812075 -0.0019265961775181847 0.05859646818738059 155 99 0
0.0009086366957245842 -0.0024136477001307573 0.05871975482240112 144 110 0
0.000724129970440109 -0.002887630371251852 0.059021899845133216 111 143 0
0.0043521726474092465 0.0065807698902448615 0.06198706879093225 0 59 195
0.004064960394237798 0.005493416127631192 0.06068372335359777 0 164 90
0.003925973394541588 0.004941868279179936 0.05992433070605427 0 224 30
0.0037881652288475984 0.004388311703988293 0.05913744716728533 50 204 0
0.0036229904485565755 0.0038813876915080735 0.058988764277359454 71 183 0
0.0034677886137481346 0.0033574698340644916 0.05860750821857148 120 134 0
0.003285739217681263 0.0028793008271197325 0.05885235208770583 94 160 0
0.0031369289145223196 0.0023444918344423635 0.058322042895898894 161 93 0
0.0029682050962084147 0.0018436153634868884 0.058256125024676406 172 82 0
0.002795297708161381 0.0013498676726458152 0.05828776971124479 172 82 0
0.002619721963925984 0.0008606668462643206 0.058381641555824246 164 90 0
0.00244681457587895 0.0003669191554232465 0.058413286242392615 164 90 0
0.0023066571991863507 -0.00018263437697965085 0.05768118726523857 255 0 0
0.0021073711285871165 -0.0006314329359506251 0.05832799362117415 181 73 0
0.001931795298927418 -0.0011206336167695736 0.05842186745788326 173 81 0
0.0017516016450988003 -0.0016019655502729226 0.05862343084349138 152 102 0
0.001582877826784896 -0.0021028420212283964 0.05855751297226888 164 90 0
0.0014113160850444968 -0.002598882686071024 0.058557776636425356 167 87 0
0.0012200235949599058 -0.0030613024508098045 0.05901816847054055 116 138 0
0.0010151573100130155 -0.003500592354825026 0.059795107708083745 27 227 0
0.004715063466207312 0.005845352968203095 0.06108439160608374 0 133 121
0.004543739673858255 0.005348906838889347 0.061079106193082405 0 136 118
0.004408024937448633 0.0047917830715615 0.060243403026922146 0 203 51
0.004264640679129526 0.004247728127932777 0.05958655624950491 1 253 0
0.0041136854358325165 0.0037165741016066856 0.05910626793927208 61 193 0
0.003959416989652512 0.0031910657550072246 0.05870324487579382 113 141 0
0.0037959058202014064 0.0026813077105454905 0.05851576971574639 139 115 0
0.0036272930107670753 0.002180242081061846 0.05844726307203545 150 104 0
0.0034586802013327434 0.0016791764515781996 0.05837875642832452 162 92 0
0.0032873564516958382 0.0011827302494831792 0.058373470019258356 166 88 0
0.0031173713435728584 0.000684003009515354 0.05833696594241211 174 80 0
0.002957633264803264 0.00016781488715620285 0.0580614969487013 210 44 0
0.0027690460753992774 -0.0002992145072917168 0.058458801017954976 166 88 0
0.0025702286425171167 -0.0007488116223885455 0.059094678550595726 93 161 0
0.002433312007543914 -0.0013038873610886615 0.05828700415066813 193 61 0
0.002252925892764409 -0.0017848913421764892 0.05849305580439204 172 82 0
0.002089414537180953 -0.002294649821328363 0.05830558116973258 198 56 0
0.0018975813097508874 -0.002756147984601229 0.0587785841737985 145 109 0
0.001724927676109024 -0.00325032825953585 0.0588043102499967 145 109 0
0.0015495422572169807 -0.0037398533992692223 0.05889374362970178 138 116 0
0.0013650355517704992 -0.004213835916229487 0.059195889143627396 105 149 0
0.005029654725199436 0.005192238178852903 0.06130807896912381 0 121 133
0.004889497348506837 0.004642684646450007 0.060575979991969765 0 180 74
0.004745862327151188 0.004099057001674264 0.059924981111158786 0 232 22
0.004598106437499584 0.0035624512941043575 0.059370082564970915 34 220 0
0.00445035054784798 0.0030258455865344513 0.05881518401878304 103 151 0
0.004285175953689308 0.0025189220087443727 0.05866650060346919 125 129 0
0.00412997405481264 0.0019950042604727006 0.05828524603877846 173 81 0
0.003953025969176444 0.0015081418963882984 0.058411121446287434 162 92 0
0.00378430215086254 0.001007265425432825 0.058345203575064945 173 81 0
0.003612740409122141 0.0005112247605901974 0.05834546723922142 177 77 0
0.003442564975655807 1.2821833974250327e-05 0.05831340162724955 184 70 0
0.0032710032766275583 -0.0004832189036496502 0.0583136642953412 187 67 0
0.0030980958885805246 -0.0009769665944907241 0.05834530898190958 187 67 0
0.002925188500533491 -0.001470714285331798 0.05837695366847796 186 68 0
0.002749612756298094 -0.0019599151117132927 0.05847082551305742 179 75 0
0.002574036969350546 -0.0024491158653135135 0.05856469835370169 171 83 0
0.002399799823916924 -0.0029405976567865393 0.058627353526565895 167 87 0
0.0022196060861820873 -0.00342192963527881 0.05882891791507773 146 108 0
0.0020606107717125203 -0.0039393834239730505 0.05853612735400483 185 69 0
0.001847293118938264 -0.004364272243089387 0.05951015594697094 72 182 0
0.001659583716597411 -0.0048327973378735276 0.05988698988633776 30 224 0
0.0055456894381552945 0.004984245768928542 0.060834648741254826 0 160 94
0.00537570430867624 0.004485518565351355 0.060798145162440996 0 165 89
0.005242323513671363 0.0039244177745398085 0.05990801352784191 0 236 18
0.0050913682917304295 0.00339326371182308 0.05942772471957667 31 223 0
0.004950673638894642 0.0028446256950515284 0.05870815524189634 120 134 0
0.004776674671696864 0.00235273880101625 0.05876525981614993 117 137 0
0.0046240826347182275 0.0018243738622381839 0.058323142204230315 173 81 0
0.004451429127694734 0.0013301935595112103 0.05834886628145998 173 81 0
0.004278775535246939 0.0008360134023467843 0.05837459235081929 174 80 0
0.004104776381916811 0.00034412607362136523 0.05843169745046086 170 84 0
0.00393616361519463 -0.00015693962864355316 0.05836318981068509 182 72 0
0.0037661785070716505 -0.0006556668686113784 0.05832668573383885 190 64 0
0.0035893414303150273 -0.0011427183912239508 0.058449972368859376 178 76 0
0.0034239741890731176 -0.0016493144512886484 0.058305777747049294 199 55 0
0.003255361422350937 -0.002150380153553567 0.05823727010727353 211 43 0
0.003066774275659101 -0.0026174096207827588 0.05863457318046237 167 87 0
0.0028981614662247695 -0.0031184752502664043 0.058566066536751435 178 76 0
0.0027213243482740778 -0.003605526890649171 0.058689353178610855 167 87 0
0.002540938233494573 -0.004086530871736998 0.05889540483233476 146 108 0
0.0023378570388164132 -0.004528862559879627 0.059630715034481294 62 192 0
0.002190059621253149 -0.005065397460059284 0.05907678515973596 131 123 0
0.00199970056163472 -0.00552940759434359 0.05951540998221512 82 172 0
0.0017966194207262687 -0.005971739421100676 0.06025071869197413 0 253 1
0.00586308279612773 0.004326356233132674 0.06099299026805972 0 153 101
0.005714272492968786 0.0037915472404553034 0.06046268107625277 0 196 58
0.0055717927712203436 0.0032459509714205213 0.059784740135936695 0 250 4
0.0054229824680614 0.0027111419787431514 0.05925443094412976 59 195 0
0.005273061984610098 0.002178225479115909 0.058750015426240705 123 131 0
0.005107887225675151 0.001671301430245054 0.058601332038282425 144 110 0
0.004942712445384128 0.001164377417764834 0.05845264914835655 165 89 0
0.004772536969205644 0.0006659745639301608 0.05842058453244952 172 82 0
0.00460381315089174 0.00016509809297468668 0.05835466666122703 183 71 0
0.004435089332577835 -0.0003357783779807875 0.058288748790004535 195 59 0
0.004259513502918137 -0.0008249790587997362 0.05838262262671365 187 67 0
0.004102539797251595 -0.0013458776579198632 0.058042687321258016 231 23 0
0.003914830385255883 -0.0018144027803063934 0.0584195212622277 189 65 0
0.003743268686227634 -0.002310443517930294 0.058419783930319345 193 61 0
0.0035730932100491502 -0.0028088463717649676 0.058387719314412306 200 54 0
0.003391043670562079 -0.0032870158861811397 0.058632562712869804 174 80 0
0.0032168064839343882 -0.0037784977954243596 0.0586952178925729 170 84 0
0.003032875474210616 -0.00425346129477091 0.058983937946711855 139 115 0
0.0028599681075196577 -0.00474720902200262 0.05901558213524782 139 115 0
0.002683020010182246 -0.005234071322093996 0.05914145803918634 127 127 0
0.0025074441811662055 -0.005723272001072786 0.0592353318757886 120 134 0
0.0023128385190941693 -0.006180045997757289 0.05977298895152919 59 195 0
0.006470945742661544 0.004750269978128746 0.06237871483823978 0 46 208
0.00631309430229888 0.0042308670341659575 0.06205924866500331 0 73 181
0.0062004894234829995 0.0036343641949521353 0.06068461416487393 0 181 73
0.006070476139860687 0.0030675251830255125 0.05971595078709125 5 249 0
0.005924201315389396 0.00252839574842844 0.05912651319495372 78 176 0
0.0057699330553417395 0.0020028878365191197 0.05872348960608748 130 124 0
0.005594547615093622 0.0015133627331763845 0.05881292348382497 123 131 0
0.005436696110662732 0.0009939598983855036 0.05849345880468574 164 90 0
0.005278844627587919 0.00047455702720398767 0.058173993627514096 206 48 0
0.0050964068346513215 -2.95090544185847e-06 0.05842789125525978 179 75 0
0.004927794025216989 -0.000504016534925504 0.05835938461154884 190 64 0
0.0047524086063249465 -0.0009935416746588766 0.05844881799125391 183 71 0
0.004590778763690341 -0.0015065062416616455 0.05821746570484816 214 40 0
0.0044139416869337185 -0.001993557764274218 0.05834075233986869 203 51 0
0.004241288179910225 -0.002487738067001191 0.058366476417098356 203 51 0
0.00406863458746243 -0.0029819182241656176 0.05839220248645766 204 50 0
0.0038882484726829253 -0.003462922205253445 0.05859825414018158 182 72 0
0.0037078623167093516 -0.003943926304111467 0.058804305800744375 161 93 0
0.0035365385670724464 -0.004440372506206488 0.05879901939167821 165 89 0
0.003359701490315823 -0.0049274240288190605 0.058922306026698734 154 100 0
0.0031793153851911787 -0.005408427982304499 0.059128357678819785 133 121 0
0.0030079915934857794 -0.005904874109778089 0.05912307226571159 137 117 0
0.002819404393783276 -0.006371903533668556 0.059520376336674986 93 161 0
0.002642567359738804 -0.006858955129062401 0.05964366197563069 82 172 0
0.002449371785551195 -0.007318131860856024 0.06014843546345633 25 229 0
0.00667369579549505 0.0034993512305648237 0.06120996155703372 0 143 111
0.006555520269853262 0.0029123407433016323 0.05996523681999046 0 241 13
0.0064165332701570515 0.0023607928948503752 0.05920584417244696 73 181 0
0.006253410332799397 0.0018503733050089515 0.05900931528114376 100 154 0
0.006109775332799824 0.0013067456238425729 0.058358315902300374 181 73 0
0.005922065899448036 0.0008382205378466782 0.05873515034130247 139 115 0
0.005765092172425419 0.00031732197511718813 0.058395215533879254 183 71 0
0.0055949167816712365 -0.0001810810242800318 0.058363148925842566 190 64 0
0.0054261929206451814 -0.000681957422454233 0.0582972320506849 202 52 0
0.0052519558179237105 -0.0011734392867085316 0.05835988622748427 198 56 0
0.005083231956897655 -0.0016743156848827326 0.05829396935232661 209 45 0
0.004911670215157256 -0.00217035634972536 0.05829423301648309 212 42 0
0.004736094428209708 -0.0026595571033255815 0.05838810585712737 205 49 0
0.004552163418485937 -0.003134520602672132 0.05867682591126632 174 80 0
0.004386988638194913 -0.0036414446151523507 0.058528143021340455 195 59 0
0.004203057587277073 -0.004116408232269095 0.0588168630823183 164 90 0
0.004034333683538867 -0.0046172845576620235 0.05875094720322547 175 79 0
0.0038541400297102497 -0.0050986164911653725 0.05895251058883358 154 100 0
0.0036825783403368613 -0.005594657201186884 0.05895277325532237 158 96 0
0.003496755524679585 -0.006066397070555621 0.059285611012724344 122 132 0
0.003319807428744872 -0.00655325946408257 0.05941148642194304 110 144 0
0.0031442316417973244 -0.007042460217682791 0.05950535926258733 102 152 0
0.0029529391929068024 -0.007504879864651377 0.05996575108986362 51 203 0
0.002745523695797741 -0.007939825737016204 0.06080213995180562 0 225 29
0.007204580217573434 0.0032660550219174656 0.06039023046767007 0 209 45
0.007034595152162604 0.0027673277091683672 0.060353725394759 0 214 40
0.006904581825828142 0.002200488770023017 0.059385063013041146 56 198 0
0.006744843911834822 0.0016843011187446426 0.05910959399197478 92 162 0
0.006593888689893889 0.0011531470560279154 0.05862930518370954 153 101 0
0.006425275923171709 0.000652081353762996 0.05856079754393378 164 90 0
0.006252622373436064 0.00015790112381729713 0.05858652261722827 164 90 0
0.006084009564001734 -0.0003431645056663484 0.05851801597351733 176 78 0
0.005915396797279552 -0.0008442302079312667 0.05844950833374156 188 66 0
0.005755658675797807 -0.0013604182575091448 0.05817404033609559 224 30 0
0.005583005126062163 -0.0018545984874548443 0.05819976540939008 224 30 0
0.005392646151224378 -0.002318608769141855 0.05863838823984644 175 79 0
0.0052347946681495635 -0.0028380116403233712 0.0583189230626748 217 37 0
0.005057957591392941 -0.003325063162935944 0.05844220969769532 206 48 0
0.004887972525982111 -0.0038237904756850414 0.05840570462478424 213 41 0
0.004697613424525957 -0.0042878007295797 0.05884432945420915 165 89 0
0.004532246183284048 -0.004794396789644398 0.058700134832399074 185 69 0
0.004349808390347451 -0.005271904722290244 0.058954032460144745 158 96 0
0.004206424120327129 -0.005815959601925941 0.058297186179157065 240 14 0
0.0039998502469525445 -0.0062523397815932085 0.059113947092359335 146 108 0
0.0038042099898110762 -0.006707350833895784 0.05967573134840059 83 171 0
0.003646358506736262 -0.007226753705077299 0.059356266171228945 124 130 0
0.0034618518012897804 -0.007700736222037564 0.05965841168515456 91 163 0
0.0032814657277043446 -0.008181740085355198 0.05986446333203958 70 184 0
0.003091106710154409 -0.008645750294260934 0.060303087158560774 21 233 0
0.00751986254885543 0.0026117626641422196 0.06059780200057549 0 198 56
0.007378541479618021 0.002064192057518479 0.059892840809665296 0 254 0
0.007227440624527074 0.001533286904757446 0.05941595204133549 59 195 0
0.007084960881422558 0.0009876906721133013 0.05873801159905183 144 110 0
0.006913399139682157 0.0004916500072706727 0.0587382752632083 147 107 0
0.006750276080260378 -1.8770126432799978e-05 0.05854174540319583 174 80 0
0.0065700823837196096 -0.000500101987154876 0.05874330978486878 153 101 0
0.0064110870692500425 -0.0010175557758491174 0.05845051922379587 192 62 0
0.006250032858269921 -0.0015315012160662634 0.058205742971700704 224 30 0
0.006074457071322374 -0.002020701969666485 0.05829961581234499 216 38 0
0.005897508985686178 -0.0025075643337508858 0.058425491219853964 205 49 0
0.005727333509507694 -0.00300596718758556 0.05839342660394693 212 42 0
0.005545283970020623 -0.003484136702001732 0.05863827000240442 186 68 0
0.005376560151706719 -0.003985013172957207 0.058572352131181935 198 56 0
0.005196366456684032 -0.0044663452242307495 0.05877391552362894 177 77 0
0.005024804714943633 -0.004962385889073377 0.058774179187785415 180 74 0
0.004838981941354851 -0.005434125833063545 0.05910701594922942 144 110 0
0.004667420209269311 -0.0059301664703037835 0.05910727961178303 147 107 0
0.004493183107191497 -0.006421648332717923 0.05916993378847555 143 111 0
0.0043176072885893575 -0.006910849079370057 0.05926380712886197 136 118 0
0.00414065916024101 -0.007397711370673184 0.059389683532435775 124 130 0
0.003960465485056318 -0.007879043267785896 0.0595912474160763 103 151 0
0.0037835174406141902 -0.008365905514100104 0.05971712281674638 92 162 0
0.0035995863881782683 -0.00884086894066538 0.060005843866950175 61 193 0
0.0034226382811859963 -0.009327731268359146 0.060131719772491564 49 205 0
0.003215222806951093 -0.009762677367666077 0.06096810714717521 0 224 30
0.008009735062852352 0.00244835052422915 0.06073448538677936 0 190 64
0.007867714603503915 0.0019019716745579068 0.060045834259398245 0 245 9
0.007713446322100184 0.001376463799039223 0.05964281116856443 36 218 0
0.007570062063781078 0.0008324088554105013 0.05898596439114719 118 136 0
0.007410323963655409 0.0003162207694419857 0.05871049589546881 154 100 0
0.007244956679701348 -0.00019037521784143847 0.05856630226972356 175 79 0
0.007073632930064443 -0.0006868214199364597 0.0585610158606574 179 75 0
0.006905020206054413 -0.0011878871949826508 0.058492507224816796 191 63 0
0.006735035055219283 -0.0016866143621692032 0.05845600414403538 198 56 0
0.006563711305582377 -0.0021830605642642244 0.058450717734969224 202 52 0
0.006393726197459397 -0.002681787804232049 0.05841421365812298 210 44 0
0.006225113388025066 -0.0031828534337156947 0.058345707014412045 222 32 0
0.0060497279691330225 -0.003672378573449067 0.05843514039411711 214 40 0
0.005877074462109529 -0.00416655887617604 0.05846086447134677 215 39 0
0.005694636585266712 -0.004644066853810807 0.05871476310199617 188 66 0
0.005520637389224434 -0.005135954109754953 0.05877186919770256 185 69 0
0.005343800355179961 -0.005623005705148799 0.058895154836658255 173 81 0
0.00517518755540049 -0.006124071307030055 0.058826648191344456 185 69 0
0.004988622018155337 -0.006594545582844974 0.059176806520043715 147 107 0
0.00480823587172124 -0.007075549556984714 0.05938285867350976 125 129 0
0.004639623062286909 -0.007576615186468358 0.059314352029798824 137 117 0
0.00446278600688636 -0.008063666745471567 0.05943763816678693 126 128 0
0.004285949014035957 -0.008550718223095218 0.059560923798903743 114 140 0
0.004101442329945551 -0.00902470077644612 0.05986306881479695 82 172 0
0.003927443133903271 -0.009516588032390265 0.059920174910503346 79 175 0
0.003728625701021111 -0.009966185147487094 0.0605560524431441 6 248 0
0.0035573019513842055 -0.010462631349582115 0.06055076603407794 10 244 0
0.008342856870542745 0.001763659475382948 0.06052602751864047 0 211 43
0.008196113551774579 0.0012253291043831432 0.05994751922047461 4 250 0
0.008045012489195206 0.0006944235533226071 0.059470631475565194 64 190 0
0.007892647146956214 0.00016567232793881863 0.05902322724957 121 133 0
0.007735673441289672 -0.0003552262711813078 0.05868329194411437 165 89 0
0.007565497965111188 -0.000853629125015982 0.05865122732820734 172 82 0
0.007396774146797284 -0.0013545055959714562 0.05858530945698484 183 71 0
0.007222537044075812 -0.0018459874602257545 0.05864796363378422 179 75 0
0.007052361610609479 -0.0023443903868417015 0.05861589802181236 187 67 0
0.006887186830318456 -0.0028513143993219203 0.058467215131886484 208 46 0
0.006706993133777688 -0.0033326462600439966 0.05866877951355943 187 67 0
0.006538269315463783 -0.00383352273099947 0.05860286164233694 198 56 0
