ply
format ascii 1.0
element vertex 631
property float x
property float y
property float z
property uchar red
property uchar green
property uchar blue
end_header
0.004018685462876912 -0.0003710162974112785 0.0017751481877606994 0 109 145
0.004018685462876912 0.00011766665365364588 0.0018069370748724951 0 106 148
0.004018685462876912 0.000606349721229665 0.0029864916559523337 0 9 245
0.004018685462876912 0.0010950326722945895 0.0016726058411172876 0 117 137
0.004018685462876912 0.0015837156233595138 0.0013276621616924238 0 145 109
0.004018685462876912 0.0020723985471171502 0.0009118811347476712 0 180 74
0.004018685462876912 0.0025610814963615888 0.0008233550728115935 0 187 67
0.004018685462876912 0.003049764476554287 0.0008261238424689925 0 187 67
0.004018685462876912 0.003538447427619211 0.0008871262554525932 0 182 72
0.004018685462876912 0.0040271303786841356 0.0009481277363474355 0 177 77
0.004018685462876912 0.004515813213237965 0.0011099029254662601 0 163 91
0.004018685462876912 0.00500449616430289 0.001141691812578056 0 161 93
0.004018685462876912 0.005493179115367813 0.0011444619803685928 0 160 94
0.004018685462876912 0.005981862066432738 0.0012054629952190556 0 155 99
0.004018685462876912 0.0064705450174976625 0.0011788672406257577 0 158 96
0.004018685462876912 0.006959227968562587 0.0012106556616931744 0 155 99
0.004018685462876912 0.007447910919627511 0.0012716571425880165 0 150 104
0.004018685462876912 0.007936593870692437 0.0013034460296998125 0 147 107
0.004018685462876912 0.00842527682175736 0.0012465984023576375 0 152 102
0.004018685462876912 0.008913959772822284 0.0012783872894694334 0 149 105
0.004018685462876912 0.00940264272388721 0.0014401629446326376 0 136 118
0.004018685462876912 0.009891325674952134 0.0013833153172904625 0 141 113
0.004018685462876912 0.010380009092061437 0.001626650136963645 0 121 133
0.004018685462876912 0.010868692043126361 0.0023824753187737203 0 59 195
0.003530002511811988 -0.008678625999470613 0.0008635551288809276 0 183 71
0.003530002511811988 -0.008189943048405687 0.0014995826709041484 0 131 123
0.003530002511811988 -0.0077012600973407645 -0.00028501404016090855 36 218 0
0.003530002511811988 -0.00721257714627584 -0.0005283479277453322 67 187 0
0.003530002511811988 -0.006723894195210915 -0.0007716827474185145 98 156 0
0.003530002511811988 -0.006235211244145992 -0.0008326851604021154 106 148 0
0.003530002511811988 -0.005746528293081067 -0.0008936861752525783 113 141 0
0.003530002511811988 -0.005257845808060522 -0.0009254750623643742 117 137 0
0.003530002511811988 -0.004769162856995597 -0.0009572639494761701 121 133 0
0.003530002511811988 -0.004280479905930674 -0.0009004163221339952 114 140 0
0.003530002511811988 -0.003791796954865749 -0.000991365348798034 126 128 0
0.003530002511811988 -0.0033031140038008245 -0.0008253897016886122 105 149 0
0.003530002511811988 -0.0028144310527359003 -0.0006146402389714431 78 176 0
0.003530002511811988 -0.0023257481016709758 2.1387303051777592e-05 0 253 1
0.003530002511811988 -0.0018370651506060514 0.0011415510671755086 0 161 93
0.003530002511811988 -0.001348382199541127 0.0015573325601646406 0 126 128
0.003530002511811988 -0.0008596992484762028 0.0016458581560563391 0 119 135
0.0035300025118119877 -0.0003710162974112785 0.0019017552019734512 0 98 156
0.0035300025118119877 0.00011766665365364588 0.002202581722320996 0 73 181
0.003530002511811988 0.000606349721229665 0.0016914279754639244 0 115 139
0.0035300025118119877 0.0010950326722945895 0.0019021774381810935 0 98 156
0.0035300025118119877 0.0015837156233595138 0.0019590250655232683 0 93 161
0.003530002511811988 0.0020723985471171502 0.0015184607305763008 0 130 124
0.003530002511811988 0.0025610814963615888 0.0011926724072292706 0 156 98
0.003530002511811988 0.003049764476554287 0.0010308967520660667 0 170 84
0.003530002511811988 0.003538447427619211 0.0007875619323928842 0 190 64
0.003530002511811988 0.0040271303786841356 0.001088388452740429 0 165 89
0.003530002511811988 0.004515813213237965 0.0008037714219491865 0 188 66
0.003530002511811988 0.00500449616430289 0.000742769475009965 0 193 61
0.003530002511811988 0.005493179115367813 0.0009535175395939963 0 176 78
0.003530002511811988 0.005981862066432738 0.0010103660990249297 0 171 83
0.003530002511811988 0.0064705450174976625 0.0006063867138970953 0 205 49
0.003530002511811988 0.006959227968562587 0.001152485866446936 0 160 94
0.003530002511811988 0.007447910919627511 0.0011206969793351401 0 162 92
0.003530002511811988 0.007936593870692437 0.0012092230412712177 0 155 99
0.003530002511811988 0.00842527682175736 0.0012977491032072953 0 148 106
0.003530002511811988 0.008913959772822284 0.001642692782632159 0 119 135
0.003530002511811988 0.00940264272388721 0.0012387129314599453 0 153 101
0.003530002511811988 0.009891325674952134 0.0012069240443481493 0 155 99
0.003530002511811988 0.010380009092061437 0.001753024595031128 0 110 144
0.0035300025118119877 0.010868692043126361 0.0019637731256595386 0 93 161
0.0035300025118119877 0.011357374994191287 0.0027791042519512946 0 26 228
0.003041319327724874 -0.008189943048405687 0.0013843816268302924 0 141 113
0.003041319327724874 -0.0077012600973407645 0.0006469218558751435 0 201 53
0.003041319327724874 -0.00721257714627584 -0.0001422082554125783 18 236 0
0.003041319327724874 -0.006723894195210915 -0.0011532957306951642 146 108 0
0.003041319327724874 -0.006235211244145992 -0.0008686782338595427 110 144 0
0.003041319327724874 -0.005746528293081067 -0.0009572042957956203 121 133 0
0.003041319327724874 -0.005257845808060522 -0.0011231799429050418 143 111 0
0.003041319327724874 -0.004769162856995597 -0.0011204107072032637 142 112 0
0.003041319327724874 -0.004280479905930674 -0.001147006927840941 146 108 0
0.003041319327724874 -0.003791796954865749 -0.0011152180407291452 142 112 0
0.003041319327724874 -0.0033031140038008245 -0.0010834291536173492 137 117 0
0.003041319327724874 -0.0028144310527359003 -0.0007576408302703193 96 158 0
0.003041319327724874 -0.0023257481016709758 -0.0002124476679938304 27 227 0
0.003041319327724874 -0.0018370651506060514 0.0016936379579105471 0 115 139
0.0030413193277248735 -0.001348382199541127 0.0018791338738467914 0 100 154
0.0030413193277248735 -0.0008596992484762028 0.00220492312928258 0 73 181
0.0030413193277248735 0.00011766665365364588 0.0026470179539711566 0 37 217
0.0030413193277248735 0.000606349721229665 0.002649787189672935 0 37 217
0.0030413193277248735 0.0010950326722945895 0.0028520627858996637 0 20 234
0.0030413193277248735 0.0015837156233595138 0.0025961659875686277 0 41 213
0.0030413193277248735 0.0020723985471171502 0.0025695697669309505 0 43 211
0.0030413193277248735 0.0025610814963615888 0.002185960249533396 0 75 179
0.0030413193277248735 0.003049764476554287 0.0018851341952302305 0 100 154
0.003041319327724874 0.003538447427619211 0.0013169403447023348 0 146 108
0.003041319327724874 0.0040271303786841356 0.0013487292318141307 0 144 110
0.003041319327724874 0.004515813213237965 0.0009329482048693777 0 178 76
0.003041319327724874 0.00500449616430289 0.0009357169745267766 0 178 76
0.003041319327724874 0.005493179115367813 0.0012203344713623986 0 154 100
0.003041319327724874 0.005981862066432738 0.0011634873100646028 0 159 95
0.003041319327724874 0.0064705450174976625 0.001325262965227807 0 146 108
0.003041319327724874 0.006959227968562587 0.0014870381543466316 0 132 122
0.003041319327724874 0.007447910919627511 0.0015188270414584276 0 130 124
0.003041319327724874 0.007936593870692437 0.0015798285223532697 0 125 129
0.003041319327724874 0.00842527682175736 0.0016408295372037328 0 120 134
0.003041319327724874 0.008913959772822284 0.0017018319501873335 0 115 139
0.003041319327724874 0.00940264272388721 0.0015358567691222912 0 128 126
0.003041319327724874 0.009891325674952134 0.0016268053297419506 0 121 133
0.003041319327724874 0.010380009092061437 0.0015382797338502523 0 128 126
0.0030413193277248735 0.010868692043126361 0.00247156948880816 0 51 203
0.00255263637665995 -0.008678625999470613 0.0008479473026182968 0 185 69
0.00255263637665995 -0.008189943048405687 0.0013710378441622825 0 142 112
0.00255263637665995 -0.0077012600973407645 -0.00024606484720560547 31 223 0
0.00255263637665995 -0.00721257714627584 -0.001028706222600386 131 123 0
0.00255263637665995 -0.006723894195210915 -0.000555605465357231 70 184 0
0.00255263637665995 -0.006235211244145992 -0.000840223428237232 106 148 0
0.00255263637665995 -0.005746528293081067 -0.0008720113832602693 111 143 0
0.00255263637665995 -0.005257845808060522 -0.0010742867610286952 136 118 0
0.00255263637665995 -0.004769162856995597 -0.0011060756481404911 140 114 0
0.00255263637665995 -0.004280479905930674 -0.0011970246748045298 152 102 0
0.00255263637665995 -0.003791796954865749 -0.0011704284541668526 149 105 0
0.00255263637665995 -0.0033031140038008245 -0.0012022173412786484 153 101 0
0.00255263637665995 -0.0028144310527359003 -0.0011756211206409711 149 105 0
0.00255263637665995 -0.0023257481016709758 -0.0010870950587048935 138 116 0
0.00255263637665995 -0.0018370651506060514 -0.0006713140317601405 85 169 0
0.00255263637665995 -0.001348382199541127 0.0017458507739006209 0 111 143
0.0025526363766599494 -0.0008596992484762028 0.002534980885188343 0 46 208
0.0025526363766599494 -0.0003710162974112785 0.0030580709497650344 0 3 251
0.0025526363766599494 0.0040271303786841356 0.0020939416510188723 0 82 172
0.0025526363766599494 0.004515813213237965 0.0023498382308916052 0 61 193
0.00255263637665995 0.00500449616430289 0.0015940130490815297 0 123 131
0.00255263637665995 0.005493179115367813 0.0015330115681866875 0 128 126
0.00255263637665995 0.005981862066432738 0.0015596077888243647 0 126 128
0.00255263637665995 0.0064705450174976625 0.0015278189017125688 0 129 125
0.00255263637665995 0.006959227968562587 0.0016163449636486464 0 122 132
0.00255263637665995 0.007447910919627511 0.0015845560765368504 0 124 130
0.00255263637665995 0.007936593870692437 0.001673081672428549 0 117 137
0.0025526363766599494 0.00842527682175736 0.0019739081927760936 0 92 162
0.0025526363766599494 0.008913959772822284 0.0019129057797924926 0 97 157
0.0025526363766599494 0.00940264272388721 0.002168802825709605 0 76 178
0.0025526363766599494 0.009891325674952134 0.0022256513851405388 0 72 182
0.0025526363766599494 0.010380009092061437 0.0022228812173500016 0 72 182
0.0025526363766599494 0.010868692043126361 0.0026683912152500613 0 35 219
0.0020639534255950252 -0.008189943048405687 0.0013328263994594053 0 145 109
0.0020639534255950252 -0.0077012600973407645 0.0006209081907115864 0 203 51
0.0020639534255950252 -0.00721257714627584 -0.000361192722311912 45 209 0
0.0020639534255950252 -0.006723894195210915 -0.0005719412529403226 72 182 0
0.0020639534255950252 -0.006235211244145992 -0.0008278382988574348 105 149 0
0.0020639534255950252 -0.005746528293081067 -0.0011286643531606 143 111 0
0.0020639534255950252 -0.005257845808060522 -0.0012946395342256424 164 90 0
0.0020639534255950252 -0.004769162856995597 -0.0012628506471138467 160 94 0
0.0020639534255950252 -0.004280479905930674 -0.001289446867751524 164 90 0
0.0020639534255950252 -0.003791796954865749 -0.0013779729296876015 175 79 0
0.0020639534255950252 -0.0033031140038008245 -0.0011346381100144193 144 110 0
0.0020639534255950252 -0.0028144310527359003 -0.0011318698064013996 144 110 0
0.0020639534255950252 -0.0023257481016709758 -0.001297844987466442 165 89 0
0.0020639534255950252 -0.0018370651506060514 -0.0011360688662588588 144 110 0
0.0020639534255950252 -0.001348382199541127 -0.0004077048834544344 51 203 0
0.002063953425595025 0.0064705450174976625 0.0027375643182914835 0 29 225
0.002063953425595025 0.006959227968562587 0.002769352273314521 0 27 227
0.002063953425595025 0.007447910919627511 0.0026808262113784433 0 34 220
0.002063953425595025 0.007936593870692437 0.003006615452250345 0 7 247
0.002063953425595025 0.00842527682175736 0.003067616936786159 0 2 252
0.0015752704745301011 -0.008678625999470613 0.001606782199029867 0 122 132
0.0015752704745301011 -0.008189943048405687 0.0010956284521727957 0 164 90
0.0015752704745301013 -0.0077012600973407645 0.0001383807538084066 0 243 11
0.0015752704745301013 -0.00721257714627584 -0.0002655986313194278 33 221 0
0.0015752704745301013 -0.006723894195210915 -0.0006695780164472622 85 169 0
0.0015752704745301013 -0.006235211244145992 -0.0008313536716104663 105 149 0
0.0015752704745301016 -0.005746528293081067 -0.0009931293267736703 126 128 0
0.0015752704745301016 -0.005257845808060522 -0.0011549045158924952 147 107 0
0.0015752704745301016 -0.004769162856995597 -0.0012159059967873373 154 100 0
0.0015752704745301016 -0.004280479905930674 -0.0012476948838991333 158 96 0
0.0015752704745301016 -0.003791796954865749 -0.0012504641196009114 159 95 0
0.0015752704745301016 -0.0033031140038008245 -0.0009945670736837993 126 128 0
0.0015752704745301016 -0.0028144310527359003 -0.001279184570519421 162 92 0
0.0015752704745301016 -0.0023257481016709758 -0.001604972893866451 204 50 0
0.0015752704745301016 -0.0018370651506060514 -0.0010818828183668445 137 117 0
0.0015752704745301016 -0.001348382199541127 -0.0011136717054786405 141 113 0
0.0015752704745301016 -0.0008596992484762028 -0.0010568240781364654 134 120 0
0.0015752704745301013 -0.0003710162974112785 -0.00042079560402448626 53 201 0
0.0010865876399762716 -0.008189943048405687 0.0016775622230911027 0 117 137
0.0010865876399762718 -0.0077012600973407645 0.0006664733496753787 0 200 54
0.0010865876399762718 -0.00721257714627584 -0.0006171181969361614 78 176 0
0.0010865876399762718 -0.006723894195210915 -0.00045534254177295735 57 197 0
0.0010865876399762718 -0.006235211244145992 -0.0008389515931261328 106 148 0
0.001086587639976272 -0.005746528293081067 -0.0010049272402355544 127 127 0
0.001086587639976272 -0.005257845808060522 -0.0012156767029527235 154 100 0
0.001086587639976272 -0.004769162856995597 -0.0012725238642505193 162 92 0
0.001086587639976272 -0.004280479905930674 -0.0012991191527994379 165 89 0
0.001086587639976272 -0.003791796954865749 -0.0012963499170976598 165 89 0
0.001086587639976272 -0.0033031140038008245 -0.0012054004243892418 153 101 0
0.001086587639976272 -0.0028144310527359003 -0.0011144518637695824 141 113 0
0.001086587639976272 -0.0023257481016709758 -0.0010826629766577864 137 117 0
0.001086587639976272 -0.0018370651506060514 -0.001050875021634749 133 121 0
0.001086587639976272 -0.001348382199541127 -0.001306771601507482 166 88 0
0.001086587639976272 -0.0008596992484762028 -0.0012457691885238813 158 96 0
0.0010865876399762718 -0.0003710162974112785 -0.0005745086914258656 73 181 0
0.0005979046889113471 -0.008678625999470613 0.001979066838010523 0 92 162
0.0005979046889113471 -0.008189943048405687 0.0017357329504260994 0 112 142
0.0005979046889113473 -0.0077012600973407645 0.0008266313647980456 0 187 67
0.0005979046889113474 -0.00721257714627584 -8.247068687438777e-05 10 244 0
0.0005979046889113474 -0.006723894195210915 -0.00017341924749404716 22 232 0
0.0005979046889113475 -0.006235211244145992 -0.0009017836963428506 114 140 0
0.0005979046889113475 -0.005746528293081067 -0.0009927327230068895 126 128 0
0.0005979046889113475 -0.005257845808060522 -0.0011545083781700936 147 107 0
0.0005979046889113475 -0.004769162856995597 -0.0011862972652818893 151 103 0
0.0005979046889113476 -0.004280479905930674 -0.001857557762379905 236 18 0
0.0005979046889113475 -0.003791796954865749 -0.0012215292882679259 155 99 0
0.0005979046889113475 -0.0033031140038008245 -0.0012533181753797218 159 95 0
0.0005979046889113476 -0.0028144310527359003 -0.001496652995052904 190 64 0
0.0005979046889113475 -0.0023257481016709758 -0.0011958260086609802 152 102 0
0.0005979046889113475 -0.0018370651506060514 -0.0012568274895558224 160 94 0
0.0005979046889113475 -0.001348382199541127 -0.0012302312689181452 156 98 0
0.0005979046889113475 -0.0008596992484762028 -0.0010194832043341137 129 125 0
0.0005979046889113475 -0.0003710162974112785 -0.0012217585821025397 155 99 0
0.0005979046889113475 0.00011766665365364588 -0.001133232520166462 144 110 0
0.0005979046889113475 0.000606349721229665 -0.000877335940293729 111 143 0
0.00010922173784642276 -0.008678625999470613 0.0023758598188096097 0 59 195
0.0001092217378464229 -0.0077012600973407645 0.0011025426865840344 0 164 90
0.000109221737846423 -0.00721257714627584 0.00036508291562888556 0 224 30
0.0001092217378464231 -0.006723894195210915 -0.00039810203901903584 50 204 0
0.00010922173784642311 -0.006235211244145992 -0.0005640772200840782 71 183 0
0.00010922173784642316 -0.005746528293081067 -0.0009476876695703915 120 134 0
0.00010922173784642314 -0.005257845808060522 -0.0007454118257575865 94 160 0
0.00010922173784642319 -0.004769162856995597 -0.001268501901257193 161 93 0
0.0001092217378464232 -0.004280479905930674 -0.0013570279631932706 172 82 0
0.0001092217378464232 -0.003791796954865749 -0.0013542577954027337 172 82 0
0.0001092217378464232 -0.0033031140038008245 -0.0012932572465966501 164 90 0
0.0001092217378464232 -0.0028144310527359003 -0.0012904870788061134 164 90 0
0.00010922173784642329 -0.0023257481016709758 -0.0020024062196426907 255 0 0
0.00010922173784642322 -0.0018370651506060514 -0.0014239854912555187 181 73 0
0.0001092217378464232 -0.001348382199541127 -0.0013629830782719177 173 81 0
0.00010922173784642319 -0.0008596992484762028 -0.001201207889153093 152 102 0
0.0001092217378464232 -0.0003710162974112785 -0.0012897339510891707 164 90 0
0.0001092217378464232 0.00011766665365364588 -0.0013163292396380893 167 87 0
0.00010922173784642315 0.000606349721229665 -0.0009123498545102549 116 138 0
0.00010922173784642307 0.0010950326722945895 -0.00021215452607925347 27 227 0
-0.0003794612423462752 -0.008189943048405687 0.0014727963041597178 0 133 121
-0.0003794612423462752 -0.0077012600973407645 0.0014410083491366804 0 136 118
-0.0003794612423462751 -0.00721257714627584 0.000632139394208246 0 203 51
-0.00037946124234627504 -0.006723894195210915 -9.360906961050296e-06 1 253 0
-0.000379461242346275 -0.006235211244145992 -0.00048564288313728124 61 193 0
-0.00037946124234627493 -0.005746528293081067 -0.0008896222682651156 113 141 0
-0.00037946124234627493 -0.005257845808060522 -0.0010918981120779207 139 115 0
-0.0003794612423462749 -0.004769162856995597 -0.0011828466726975801 150 104 0
-0.0003794612423462749 -0.004280479905930674 -0.0012737952333172395 162 92 0
-0.0003794612423462749 -0.003791796954865749 -0.0013055841204290355 166 88 0
-0.0003794612423462749 -0.0033031140038008245 -0.0013665856013238776 174 80 0
-0.0003794612423462748 -0.0028144310527359003 -0.0016512035642038787 210 44 0
-0.0003794612423462749 -0.0023257481016709758 -0.001306259884779015 166 88 0
-0.00037946124234627493 -0.0018370651506060514 -0.0007380660342511193 93 161 0
-0.0003794612423462749 -0.001348382199541127 -0.0015207064775571411 193 61 0
-0.0003794612423462749 -0.0008596992484762028 -0.0013547312964920987 172 82 0
-0.0003794612423462748 -0.0003710162974112785 -0.0015570066742605245 198 56 0
-0.0003794612423462749 0.00011766665365364588 -0.0011412261133601509 145 109 0
-0.0003794612423462749 0.000606349721229665 -0.0011439944169731706 145 109 0
-0.00037946124234627493 0.0010950326722945895 -0.0010871472556753749 138 116 0
-0.00037946124234627493 0.0015837156233595138 -0.0008312502097582627 105 149 0
-0.0008681441824882844 -0.0077012600973407645 0.0016237522730131804 0 121 133
-0.0008681441824882843 -0.00721257714627584 0.0009118331321766029 0 180 74
-0.0008681441824882842 -0.006723894195210915 0.00027580512410900303 0 232 22
-0.0008681441824882842 -0.006235211244145992 -0.0002702949605295962 34 220 0
-0.0008681441824882841 -0.005746528293081067 -0.0008163950451681955 103 151 0
-0.0008681441824882841 -0.005257845808060522 -0.0009823706922776172 125 129 0
-0.000868144182488284 -0.004769162856995597 -0.0013659797436307926 173 81 0
-0.0008681441824882841 -0.004280479905930674 -0.0012750311830111332 162 92 0
-0.000868144182488284 -0.003791796954865749 -0.0013635572449472108 173 81 0
-0.000868144182488284 -0.0033031140038008245 -0.0013901525334961294 177 77 0
-0.000868144182488284 -0.0028144310527359003 -0.0014470006268826837 184 70 0
-0.000868144182488284 -0.0023257481016709758 -0.001473596847520361 187 67 0
-0.000868144182488284 -0.0018370651506060514 -0.0014708266797298242 187 67 0
-0.000868144182488284 -0.001348382199541127 -0.0014680565119392873 186 68 0
-0.000868144182488284 -0.0008596992484762028 -0.0014070559631332038 179 75 0
-0.000868144182488284 -0.0003710162974112785 -0.0013460544822383616 171 83 0
-0.0008681441824882841 0.00011766665365364588 -0.0013142655951265657 167 87 0
-0.0008681441824882841 0.000606349721229665 -0.0011524894739189822 146 108 0
-0.000868144182488284 0.0010950326722945895 -0.0014533164603109062 185 69 0
-0.0008681441824882841 0.0015837156233595138 -0.0005686905933947317 72 182 0
-0.0008681441824882842 0.0020723985471171502 -0.00024290227004770168 30 224 0
-0.0013568271153483501 -0.0077012600973407645 0.0011492077102829657 0 160 94
-0.0013568271153483501 -0.00721257714627584 0.0010882066954325028 0 165 89
-0.00135682711534835 -0.006723894195210915 0.00022840514842392123 0 236 18
-0.00135682711534835 -0.006235211244145992 -0.000247877293796689 31 223 0
-0.0013568271153483497 -0.005746528293081067 -0.0009480716901389319 120 134 0
-0.0013568271153483497 -0.005257845808060522 -0.0009214768676343925 117 137 0
-0.0013568271153483497 -0.004769162856995597 -0.0013620398044482224 173 81 0
-0.0013568271153483497 -0.004280479905930674 -0.0013648099722387591 173 81 0
-0.0013568271153483497 -0.003791796954865749 -0.0013675782758517789 174 80 0
-0.0013568271153483497 -0.0033031140038008245 -0.0013409829873028602 170 84 0
-0.0013568271153483497 -0.0028144310527359003 -0.0014319324800112782 182 72 0
-0.0013568271153483497 -0.0023257481016709758 -0.0014929339609061204 190 64 0
-0.0013568271153483497 -0.0018370651506060514 -0.0014044078989700428 178 76 0
-0.0013568271153483497 -0.001348382199541127 -0.0015661830880888674 199 55 0
-0.0013568271153483497 -0.0008596992484762028 -0.0016571325807972854 211 43 0
-0.0013568271153483497 -0.0003710162974112785 -0.0013121898334611803 167 87 0
-0.0013568271153483497 0.00011766665365364588 -0.0014031383940808397 178 76 0
-0.0013568271153483497 0.000606349721229665 -0.0013146123321447622 167 87 0
-0.0013568271153483497 0.0010950326722945895 -0.0011486371510797198 146 108 0
-0.00135682711534835 0.0015837156233595138 -0.0004873970741809524 62 192 0
-0.0013568271153483497 0.0020723985471171502 -0.0010325907025018205 131 123 0
-0.00135682711534835 0.0025610814963615888 -0.0006489802530155072 82 172 0
-0.00135682711534835 0.003049764476554287 1.2258425750122428e-05 0 253 1
-0.0018455100664132745 -0.00721257714627584 0.0012390149282177287 0 153 101
-0.0018455100664132743 -0.006723894195210915 0.0007159248527181222 0 196 58
-0.0018455100664132743 -0.006235211244145992 5.4685241863734026e-05 0 250 4
-0.0018455100664132743 -0.005746528293081067 -0.0004684048336358724 59 195 0
-0.001845510066413274 -0.005257845808060522 -0.0009672643297671093 123 131 0
-0.001845510066413274 -0.004769162856995597 -0.001133239976876531 144 110 0
-0.001845510066413274 -0.004280479905930674 -0.0012992151579415733 165 89 0
-0.001845510066413274 -0.003791796954865749 -0.001356062319239369 172 82 0
-0.001845510066413274 -0.0033031140038008245 -0.0014445883811754466 183 71 0
-0.001845510066413274 -0.0028144310527359003 -0.0015331144431115242 195 59 0
-0.001845510066413274 -0.0023257481016709758 -0.0014721120301279234 187 67 0
-0.001845510066413274 -0.0018370651506060514 -0.0018170557095527871 231 23 0
-0.001845510066413274 -0.001348382199541127 -0.001491267386205757 189 65 0
-0.001845510066413274 -0.0008596992484762028 -0.0015178636068434344 193 61 0
-0.001845510066413274 -0.0003710162974112785 -0.0015747107681412299 200 54 0
-0.001845510066413274 0.00011766665365364588 -0.0013724353903728042 174 80 0
-0.001845510066413274 0.000606349721229665 -0.0013406465032610082 170 84 0
-0.001845510066413274 0.0010950326722945895 -0.0010973126156765846 139 115 0
-0.001845510066413274 0.0015837156233595138 -0.001094542913930427 139 115 0
-0.001845510066413274 0.0020723985471171502 -0.0010035938872663883 127 127 0
-0.001845510066413274 0.0025610814963615888 -0.0009425914742827875 120 134 0
-0.0018455100664132743 0.003049764476554287 -0.0004663094981065566 59 195 0
-0.0023341930174781995 -0.0077012600973407645 0.0025310558594259093 0 46 208
-0.0023341930174781995 -0.00721257714627584 0.0022052666039901205 0 73 181
-0.002334193017478199 -0.006723894195210915 0.0008920812392932699 0 181 73
-0.002334193017478199 -0.006235211244145992 -4.120804962025845e-05 5 249 0
-0.002334193017478199 -0.005746528293081067 -0.0006196287780074306 78 176 0
-0.002334193017478199 -0.005257845808060522 -0.0010236086291796442 130 124 0
-0.002334193017478199 -0.004769162856995597 -0.0009667610018374694 123 131 0
-0.002334193017478199 -0.004280479905930674 -0.00129254885914012 164 90 0
-0.002334193017478199 -0.003791796954865749 -0.00161833718248715 206 48 0
-0.002334193017478199 -0.0033031140038008245 -0.0014075891179031188 179 75 0
-0.002334193017478199 -0.0028144310527359003 -0.0014985376785227782 190 64 0
-0.002334193017478199 -0.0023257481016709758 -0.0014416905172249827 183 71 0
-0.002334193017478199 -0.0018370651506060514 -0.001685025336898165 214 40 0
-0.002334193017478199 -0.001348382199541127 -0.0015964992749620873 203 51 0
-0.002334193017478199 -0.0008596992484762028 -0.0015992694427526242 203 51 0
-0.002334193017478199 -0.0003710162974112785 -0.0016020377463656437 204 50 0
-0.002334193017478199 0.00011766665365364588 -0.0014360625653006014 182 72 0
-0.002334193017478199 0.000606349721229665 -0.001270087384235559 161 93 0
-0.002334193017478199 0.0010950326722945895 -0.001301876271347355 165 89 0
-0.002334193017478199 0.0015837156233595138 -0.0012133502094112771 154 100 0
-0.002334193017478199 0.0020723985471171502 -0.0010473750283462348 133 121 0
-0.002334193017478199 0.0025610814963615888 -0.0010791629833692721 137 117 0
-0.002334193017478199 0.003049764476554287 -0.0007342193039444085 93 161 0
-0.002334193017478199 0.003538447427619211 -0.0006456941740970895 82 172 0
-0.002334193017478199 0.0040271303786841356 -0.0002001837101526508 25 229 0
-0.002822876085054218 -0.006723894195210915 0.001352163978889543 0 143 111
-0.002822876085054218 -0.006235211244145992 0.0001605444263545969 0 241 13
-0.002822876085054218 -0.005746528293081067 -0.0005769153446005518 73 181 0
-0.002822876085054218 -0.005257845808060522 -0.0007876634091845831 100 154 0
-0.002822876085054218 -0.004769162856995597 -0.0014236918832965623 181 73 0
-0.002822876085054218 -0.004280479905930674 -0.001097903093905153 139 115 0
-0.002822876085054218 -0.003791796954865749 -0.0014428463072856375 183 71 0
-0.002822876085054218 -0.0033031140038008245 -0.0014996953327609502 190 64 0
-0.002822876085054218 -0.0028144310527359003 -0.0015882204626082694 202 52 0
-0.002822876085054218 -0.0023257481016709758 -0.001556432507585232 198 56 0
-0.002822876085054218 -0.0018370651506060514 -0.001644957637432551 209 45 0
-0.002822876085054218 -0.001348382199541127 -0.0016715529259814696 212 42 0
-0.002822876085054218 -0.0008596992484762028 -0.0016105514450866275 205 49 0
-0.002822876085054218 -0.0003710162974112785 -0.0013672175575022037 174 80 0
-0.002822876085054218 0.00011766665365364588 -0.0015331927385672463 195 59 0
-0.002822876085054218 0.000606349721229665 -0.0012898588509828225 164 90 0
-0.002822876085054218 0.0010950326722945895 -0.0013783830487413828 175 79 0
-0.002822876085054218 0.0015837156233595138 -0.001216607859622558 154 100 0
-0.002822876085054218 0.0020723985471171502 -0.0012432040802602354 158 96 0
-0.002822876085054218 0.0025610814963615888 -0.0009585861173802343 122 132 0
-0.002822876085054218 0.003049764476554287 -0.0008676375567605748 110 144 0
-0.002822876085054218 0.003538447427619211 -0.0008066360758657326 102 152 0
-0.002822876085054218 0.0040271303786841356 -0.00040265669073789824 51 203 0
-0.002822876085054218 0.004515813213237965 0.000353169889205315 0 225 29
-0.0033115590361191423 -0.006723894195210915 0.000553561049548246 0 209 45
-0.0033115590361191423 -0.006235211244145992 0.0004925586365646452 0 214 40
-0.0033115590361191423 -0.005746528293081067 -0.00044072972026012455 56 198 0
-0.0033115590361191423 -0.005257845808060522 -0.0007253476831401256 92 162 0
-0.0033115590361191423 -0.004769162856995597 -0.0012016301253607359 153 101 0
-0.0033115590361191423 -0.004280479905930674 -0.0012925796180691539 164 90 0
-0.0033115590361191423 -0.003791796954865749 -0.001295348853770932 164 90 0
-0.0033115590361191423 -0.0033031140038008245 -0.0013862974143905914 176 78 0
-0.0033115590361191423 -0.0028144310527359003 -0.0014772469070990094 188 66 0
-0.0033115590361191423 -0.0023257481016709758 -0.0017618639378902518 224 30 0
-0.0033115590361191423 -0.0018370651506060514 -0.0017646331735920301 224 30 0
-0.0033115590361191423 -0.001348382199541127 -0.001381024588283234 175 79 0
-0.0033115590361191423 -0.0008596992484762028 -0.001706812911630264 217 37 0
-0.0033115590361191423 -0.0003710162974112785 -0.0016182868496941864 206 48 0
-0.0033115590361191423 0.00011766665365364588 -0.0016792892626777871 213 41 0
-0.0033115590361191423 0.000606349721229665 -0.0012956788131914738 165 89 0
-0.0033115590361191423 0.0010950326722945895 -0.0014574540023102986 185 69 0
-0.0033115590361191423 0.0015837156233595138 -0.0012467059377262674 158 96 0
-0.003311559036119142 0.0020723985471171502 -0.0018882057728511843 240 14 0
-0.0033115590361191423 0.0025610814963615888 -0.0011507464679404147 146 108 0
-0.0033115590361191423 0.003049764476554287 -0.0006518869718091779 83 171 0
-0.0033115590361191423 0.003538447427619211 -0.000977675295156208 124 130 0
-0.0033115590361191423 0.0040271303786841356 -0.0007217782492390958 91 163 0
-0.0033115590361191423 0.004515813213237965 -0.0005558030681740533 70 184 0
-0.0033115590361191423 0.00500449616430289 -0.00017219355077649858 21 233 0
-0.003800241987184067 -0.006235211244145992 0.0006894362883320621 0 198 56
-0.003800241987184067 -0.005746528293081067 2.9119057233362227e-06 0 254 0
-0.003800241987184067 -0.005257845808060522 -0.00047018885151981865 59 195 0
-0.003800241987184067 -0.004769162856995597 -0.0011314279963298274 144 110 0
-0.003800241987184067 -0.004280479905930674 -0.0011580232848787462 147 107 0
-0.003800241987184067 -0.003791796954865749 -0.001368772281551536 174 80 0
-0.003800241987184067 -0.0033031140038008245 -0.0012069961603439526 153 101 0
-0.003800241987184067 -0.0028144310527359003 -0.0015078231467358766 192 62 0
-0.003800241987184067 -0.0023257481016709758 -0.0017637197266086094 224 30 0
-0.003800241987184067 -0.0018370651506060514 -0.0017027182457137672 216 38 0
-0.003800241987184067 -0.001348382199541127 -0.0016117696850941078 205 49 0
-0.003800241987184067 -0.0008596992484762028 -0.0016686168463919035 212 42 0
-0.003800241987184067 -0.0003710162974112785 -0.0014663414686234776 186 68 0
-0.003800241987184067 0.00011766665365364588 -0.0015548675305595552 198 56 0
-0.003800241987184067 0.000606349721229665 -0.0013930923414407306 177 77 0
-0.003800241987184067 0.0010950326722945895 -0.0014196876299896492 180 74 0
-0.003800241987184067 0.0015837156233595138 -0.0011350705991984068 144 110 0
-0.003800241987184067 0.0020723985471171502 -0.0011616658877473254 147 107 0
-0.003800241987184067 0.0025610814963615888 -0.0011298779327242883 143 111 0
-0.003800241987184067 0.003049764476554287 -0.0010688759857850666 136 118 0
-0.003800241987184067 0.003538447427619211 -0.0009779264930766486 124 130 0
-0.003800241987184067 0.0040271303786841356 -0.0008161508379134445 103 151 0
-0.003800241987184067 0.004515813213237965 -0.0007252022772937851 92 162 0
-0.003800241987184067 0.00500449616430289 -0.0004818674576206029 61 193 0
-0.003800241987184067 0.005493179115367813 -0.0003909184309565642 49 205 0
-0.003800241987184067 0.005981862066432738 0.0003649067508535111 0 224 30
-0.004288924938248991 -0.006235211244145992 0.0007858184603699362 0 190 64
-0.004288924938248991 -0.005746528293081067 0.00011455656513878258 0 245 9
-0.004288924938248991 -0.005257845808060522 -0.0002894228199890519 36 218 0
-0.004288924938248991 -0.004769162856995597 -0.0009309231211583482 118 136 0
-0.004288924938248991 -0.004280479905930674 -0.0012155406179939698 154 100 0
-0.004288924938248991 -0.003791796954865749 -0.001377314875024036 175 79 0
-0.004288924938248991 -0.0033031140038008245 -0.0014091037621358317 179 75 0
-0.004288924938248991 -0.0028144310527359003 -0.0015000541869330084 191 63 0
-0.004288924938248991 -0.0023257481016709758 -0.0015610547357390921 198 56 0
-0.004288924938248991 -0.0018370651506060514 -0.0015928436228508879 202 52 0
-0.004288924938248991 -0.001348382199541127 -0.0016538451037457302 210 44 0
-0.004288924938248991 -0.0008596992484762028 -0.0017447936643653897 222 32 0
-0.004288924938248991 -0.0003710162974112785 -0.001687946503067594 214 40 0
-0.004288924938248991 0.00011766665365364588 -0.0016907166708581306 215 39 0
-0.004288924938248991 0.000606349721229665 -0.0014799676741853408 188 66 0
-0.004288924938248991 0.0010950326722945895 -0.0014533714535476636 185 69 0
-0.004288924938248991 0.0015837156233595138 -0.0013648463237003446 173 81 0
-0.004288924938248991 0.0020723985471171502 -0.001455794884320004 185 69 0
-0.004288924938248991 0.0025610814963615888 -0.0011549688300168386 147 107 0
-0.004288924938248991 0.003049764476554287 -0.000988993182907417 125 129 0
-0.004288924938248991 0.003538447427619211 -0.0010799417435270763 137 117 0
-0.004288924938248991 0.0040271303786841356 -0.000991416147635378 126 128 0
-0.004288924938248991 0.004515813213237965 -0.0009028910177880592 114 140 0
-0.004288924938248991 0.00500449616430289 -0.0006469944379153262 82 172 0
-0.004288924938248991 0.005493179115367813 -0.000620398217277649 79 175 0
-0.004288924938248991 0.005981862066432738 -5.2204366749753265e-05 6 248 0
-0.004288924938248991 0.0064705450174976625 -8.399325386154915e-05 10 244 0
-0.0047776076562917255 -0.005746528293081067 0.000532385391086163 0 211 43
-0.0047776076562917255 -0.005257845808060522 -3.580799339735333e-05 4 250 0
-0.0047776076562917255 -0.004769162856995597 -0.0005089078185517496 64 190 0
-0.0047776076562917255 -0.004280479905930674 -0.000954417816451809 121 133 0
-0.0047776076562917255 -0.003791796954865749 -0.0012993614958766728 165 89 0
-0.0047776076562917255 -0.0033031140038008245 -0.0013562086571744685 172 82 0
-0.0047776076562917255 -0.0028144310527359003 -0.001444734719110546 183 71 0
-0.0047776076562917255 -0.0023257481016709758 -0.0014129467640875088 179 75 0
-0.0047776076562917255 -0.0018370651506060514 -0.0014697948574740629 187 67 0
-0.0047776076562917255 -0.001348382199541127 -0.0016357700385391054 208 46 0
-0.0047776076562917255 -0.0008596992484762028 -0.001473993917331522 187 67 0
-0.0047776076562917255 -0.0003710162974112785 -0.0015625199792675996 198 56 0
-0.0047776076562917255 0.00011766665365364588 -0.0014007447901487747 178 76 0
-0.0047776076562917255 0.000606349721229665 -0.001368955903036979 174 80 0
-0.0047776076562917255 0.0010950326722945895 -0.001166680525268553 148 106 0
-0.0047776076562917255 0.0015837156233595138 -0.0009644056135445065 122 132 0
-0.0047776076562917255 0.0020723985471171502 -0.001220302659461619 155 99 0
-0.0047776076562917255 0.0025610814963615888 -0.001217532491671082 155 99 0
-0.0047776076562917255 0.003049764476554287 -0.0011565310107762398 147 107 0
-0.0047776076562917255 0.003538447427619211 -0.0010655815180678218 135 119 0
-0.0047776076562917255 0.0040271303786841356 -0.000974632491403783 124 130 0
-0.0047776076562917255 0.004515813213237965 -0.0009136314765533201 116 138 0
-0.0047776076562917255 0.00500449616430289 -0.000751855821390116 95 159 0
-0.0047776076562917255 0.005493179115367813 -0.0006908534084065152 87 167 0
-0.0047776076562917255 0.005981862066432738 -0.0005999048477868558 76 178 0
-0.0047776076562917255 0.0064705450174976625 -0.0004381291926236518 55 199 0
-0.0047776076562917255 0.006959227968562587 -3.414980749581734e-05 4 250 0
-0.00526629060735665 -0.005746528293081067 0.00018732240430019943 0 239 15
-0.00526629060735665 -0.005257845808060522 0.00015553351718840353 0 242 12
-0.00526629060735665 -0.004769162856995597 -0.0006271069261176182 79 175 0
-0.00526629060735665 -0.004280479905930674 -0.00091172442295324 116 138 0
-0.00526629060735665 -0.003791796954865749 -0.0013157038080810744 167 87 0
-0.00526629060735665 -0.0033031140038008245 -0.0013767062210646754 175 79 0
-0.00526629060735665 -0.0028144310527359003 -0.0014377077019595175 183 71 0
-0.00526629060735665 -0.0023257481016709758 -0.001528656262579177 194 60 0
-0.00526629060735665 -0.0018370651506060514 -0.0015604451496909729 198 56 0
-0.00526629060735665 -0.001348382199541127 -0.001621446630585815 206 48 0
-0.00526629060735665 -0.0008596992484762028 -0.0015948513420368962 203 51 0
-0.00526629060735665 -0.0003710162974112785 -0.001568255121399219 199 55 0
-0.00526629060735665 0.00011766665365364588 -0.0017300312426068024 220 34 0
-0.00526629060735665 0.000606349721229665 -0.0014741337306453108 187 67 0
-0.00526629060735665 0.0010950326722945895 -0.0013856086007979918 176 78 0
-0.00526629060735665 0.0015837156233595138 -0.0013287605074114375 169 85 0
-0.00526629060735665 0.0020723985471171502 -0.00138976198830628 176 78 0
-0.00526629060735665 0.0025610814963615888 -0.0013012359263702023 165 89 0
-0.00526629060735665 0.003049764476554287 -0.001304006094160739 166 88 0
-0.00526629060735665 0.003538447427619211 -0.0012154800322246614 154 100 0
-0.00526629060735665 0.0040271303786841356 -0.0011586328709268657 147 107 0
-0.00526629060735665 0.004515813213237965 -0.0009478843402984553 120 134 0
-0.00526629060735665 0.00500449616430289 0.0003357072063130849 0 227 27
-0.00526629060735665 0.005493179115367813 -0.000795096350989979 101 153 0
-0.00526629060735665 0.005981862066432738 -0.0007685001303523017 97 157 0
-0.00526629060735665 0.0064705450174976625 -0.0006799745344606033 86 168 0
-0.00526629060735665 0.006959227968562587 -0.0003350308550357397 42 212 0
-0.00526629060735665 0.007447910919627511 0.0003768873537120791 0 224 30
-0.005754973558421575 -0.005257845808060522 0.00045984325322680816 0 217 37
-0.005754973558421575 -0.004769162856995597 -0.00020139635762757998 25 229 0
-0.005754973558421575 -0.004280479905930674 -0.0007474969083105585 95 159 0
-0.005754973558421575 -0.003791796954865749 -0.0012463554723530367 158 96 0
-0.005754973558421575 -0.0033031140038008245 -0.0013348806022003556 169 85 0
-0.005754973558421575 -0.0028144310527359003 -0.0012439320415806962 158 96 0
-0.005754973558421575 -0.0023257481016709758 -0.00158887572100556 202 52 0
-0.005754973558421575 -0.0018370651506060514 -0.0015570868338937642 198 56 0
-0.005754973558421575 -0.001348382199541127 -0.0014960844209101632 190 64 0
-0.005754973558421575 -0.0008596992484762028 -0.0014933161172971437 190 64 0
-0.005754973558421575 -0.0003710162974112785 -0.0015818421792332213 201 53 0
-0.005754973558421575 0.00011766665365364588 -0.0010366485509123533 132 122 0
-0.005754973558421575 0.000606349721229665 -0.001420258068309908 180 74 0
-0.005754973558421575 0.0010950326722945895 -0.0013884701132868707 176 78 0
-0.005754973558421575 0.0015837156233595138 -0.001385699945496334 176 78 0
-0.005754973558421575 0.0020723985471171502 -0.0013246984646014916 168 86 0
-0.005754973558421575 0.0025610814963615888 -0.001162923275482667 148 106 0
-0.005754973558421575 0.003049764476554287 -0.0012197704367804625 155 99 0
-0.005754973558421575 0.003538447427619211 -0.00043713045951882006 55 199 0
-0.005754973558421575 0.0040271303786841356 -0.0010731580015420406 136 118 0
-0.005754973558421575 0.004515813213237965 -0.0009822094409223812 125 129 0
-0.005754973558421575 0.00500449616430289 -0.0009794392731318445 124 130 0
-0.005754973558421575 0.005493179115367813 -0.0005754598880040101 73 181 0
-0.005754973558421575 0.005981862066432738 -0.000831356467876743 105 149 0
-0.005754973558421575 0.0064705450174976625 -0.00058802211424794 74 180 0
-0.005754973558421575 0.006959227968562587 -7.686929947962714e-05 9 245 0
-0.005754973558421575 0.007447910919627511 0.0010391117163399202 0 169 85
-0.006243656509486499 -0.005257845808060522 0.000717700015758861 0 195 59
-0.006243656509486499 -0.004769162856995597 -0.00028701756494750423 36 218 0
-0.006243656509486499 -0.004280479905930674 -0.000798170379715817 101 153 0
-0.006243656509486499 -0.003791796954865749 -0.0012387337825740263 157 97 0
-0.006243656509486499 -0.0033031140038008245 -0.0013296823431936857 169 85 0
-0.006243656509486499 -0.0028144310527359003 -0.0014206318359021037 180 74 0
-0.006243656509486499 -0.0023257481016709758 -0.001481633316796946 188 66 0
-0.006243656509486499 -0.0018370651506060514 -0.0013931072548608685 177 77 0
-0.006243656509486499 -0.001348382199541127 -0.001366511034223191 174 80 0
-0.006243656509486499 -0.0008596992484762028 -0.0015282871554307745 194 60 0
-0.006243656509486499 -0.0003710162974112785 -0.0015016918668818559 191 63 0
-0.006243656509486499 0.00011766665365364588 -0.001504461102583634 191 63 0
-0.006243656509486499 0.000606349721229665 -0.0015072303382854123 191 63 0
-0.006243656509486499 0.0010950326722945895 -0.0015099995739871904 192 62 0
-0.006243656509486499 0.0015837156233595138 -0.0014214735120511128 181 73 0
-0.006243656509486499 0.0020723985471171502 -0.0013948782235021942 177 77 0
-0.006243656509486499 0.0025610814963615888 -0.00011128714293503313 14 240 0
-0.006243656509486499 0.003049764476554287 -0.0012629988492264639 160 94 0
-0.006243656509486499 0.003538447427619211 -0.0012947877363382598 164 90 0
-0.006243656509486499 0.0040271303786841356 -0.0012062616744021822 153 101 0
-0.006243656509486499 0.004515813213237965 -0.0010402860272927606 132 122 0
-0.006243656509486499 0.00500449616430289 -0.0009517604314010621 121 133 0
-0.006243656509486499 0.005493179115367813 -0.0009251642107633848 117 137 0
-0.006243656509486499 0.005981862066432738 -0.0008985679901257075 114 140 0
-0.006243656509486499 0.0064705450174976625 -0.0003997098921276086 50 204 0
-0.006243656509486499 0.006959227968562587 -9.888337178006395e-05 12 242 0
-0.006243656509486499 0.007447910919627511 0.0005371451023319152 0 210 44
-0.006243656509486499 0.007936593870692437 0.0005053562152201194 0 213 41
-0.006243656509486499 0.00842527682175736 0.0022329990408245215 0 71 183
-0.006732339460551423 -0.004769162856995597 0.0008113618867547829 0 188 66
-0.006732339460551423 -0.004280479905930674 -0.00031875938157699125 40 214 0
-0.006732339460551423 -0.003791796954865749 -0.0008418499231209771 107 147 0
-0.006732339460551423 -0.0033031140038008245 -0.0012576318821544885 160 94 0
-0.006732339460551423 -0.0028144310527359003 -0.0012842271707034073 163 91 0
-0.006732339460551423 -0.0023257481016709758 -0.00125243921568037 159 95 0
-0.006732339460551423 -0.0018370651506060514 -0.0015973828951052337 203 51 0
-0.006732339460551423 -0.001348382199541127 -0.0008147415197104532 103 151 0
-0.006732339460551423 -0.0008596992484762028 -0.0009807176328642541 124 130 0
-0.006732339460551423 -0.0003710162974112785 -0.0013643271502618089 173 81 0
-0.006732339460551423 0.00011766665365364588 -0.0014528532121978867 185 69 0
-0.006732339460551423 0.000606349721229665 -0.0014500830444073498 184 70 0
-0.006732339460551423 0.0010950326722945895 -0.001476679265045027 188 66 0
-0.006732339460551423 0.0015837156233595138 -0.0013149031438374438 167 87 0
-0.006732339460551423 0.0020723985471171502 -0.00125390259503136 159 95 0
-0.006732339460551423 0.0025610814963615888 -0.0014646506596153915 186 68 0
-0.006732339460551423 0.003049764476554287 -0.001403649178720549 178 76 0
-0.006732339460551423 0.003538447427619211 -0.0012418739896017245 158 96 0
-0.006732339460551423 0.0040271303786841356 -0.0008013096546547566 102 152 0
-0.006732339460551423 0.004515813213237965 -0.0005166916917747555 65 189 0
-0.006732339460551423 0.00500449616430289 -0.0007725896697806263 98 156 0
-0.006732339460551423 0.005493179115367813 -0.0006108140146174223 77 177 0
-0.006732339460551423 0.005981862066432738 -0.00044903835945421815 57 197 0
-0.006732339460551423 0.0064705450174976625 -4.505897432638375e-05 5 249 0
-0.006732339460551423 0.006959227968562587 0.000655136820148997 0 201 53
-0.006732339460551423 0.007447910919627511 0.0019145793451585443 0 97 157
-0.006732339460551423 0.007936593870692437 0.00295670722571589 0 11 243
-0.0072210224116163475 -0.004280479905930674 -6.609854782971214e-05 8 246 0
-0.0072210224116163475 -0.003791796954865749 -0.00047007839900192587 59 195 0
-0.0072210224116163475 -0.0033031140038008245 -0.0011984414497175915 152 102 0
-0.0072210224116163475 -0.0028144310527359003 -0.001360217570925175 173 81 0
-0.0072210224116163475 -0.0023257481016709758 -0.0012716924410778557 161 93 0
-0.0072210224116163475 -0.0018370651506060514 -0.0011831663791417781 150 104 0
-0.0072210224116163475 -0.001348382199541127 -0.0010946403172057005 139 115 0
-0.0072210224116163475 -0.0008596992484762028 -0.001155641798100543 147 107 0
-0.0072210224116163475 -0.0003710162974112785 -0.0011874306852123386 151 103 0
-0.0072210224116163475 0.00011766665365364588 -0.0011608344645746614 147 107 0
-0.0072210224116163475 0.000606349721229665 -0.0011636046323651981 148 106 0
-0.0072210224116163475 0.0010950326722945895 -0.0012246061132600405 155 99 0
-0.0072210224116163475 0.0015837156233595138 -0.0012273753489618186 156 98 0
-0.0072210224116163475 0.0020723985471171502 -0.001318323909581478 167 87 0
-0.0072210224116163475 0.0025610814963615888 -0.0011075758449974468 141 113 0
-0.0072210224116163475 0.003049764476554287 -0.0009416006639324044 119 135 0
-0.0072210224116163475 0.003538447427619211 -0.0006407741435848598 81 173 0
-0.0072210224116163475 0.0040271303786841356 -0.0004300246808676906 54 200 0
-0.0072210224116163475 0.004515813213237965 -0.00043279484865822737 55 199 0
-0.0072210224116163475 0.00500449616430289 -0.0005237434092778868 66 188 0
-0.0072210224116163475 0.005493179115367813 0.0001122850648340924 0 245 9
-0.0072210224116163475 0.005981862066432738 0.00036818211075120464 0 224 30
-0.0072210224116163475 0.0064705450174976625 0.0007517911621043801 0 193 61
-0.0072210224116163475 0.006959227968562587 -0.00030019636790524313 38 216 0
-0.0072210224116163475 0.007447910919627511 0.0022905639104664334 0 66 188
-0.007709705362681272 -0.003791796954865749 -0.00010568016300772038 13 241 0
-0.007709705362681272 -0.0033031140038008245 -0.0002716553440727627 34 220 0
-0.007709705362681272 -0.0028144310527359003 -0.0007171653419728222 91 163 0
-0.007709705362681272 -0.0023257481016709758 -0.0011329473010063336 144 110 0
-0.007709705362681272 -0.0018370651506060514 -0.0006923829660593658 88 166 0
-0.007709705362681272 -0.001348382199541127 -0.00066059407894757 84 170 0
-0.007709705362681272 -0.0008596992484762028 -0.0011336948361907247 144 110 0
-0.007709705362681272 -0.0003710162974112785 -0.0006225424874667913 79 175 0
-0.007709705362681272 0.00011766665365364588 -0.0004607668323035872 58 196 0
-0.007709705362681272 0.000606349721229665 -0.0005176144596457622 65 189 0
-0.007709705362681272 0.0010950326722945895 -0.0002742796399725798 34 220 0
-0.007709705362681272 0.0015837156233595138 -7.200519429291264e-05 9 245 0
-0.007709705362681272 0.0020723985471171502 -0.0004877862212376655 62 192 0
-0.007709705362681272 0.0025610814963615888 -0.0002253594275222338 28 226 0
-0.007709705362681272 0.003049764476554287 -0.0006984592526766301 88 166 0
-0.007709705362681272 0.003538447427619211 -0.00018082096432603094 23 231 0
-0.007709705362681272 0.0040271303786841356 -4.051729392108535e-06 0 254 0
-0.007709705362681272 0.004515813213237965 -9.955494173063002e-05 12 242 0
-0.007709705362681272 0.00500449616430289 0.0001980325701808058 0 238 16
-0.007709705362681272 0.005493179115367813 0.00231526006816972 0 64 190
-0.007709705362681272 0.005981862066432738 0.002709830483323943 0 32 222
