ply
format ascii 1.0
element vertex 632
property float x
property float y
property float z
property uchar red
property uchar green
property uchar blue
end_header
0.005680753371859814 0.00780530111963339 -0.0016071247644332918 0 125 129
0.005680753371859814 0.008326811332636049 -0.0006500694513779712 0 51 203
0.005680753371859814 0.008848322042989605 -2.078157016573383e-05 0 3 251
0.005680753371859814 0.009369832255992264 -0.0004518984948602283 0 36 218
0.005680753371859814 0.009891342468994924 -8.187153429258506e-06 0 2 252
0.005159243158857155 -0.011490576264114118 -0.0018445934046384279 0 143 111
0.005159243158857156 -0.010447555838108798 -0.0036265847546610177 40 214 0
0.005159243158857156 -0.009926045625106138 -0.004070295859073201 93 161 0
0.005159243158857156 -0.00940453541210348 -0.0041647686564481945 104 150 0
0.005159243158857156 -0.00888302519910082 -0.004225435021377252 112 142 0
0.005159243158857156 -0.00836151498609816 -0.004253817344952675 115 139 0
0.005159243158857156 -0.007840005270446397 -0.004188718588839497 107 147 0
0.005159243158857156 -0.007318495057443737 -0.004249384456417659 114 140 0
0.005159243158857156 -0.006796984844441078 -0.0037792267181168343 58 196 0
0.005159243158857156 -0.006275474631438418 -0.004147340983705517 102 152 0
0.005159243158857156 -0.0057539644184357586 -0.0036771827480537958 46 208 0
0.005159243158857156 -0.005232454205433099 -0.0035801242233711003 35 219 0
0.005159243158857155 -0.0047109439924304395 -0.0031490075356953922 0 244 10
0.005159243158857155 -0.0041894337794277795 -0.002342409323610269 0 182 72
0.005159243158857155 -0.0036679235664251204 -0.0019112926359345606 0 149 105
0.005159243158857155 -0.003146413353422461 -0.0016075559676600234 0 125 129
0.005159243158857155 -0.0026249031404198013 -0.0013916922503720962 0 109 145
0.005159243158857155 -0.0021033929274171417 -0.0013577679457638357 0 106 148
0.005159243158857155 -0.0015818825900767582 -9.897682263033558e-05 0 9 245
0.005159243158857155 -0.0010603723770740987 -0.0015011228759408068 0 117 137
0.005159243158857155 -0.000538862164071439 -0.0018692381362312813 0 145 109
0.005159243158857155 -1.735198021043356e-05 -0.002312949240643465 0 180 74
0.005159243158857155 0.000504158230849449 -0.0024074220380184584 0 187 67
0.005159243158857155 0.0010256684749365395 -0.0024044672763460103 0 187 67
0.005159243158857155 0.001547178687939199 -0.0023393670281801455 0 182 72
0.005159243158857155 0.002068688900941859 -0.002274267774716072 0 177 77
0.005159243158857155 0.0025901989896067942 -0.002101625342333169 0 163 91
0.005159243158857155 0.0031117092026094538 -0.002067701037724908 0 161 93
0.005159243158857155 0.0036332194156121133 -0.0020647447839997725 0 160 94
0.005159243158857155 0.004154729628614773 -0.0019996460278865953 0 155 99
0.005159243158857155 0.004676239841617432 -0.002028028351462018 0 158 96
0.005159243158857155 0.005197750054620092 -0.0019941045442046536 0 155 99
0.005159243158857155 0.0057192602676227515 -0.0019290052907405802 0 150 104
0.005159243158857155 0.0062407704806254115 -0.0018950809861323196 0 147 107
0.005159243158857155 0.006762280693628071 -0.0019557473510613773 0 152 102
0.005159243158857155 0.007283790906630731 -0.0019218230464531165 0 149 105
0.005159243158857155 0.00780530111963339 -0.0017491801167193173 0 136 118
0.005159243158857155 0.008326811332636049 -0.001809846481648375 0 141 113
0.005159243158857155 0.008848322042989605 -0.001550165653082155 0 121 133
0.005159243158857155 0.009369832255992264 -0.0007435679383479276 0 59 195
0.004637732945854495 -0.011490576264114118 -0.00236452154444128 0 183 71
0.004637732945854495 -0.010969066051111458 -0.001685768872195875 0 131 123
0.004637732945854496 -0.010447555838108798 -0.0035902458114532394 36 218 0
0.004637732945854496 -0.009926045625106138 -0.003849925645317668 67 187 0
0.004637732945854496 -0.00940453541210348 -0.004109606473883887 98 156 0
0.004637732945854496 -0.00888302519910082 -0.004174706722049753 106 148 0
0.004637732945854496 -0.00836151498609816 -0.0042398054781629295 113 141 0
0.004637732945854496 -0.007840005270446397 -0.00427372978277119 117 137 0
0.004637732945854496 -0.007318495057443737 -0.004307654087379451 121 133 0
0.004637732945854496 -0.006796984844441078 -0.004246987722450394 114 140 0
0.004637732945854496 -0.006275474631438418 -0.004344046247133089 126 128 0
0.004637732945854496 -0.0057539644184357586 -0.004166921191125581 105 149 0
0.004637732945854496 -0.005232454205433099 -0.003942014639848688 78 176 0
0.004637732945854495 -0.0047109439924304395 -0.0032632619676032835 0 253 1
0.004637732945854495 -0.0041894337794277795 -0.002067851237695465 0 161 93
0.004637732945854495 -0.0036679235664251204 -0.0016241396359323857 0 126 128
0.004637732945854495 -0.003146413353422461 -0.0015296673359082881 0 119 135
0.004637732945854495 -0.0026249031404198013 -0.0012565804139435099 0 98 156
0.004637732945854495 -0.0021033929274171417 -0.0009355458815101206 0 73 181
0.004637732945854495 -0.0015818825900767582 -0.001481036365308732 0 115 139
0.004637732945854495 -0.0010603723770740987 -0.0012561298140318388 0 98 156
0.004637732945854495 -0.000538862164071439 -0.0011954634491027813 0 93 161
0.004637732945854495 -1.735198021043356e-05 -0.0016656226794562942 0 130 124
0.004637732945854495 0.000504158230849449 -0.002013295823224137 0 156 98
0.004637732945854495 0.0010256684749365395 -0.002185938752957936 0 170 84
0.004637732945854495 0.001547178687939199 -0.002445619581524156 0 190 64
0.004637732945854495 0.002068688900941859 -0.0021245850490907666 0 165 89
0.004637732945854495 0.0025901989896067942 -0.002428321220014408 0 188 66
0.004637732945854495 0.0031117092026094538 -0.002493420970829377 0 193 61
0.004637732945854495 0.0036332194156121133 -0.0022685159116051716 0 176 78
0.004637732945854495 0.004154729628614773 -0.0022078485519743223 0 171 83
0.004637732945854495 0.004676239841617432 -0.0026389652396500303 0 205 49
0.004637732945854495 0.005197750054620092 -0.0020561818936253346 0 160 94
0.004637732945854495 0.0057192602676227515 -0.0020901061982335953 0 162 92
0.004637732945854495 0.0062407704806254115 -0.0019956334008586016 0 155 99
0.004637732945854495 0.006762280693628071 -0.001901160603483608 0 148 106
0.004637732945854495 0.007283790906630731 -0.0015330453431931334 0 119 135
0.004637732945854495 0.00780530111963339 -0.0019641625282197377 0 153 101
0.004637732945854495 0.008326811332636049 -0.0019980868328279985 0 155 99
0.004637732945854495 0.008848322042989605 -0.0014153019947506147 0 110 144
0.004637732945854495 0.009369832255992264 -0.001190396438175513 0 93 161
0.004637732945854495 0.009891342468994924 -0.00032029546900210496 0 26 228
0.0041162224841763875 -0.010969066051111458 -0.0018087085427985921 0 141 113
0.0041162224841763875 -0.010447555838108798 -0.002595707150778711 0 201 53
0.0041162224841763875 -0.009926045625106138 -0.0034378470525855106 18 236 0
0.004116222484176388 -0.00940453541210348 -0.004516854297364321 146 108 0
0.004116222484176388 -0.00888302519910082 -0.004213117629089784 110 144 0
0.004116222484176388 -0.00836151498609816 -0.004307590426464778 121 133 0
0.004116222484176388 -0.007840005270446397 -0.0044847154824722854 143 111 0
0.004116222484176388 -0.007318495057443737 -0.004481760223448941 142 112 0
0.004116222484176388 -0.006796984844441078 -0.00451014304437526 146 108 0
0.004116222484176388 -0.006275474631438418 -0.004476218739767 142 112 0
0.004116222484176388 -0.0057539644184357586 -0.004442294435158739 137 117 0
0.004116222484176388 -0.005232454205433099 -0.004094621291390896 96 158 0
0.0041162224841763875 -0.0047109439924304395 -0.0035128047955078003 27 227 0
0.0041162224841763875 -0.0041894337794277795 -0.0014786779273604496 0 115 139
0.0041162224841763875 -0.0036679235664251204 -0.0012807213290788328 0 100 154
0.0041162224841763875 -0.003146413353422461 -0.0009330471906091985 0 73 181
0.0041162224841763875 -0.0021033929274171417 -0.00046125465991360187 0 37 217
0.0041162224841763875 -0.0015818825900767582 -0.000458299400890258 0 37 217
0.0041162224841763875 -0.0010603723770740987 -0.00024243594781999447 0 20 234
0.0041162224841763875 -0.000538862164071439 -0.0005155226055671093 0 41 213
0.0041162224841763875 -1.735198021043356e-05 -0.0005439054264934282 0 43 211
0.0041162224841763875 0.000504158230849449 -0.0009532839012118302 0 75 179
0.0041162224841763875 0.0010256684749365395 -0.0012743179362943238 0 100 154
0.0041162224841763875 0.001547178687939199 -0.0018806801909419931 0 146 108
0.0041162224841763875 0.002068688900941859 -0.0018467558863337326 0 144 110
0.0041162224841763875 0.0025901989896067942 -0.002290466990745916 0 178 76
0.0041162224841763875 0.0031117092026094538 -0.002287512229073468 0 178 76
0.0041162224841763875 0.0036332194156121133 -0.001983775560798931 0 154 100
0.0041162224841763875 0.004154729628614773 -0.0020444414283770926 0 159 95
0.0041162224841763875 0.004676239841617432 -0.0018717984986432931 0 146 108
0.0041162224841763875 0.005197750054620092 -0.00169915606626039 0 132 122
0.0041162224841763875 0.0057192602676227515 -0.0016652317616521295 0 130 124
0.0041162224841763875 0.0062407704806254115 -0.001600132508188056 0 125 129
0.0041162224841763875 0.006762280693628071 -0.0015350337520748788 0 120 134
0.0041162224841763875 0.007283790906630731 -0.0014699335039090136 0 115 139
0.0041162224841763875 0.00780530111963339 -0.0016470580625656253 0 128 126
0.0041162224841763875 0.008326811332636049 -0.0015500000352338258 0 121 133
0.0041162224841763875 0.008848322042989605 -0.0016444723352579233 0 128 126
0.0041162224841763875 0.009369832255992264 -0.0006484888702308514 0 51 203
0.0035947122711737283 -0.011490576264114118 -0.0023811778259444417 0 185 69
0.0035947122711737283 -0.010969066051111458 -0.0018229486936495482 0 142 112
0.0035947122711737283 -0.010447555838108798 -0.0035486802076806143 31 223 0
0.0035947122711737283 -0.009926045625106138 -0.004383895492964017 131 123 0
0.0035947122711737283 -0.00940453541210348 -0.0038790142071652464 70 184 0
0.0035947122711737283 -0.00888302519910082 -0.004182751372790679 106 148 0
0.0035947122711737283 -0.00836151498609816 -0.004216674682697148 111 143 0
0.0035947122711737283 -0.007840005270446397 -0.004432537902634179 136 118 0
0.0035947122711737283 -0.007318495057443737 -0.004466462207242439 140 114 0
0.0035947122711737283 -0.006796984844441078 -0.004563520731925135 152 102 0
0.0035947122711737283 -0.006275474631438418 -0.004535137910998816 149 105 0
0.0035947122711737283 -0.0057539644184357586 -0.004569062215607076 153 101 0
0.0035947122711737283 -0.005232454205433099 -0.004540679394680757 149 105 0
0.0035947122711737283 -0.0047109439924304395 -0.004446206597305764 138 116 0
0.0035947122711737283 -0.0041894337794277795 -0.004002495492893581 85 169 0
0.003594712271173728 -0.0036679235664251204 -0.0014229577170909603 0 111 143
0.003594712271173728 -0.003146413353422461 -0.000580817815284161 0 46 208
0.003594712271173728 -0.0026249031404198013 -2.258919199682517e-05 0 3 251
0.003594712271173728 0.002068688900941859 -0.0010514838462005799 0 82 172
0.003594712271173728 0.0025901989896067942 -0.0007783974215866975 0 61 193
0.003594712271173728 0.0031117092026094538 -0.0015849951363209249 0 123 131
0.003594712271173728 0.0036332194156121133 -0.0016500943897849983 0 128 126
0.003594712271173728 0.004154729628614773 -0.0016217115688586794 0 126 128
0.003594712271173728 0.004676239841617432 -0.00165563587346694 0 129 125
0.003594712271173728 0.005197750054620092 -0.0015611630760919463 0 122 132
0.003594712271173728 0.0057192602676227515 -0.0015950873807002068 0 124 130
0.003594712271173728 0.0062407704806254115 -0.0015006150806761093 0 117 137
0.003594712271173728 0.006762280693628071 -0.0011795805482427198 0 92 162
0.003594712271173728 0.007283790906630731 -0.0012446807964085849 0 97 157
0.003594712271173728 0.00780530111963339 -0.0009715938744438067 0 76 178
0.003594712271173728 0.008326811332636049 -0.0009109265148129574 0 72 182
0.003594712271173728 0.008848322042989605 -0.0009138827685380931 0 72 182
0.003594712271173728 0.009369832255992264 -0.00043844565047745714 0 35 219
0.003073202058171069 -0.010969066051111458 -0.0018637269909539888 0 145 109
0.003073202058171069 -0.010447555838108798 -0.002623468283085175 0 203 51
0.003073202058171069 -0.009926045625106138 -0.0036715417941926773 45 209 0
0.003073202058171069 -0.00940453541210348 -0.003896447350767779 72 182 0
0.003073202058171069 -0.00888302519910082 -0.004169534272732558 105 149 0
0.003073202058171069 -0.00836151498609816 -0.004490568307815051 143 111 0
0.003073202058171069 -0.007840005270446397 -0.004667692866471663 164 90 0
0.003073202058171069 -0.007318495057443737 -0.004633768561863402 160 94 0
0.003073202058171069 -0.006796984844441078 -0.004662151382789721 164 90 0
0.003073202058171069 -0.006275474631438418 -0.004756624180164715 175 79 0
0.003073202058171069 -0.0057539644184357586 -0.004496943351598495 144 110 0
0.003073202058171069 -0.005232454205433099 -0.004493989087276943 144 110 0
0.003073202058171069 -0.0047109439924304395 -0.004671113645933554 165 89 0
0.003073202058171069 -0.0041894337794277795 -0.004498470218848859 144 110 0
0.003073202058171069 -0.0036679235664251204 -0.003721178408303711 51 203 0
0.0030732020581710684 0.004676239841617432 -0.00036462584640495056 0 29 225
0.0030732020581710684 0.005197750054620092 -0.00033070253649848175 0 27 227
0.0030732020581710684 0.0057192602676227515 -0.0004251753338734753 0 34 220
0.0030732020581710684 0.0062407704806254115 -7.750121094605655e-05 0 7 247
0.0030732020581710684 0.006762280693628071 -1.2401953596429387e-05 0 2 252
0.002551691845168409 -0.011490576264114118 -0.0015713682191245942 0 122 132
0.0025516918451684092 -0.010969066051111458 -0.002116858702923206 0 164 90
0.0025516918451684092 -0.010447555838108798 -0.003138409485454996 0 243 11
0.0025516918451684092 -0.009926045625106138 -0.003569526173130704 33 221 0
0.0025516918451684092 -0.00940453541210348 -0.004000642860806413 85 169 0
0.0025516918451684092 -0.00888302519910082 -0.004173285790540212 105 149 0
0.0025516918451684092 -0.00836151498609816 -0.004345928720274011 126 128 0
0.0025516918451684092 -0.007840005270446397 -0.004518571152656915 147 107 0
0.0025516918451684092 -0.007318495057443737 -0.004583670406120988 154 100 0
0.0025516918451684092 -0.006796984844441078 -0.004617594710729248 158 96 0
0.0025516918451684092 -0.006275474631438418 -0.004620549969752592 159 95 0
0.0025516918451684092 -0.0057539644184357586 -0.004347463047787814 126 128 0
0.0025516918451684092 -0.005232454205433099 -0.004651199716062351 162 92 0
0.0025516918451684092 -0.0047109439924304395 -0.004998872859830194 204 50 0
0.0025516918451684092 -0.0041894337794277795 -0.004440644224886196 137 117 0
0.0025516918451684092 -0.0036679235664251204 -0.004474568529494457 141 113 0
0.0025516918451684092 -0.003146413353422461 -0.004413902164565399 134 120 0
0.0025516918451684092 -0.0026249031404198013 -0.003735148497618202 53 201 0
0.0020301817565034734 -0.010969066051111458 -0.001495833549163079 0 117 137
0.002030181756503474 -0.010447555838108798 -0.0025748422859945778 0 200 54
0.002030181756503474 -0.009926045625106138 -0.003944659054562105 78 176 0
0.002030181756503474 -0.00940453541210348 -0.0037720161248283052 57 197 0
0.002030181756503474 -0.00888302519910082 -0.004181394102195812 106 148 0
0.002030181756503474 -0.00836151498609816 -0.004358519158203319 127 127 0
0.002030181756503474 -0.007840005270446397 -0.004583425709480213 154 100 0
0.002030181756503474 -0.007318495057443737 -0.0046440915770583745 162 92 0
0.002030181756503474 -0.006796984844441078 -0.004672473403282902 165 89 0
0.002030181756503474 -0.006275474631438418 -0.0046695181442595575 165 89 0
0.002030181756503474 -0.0057539644184357586 -0.004572459122225966 153 101 0
0.002030181756503474 -0.005232454205433099 -0.004475401094894167 141 113 0
0.002030181756503474 -0.0047109439924304395 -0.004441476790285906 137 117 0
0.002030181756503474 -0.0041894337794277795 -0.0044075534803794374 133 121 0
0.002030181756503474 -0.0036679235664251204 -0.00468063990499332 166 88 0
0.002030181756503474 -0.003146413353422461 -0.0046155396568274545 158 96 0
0.002030181756503474 -0.0026249031404198013 -0.003899187256853205 73 181 0
0.0015086715435008139 -0.011490576264114118 -0.001174075371176178 0 92 162
0.0015086715435008139 -0.010969066051111458 -0.0014337552050406061 0 112 142
0.0015086715435008139 -0.010447555838108798 -0.002403925661220393 0 187 67
0.001508671543500814 -0.009926045625106138 -0.0033740966147510756 10 244 0
0.001508671543500814 -0.00940453541210348 -0.003471154642082875 22 232 0
0.001508671543500814 -0.00888302519910082 -0.004248446949978918 114 140 0
0.001508671543500814 -0.00836151498609816 -0.004345505474661613 126 128 0
0.0015086715435008143 -0.007840005270446397 -0.004518148404395413 147 107 0
0.0015086715435008143 -0.007318495057443737 -0.004552072709003673 151 103 0
0.0015086715435008143 -0.006796984844441078 -0.005268425108977923 236 18 0
0.0015086715435008143 -0.006275474631438418 -0.004589671442030726 155 99 0
0.0015086715435008143 -0.0057539644184357586 -0.004623595746638987 159 95 0
0.0015086715435008143 -0.005232454205433099 -0.004883276575205207 190 64 0
0.0015086715435008143 -0.0047109439924304395 -0.004562241545420922 152 102 0
0.0015086715435008143 -0.0041894337794277795 -0.004627340798884995 160 94 0
0.0015086715435008143 -0.0036679235664251204 -0.004598957977958676 156 98 0
0.001508671543500814 -0.003146413353422461 -0.00437405291873447 129 125 0
0.0015086715435008143 -0.0026249031404198013 -0.004589916138671502 155 99 0
0.0015086715435008143 -0.0021033929274171417 -0.0044954433412965076 144 110 0
0.001508671543500814 -0.0015818825900767582 -0.004222356916682626 111 143 0
0.000987161330498154 -0.011490576264114118 -0.0007506278343150041 0 59 195
0.0009871613304981543 -0.010447555838108798 -0.002109480005031868 0 164 90
0.0009871613304981545 -0.009926045625106138 -0.0028964786130119876 0 224 30
0.0009871613304981545 -0.00940453541210348 -0.0037109304930940177 50 204 0
0.0009871613304981545 -0.00888302519910082 -0.0038880550517506295 71 183 0
0.0009871613304981545 -0.00836151498609816 -0.004297434521170824 120 134 0
0.0009871613304981545 -0.007840005270446397 -0.0040815708038828965 94 160 0
0.0009871613304981547 -0.007318495057443737 -0.004639799438826894 161 93 0
0.0009871613304981547 -0.006796984844441078 -0.004734272236201887 172 82 0
0.0009871613304981547 -0.006275474631438418 -0.004731315982476752 172 82 0
0.0009871613304981547 -0.0057539644184357586 -0.004666217723714471 164 90 0
0.0009871613304981547 -0.005232454205433099 -0.004663261469989335 164 90 0
0.0009871613304981547 -0.0047109439924304395 -0.005423003756822312 255 0 0
0.0009871613304981547 -0.0041894337794277795 -0.00480572763411536 181 73 0
0.0009871613304981547 -0.0036679235664251204 -0.004740627385949495 173 81 0
0.0009871613304981547 -0.003146413353422461 -0.004567984953566593 152 102 0
0.0009871613304981547 -0.0026249031404198013 -0.004662457750941586 164 90 0
0.0009871613304981547 -0.0021033929274171417 -0.004690839577166113 167 87 0
0.0009871613304981545 -0.0015818825900767582 -0.004259722889490405 116 138 0
0.0009871613304981545 -0.0010603723770740987 -0.0035124919617942896 27 227 0
0.0004656510864110639 -0.010969066051111458 -0.0017143546122877153 0 133 121
0.0004656510864110639 -0.010447555838108798 -0.0017482779221941842 0 136 118
0.000465651086411064 -0.009926045625106138 -0.0026114826238452624 0 203 51
0.00046565108641106405 -0.00940453541210348 -0.003296075687661035 1 253 0
0.00046565108641106415 -0.00888302519910082 -0.0038043518906751123 61 193 0
0.0004656510864110642 -0.00836151498609816 -0.00423546857835082 113 141 0
0.0004656510864110642 -0.007840005270446397 -0.0044513322956387475 139 115 0
0.0004656510864110642 -0.007318495057443737 -0.004548390322970547 150 104 0
0.0004656510864110642 -0.006796984844441078 -0.004645448350302346 162 92 0
0.00046565108641106426 -0.006275474631438418 -0.004679372654910607 166 88 0
0.00046565108641106426 -0.0057539644184357586 -0.00474447190837468 174 80 0
0.00046565108641106426 -0.005232454205433099 -0.005048209074000113 210 44 0
0.00046565108641106426 -0.0047109439924304395 -0.004680093813709639 166 88 0
0.00046565108641106415 -0.0041894337794277795 -0.00407373155906197 93 161 0
0.00046565108641106426 -0.0036679235664251204 -0.004908945849643582 193 61 0
0.00046565108641106426 -0.003146413353422461 -0.00473182129098697 172 82 0
0.00046565108641106426 -0.0026249031404198013 -0.004947684510924001 198 56 0
0.0004656510864110642 -0.0021033929274171417 -0.0045039739038627135 145 109 0
0.0004656510864110642 -0.0015818825900767582 -0.0045069281681842654 145 109 0
0.0004656510864110642 -0.0010603723770740987 -0.004446262300606104 138 116 0
0.00046565108641106415 -0.000538862164071439 -0.004173175378641326 105 149 0
-5.585911493493409e-05 -0.010447555838108798 -0.0015532581809527635 0 121 133
-5.5859114934933995e-05 -0.009926045625106138 -0.0023130004677857415 0 180 74
-5.5859114934933914e-05 -0.00940453541210348 -0.0029917536373820423 0 232 22
-5.585911493493384e-05 -0.00888302519910082 -0.0035745379781085295 34 220 0
-5.585911493493377e-05 -0.00836151498609816 -0.004157322318835017 103 151 0
-5.585911493493375e-05 -0.007840005270446397 -0.004334447374842525 125 129 0
-5.58591149349337e-05 -0.007318495057443737 -0.004743825352210031 173 81 0
-5.585911493493371e-05 -0.006796984844441078 -0.0046467673248782315 162 92 0
-5.58591149349337e-05 -0.006275474631438418 -0.004741240122253225 173 81 0
-5.58591149349337e-05 -0.0057539644184357586 -0.004769621948477752 177 77 0
-5.585911493493369e-05 -0.005232454205433099 -0.004830288810757705 184 70 0
-5.585911493493368e-05 -0.0047109439924304395 -0.004858671631684024 187 67 0
-5.585911493493368e-05 -0.0041894337794277795 -0.004855715377958889 187 67 0
-5.585911493493368e-05 -0.0036679235664251204 -0.004852759124233753 186 68 0
-5.585911493493369e-05 -0.003146413353422461 -0.004787660865471471 179 75 0
-5.5859114934933703e-05 -0.0026249031404198013 -0.004722561612007398 171 83 0
-5.5859114934933703e-05 -0.0021033929274171417 -0.004688637307399137 167 87 0
-5.5859114934933724e-05 -0.0015818825900767582 -0.004515993880314442 146 108 0
-5.585911493493369e-05 -0.0010603723770740987 -0.0048370289100987274 185 69 0
-5.5859114934933805e-05 -0.000538862164071439 -0.003892978328268987 72 182 0
-5.5859114934933846e-05 -1.735198021043356e-05 -0.0035453051845011447 30 224 0
-0.0005773693085098242 -0.010447555838108798 -0.0020596802598269845 0 160 94
-0.0005773693085098242 -0.009926045625106138 -0.0021247790159401618 0 165 89
-0.0005773693085098241 -0.00940453541210348 -0.0030423377049497353 0 236 18
-0.000577369308509824 -0.00888302519910082 -0.0035506144053147086 31 223 0
-0.0005773693085098239 -0.00836151498609816 -0.004297844338309032 120 134 0
-0.0005773693085098239 -0.007840005270446397 -0.004269463009435401 117 137 0
-0.0005773693085098239 -0.007318495057443737 -0.004739620747736226 173 81 0
-0.0005773693085098239 -0.006796984844441078 -0.004742577001461362 173 81 0
-0.0005773693085098239 -0.006275474631438418 -0.004745531265782914 174 80 0
-0.0005773693085098239 -0.0057539644184357586 -0.0047171494395583866 170 84 0
-0.0005773693085098239 -0.005232454205433099 -0.004814208461591978 182 72 0
-0.0005773693085098238 -0.0047109439924304395 -0.004879307715056051 190 64 0
-0.0005773693085098239 -0.0041894337794277795 -0.004784834917681058 178 76 0
-0.0005773693085098238 -0.0036679235664251204 -0.0049574773500639605 199 55 0
-0.0005773693085098238 -0.003146413353422461 -0.0050545363720975525 211 43 0
-0.0005773693085098239 -0.0026249031404198013 -0.004686422106508869 167 87 0
-0.0005773693085098239 -0.0021033929274171417 -0.004783480133840669 178 76 0
-0.0005773693085098239 -0.0015818825900767582 -0.004689007336465676 167 87 0
-0.0005773693085098239 -0.0010603723770740987 -0.004511882777809064 146 108 0
-0.000577369308509824 -0.000538862164071439 -0.0038062239194472203 62 192 0
-0.0005773693085098239 -1.735198021043356e-05 -0.004388040912681213 131 123 0
-0.000577369308509824 0.000504158230849449 -0.0039786614432610196 82 172 0
-0.000577369308509824 0.0010256684749365395 -0.0032730040769518636 0 253 1
-0.001098879521512484 -0.009926045625106138 -0.0019638402448392055 0 153 101
-0.001098879521512484 -0.00940453541210348 -0.0025220688797832026 0 196 58
-0.0010988795215124837 -0.00888302519910082 -0.0032277272407941504 0 250 4
-0.0010988795215124837 -0.00836151498609816 -0.003785955875738148 59 195 0
-0.0010988795215124837 -0.007840005270446397 -0.0043183262429033345 123 131 0
-0.0010988795215124835 -0.007318495057443737 -0.004495451298910842 144 110 0
-0.0010988795215124835 -0.006796984844441078 -0.004672575857567454 165 89 0
-0.0010988795215124835 -0.006275474631438418 -0.0047332417251456154 172 82 0
-0.0010988795215124835 -0.0057539644184357586 -0.004827714522520609 183 71 0
-0.0010988795215124835 -0.005232454205433099 -0.004922187319895602 195 59 0
-0.0010988795215124835 -0.0047109439924304395 -0.004857087071729737 187 67 0
-0.0010988795215124835 -0.0041894337794277795 -0.005225202332020212 231 23 0
-0.0010988795215124835 -0.0036679235664251204 -0.004877529188252369 189 65 0
-0.0010988795215124835 -0.003146413353422461 -0.004905912009178688 193 61 0
-0.0010988795215124835 -0.0026249031404198013 -0.00496657787675685 200 54 0
-0.0010988795215124835 -0.0021033929274171417 -0.004750714656819819 174 80 0
-0.0010988795215124835 -0.0015818825900767582 -0.004716790352211558 170 84 0
-0.0010988795215124835 -0.0010603723770740987 -0.00445711051834713 139 115 0
-0.0010988795215124835 -0.000538862164071439 -0.00445415476197289 139 115 0
-0.0010988795215124837 -1.735198021043356e-05 -0.004357096237290195 127 127 0
-0.0010988795215124837 0.000504158230849449 -0.00429199598912433 120 134 0
-0.0010988795215124837 0.0010256684749365395 -0.0037837197861102525 59 195 0
-0.0016203897345151437 -0.010447555838108798 -0.0005850065045292983 0 46 208
-0.0016203897345151434 -0.009926045625106138 -0.0009326806429989325 0 73 181
-0.0016203897345151434 -0.00940453541210348 -0.002334079193455105 0 181 73
-0.0016203897345151432 -0.00888302519910082 -0.003330062161131281 5 249 0
-0.0016203897345151432 -0.00836151498609816 -0.003947338283838233 78 176 0
-0.0016203897345151432 -0.007840005270446397 -0.004378455468864837 130 124 0
-0.0016203897345151432 -0.007318495057443737 -0.00431778910393578 123 131 0
-0.001620389734515143 -0.006796984844441078 -0.004665461750352726 164 90 0
-0.001620389734515143 -0.006275474631438418 -0.005013134894120569 206 48 0
-0.001620389734515143 -0.0057539644184357586 -0.004788229834896363 179 75 0
-0.001620389734515143 -0.005232454205433099 -0.0048852878622281624 190 64 0
-0.001620389734515143 -0.0047109439924304395 -0.004824621994650001 183 71 0
-0.001620389734515143 -0.0041894337794277795 -0.005084302823216221 214 40 0
-0.001620389734515143 -0.0036679235664251204 -0.004989830025841227 203 51 0
-0.001620389734515143 -0.003146413353422461 -0.004992786279566363 203 51 0
-0.001620389734515143 -0.0026249031404198013 -0.004995740543887915 204 50 0
-0.001620389734515143 -0.0021033929274171417 -0.004818615985231304 182 72 0
-0.001620389734515143 -0.0015818825900767582 -0.0046414914265746916 161 93 0
-0.001620389734515143 -0.0010603723770740987 -0.004675415731182952 165 89 0
-0.001620389734515143 -0.000538862164071439 -0.004580942933807959 154 100 0
-0.0016203897345151432 -1.735198021043356e-05 -0.004403818375151347 133 121 0
-0.001620389734515143 0.000504158230849449 -0.004437741685057816 137 117 0
-0.0016203897345151432 0.0010256684749365395 -0.004069626424767342 93 161 0
-0.0016203897345151432 0.001547178687939199 -0.00397515462209414 82 172 0
-0.0016203897345151432 0.002068688900941859 -0.0034997170066826083 25 229 0
-0.0021419000718555267 -0.00940453541210348 -0.0018430904102310667 0 143 111
-0.0021419000718555267 -0.00888302519910082 -0.0031147569688994327 0 241 13
-0.0021419000718555267 -0.00836151498609816 -0.0039017555768795517 73 181 0
-0.0021419000718555267 -0.007840005270446397 -0.004126660636103757 100 154 0
-0.0021419000718555267 -0.007318495057443737 -0.004805414303050953 181 73 0
-0.0021419000718555267 -0.006796984844441078 -0.004457740661932216 139 115 0
-0.0021419000718555267 -0.006275474631438418 -0.0048258554248717936 183 71 0
-0.0021419000718555267 -0.0057539644184357586 -0.004886523281853539 190 64 0
-0.0021419000718555267 -0.005232454205433099 -0.004980995084526741 202 52 0
-0.0021419000718555267 -0.0047109439924304395 -0.0049470717746202715 198 56 0
-0.0021419000718555267 -0.0041894337794277795 -0.005041543577293473 209 45 0
-0.0021419000718555267 -0.0036679235664251204 -0.0050699254035180006 212 42 0
-0.0021419000718555267 -0.003146413353422461 -0.005004826150053927 205 49 0
-0.0021419000718555267 -0.0026249031404198013 -0.0047451463161894995 174 80 0
-0.0021419000718555267 -0.0021033929274171417 -0.004922270874846111 195 59 0
-0.0021419000718555267 -0.0015818825900767582 -0.004662591040981682 164 90 0
-0.0021419000718555267 -0.0010603723770740987 -0.004757061848953093 175 79 0
-0.0021419000718555267 -0.000538862164071439 -0.004584419416570189 154 100 0
-0.0021419000718555267 -1.735198021043356e-05 -0.004612802237496509 158 96 0
-0.0021419000718555267 0.000504158230849449 -0.004309065071871075 122 132 0
-0.0021419000718555267 0.0010256684749365395 -0.004212007044539275 110 144 0
-0.0021419000718555267 0.001547178687939199 -0.004146907791075202 102 152 0
-0.0021419000718555267 0.002068688900941859 -0.0037157911033994947 51 203 0
-0.0021419000718555267 0.0025901989896067942 -0.0029091918966125795 0 225 29
-0.0026634102848581863 -0.00940453541210348 -0.0026953394663476083 0 209 45
-0.0026634102848581863 -0.00888302519910082 -0.002760439714513473 0 214 40
-0.0026634102848581863 -0.00836151498609816 -0.0037564216874878577 56 198 0
-0.0026634102848581863 -0.007840005270446397 -0.00406015885311329 92 162 0
-0.0026634102848581863 -0.007318495057443737 -0.004568435553478263 153 101 0
-0.0026634102848581863 -0.006796984844441078 -0.004665494575511854 164 90 0
-0.0026634102848581863 -0.006275474631438418 -0.004668449834535199 164 90 0
-0.0026634102848581863 -0.0057539644184357586 -0.004765507861866998 176 78 0
-0.0026634102848581863 -0.005232454205433099 -0.0048625668839005895 188 66 0
-0.0026634102848581863 -0.0047109439924304395 -0.005166303054824231 224 30 0
-0.0026634102848581863 -0.0041894337794277795 -0.005169258313847574 224 30 0
-0.0026634102848581863 -0.0036679235664251204 -0.0047598808338309645 175 79 0
-0.0026634102848581863 -0.003146413353422461 -0.0051075539775988065 217 37 0
-0.0026634102848581863 -0.0026249031404198013 -0.005013081180223813 206 48 0
-0.0026634102848581863 -0.0021033929274171417 -0.005078181428389678 213 41 0
-0.0026634102848581863 -0.0015818825900767582 -0.004668801958969485 165 89 0
-0.0026634102848581863 -0.0010603723770740987 -0.004841444391352387 185 69 0
-0.0026634102848581863 -0.000538862164071439 -0.004616539332128182 158 96 0
-0.0026634102848581863 -1.735198021043356e-05 -0.005301131898593059 240 14 0
-0.0026634102848581863 0.000504158230849449 -0.004514133787963836 146 108 0
-0.0026634102848581863 0.0010256684749365395 -0.003981763420798649 83 171 0
-0.0026634102848581863 0.001547178687939199 -0.0043294365645664915 124 130 0
-0.0026634102848581863 0.002068688900941859 -0.004056349642601713 91 163 0
-0.0026634102848581863 0.0025901989896067942 -0.003879225083945102 70 184 0
-0.0026634102848581863 0.0031117092026094538 -0.0034698466092267 21 233 0
-0.003184920497860846 -0.00888302519910082 -0.0025503368126525727 0 198 56
-0.003184920497860846 -0.00836151498609816 -0.0032829784491688213 0 254 0
-0.003184920497860846 -0.007840005270446397 -0.003787859734967593 59 195 0
-0.003184920497860846 -0.007318495057443737 -0.004493517598627645 144 110 0
-0.003184920497860846 -0.006796984844441078 -0.004521899424852171 147 107 0
-0.003184920497860846 -0.006275474631438418 -0.004746805478778169 174 80 0
-0.003184920497860846 -0.0057539644184357586 -0.004574162051693474 153 101 0
-0.003184920497860846 -0.005232454205433099 -0.004895197081477759 192 62 0
-0.003184920497860846 -0.0047109439924304395 -0.005168283506091642 224 30 0
-0.003184920497860846 -0.0041894337794277795 -0.005103184252627568 216 38 0
-0.003184920497860846 -0.0036679235664251204 -0.005006126225295769 205 49 0
-0.003184920497860846 -0.003146413353422461 -0.00506679209287393 212 42 0
-0.003184920497860846 -0.0026249031404198013 -0.004850928872936899 186 68 0
-0.003184920497860846 -0.0021033929274171417 -0.004945401670311893 198 56 0
-0.003184920497860846 -0.0015818825900767582 -0.0047727592379289896 177 77 0
-0.003184920497860846 -0.0010603723770740987 -0.004801141064153517 180 74 0
-0.003184920497860846 -0.000538862164071439 -0.0044974048932298755 144 110 0
-0.003184920497860846 -1.735198021043356e-05 -0.004525786719454403 147 107 0
-0.003184920497860846 0.000504158230849449 -0.004491863409547933 143 111 0
-0.003184920497860846 0.0010256684749365395 -0.004426763658732964 136 118 0
-0.003184920497860846 0.001547178687939199 -0.004329704636699373 124 130 0
-0.003184920497860846 0.002068688900941859 -0.004157061706965574 103 151 0
-0.003184920497860846 0.0025901989896067942 -0.004060003679633774 92 162 0
-0.003184920497860846 0.0031117092026094538 -0.003800322851067555 61 193 0
-0.003184920497860846 0.0036332194156121133 -0.0037032643263848596 49 205 0
-0.003184920497860846 0.004154729628614773 -0.002896666611650632 0 224 30
-0.0037064307108635054 -0.00888302519910082 -0.0024474801712256597 0 190 64
-0.0037064307108635054 -0.00836151498609816 -0.0031638340632525967 0 245 9
-0.0037064307108635054 -0.007840005270446397 -0.0035949507509283047 36 218 0
-0.0037064307108635054 -0.007318495057443737 -0.004279543814744078 118 136 0
-0.0037064307108635054 -0.006796984844441078 -0.004583280483018615 154 100 0
-0.0037064307108635054 -0.006275474631438418 -0.004755921920699727 175 79 0
-0.0037064307108635054 -0.0057539644184357586 -0.004789846225307987 179 75 0
-0.0037064307108635054 -0.005232454205433099 -0.0048869062420433705 191 63 0
-0.0037064307108635054 -0.0047109439924304395 -0.0049520045008056525 198 56 0
-0.0037064307108635054 -0.0041894337794277795 -0.004985928805413912 202 52 0
-0.0037064307108635054 -0.0036679235664251204 -0.005051028058877986 210 44 0
-0.0037064307108635054 -0.003146413353422461 -0.0051480860862097855 222 32 0
-0.0037064307108635054 -0.0026249031404198013 -0.005087420218631624 214 40 0
-0.0037064307108635054 -0.0021033929274171417 -0.005090376472356759 215 39 0
-0.0037064307108635054 -0.0015818825900767582 -0.004865470418430762 188 66 0
-0.0037064307108635054 -0.0010603723770740987 -0.004837087597504443 185 69 0
-0.0037064307108635054 -0.000538862164071439 -0.004742615794831241 173 81 0
-0.0037064307108635054 -1.735198021043356e-05 -0.004839673822163041 185 69 0
-0.0037064307108635054 0.000504158230849449 -0.004518639787080547 147 107 0
-0.0037064307108635054 0.0010256684749365395 -0.00434151473107304 125 129 0
-0.0037064307108635054 0.001547178687939199 -0.00443857275840484 137 117 0
-0.0037064307108635054 0.002068688900941859 -0.004344100458380741 126 128 0
-0.0037064307108635054 0.0025901989896067942 -0.0042496286557075404 114 140 0
-0.0037064307108635054 0.0031117092026094538 -0.003976542231093658 82 172 0
-0.0037064307108635054 0.0036332194156121133 -0.003948159410167339 79 175 0
-0.0037064307108635054 0.004154729628614773 -0.003341797155519669 6 248 0
-0.0037064307108635054 0.004676239841617432 -0.0033757214601279296 10 244 0
-0.004227940675190717 -0.00836151498609816 -0.0027179375990038983 0 211 43
-0.004227940675190717 -0.007840005270446397 -0.0033242993563006714 4 250 0
-0.004227940675190716 -0.007318495057443737 -0.0038291796473976514 64 190 0
-0.004227940675190716 -0.006796984844441078 -0.004304616765458288 121 133 0
-0.004227940675190716 -0.006275474631438418 -0.004672732025748762 165 89 0
-0.004227940675190716 -0.0057539644184357586 -0.004733397893326924 172 82 0
-0.004227940675190716 -0.005232454205433099 -0.004827870690701917 183 71 0
-0.004227940675190716 -0.0047109439924304395 -0.004793947380795449 179 75 0
-0.004227940675190716 -0.0041894337794277795 -0.004854614243075402 187 67 0
-0.004227940675190716 -0.0036679235664251204 -0.005031738801732013 208 46 0
-0.004227940675190716 -0.003146413353422461 -0.004859095374647318 187 67 0
-0.004227940675190716 -0.0026249031404198013 -0.0049535681720223115 198 56 0
-0.004227940675190716 -0.0021033929274171417 -0.004780925739639409 178 76 0
-0.004227940675190716 -0.0015818825900767582 -0.004747001435031148 174 80 0
-0.004227940675190716 -0.0010603723770740987 -0.004531138215094117 148 106 0
-0.004227940675190716 -0.000538862164071439 -0.004315275492507982 122 132 0
-0.004227940675190716 -1.735198021043356e-05 -0.00458836241447276 155 99 0
-0.004227940675190716 0.000504158230849449 -0.004585406160747625 155 99 0
-0.004227940675190716 0.0010256684749365395 -0.004520306907283551 147 107 0
-0.004227940675190716 0.001547178687939199 -0.00442324788524996 135 119 0
-0.004227940675190716 0.002068688900941859 -0.004326189360567265 124 130 0
-0.004227940675190716 0.0025901989896067942 -0.004261090604454087 116 138 0
-0.004227940675190716 0.0031117092026094538 -0.004088447674720288 95 159 0
-0.004227940675190716 0.0036332194156121133 -0.004023347426554423 87 167 0
-0.004227940675190716 0.004154729628614773 -0.003926289399222623 76 178 0
-0.004227940675190716 0.004676239841617432 -0.003753646469488824 55 199 0
-0.004227940675190717 0.005197750054620092 -0.0033225297818131154 4 250 0
-0.004749450888193377 -0.00836151498609816 -0.003086180181123719 0 239 15
-0.004749450888193377 -0.007840005270446397 -0.0031201044857319792 0 242 12
-0.004749450888193376 -0.007318495057443737 -0.003955318776313592 79 175 0
-0.004749450888193376 -0.006796984844441078 -0.004259055444588129 116 138 0
-0.004749450888193376 -0.006275474631438418 -0.004690172132263837 167 87 0
-0.004749450888193376 -0.0057539644184357586 -0.004755272380429702 175 79 0
-0.004749450888193376 -0.005232454205433099 -0.0048203716338937755 183 71 0
-0.004749450888193376 -0.0047109439924304395 -0.004917429661225575 194 60 0
-0.004749450888193376 -0.0041894337794277795 -0.004951353965833835 198 56 0
-0.004749450888193376 -0.0036679235664251204 -0.0050164532192979085 206 48 0
-0.004749450888193376 -0.003146413353422461 -0.004988071393073381 203 51 0
-0.004749450888193376 -0.0026249031404198013 -0.004959688572147063 199 55 0
-0.004749450888193376 -0.0021033929274171417 -0.005132331999231758 220 34 0
-0.004749450888193376 -0.0015818825900767582 -0.0048592445799160834 187 67 0
-0.004749450888193376 -0.0010603723770740987 -0.004764772777242882 176 78 0
-0.004749450888193376 -0.000538862164071439 -0.004704105914962928 169 85 0
-0.004749450888193376 -1.735198021043356e-05 -0.004769205168427002 176 78 0
-0.004749450888193376 0.000504158230849449 -0.004674732371052009 165 89 0
-0.004749450888193376 0.0010256684749365395 -0.004677688624777144 166 88 0
-0.004749450888193376 0.001547178687939199 -0.00458321582740215 154 100 0
-0.004749450888193376 0.002068688900941859 -0.004522549959823989 147 107 0
-0.004749450888193376 0.0025901989896067942 -0.004297644403248887 120 134 0
-0.004749450888193377 0.0031117092026094538 -0.00292782763468136 0 227 27
-0.004749450888193376 0.0036332194156121133 -0.0041345928855422145 101 153 0
-0.004749450888193376 0.004154729628614773 -0.004106210064615896 97 157 0
-0.004749450888193376 0.004676239841617432 -0.004011737764591798 86 168 0
-0.004749450888193376 0.005197750054620092 -0.0036436225043013234 42 212 0
-0.004749450888193377 0.0057192602676227515 -0.0028838812121701374 0 224 30
-0.005270961101196036 -0.007840005270446397 -0.0027953527527027518 0 217 37
-0.005270961101196036 -0.007318495057443737 -0.003501011113713699 25 229 0
-0.005270961101196035 -0.006796984844441078 -0.004083795951791083 95 159 0
-0.005270961101196035 -0.006275474631438418 -0.004616165324254478 158 96 0
-0.005270961101196035 -0.0057539644184357586 -0.0047106371269276795 169 85 0
-0.005270961101196035 -0.005232454205433099 -0.004613579099595881 158 96 0
-0.005270961101196035 -0.0047109439924304395 -0.004981694359886354 202 52 0
-0.005270961101196035 -0.0041894337794277795 -0.004947770055278094 198 56 0
-0.005270961101196035 -0.0036679235664251204 -0.004882669807112229 190 64 0
-0.005270961101196035 -0.003146413353422461 -0.004879715542790677 190 64 0
-0.005270961101196035 -0.0026249031404198013 -0.004974188340165671 201 53 0
-0.005270961101196035 -0.0021033929274171417 -0.004392371346931678 132 122 0
-0.005270961101196035 -0.0015818825900767582 -0.00480174982165008 180 74 0
-0.005270961101196035 -0.0010603723770740987 -0.004767826511743611 176 78 0
-0.005270961101196035 -0.000538862164071439 -0.0047648702580184756 176 78 0
-0.005270961101196035 -1.735198021043356e-05 -0.004699771004554402 168 86 0
-0.005270961101196035 0.000504158230849449 -0.004527128572171499 148 106 0
-0.005270961101196035 0.0010256684749365395 -0.00458779443974966 155 99 0
-0.005270961101196035 0.001547178687939199 -0.003752580646518944 55 199 0
-0.005270961101196035 0.002068688900941859 -0.004431333318764349 136 118 0
-0.005270961101196035 0.0025901989896067942 -0.004334275291432549 125 129 0
-0.005270961101196035 0.0031117092026094538 -0.004331319037707414 124 130 0
-0.005270961101196035 0.0036332194156121133 -0.003900202350031705 73 181 0
-0.005270961101196035 0.004154729628614773 -0.004173288774645588 105 149 0
-0.005270961101196035 0.004676239841617432 -0.003913608443430265 74 180 0
-0.005270961101196036 0.005197750054620092 -0.0033681189543334437 9 245 0
-0.005270961101196036 0.0057192602676227515 -0.0021771719487161862 0 169 85
-0.005792471314198696 -0.007840005270446397 -0.0025201744702207807 0 195 59
-0.005792471314198695 -0.007318495057443737 -0.003592383922954647 36 218 0
-0.005792471314198695 -0.006796984844441078 -0.004137873412051467 101 153 0
-0.005792471314198695 -0.006275474631438418 -0.004608031647703188 157 97 0
-0.005792471314198695 -0.0057539644184357586 -0.004705089675034987 169 85 0
-0.005792471314198695 -0.005232454205433099 -0.004802148697068579 180 74 0
-0.005792471314198695 -0.0047109439924304395 -0.0048672479505326525 188 66 0
-0.005792471314198695 -0.0041894337794277795 -0.004772775153157658 177 77 0
-0.005792471314198695 -0.0036679235664251204 -0.00474439233223134 174 80 0
-0.005792471314198695 -0.003146413353422461 -0.004917035759316035 194 60 0
-0.005792471314198695 -0.0026249031404198013 -0.0048886539330915075 191 63 0
-0.005792471314198695 -0.0021033929274171417 -0.004891609192114852 191 63 0
-0.005792471314198695 -0.0015818825900767582 -0.004894564451138195 191 63 0
-0.005792471314198695 -0.0010603723770740987 -0.004897519710161539 192 62 0
-0.005792471314198695 -0.000538862164071439 -0.004803046912786546 181 73 0
-0.005792471314198695 -1.735198021043356e-05 -0.004774665086562019 177 77 0
-0.005792471314198696 0.000504158230849449 -0.0034048488153453874 14 240 0
-0.005792471314198695 0.0010256684749365395 -0.004633926719448294 160 94 0
-0.005792471314198695 0.001547178687939199 -0.004667851024056555 164 90 0
-0.005792471314198695 0.002068688900941859 -0.004573378226681561 153 101 0
-0.005792471314198695 0.0025901989896067942 -0.004396253170674054 132 122 0
-0.005792471314198695 0.0031117092026094538 -0.0043017808706499565 121 133 0
-0.005792471314198695 0.0036332194156121133 -0.004273398049723637 117 137 0
-0.005792471314198695 0.004154729628614773 -0.004245015228797318 114 140 0
-0.005792471314198695 0.004676239841617432 -0.0037126463536848193 50 204 0
-0.005792471314198696 0.005197750054620092 -0.00339161182125143 12 242 0
-0.005792471314198696 0.0057192602676227515 -0.0027128581543042333 0 210 44
-0.005792471314198696 0.0062407704806254115 -0.0027467824589124936 0 213 41
-0.005792471314198696 0.006762280693628071 -0.0009030852805884485 0 71 183
-0.006313981527201355 -0.007318495057443737 -0.0024202208659731433 0 188 66
-0.006313981527201354 -0.006796984844441078 -0.003626257995122423 40 214 0
-0.006313981527201354 -0.006275474631438418 -0.004184487127417317 107 147 0
-0.006313981527201354 -0.0057539644184357586 -0.0046281992265312915 160 94 0
-0.006313981527201354 -0.005232454205433099 -0.004656581052755819 163 91 0
-0.006313981527201354 -0.0047109439924304395 -0.00462265774284935 159 95 0
-0.006313981527201354 -0.0041894337794277795 -0.004990773003139825 203 51 0
-0.006313981527201354 -0.0036679235664251204 -0.004155557717856421 103 151 0
-0.006313981527201354 -0.003146413353422461 -0.004332683271214824 124 130 0
-0.006313981527201354 -0.0026249031404198013 -0.004742061745933226 173 81 0
-0.006313981527201354 -0.0021033929274171417 -0.00483653454330822 185 69 0
-0.006313981527201354 -0.0015818825900767582 -0.004833578289583084 184 70 0
-0.006313981527201354 -0.0010603723770740987 -0.004861961110509403 188 66 0
-0.006313981527201354 -0.000538862164071439 -0.0046893176834247085 167 87 0
-0.006313981527201354 -1.735198021043356e-05 -0.0046242194246624265 159 95 0
-0.006313981527201354 0.000504158230849449 -0.004849124483886632 186 68 0
-0.006313981527201354 0.0010256684749365395 -0.0047840252304225585 178 76 0
-0.006313981527201354 0.001547178687939199 -0.004611382798039656 158 96 0
-0.006313981527201354 0.002068688900941859 -0.004141223567686142 102 152 0
-0.006313981527201354 0.0025901989896067942 -0.0038374864020607096 65 189 0
-0.006313981527201354 0.0031117092026094538 -0.0041105743187272795 98 156 0
-0.006313981527201354 0.0036332194156121133 -0.00393793138899348 77 177 0
-0.006313981527201354 0.004154729628614773 -0.0037652884592596814 57 197 0
-0.006313981527201355 0.004676239841617432 -0.0033341717715839733 5 249 0
-0.006313981527201355 0.005197750054620092 -0.002586940346536962 0 201 53
-0.006313981527201355 0.0057192602676227515 -0.001242894809341466 0 97 157
-0.006313981527201355 0.0062407704806254115 -0.00013076202103539964 0 11 243
-0.006835491740204015 -0.006796984844441078 -0.0033566246777786647 8 246 0
-0.006835491740204014 -0.006275474631438418 -0.003787741862805269 59 195 0
-0.006835491740204014 -0.0057539644184357586 -0.004565032678648624 152 102 0
-0.006835491740204014 -0.005232454205433099 -0.004737676105733319 173 81 0
-0.006835491740204014 -0.0047109439924304395 -0.0046432043030601175 161 93 0
-0.006835491740204014 -0.0041894337794277795 -0.004548731505685124 150 104 0
-0.006835491740204014 -0.0036679235664251204 -0.004454258708310131 139 115 0
-0.006835491740204014 -0.003146413353422461 -0.0045193579617742044 147 107 0
-0.006835491740204014 -0.0026249031404198013 -0.004553282266382464 151 103 0
-0.006835491740204014 -0.0021033929274171417 -0.004524899445456146 147 107 0
-0.006835491740204014 -0.0015818825900767582 -0.004527855699181281 148 106 0
-0.006835491740204014 -0.0010603723770740987 -0.004592954952645355 155 99 0
-0.006835491740204014 -0.000538862164071439 -0.004595910211668698 156 98 0
-0.006835491740204014 -1.735198021043356e-05 -0.004692968239000498 167 87 0
-0.006835491740204014 0.000504158230849449 -0.004468063179776292 141 113 0
-0.006835491740204014 0.0010256684749365395 -0.004290938621119681 119 135 0
-0.006835491740204014 0.001547178687939199 -0.003969904088686292 81 173 0
-0.006835491740204014 0.002068688900941859 -0.003744997537409398 54 200 0
-0.006835491740204014 0.0025901989896067942 -0.003747953791134534 55 199 0
-0.006835491740204014 0.0031117092026094538 -0.003845011818466333 66 188 0
-0.006835491740204015 0.0036332194156121133 -0.0031662581515191366 0 245 9
-0.006835491740204015 0.004154729628614773 -0.0028931712295543585 0 224 30
-0.006835491740204015 0.004676239841617432 -0.0024837932521868523 0 193 61
-0.006835491740204014 0.005197750054620092 -0.00360644801158846 38 216 0
-0.006835491740204015 0.0057192602676227515 -0.0008416534926306254 0 66 188
-0.007357001953206674 -0.006275474631438418 -0.0033988651867170048 13 241 0
