ply
format ascii 1.0
element vertex 663
property float x
property float y
property float z
property uchar red
property uchar green
property uchar blue
end_header
0.0032028604351428468 -0.0014227630307366533 0.061338907976894105 60 194 0
0.003736329695169887 -0.0015092511522988026 0.061409176675770234 56 198 0
0.004256036433546418 -0.0015861382131087901 0.06171426699513466 25 229 0
0.004770379002942095 -0.0016592831027107766 0.06211088290004544 0 244 10
0.005299999427307451 -0.0017430861854441908 0.06224682196442734 0 237 17
0.005829619942631008 -0.001826889331632199 0.0623827594768442 0 229 25
0.006351997850513775 -0.0019056398634949455 0.06264227323923878 0 213 41
0.0068816183658373335 -0.0019894430096829537 0.06277821075165564 0 205 49
0.007386170285371542 -0.002055757710275239 0.06334187862018809 0 166 88
0.0079157907703757 -0.002139560835311715 0.06347781664992663 0 159 95
0.008420342689909908 -0.0022058755359040012 0.06404148451845908 0 120 134
0.008955699945412504 -0.0022936806996739735 0.06407954167420304 0 119 135
0.009485320460736062 -0.0023774838458619817 0.0642154791866199 0 112 142
0.010005027199112592 -0.00245437090667197 0.06452056950598432 0 92 162
0.010554275160680613 -0.002551866639747921 0.06432161520829066 0 109 145
0.011085843938048498 -0.0026370289407020397 0.06442431066432622 0 104 150
0.011623111583855851 -0.002726166889034515 0.06442977034037208 0 106 148
0.012154680302579969 -0.002811329148013139 0.0645324668311813 0 101 153
0.012684300817903527 -0.0028951322942011477 0.06466840434359816 0 94 160
0.013215869469584392 -0.002980294574518482 0.06477109979142363 0 89 165
0.013751226627724334 -0.0030680997384756334 0.06480915642150552 0 89 165
0.014292523174512017 -0.0031600483604912527 0.06474587283920558 0 96 158
0.014822143689835574 -0.003243851506679261 0.06488181035162244 0 88 166
0.015363440236623256 -0.00333580012869488 0.0648185267693225 0 96 158
0.0158987973947632 -0.0034236052926520317 0.06485658339940438 0 95 159
0.016373617883688085 -0.003469178643746189 0.06592754076708601 0 19 235
0.01695217337993268 -0.003587119990524153 0.06522853016387059 0 73 181
0.017445976724252805 -0.003645936230714324 0.06597559449954812 0 20 234
0.017965683462392468 -0.0037228232913590663 0.06628068482295413 0 0 254
-0.0004319480848580474 -0.00028834083693582424 0.06065386897867905 109 145 0
0.0006426919570832702 -0.0004666898439620575 0.06066299994556693 116 138 0
0.001182197931033758 -0.0005573893199979172 0.060630267829481534 124 130 0
0.0017140368865748129 -0.0006427401025743806 0.06072835343219333 116 138 0
0.0022458759027546697 -0.0007280909274539069 0.060826438000261766 109 145 0
0.0027756535985521786 -0.0008120039988984236 0.06095968488928058 98 156 0
0.0033003930239035523 -0.0008924019812254934 0.06117890550098143 77 177 0
0.003819282533158154 -0.0009687189236627491 0.061497939708798494 44 210 0
0.004344022049467729 -0.001049116969444412 0.061717158768534314 23 231 0
0.004865848750648831 -0.0011274829664694253 0.06198607743899704 0 252 2
0.005390588236639005 -0.0012078809910995572 0.06220529701605455 0 239 15
0.005915327692309779 -0.0012882789945781572 0.06242451711043373 0 225 29
0.006445105898835501 -0.0013721921498800844 0.06255776403281416 0 218 36
0.006963995317131903 -0.001448509028862747 0.06287679979259624 0 197 57
0.007493773493338225 -0.0015324221630131432 0.06301004723229835 0 190 64
0.008025612539837482 -0.0016177730090441997 0.0631081312830451 0 185 69
0.008567066717188527 -0.0017098315978706776 0.06304215814535208 0 192 62
0.009068573574773597 -0.0017740219230853215 0.06365778425938887 0 149 105
0.009577061467926619 -0.0018430824520070917 0.06415429497991898 0 115 139
0.010128429361585891 -0.0019420570839085265 0.06391917006992173 0 135 119
0.010664146896514471 -0.0020301136712038703 0.06395107729528722 0 135 119
0.011197953973307202 -0.002116837462799398 0.06401558199591999 0 133 121
0.011731761084015479 -0.002203561259963583 0.06408008669876816 0 131 123
0.012298283887475276 -0.002313108315537313 0.06358638268763786 0 170 84
0.01279979058705889 -0.0023772985986360747 0.06420200931065594 0 127 127
0.013333597629122803 -0.002464022433049412 0.06426651245111357 0 125 129
0.013863375744690324 -0.0025479355248967453 0.06439976092545903 0 118 136
0.014397182823478087 -0.002634659316819842 0.06446426562622211 0 115 139
0.01493478825612565 -0.0027240329302721774 0.06446396130206981 0 118 136
0.01547050576034091 -0.0028120894801779792 0.06449586956403344 0 118 136
0.016010011703971996 -0.0029027889350623087 0.06446313796526973 0 123 131
0.01654761707598076 -0.002992162506211582 0.06446283467576078 0 126 128
0.01707945609216062 -0.003077513331091108 0.06456091924382922 0 121 133
0.017604195608470194 -0.003157911376872771 0.06478013830356505 0 108 146
0.018110749487702103 -0.00322562269192054 0.06530964793915847 0 71 183
0.018610759227523272 -0.003288768660467958 0.06595081628528152 0 26 228
-0.0003459414465288357 0.0002500609883233666 0.0606905268551874 103 151 0
0.0007297873954049727 7.095240865918895e-05 0.06068108028337148 112 142 0
0.0012651445838643164 -1.6852776449493602e-05 0.06071913639613168 112 142 0
0.0018005017420042587 -0.0001046579404066451 0.06075719302621357 111 143 0
0.002332070521367177 -0.00018982024168833194 0.06085988848237944 103 151 0
0.002863638759682481 -0.00027498243796107713 0.06096258442250538 96 158 0
0.0033952075390453994 -0.00036014473924276397 0.06106527987867125 88 166 0
0.003917585446928166 -0.00043889527110551035 0.06132479364106583 62 192 0
0.0044268411485802505 -0.0005084914414041101 0.061808203707475036 11 243 0
0.004958409927943169 -0.000593653742685797 0.06191089916364091 3 251 0
0.0054727524973388455 -0.0006667986322877826 0.0623075150685517 0 230 24
0.005997765252086011 -0.0007473872956688769 0.06252207202534417 0 217 37
0.006512107760842887 -0.0008205321429678005 0.06291868896489831 0 190 64
0.007047464949302231 -0.000908337328076483 0.06295674507765851 0 190 64
0.0075618074580591065 -0.0009814821753754066 0.06335336201721264 0 163 91
0.008091427973382664 -0.0010652853215634148 0.0634892995296295 0 155 99
0.00862104845838682 -0.001149088446599892 0.06362523755936805 0 148 106
0.009162345163175958 -0.001241037110731395 0.06356195346808684 0 155 99
0.0096977023213159 -0.0013288422746885464 0.06360001009816872 0 155 99
0.010244037497680929 -0.0014243059639213688 0.06345075541315673 0 169 85
0.010775606247118366 -0.0015094682602895355 0.06355345086736781 0 164 90
0.011300618969551098 -0.0015900569021915297 0.06376800834135166 0 150 104
0.011820325770167542 -0.001666943989394137 0.0640730981454795 0 130 124
0.012366660946532573 -0.0017624076786269586 0.0639238434604675 0 144 110
0.012903928530100013 -0.0018515456005668155 0.06392930365174994 0 146 108
0.013445224979525043 -0.001943494222769614 0.06386601954378793 0 153 101
0.01397023770395281 -0.0020240828649991764 0.06408057701790207 0 140 114
0.014503706963979849 -0.0021105709865613257 0.0641508457167782 0 137 117
0.015037176254326289 -0.002197059129275005 0.06422111389833265 0 135 119
0.015574443837893729 -0.0022861970512148624 0.06422657408961509 0 137 117
0.016104064353217287 -0.00237000019740287 0.06436251160203195 0 130 124
0.016662042664496862 -0.0024735864130519206 0.06401459711632151 0 158 96
0.017181749402873397 -0.00255047347386191 0.06431968743568595 0 138 116
0.017715218662900437 -0.0026369615954240583 0.06438995613456207 0 135 119
0.018240231387328203 -0.0027175502376536207 0.06460451360867622 0 122 132
0.018708867672658273 -0.0027588093419894204 0.06578098831877818 0 37 217
0.019244224861117615 -0.002846614527098103 0.06581904443153838 0 37 217
0.019773845826530582 -0.002930417714840458 0.06595498301196022 0 30 224
0.02028818839663687 -0.0030035626049381833 0.06635159890474626 0 3 251
-0.00026866834184215615 0.0007945555333044481 0.06087619975776495 80 174 0
0.0008290697774091587 0.0006000927610000919 0.060491222138898355 132 122 0
0.0013508964785902615 0.0005217267639750786 0.060760140809361075 105 149 0
0.0018885019112378247 0.0004323531505227435 0.06075983648520879 109 145 0
0.002418280026805346 0.0003484400586754102 0.06089308495955425 98 156 0
0.0029430189717479065 0.0002680421390542191 0.06111230502057181 77 177 0
0.00348062440439547 0.00017866852560188395 0.06111200069641951 81 173 0
0.004002451105576572 0.00010030252857687067 0.06138091936688224 54 200 0
0.004538168579472432 1.224599982259985e-05 0.06141282814616754 54 200 0
0.005084230547719271 -8.302709296232214e-05 0.061268235046777225 75 179 0
0.005587313704533528 -0.00014831714992730692 0.061856963529256064 11 243 0
0.006078187936099915 -0.00020508997175180867 0.0626540055522276 0 206 48
0.006591284317494941 -0.00027736549111724226 0.06307188441266187 0 177 77
0.007127001852029604 -0.0003654220621745752 0.06310379215730381 0 178 76
0.007651741307700377 -0.000445820065653176 0.06332301225168299 0 164 90
0.0081815194839067 -0.0005297331998035714 0.06345625969138509 0 157 97
0.008719124855915462 -0.0006191067709528453 0.06345595640187615 0 159 95
0.009250963999777371 -0.0007044576167967234 0.063554040978285 0 155 99
0.009799660784569208 -0.0008015688199484606 0.06336449159061426 0 171 83
0.010341114961920254 -0.0008936274087749385 0.06329851845292123 0 179 75
0.010876832466529434 -0.0009816839749187513 0.06333042619560839 0 179 75
0.011383386343766313 -0.001049395289638952 0.06385993583107148 0 142 112
0.011945205366709346 -0.0011556608595959246 0.0634464901414712 0 175 79
0.012474983512596268 -0.0012395739725947889 0.06357973809849499 0 168 86
0.013010701047130929 -0.0013276305436521222 0.06361164584313694 0 168 86
0.013540479035016397 -0.0014115436145351037 0.06374489430914199 0 161 93
0.014070257180903318 -0.001495456727533968 0.06387814226616577 0 154 100
0.014611711358254365 -0.001587515316360445 0.06381216912847273 0 161 93
0.015133538059435467 -0.0016658813133854583 0.06408108779893545 0 144 110
0.015679600027682306 -0.0017611544061703795 0.06393649469954514 0 157 97
0.016213407106470068 -0.0018478781980934764 0.06400099940030822 0 155 99
0.016745246152969327 -0.0019332290441245329 0.06409908345105497 0 150 104
0.017277085169149185 -0.00201857986900406 0.06419716801912341 0 146 108
0.017810892247936947 -0.002105303660927156 0.06426167271988649 0 144 110
0.01832978175719155 -0.002181620603364412 0.06458070692770355 0 123 131
0.018867387159519713 -0.002270994195665217 0.06458040312087295 0 125 129
0.019344580701497624 -0.002318223044720343 0.06561087051312947 0 51 203
0.019841756043328808 -0.002379391397723752 0.06630040923317004 0 3 251
0.020403575048800415 -0.002485656972519663 0.06588696329494854 0 36 218
0.020912062957823746 -0.002554717512512938 0.06638347374469308 0 2 252
-0.0008438837587603778 0.0015085688529579717 0.06302235796009854 0 143 111
0.0003358243151593825 0.0012569219007039709 0.06123877635895344 40 214 0
0.0008984110843615636 0.0011501207157627886 0.06081223053046885 93 161 0
0.0014397076614686474 0.0010581720725956374 0.06074894643084723 104 150 0
0.001978943337963395 0.0009676611624606785 0.06072082623750263 112 142 0
0.002516210921530835 0.000878523240520822 0.06072628642878507 115 139 0
0.0030477792204849402 0.0007933610019450138 0.06082898133426765 107 147 0
0.003587014866660288 0.0007028501129615868 0.06080086165824472 114 140 0
0.004093890556009442 0.0006349142955613587 0.061324880441569966 58 196 0
0.004651868806650218 0.0005313281222153708 0.06097696699050288 102 152 0
0.005158744465679972 0.00046339232596667376 0.0615009862911498 46 208 0
0.005688364950684128 0.0003795892009301966 0.061636924320888346 35 219 0
0.006197620652336213 0.0003099930306315968 0.062120334387297554 0 244 10
0.006683986328404748 0.00025636548380383005 0.0629943031781211 0 182 72
0.0071932420300568345 0.00018676931350523028 0.06347771324453032 0 149 105
0.007710263045614874 0.0001117558764829902 0.06382862843526903 0 125 129
0.008232640953497641 3.3005344620243814e-05 0.06408814219766361 0 109 145
0.008766110213524681 -5.3482776941906306e-05 0.06415841089653973 0 106 148
0.009224909528301206 -8.787930974749926e-05 0.06550273009924495 0 9 245
0.00984592420693237 -0.0002354411868274401 0.06407926403170307 0 117 137
0.010403902518211947 -0.0003390274024764918 0.06373134954599263 0 145 109
0.010966489257488648 -0.00044582858250415396 0.06330480371555326 0 180 74
0.011507785832600698 -0.0005377772253437369 0.06324151961580132 0 187 67
0.012043143083299955 -0.0006255824368450393 0.06327957521332495 0 187 67
0.012574711802024073 -0.0007107446958236631 0.06338227170413417 0 182 72
0.01310628058138699 -0.0007959069971053495 0.06348496716030005 0 177 77
0.013631293208452104 -0.0008764956395220904 0.06369952410875213 0 163 91
0.014164762468479144 -0.0009629837610842396 0.06376979280762825 0 161 93
0.014700119596299686 -0.00105078890388986 0.06380784995503182 0 160 94
0.015231688405982003 -0.001135951226323077 0.063910544893876 0 155 99
0.015768955989549444 -0.0012250891482629344 0.06391600508515845 0 158 96
0.016302425279895883 -0.0013115772909766147 0.0639862732667129 0 155 99
0.0168339940592588 -0.0013967395922583007 0.06408896872287877 0 150 104
0.017367463319285844 -0.0014832277138204508 0.06415923742175489 0 147 107
0.017906698995780592 -0.001573738623955409 0.06413111722841029 0 152 102
0.018440168255807632 -0.0016602267455175582 0.06420138592728643 0 149 105
0.018965180980235398 -0.0017408153877471206 0.06441594340140058 0 136 118
0.019504416656730146 -0.0018313262978820796 0.06438782320805596 0 141 113
0.020024123905834888 -0.0019082134425494768 0.06469291356078201 0 121 133
0.02051048961222282 -0.0019618410105287755 0.06556688183428387 0 59 195
-0.0007230541367833866 0.0020226773408430873 0.06246485223359404 0 183 71
-0.00022889476784999831 0.0019636127294584507 0.06320584193565844 0 131 123
0.0004227429004177841 0.0017946875302068724 0.0612598742340936 36 218 0
0.0009741107940770557 0.0016957128983054385 0.061024749324096364 67 187 0
0.001525478748375129 0.0015967382241009421 0.06078962337945577 98 156 0
0.0020649847223256157 0.0015060387480650816 0.06075689126337038 106 148 0
0.002604490605317902 0.001415339335483815 0.060724160699250025 113 141 0
0.0031420955272372523 0.0013259658058888887 0.06072385634173611 117 137 0
0.003679700959884816 0.0012365921924365536 0.060723552017583816 121 133 0
0.004211539976064672 0.0011512413675570281 0.06082163658565226 114 140 0
0.004752994183735119 0.00105918275757902 0.06075566293063755 126 128 0
0.005277733669725294 0.0009787847329488881 0.060974882507695054 105 149 0
0.005799560310267594 0.0009004187782269378 0.06124380221280114 78 176 0
0.0062937196792009825 0.0008413541668423011 0.06198479191486553 0 253 1
0.006756382648474119 0.0008042621891284148 0.06326318572030466 0 161 93
0.007264870541627143 0.0007352016602066446 0.06375969644083476 0 126 128
0.007794648687514063 0.0006512885472077798 0.06389294439785854 0 119 135
0.008313538166449265 0.0005749716259220547 0.06421197912299727 0 98 156
0.008829504673256815 0.00050069383915594 0.06458088676162434 0 73 181
0.009398296223224042 0.00038956412044521957 0.06404847468175573 0 115 139
0.009920122863766343 0.0003111981657232684 0.0643173943868618 0 98 156
0.010451961879946198 0.00022584734084374206 0.06441547895493024 0 93 161
0.01101616094430437 0.00011792136468841228 0.06396142299240903 0 130 124
0.011572893065588263 1.5204519603482201e-05 0.06363477146209176 0 156 98
0.012118955065755615 -8.006857842252774e-05 0.06349017836478654 0 170 84
0.012670323020053689 -0.00017904325262702416 0.06325505242014595 0 190 64
0.013186289526861239 -0.0002533210393931384 0.06362396005877302 0 165 89
0.01374034304597635 -0.00035416929526949905 0.06334300975173941 0 188 66
0.014279848989607437 -0.00044486875015382855 0.0633102781529757 0 193 61
0.01480167572110794 -0.0005232347683303729 0.06357919630611675 0 176 78
0.015333514676648993 -0.0006085855509068362 0.06367728190882853 0 171 83
0.015895333667671513 -0.0007148511156227209 0.06326383621714315 0 205 49
0.01639534349845088 -0.0007779971476247326 0.06390500301130118 0 160 94
0.016932948931098445 -0.0008673707610770682 0.06390469868714889 0 162 92
0.01746272704666597 -0.0009512838529244024 0.06403794716149434 0 155 99
0.01799250516223349 -0.001035196944771736 0.0641711956358398 0 148 106
0.018505601543628514 -0.00110747246413717 0.06458907449627407 0 119 135
0.019067420564970437 -0.0012137380500045858 0.06417562828726701 0 153 101
0.019605025997617997 -0.0013031116634569214 0.06417532396311472 0 155 99
0.020105036248167375 -0.0013662577158617488 0.0648164923425994 0 110 144
0.020626862949348478 -0.0014446237128867626 0.0650854110130621 0 93 161
0.021109357383718334 -0.0014955505899042166 0.06602543247010993 0 26 228
-0.00013226623079140272 0.002494604752169026 0.0630612654668366 0 141 113
0.00045124795887851576 0.0023732041035249597 0.06227764766334137 0 201 53
0.0010381236604853745 0.0022494583846135938 0.061436674405637375 18 236 0
0.0016394392191506194 0.0021156390797424235 0.06034932256120511 146 108 0
0.0021564602347086594 0.002040625642720184 0.060700237751943824 110 144 0
0.002697756811815743 0.0019486769995530327 0.06063695365232221 121 133 0
0.003244091507771959 0.0018532133730260899 0.06048769841662693 143 111 0
0.003779448696231303 0.0017654081879174069 0.06052575452938713 142 112 0
0.004316716310118143 0.001676270244826019 0.060531214203347894 146 108 0
0.004850185570145184 0.0015897821232638701 0.060601482902224016 142 112 0
0.005383654830172224 0.0015032940017017213 0.060671751601100145 137 117 0
0.005897997399567901 0.0014301491120997352 0.06106836750601093 96 158 0
0.006398066171261903 0.001366961961521015 0.061708528626830975 27 227 0
0.006809599504018743 0.0013655392280702765 0.06385931663491903 0 115 139
0.007333069061917652 0.0012860271353256486 0.06410020423037226 0 100 154
0.007847411570674527 0.001212882288026725 0.06449682116992639 0 73 181
0.008889724946491435 0.001057085128202402 0.06505752257696229 0 37 217
0.009425082262632832 0.0009692799221293672 0.0650955786980629 0 37 217
0.009947460186622781 0.0008905293790298697 0.06535509218563033 0 20 234
0.010499645384255001 0.0007909845765378602 0.06510602211004257 0 41 213
0.01103691296821636 0.0007018466383599924 0.06511148178204855 0 43 211
0.011597406756885411 0.0005965055650986096 0.06472064718604378 0 75 179
0.012152514944353578 0.0004949216327606821 0.06442170444154734 0 100 154
0.012725017218708615 0.00038120315680419906 0.06382597631877965 0 146 108
0.013258486478735657 0.0002947150352420498 0.06389624501765578 0 144 110
0.013821073120255786 0.00018791387126521931 0.06346969918083079 0 178 76
0.014356430339034528 0.00010010866500500572 0.06350775477626931 0 178 76
0.014873451354592568 2.509522798276563e-05 0.06385866996700804 0 154 100
0.015412687000767915 -6.541566100066185e-05 0.0638305502909851 0 159 95
0.01593769972519568 -0.00014600430323022428 0.06404510776509925 0 146 108
0.016462712479942847 -0.00022659296661131775 0.06425966472189173 0 132 122
0.016996181739969887 -0.00031308108817346657 0.06432993342076786 0 130 124
0.017527750519332808 -0.00039824338945515427 0.06443262887693373 0 125 129
0.018059319329015125 -0.0004834057118883713 0.06453532381577792 0 120 134
0.018590888047739243 -0.0005685679708669952 0.06463802030658716 0 115 139
0.01913722322410427 -0.0006640316600998171 0.06448876562157517 0 128 126
0.019666843739427828 -0.0007478348062878249 0.06462470313399202 0 121 133
0.02020814079694372 -0.0008397835121608547 0.0645614195850537 0 128 126
0.02068296120912262 -0.0008853568097151976 0.06563237826220582 0 51 203
-0.0005437709530407524 0.003094409617499348 0.0624141266564831 0 185 69
-4.226425345713752e-05 0.003030219334400587 0.06302975327950117 0 142 112
0.0005984767738565853 0.002868895889714861 0.06126970840165205 31 223 0
0.0011849303384498422 0.0027454446635727893 0.06043593781364182 131 123 0
0.001689689218212081 0.0026789855826283384 0.06099607444441447 70 184 0
0.002243742925648045 0.0025781372634845626 0.060715123111077914 106 148 0
0.002781348297656808 0.0024887636923352895 0.06071481982156898 111 143 0
0.003330044541401031 0.0023916525941924927 0.060525270917858295 136 118 0
0.003867649974048595 0.002302278980740157 0.060524966593706 140 114 0
0.004409104181719042 0.0022102203707621494 0.0604589929386913 152 102 0
0.004942911260506806 0.0021234965788390534 0.06052349763945437 149 105 0
0.005480516693154369 0.002034122965386718 0.06052319331530208 153 101 0
0.006014323771942133 0.0019473991734636213 0.06058769801606516 149 105 0
0.0065441018875096535 0.0018634860816162876 0.060720946490410606 138 116 0
0.0070525898109820755 0.0017944255315429864 0.061217456693619034 85 169 0
0.007430873918895131 0.0018161982440863776 0.06393555620580986 0 111 143
0.007915072909962876 0.0017640822279832592 0.0648464938382377 0 46 208
0.008416579640576502 0.0016998919232372278 0.06546211993180936 0 3 251
0.01329913914443344 0.0008647568649745537 0.06470675042148116 0 82 172
0.01381802852600599 0.0007884399435016502 0.06502578462095782 0 61 193
0.014402737512292657 0.000666205776466464 0.06422178072217978 0 123 131
0.014942243425604343 0.0005755063427336656 0.06418904964073774 0 128 126
0.015476050504392106 0.0004887825508105691 0.0642535543415008 0 126 128
0.01601365593703967 0.00039940893735823354 0.06425325001734852 0 129 125
0.016543434052607192 0.0003154958455109007 0.06438649849169398 0 122 132
0.017081039485254752 0.00022612223205856468 0.06438619416754168 0 124 130
0.017610817631141678 0.0001422091190596995 0.06451944212456547 0 117 137
0.01812678413794923 6.793133229358568e-05 0.06488834976319252 0 92 162
0.018666290111899714 -2.276814374227486e-05 0.06485561764710714 0 97 157
0.019185179590834916 -9.908506502799997e-05 0.06517465237224587 0 76 178
0.01971701854637597 -0.0001844358476044629 0.06527273797495765 0 72 182
0.020252736621958242 -0.00027249252367073703 0.06530464523563954 0 72 182
0.020759290470870752 -0.0003402038175669749 0.06583415538855462 0 35 219
4.9355536770094035e-05 0.003564705292077328 0.06297063732486055 0 145 109
0.0006312080716938774 0.0034444638531022373 0.062215371335813875 0 203 51
0.0012306378546042569 0.003311960110018884 0.06116019534765855 45 209 0
0.0017798858460977593 0.0032144643720294127 0.060961241051919655 72 182 0
0.0023320710598371615 0.003114919558300653 0.06071217070150476 105 149 0
0.0028871792153848147 0.003013335631203814 0.06041322795492321 143 111 0
0.0034335138810216307 0.002917872025828402 0.0602639732365496 164 90 0
0.003966983141048671 0.002831383904266253 0.06033424193542572 160 94 0
0.004504250754935511 0.002742245961174865 0.06033970160938649 164 90 0
0.005045547332042594 0.002650297318007714 0.06027641750976486 175 79 0
0.005565254070419126 0.002573410257197726 0.06058150782912929 144 110 0
0.00610061131951727 0.0024856050297859806 0.06061956290724615 144 110 0
0.006646946495882299 0.002390141340553159 0.060470308222234155 165 89 0
0.007171959189990663 0.002309552719475128 0.06068486621366999 144 110 0
0.007660111436735525 0.002254678818669724 0.0615283518247402 51 203 0
0.016024087528021765 0.0009905337039034252 0.0655793994228946 0 29 225
0.016557556848687604 0.0009040455400382138 0.06564966708712738 0 27 227
0.01709885342579469 0.0008120968968710631 0.06558638298750576 0 34 220
0.017613195935499048 0.0007389520489111531 0.06598299991089358 0 7 247
0.018144764714625096 0.000653789747794713 0.06608569537110104 0 2 252
-0.00041487065116226367 0.004201289899363353 0.06322305313978488 0 122 132
0.00015392077112290868 0.004090160201616984 0.06269064105157587 0 164 90
0.0007517336810417381 0.003958784427390982 0.061663052793753774 0 243 11
0.001313552672064257 0.0038525188626750972 0.0612496071020684 33 221 0
0.0018753716630867771 0.0037462532979592126 0.06083616141038302 85 169 0
0.0024214336313336153 0.0036509802051742906 0.060691568310992705 105 149 0
0.002967495599580455 0.0035557071123893686 0.06054697521160239 126 128 0
0.0035135570267796792 0.0034604341246133874 0.06040238259617214 147 107 0
0.004053062940091366 0.00336973469088059 0.06036965151473009 154 100 0
0.004590668372738929 0.0032803610774282538 0.0603693471905778 158 96 0
0.00512638587695419 0.0031923045275224523 0.06040125545254143 159 95 0
0.005645275355889392 0.0031159876062367272 0.06072029017768016 126 128 0
0.0061993290330059556 0.003015139308244483 0.06043933936166529 162 92 0
0.0067560611562848824 0.0029124224628319846 0.060112687831478336 204 50 0
0.007257567886187898 0.002848232158581692 0.06072831393717473 137 117 0
0.007795173318835462 0.002758858545129357 0.06072800961302244 141 113 0
0.008327012335015318 0.002673507720249831 0.060826094181090876 134 120 0
0.008821171643309906 0.002614443151168257 0.061567084917798616 53 201 0
0.00020519581754577243 0.00465279146453874 0.06331990281022584 0 117 137
0.0008065114671692182 0.0045189720962129755 0.06223254941382856 0 200 54
0.0014255552947551066 0.004372785131456493 0.060842710791019904 78 176 0
0.0019505680191828725 0.0042921964892269305 0.06105726826513405 57 197 0
0.002511061779527555 0.0041868554367895106 0.060666434186581276 106 148 0
0.0030573969862119853 0.004091391726405158 0.06051717898424761 127 127 0
0.0036066445276160745 0.003993896029970034 0.06031822362050376 154 100 0
0.0041458801737914225 0.003903385140986606 0.060290103944480825 162 92 0
0.004683147727039461 0.0038142472401982807 0.06029556465308494 165 89 0
0.005218504915498804 0.0037264420550895978 0.06033362076584514 165 89 0
0.0057481253701835615 0.0036426389512046525 0.06046955931290537 153 101 0
0.0062777458855071185 0.0035588358050166443 0.060605496825322236 141 113 0
0.006811215145534158 0.003472347683454496 0.06067576552419836 137 117 0
0.0073446844662 0.0033858595195892845 0.06074603318843114 133 121 0
0.007896869649620003 0.003286314727012056 0.060496963355337906 166 88 0
0.00842843836834412 0.003201152468033432 0.06059965984614714 158 96 0
0.008920305590597317 0.0031436869124096675 0.061379759066910754 73 181 0
-0.0002608226107908101 0.005290626381138742 0.06360289854405692 0 92 162
0.00029054528286846137 0.005191651749237308 0.06336777363405967 0 112 142
0.0008852259561571708 0.0050624610973994556 0.06239362884393307 0 187 67
0.0014799066597652808 0.004933270424410071 0.0614194835364848 10 244 0
0.002021360837116328 0.004841211835583595 0.061353510398791763 22 232 0
0.0026042833133654714 0.0047202239802229835 0.060579988645123706 114 140 0
0.0031457375210359193 0.004628165370244975 0.06051401499010901 126 128 0
0.0036917989785545443 0.004532892361317463 0.060369421857357074 147 107 0
0.004229404411202108 0.004443518747865128 0.06036911753320477 151 103 0
0.004808611881623514 0.004325122568474408 0.05965898268716499 236 18 0
0.005302771189918101 0.004266057999392834 0.06039997342387274 155 99 0
0.005840376622565664 0.004176684385940498 0.06039966909972044 159 95 0
0.006391744576863737 0.004077709711736002 0.06016454315507986 190 64 0
0.0069077110533518876 0.00400343194612142 0.060533451311028594 152 102 0
0.0074472169666635725 0.0039127325123886215 0.06050072022958655 160 94 0
0.007981024045451339 0.0038260087204655254 0.060565224930349625 156 98 0
0.00850285077695184 0.0037476427022889807 0.06083414308349068 129 125 0
0.009051547531424276 0.003650531520288774 0.060644594213141605 155 99 0
0.009581325646991797 0.00356661842844144 0.060777842687487066 144 110 0
0.010100215283928453 0.003490301465039832 0.06109687690364452 111 143 0
-0.0001975028580615859 0.005844855114609536 0.06402664908975096 0 59 195
0.0009564098943574841 0.005611203589003273 0.06268319752797147 0 164 90
0.0015399240840274027 0.0054898029403592065 0.06189957972447624 0 224 30
0.0021251118742872666 0.00536723474834286 0.061087406281792135 50 204 0
0.0026714470506522953 0.005271771059110039 0.06093815159678014 71 183 0
0.0032319409019551802 0.0051664299432180255 0.06054731596626234 120 134 0
0.003754318299109734 0.005087679495212688 0.0608068296952953 94 160 0
0.004323886261881323 0.004976008064448496 0.06026116796432274 161 93 0
0.004865182838988406 0.004884059421281345 0.060197883864701124 172 82 0
0.005400539966808947 0.004796254278475725 0.06023594101210468 172 82 0
0.005932108806810667 0.004711091934890976 0.060338635433627205 164 90 0
0.006467465934631209 0.0046232867920853555 0.06037669258103077 164 90 0
0.007049318530193793 0.004503045310807203 0.05962142555734074 255 0 0
0.007547225619588093 0.004441366200950479 0.06029847016168855 181 73 0
0.008078794338312212 0.004356203941971854 0.06040116665249778 173 81 0
0.008603807093059378 0.004275615278590761 0.060615723609290253 152 102 0
0.00914510367016646 0.0041836666354236095 0.060552439509668626 164 90 0
0.009682371223414499 0.004094528734635283 0.060557900218272745 167 87 0
0.010191627052748637 0.004024932543372332 0.06104131029302236 116 138 0
0.01068161186470043 0.003968780201716417 0.061853527947356886 27 227 0
0.0004859188746448727 0.006252158726845187 0.0630425064851515 0 133 121
0.0010235242466536348 0.006162785155695914 0.06304220319564256 0 136 118
0.0016116840961506093 0.006038143584830897 0.06217931929567683 0 203 51
0.002188955460612268 0.005921098078769834 0.06150221905989598 1 253 0
0.0027554782337526626 0.005811551044347635 0.06100851556608737 61 193 0
0.0033172972247751823 0.00570528547963175 0.060595069874402 113 141 0
0.003865993498838806 0.005608174360337422 0.06040552045336964 139 115 0
0.004407447676189853 0.005516115771510946 0.0603395473156766 150 104 0
0.0049489018535409 0.0054240571826844695 0.060273574177983576 162 92 0
0.0054865072861884625 0.0053346835692321334 0.06027326985383128 166 88 0
0.006026013199500149 0.005243984135499336 0.060240538772389246 174 80 0
0.006580066906936113 0.00514313581635556 0.0599595874390527 210 44 0
0.00709316328833114 0.005070860296990125 0.06037746629948696 166 88 0
0.0075917357066507055 0.005008717037932124 0.061043158796978476 93 161 0
0.008178189210605162 0.0048852658540931146 0.0602093892436116 193 61 0
0.008702928726914737 0.004804867808311452 0.060428608303347425 172 82 0
0.009251625481387174 0.004707756626311245 0.06023905943299836 198 56 0
0.009760113435178996 0.0046386960550864114 0.06073556911888511 145 109 0
0.01029583100643751 0.004550639526519321 0.06076747842383249 145 109 0
0.010827670052936767 0.004465288680488263 0.060865562474579256 138 116 0
0.011346559531871967 0.004388971759202538 0.061184597199717985 105 149 0
0.0011007693645413265 0.006707299211554863 0.06322835358650025 0 121 133
0.0016826219601039107 0.00658705773027671 0.06247308656281023 0 180 74
0.0022595373141645276 0.006470260585495331 0.06180206071814799 0 232 22
0.002830602236698563 0.006357544840179796 0.06123085726407045 34 220 0
0.003401667159232599 0.006244829094864261 0.060659653809992914 103 151 0
0.003948001855188815 0.006149365468337317 0.06051039857429762 125 129 0
0.004508495615533499 0.006044024415899898 0.06011956449574484 173 81 0
0.005038116130857056 0.00596022126971189 0.06025550200816171 162 92 0
0.0055794127079641384 0.005868272626544739 0.06019221790854009 173 81 0
0.006116680261212179 0.005779134725756413 0.0601976786171442 177 77 0
0.006655915968026327 0.005688623794469923 0.060169557906477926 184 70 0
0.007193183581913167 0.005599485851378535 0.06017501758043868 187 67 0
0.007728540709733708 0.005511680708572915 0.06021307472784225 187 67 0
0.008263897837554253 0.005423875565767295 0.060251131875245806 186 68 0
0.00879546667755597 0.005338713222182546 0.06035382629676833 179 75 0
0.009327035456918887 0.00525355092090086 0.0604565217529342 171 83 0
0.009860504716945929 0.00516706279933871 0.06052679045181033 167 87 0
0.010385517538736348 0.005086474157296327 0.06074134845158656 146 108 0
0.0109406257549228 0.004984890187896425 0.06044240467036166 185 69 0
0.011418612088585814 0.004937108268602736 0.06145934513543635 72 182 0
0.01193295462805601 0.00486396338391427 0.06185596103839235 30 224 0
0.0012207756295569857 0.007221982070446261 0.06268489624804904 0 160 94
0.0017602815125492709 0.007131282657864994 0.06265216568392869 0 165 89
0.0023517548783721447 0.007004329499606613 0.06173274524996715 0 236 18
0.0029182776818319394 0.006894782444032883 0.06123904123883686 31 223 0
0.0034993675019159504 0.006775073092977375 0.06049678899386953 120 134 0
0.004033174160933703 0.006688349321457095 0.060561292109305956 117 137 0
0.004597373164259153 0.006580423403842839 0.06010723770070455 173 81 0
0.005133090729113215 0.006492366811633975 0.06013914492802482 173 81 0
0.005668808172689674 0.006404310304031235 0.0601710542246318 174 80 0
0.00620261531211624 0.006317586469805076 0.06023555789075152 170 84 0
0.006744069550106087 0.006225527838675537 0.060169583718415146 182 72 0
0.0072835754634177725 0.006134828404942739 0.060136852636973104 190 64 0
0.007813353578985292 0.006050915313095406 0.06027010111131856 178 76 0
0.008359415516912733 0.005955642241462015 0.060125508529249916 199 55 0
0.00890086975490258 0.005863583610332476 0.06005953435691354 211 43 0
0.009413966196936407 0.005791308048663979 0.06047741218270445 167 87 0
0.009955420374287453 0.005699249459837502 0.06041143904501142 178 76 0
0.010485198617537028 0.005615336347025817 0.06054468752769728 167 87 0
0.011009938133846603 0.005534938301244154 0.06076390658743311 146 108 0
0.011502457253530631 0.005477017966547445 0.06153288287484286 62 192 0
0.012073463174905152 0.00536434336587367 0.0609626856094702 131 123 0
0.012584044014281839 0.005293822747078767 0.06142348561458152 82 172 0
0.013076563256844581 0.005235902343686378 0.06219246035211135 0 253 1
0.0018396042693506886 0.007674347317031968 0.06280286660657097 0 153 101
0.0024091722321222774 0.007562675886267776 0.06225720487559842 0 196 58
0.002987727774793452 0.007444734507101531 0.06155819348023417 0 250 4
0.003557295737565041 0.007333063076337338 0.06101253174926162 59 195 0
0.004125286823335976 0.007222491439842186 0.06049376657350165 123 131 0
0.004671622030020407 0.007127027729457834 0.060344511371167975 144 110 0
0.005217957206385435 0.007031564040225011 0.06019525668615599 165 89 0
0.005757192852560782 0.006941053151241584 0.06016713701013306 172 82 0
0.0062984894296678655 0.006849104508074433 0.06010385291051144 183 71 0
0.006839786006774949 0.006757155864907282 0.06004056881088982 195 59 0
0.0073713547254990654 0.006671993605928659 0.06014326530169904 187 67 0
0.007929333036778643 0.006568407390279607 0.059795350815988614 231 23 0
0.00844367560617432 0.0064952625006776225 0.060191966720899395 189 65 0
0.00898094322006116 0.006406124557586234 0.06019742639486016 193 61 0
0.009520178866236509 0.006315613668602806 0.060169306718837225 200 54 0
0.010042556804438675 0.006236863115588527 0.06042881996391013 174 80 0
0.010576026192147769 0.006150374973062027 0.06049908867112666 170 84 0
0.011095732991163102 0.006073487869948976 0.060804177955847735 139 115 0
0.011631090149303044 0.005985682705991824 0.06084223458592961 139 115 0
0.01216071060438172 0.005901879585868868 0.060978172613713376 127 127 0
0.012692279321110804 0.005816717327217812 0.06108086910439228 120 134 0
0.013196831272565527 0.005750402621384439 0.06164453697500983 59 195 0
0.0013091446232914063 0.008357137951923319 0.06418538403825336 0 46 208
0.001865876807209134 0.008254421064207757 0.06385873147342307 0 73 181
0.0024868459167287807 0.008106890977218267 0.06243604292419376 0 181 73
0.003083100166905081 0.007976602560909657 0.06143504913908714 5 249 0
0.0036562677701853855 0.007862419935751897 0.06082796890946317 78 176 0
0.004218086280799092 0.007756154433741891 0.0604145226670945 130 124 0
0.004749925296978949 0.007670803608862365 0.060512607235162934 123 131 0
0.005306657389938475 0.007568086784601398 0.060185956222297665 164 90 0
0.005863389513217402 0.0074653699391889 0.05985930469211072 206 48 0
0.006385216244717905 0.0073870039210123545 0.060128222845251766 179 75 0
0.006926670422068951 0.007294945332185878 0.06006224970755874 190 64 0
0.007458509468568207 0.007209594486154822 0.0601603337583055 183 71 0
0.00800987742286628 0.007110619811950325 0.059925207813664914 214 40 0
0.008539655538433803 0.007026706720102992 0.06005845628801036 203 51 0
0.009075373103287864 0.006938650127894127 0.06009036351533064 203 51 0
0.009611090546864324 0.006850593620291388 0.06012227281193761 204 50 0
0.010135830063173899 0.006770195574509724 0.060341491871673446 182 72 0
0.010660569707165527 0.00668979750776371 0.06056071093974968 161 93 0
0.01119817513981309 0.006600423894311374 0.06056040661559738 165 89 0
0.01172795325538061 0.00651651080246404 0.06069365508994284 154 100 0
0.012252692741764704 0.006436112761595897 0.06091287414772389 133 121 0
0.012790298111778434 0.006346739190774192 0.06091257085808463 137 117 0
0.013303394525093973 0.006274463666167671 0.061330449720603995 93 161 0
0.013833172701300297 0.006190550532017275 0.06146369716030609 82 172 0
0.014339726519893407 0.0061228392592725675 0.06199320783054286 25 229 0
0.0025460482554781816 0.008663992258777804 0.06293004678413887 0 143 111
0.003159108670646758 0.008521979464103133 0.061642299524785484 0 241 13
0.0037426228603166774 0.008400578815459067 0.060858681721290254 73 181 0
0.004291870310762566 0.008303083182478537 0.06065972790951143 100 154 0
0.004868785695142583 0.008186286016545627 0.05998870154752751 181 73 0
0.005383128234218859 0.008113141148095172 0.06038531796975997 139 115 0
0.0059411065151790355 0.008009554953597653 0.06003740400137121 183 71 0
0.006480342282631986 0.0079190439800081 0.06000928225606158 190 64 0
0.007021638799100267 0.00782709537914401 0.059945999191083316 202 52 0
0.007555108119766108 0.0077406072152788 0.06001626685531609 198 56 0
0.00809640463623439 0.007648658614414711 0.059952983790337824 209 45 0
0.008633672189482432 0.0075595207136263855 0.05995844449894193 212 42 0
0.00916524096884535 0.007474358412344699 0.060061139955107805 205 49 0
0.00968494776786068 0.007397471309231649 0.06036622923982888 174 80 0
0.01023128294422571 0.007302007619998827 0.060216974554816886 195 59 0
0.010750989870923095 0.007225120495921424 0.060522063847878366 164 90 0
0.011292286326752577 0.007133171937360398 0.060458781817543446 175 79 0
0.01181729908149974 0.007052583273979304 0.06067333877433592 154 100 0
0.0123545666654611 0.006963445335801436 0.0606787984463419 158 96 0
0.012871587648704708 0.006888431920258295 0.061029714154271976 122 132 0
0.013401208195948778 0.0068046287688292 0.06116565166877394 110 144 0
0.013932776975311697 0.006719466467547513 0.06126834712493981 102 152 0
0.014442032676963782 0.006649870297248913 0.061751757191349024 51 203 0
0.014928398164711464 0.006596242813688561 0.06262572700847553 0 225 29
0.002687136755141188 0.009163967674223625 0.062026876025577674 0 209 45
0.003226642729091675 0.009073268198187764 0.06199414390949228 0 214 40
0.003822896918629175 0.008942979824182217 0.060993151159029015 56 198 0
0.004376950115336926 0.008842131588895852 0.06071219979233085 92 162 0
0.004943472918796722 0.00873258453332212 0.06021849578120055 153 101 0
0.005484927156786569 0.00864052590219258 0.060152521608864175 164 90 0
0.00602064466100183 0.00855246935228678 0.060184429870827796 164 90 0
0.006562098838352876 0.008460410763460303 0.06011845673313477 176 78 0
0.007103553076342724 0.008368352132330763 0.06005248256079839 188 66 0
0.007657606723139887 0.008267503855490051 0.05977153226210519 224 30 0
0.008193324227355147 0.008179447305584248 0.059803440524068815 224 30 0
0.00870390519000447 0.008108926601855653 0.060264238460023746 175 79 0
0.009260637313283398 0.008006209756443155 0.059937586929836806 217 37 0
0.009790415428850919 0.007922296664595822 0.06007083540418225 206 48 0
0.010329921402801406 0.00783159718855996 0.06003810328809687 213 41 0
0.010840502371855179 0.007761076548473137 0.06049890330167891 165 89 0
0.011386564309782616 0.007665803476839747 0.06035431071961027 185 69 0
0.011908391041283118 0.007587437458663202 0.06062322887275132 158 96 0
0.012485662345499896 0.007470391978667189 0.05994612915233737 240 14 0
0.012973222876828948 0.007415930871472808 0.060799710813104445 146 108 0
0.013476306004924917 0.007350640851569798 0.06138844033231173 83 171 0
0.014033038128203845 0.0072479240061573 0.06106178880212478 124 130 0
0.014551927607139047 0.007171607084871574 0.06138082352726351 91 163 0
0.015076666995766569 0.007091209060054264 0.06160004257865894 70 184 0
0.015587247897777089 0.0070206883986287305 0.06206084154925723 21 233 0
0.003302968352511742 0.009618423728519735 0.062195983114442195 0 198 56
0.0038831688439393596 0.009499334794178221 0.06146890494887282 0 254 0
0.004449484146123512 0.009389932223965596 0.06097873265946239 59 195 0
0.005028039658475286 0.009271990865950881 0.06027972178141982 144 110 0
0.005565307211723325 0.009182852965162556 0.06028518249002393 147 107 0
0.0061145552335362275 0.009085357206021554 0.06008622767696336 174 80 0
0.006639567927644593 0.009004768584943524 0.06030078566839919 153 101 0
0.007194676143831047 0.008903184615543621 0.06000184188717429 192 62 0
0.007746861327251048 0.008803639822966393 0.05975277205408107 224 30 0
0.008278430106613966 0.008718477521684706 0.059855467510246944 216 38 0
0.008808050621937524 0.008634674375496698 0.059991405022663806 205 49 0
0.009347286268112872 0.008544163486513271 0.05996328534664088 212 42 0
0.009869664206315038 0.008465412933498992 0.06022279859171378 186 68 0
0.010410960783422121 0.00837346429033184 0.06015951449209216 198 56 0
0.010935973665851341 0.008292875605986395 0.06037407145722504 177 77 0
0.01147324121909938 0.00820373770519807 0.060379532165829156 180 74 0
0.01199026226497682 0.008128724247024297 0.06073044683924619 144 110 0
0.01252752978829938 0.008039586351149493 0.06073590754589552 147 107 0
0.013060999106970188 0.00795309818761185 0.06080617520999798 143 111 0
0.013592567887934217 0.007867935902240606 0.06090887118557063 136 118 0
0.014122188342618976 0.00778413279835566 0.06104480973263084 124 130 0
0.01464720106704674 0.007703544156126098 0.061259367206745 103 151 0
0.015176821454688245 0.007619741030902443 0.06139530471082146 92 162 0
0.015696528193064777 0.007542853970092455 0.06170039503018588 61 193 0
0.016226148678068934 0.007459050845055978 0.06183633305992443 49 205 0
0.016712514384456867 0.00740542327707668 0.0627103013334263 0 224 30
0.003385831899865443 0.010159018248415256 0.06228626965980602 0 190 64
0.003965039461245051 0.010040622005569943 0.06157613326180121 0 245 9
0.0045268579415393565 0.009934356524711467 0.06116268753675422 36 218 0
0.005104129306001015 0.009817311018650403 0.06048558730097338 118 136 0
0.005658182983117579 0.009716462720658159 0.0602046364849585 154 100 0
0.006204244860406216 0.00962118969132783 0.06006004493753321 175 79 0
0.00674185029305378 0.009531816077875494 0.06005974061338092 179 75 0
0.007283304591682428 0.009439757404442892 0.05999376540640119 191 63 0
0.007822810444355312 0.009349058013013157 0.059961035359602496 198 56 0
0.008360415877002876 0.009259684399560823 0.05996073103545021 202 52 0
0.008899921790314564 0.009168984965828023 0.05992799995400817 210 44 0
0.00944137596766561 0.009076926377001547 0.05986202681631514 222 32 0
0.009973215014164866 0.008991575530970491 0.0599601108670619 214 40 0
0.010508932579018929 0.008903518938761627 0.05999201809438218 215 39 0
0.011030759377562684 0.008825152941923792 0.06026093729050697 188 66 0
0.011564566456350447 0.008738429150000695 0.06032544199127005 185 69 0
0.012094344632556769 0.008654516015850298 0.06045868943097215 173 81 0
0.012635798779982334 0.008562457431937343 0.060392716291324346 185 69 0
0.013151765315114253 0.008488179624347265 0.06076162341249941 147 107 0
0.01367650483302494 0.008407781594476046 0.06098084299164201 125 129 0
0.014217959010375987 0.00831572300564957 0.06091486985394898 137 117 0
0.01474773715626291 0.008231809892650705 0.06104811781097276 126 128 0
0.015277515204787179 0.008147896779464661 0.061181365242334466 114 140 0
0.01579640471404178 0.008071579837027405 0.06150039945015152 82 172 0
0.016330211792829542 0.007984856045104308 0.0615649041509146 79 175 0
0.016828784211149108 0.007922712786046306 0.062230596648406106 6 248 0
0.01736638964379667 0.007833339172593972 0.06223029232425382 10 244 0
0.0040269906446901375 0.010595805200016082 0.06202323416394437 0 211 43
0.004599492377997561 0.010482086829068541 0.061427506525136746 4 250 0
0.005165808130271126 0.01037268421730157 0.060937335303731285 64 190 0
0.005730328974033219 0.010264533776183322 0.06047778952554003 121 133 0
0.006288307285312797 0.010160947560534272 0.0601298750398296 165 89 0
0.006827542931488144 0.010070436671550845 0.06010175536380667 172 82 0
0.007368839508595227 0.009978488028383694 0.06003847126418505 183 71 0
0.007902308829261068 0.009891999864518483 0.060108738928417824 179 75 0
0.008441544536075216 0.009801488933231992 0.06008061821775155 187 67 0
0.008987879712440246 0.009706025243999172 0.059931363532739555 208 46 0
0.009512892406548611 0.00962543662292114 0.06014592152417538 187 67 0
0.010054188983655694 0.009533487979753988 0.06008263742455376 198 56 0
0.01057920173840286 0.009452899316372894 0.06029719438134624 178 76 0
0.011112671126111955 0.009366411173846394 0.060367463088562764 174 80 0
0.011635049064314121 0.009287660620832115 0.060626976333635674 148 106 0
0.01215742703283569 0.009208910046666305 0.06088648906138689 122 132 0
0.012709612216649612 0.009109365237851066 0.06063741870901721 155 99 0
0.01324496934247512 0.009021560095373013 0.060675475856290455 155 99 0
0.01377653815375855 0.008936397788850239 0.06077817131454143 147 107 0
0.014306158608443309 0.008852594684965295 0.060914109861601645 135 119 0
0.014835779093447465 0.008768791559928817 0.061050047891340185 124 130 0
0.015367347775447732 0.008683629258459951 0.061152742821843985 116 138 0
0.015892360499875496 0.008603040616230389 0.06136730029595813 95 159 0
0.016423929218599614 0.008517878357251766 0.06146999678676736 87 167 0
0.01695354973392317 0.008434075211063758 0.06160593429918422 76 178 0
0.017478562458350937 0.008353486568834195 0.061820491773298375 55 199 0
0.01798781816000302 0.008283890398535596 0.06230390183970759 4 250 0
0.004138573243657193 0.011116364629955973 0.06162350482341236 0 239 15
0.0046761781655765425 0.011026991100361047 0.061623200465898455 0 242 12
0.0052626316695309995 0.010903539916522039 0.06078943091253158 79 175 0
0.005816685346647563 0.010802691618529793 0.0605084800965167 116 138 0
0.006378504337670082 0.010696426053813908 0.06009503440483132 167 87 0
0.00691801031162057 0.010605726577778047 0.06006230228874593 175 79 0
0.007457516224932256 0.010515027144045251 0.06002957120730389 183 71 0
0.007998970402283302 0.010422968555218775 0.05996359806961086 194 60 0
0.008536575834930865 0.010333594941766437 0.05996329374545857 198 56 0
0.009076081748242553 0.010242895508033641 0.05993056266401653 206 48 0
0.009609888887669117 0.01015617167380748 0.05999506633013625 203 51 0
0.010143695966456881 0.010069447881884385 0.060059571030899324 199 55 0
0.01068975796502312 0.00997417476794793 0.05991497741418733 220 34 0
0.011208647541320975 0.009897857846849385 0.060234012664988144 187 67 0
0.011738425717527297 0.00981394471269899 0.06036726010469025 176 78 0
0.012270264703387752 0.009728593908970995 0.06046534519008036 169 85 0
0.012809770586773957 0.009637894480151716 0.06043261410668354 176 78 0
0.013339548700346444 0.00955398138863195 0.060565862580898674 165 89 0
0.01387526629712102 0.009465924791181999 0.06059776981030405 166 88 0
0.014405044412688542 0.009382011699334666 0.0607310182846495 154 100 0
0.014936883459187799 0.009296660853303608 0.06082910233539627 147 107 0
0.015458710032686847 0.009218294877242947 0.06109802099751859 120 134 0
0.015910740897775562 0.009188620106984947 0.06255782399505107 0 227 27
0.016519844813091166 0.009049367460226401 0.06133758411047462 101 153 0
0.01705365189187893 0.008962643668303304 0.061402088811237696 97 157 0
0.01758343003776585 0.008878730555304441 0.06153533676826148 86 168 0
0.018096526419160878 0.008806455035939006 0.06195321562869575 42 212 0
0.018585748576911698 0.008750834739899613 0.06277844599246624 0 224 30
0.0047455145911054625 0.01157702246052027 0.061944292146258774 0 217 37
