ply
format ascii 1.0
element vertex 765
property float x
property float y
property float z
end_header
0.01990080922571266 -0.0001716380399677843 0.08166177301258008
0.019318399861669482 -5.57264275469066e-05 0.08218112634147934
0.018454635442140845 8.990458072282402e-05 0.07918167034121275
0.017691887526202602 0.0002574472724489775 0.08211996744247609
0.017372137967183336 0.0002981590990050742 0.07911616441537965
0.0168318494139474 0.0004020114349217174 0.07907052905851891
0.016304912821062598 0.0005020411330464367 0.07884580490562183
0.015759618456081745 0.0006073266597109023 0.07886731749067029
0.015190132980153977 0.0007195381275671448 0.07921331469293479
0.014605688762422502 0.0008360322993580197 0.07975995921639346
0.014019312270780997 0.0009530796725369349 0.08033252053049021
0.013492375432625754 0.001053109419444134 0.08010779659179607
0.012909965787412905 0.001169021085565802 0.0806271498475026
0.012309665908533583 0.001290054753618054 0.08138647289470857
0.022654596525523592 -0.0012778711136300774 0.07978971982644678
0.02145386717045646 -0.001035766637498355 0.08131010944934004
0.020803079694701247 -0.0009002782978423558 0.0827466445254325
0.020352390655353738 -0.000822078356646742 0.08149918279436048
0.019865276010023757 -0.0007334497679941984 0.08074030548715663
0.01928183439117022 -0.0006172426199062241 0.08127350484436544
0.018773524550569607 -0.0005225458239557692 0.08079892679234264
0.01823777726964797 -0.0004199936163300985 0.08069238376561684
0.017836404682914045 -0.00035591307165954746 0.07878341545498994
0.017282299857860676 -0.00024810507932184617 0.07892310918414046
0.01674655212101042 -0.00014555278404074397 0.07881656612155309
0.016213464809215077 -4.3762128448837645e-05 0.07867434391226945
0.01567027459245871 6.092097830636897e-05 0.07866763275295639
0.015131986907462078 0.00016420048492376757 0.07859516206135315
0.0145744811311362 0.0002729821518452826 0.07878047097409627
0.013934914178277639 0.00040525801151914363 0.08006649627442478
0.013351472253582212 0.0005214652257312692 0.08059969665830448
0.012762381919585196 0.0006392895802673389 0.08120866054609926
0.0240963129913457 -0.002110123447550589 0.08093152586864745
0.023091745551665963 -0.0019241803396594856 0.0798207207453995
0.02249357723693579 -0.001803757008391275 0.08055144260027942
0.022018773969113465 -0.0017186531375386841 0.07962743423243998
0.021436364591549874 -0.0016027415212468976 0.0801467877426937
0.020848133320154213 -0.001485163090463034 0.08074423254010325
0.020347605557903523 -0.0013926942690717925 0.080165276648191
0.01980731691813695 -0.0012888419083813343 0.08011964245199879
0.019267028768911253 -0.001184989645255834 0.08007400782740072
0.01881941035847686 -0.0011076688713119124 0.07878535242568553
0.0182391639872779 -0.0009923765260784808 0.07927569270484777
0.017747212158126198 -0.0009023630464733631 0.07858169839306482
0.01718899505102008 -0.0007933777033424776 0.07877655173314428
0.016665458725514847 -0.0006943215483184249 0.07850621234286227
0.016125170628207536 -0.0005904693000572132 0.07846057702186308
0.015579876263226685 -0.0004851837733927458 0.07848208960691155
0.015042024519585615 -0.00038202907725628545 0.07840377146728501
0.014472539043657848 -0.00026981760940004117 0.07874976866954951
0.013824246367196168 -0.00013504356563436536 0.0801528354356257
0.013230318889062377 -1.583432614788577e-05 0.0808266825554578
0.012647909239522994 0.00010007734121247197 0.08134603586919777
0.01216854827120998 0.00018648606854919023 0.08048315908491412
0.023477000452605916 -0.0025556303774752764 0.08054778981447733
0.02294391317542283 -0.0024538397317928947 0.08040556714092628
0.022447314852700698 -0.0023624959989375326 0.07977389187193346
0.02190412493313315 -0.002257812955829096 0.07976717980201635
0.02139256876315843 -0.0021621866893952006 0.07933615215807448
0.020849378774366375 -0.0020575036264677098 0.07932944101669219
0.02029527398392526 -0.0019496956440395348 0.07946913428157527
0.019737767945022813 -0.0018409139233807777 0.07965444364065502
0.01921494356496625 -0.0017420615562301917 0.0793745608053638
0.01872994594361973 -0.0016540390738306078 0.07858728704632205
0.01818919274413176 -0.001550053666312742 0.07854789031863872
0.017656104941795536 -0.001448262913155876 0.07840566853776094
0.017115351690389188 -0.0013442774907737182 0.07836627250647873
0.016577063794734375 -0.0012409979452833678 0.07829380156481103
0.016036310508715765 -0.0011370125129916836 0.07825440599779623
0.015490667338732082 -0.001031627123078178 0.07828059723766446
0.0149365622857144 -0.000923819086912761 0.07842029094888418
0.014388404431546063 -0.0008177137402011984 0.07848021260885865
0.013784417535915831 -0.0006956244893401454 0.07928898900252912
0.013092586673937652 -0.0005483854053182028 0.08127605162952055
0.012495700667106945 -0.00042832914123010907 0.0819895818566179
0.024415380380278007 -0.003294608855248479 0.08114830520520447
0.023839946981628186 -0.003180694469254128 0.08157408724399878
0.023319858743618777 -0.0030826254625268192 0.08125750348964814
0.02287604602584895 -0.0030063942196256847 0.07991780702905568
0.02236944614583397 -0.0029121870301151726 0.07942028647072721
0.021829157996608277 -0.0028083347669896723 0.07937465184612913
0.021293759520689473 -0.0027058824226130398 0.07926343016458354
0.020760875659730817 -0.0026041500152154135 0.07911847899146654
0.020202658621849206 -0.0024951646919035807 0.07931333140301118
0.019664806736774464 -0.002392009976713216 0.07923501208478535
0.019167206954995956 -0.002300379439293534 0.07861678207169626
0.018634322638108675 -0.002198646944240476 0.07847183086271771
0.018101438829068398 -0.0020969145517071384 0.07832687899319961
0.01756603996644548 -0.001994462139494127 0.07821565634725766
0.017018085825690397 -0.0018884150947140847 0.07827284859706213
0.016477797220536078 -0.0017845627439331546 0.07822721393660251
0.015935043294242477 -0.0016800045261699433 0.07821465372226097
0.015392289105372308 -0.001575446254669488 0.07820209395425606
0.014837831422697581 -0.0014675372602524009 0.07834651762184432
0.014265099144160957 -0.001354396229302524 0.07873606542846191
0.013680426146582656 -0.0012378365683137667 0.07928577712559641
0.013003676071383656 -0.0010949151298347472 0.08107055539549085
0.01239469261622178 -0.0009713953532235579 0.08194635332082019
0.02379126973007604 -0.0037387435280852987 0.08082892451610546
0.02329047469198989 -0.0036461981853336935 0.08025355369712978
0.02281841641829901 -0.0035618802092656724 0.07929272567384095
0.022272772616340773 -0.0034564947027333082 0.07931891616351575
0.021749948184365823 -0.0033576423207184337 0.07903903402462564
0.021211660727333506 -0.003254362857928749 0.07896656335095319
0.0206709074413149 -0.003150377425637065 0.07892716778393838
0.02013015424182693 -0.0030463920181191973 0.07888777105625504
0.019572648202924484 -0.00293761029746044 0.0790730804153348
0.019076050792059603 -0.002846266739915941 0.07844140521806506
0.018540303055209345 -0.002743714444634838 0.07833486215547769
0.018037191289079695 -0.0026505058201421895 0.07779056649522616
0.017469314033997752 -0.002538754809089782 0.07811498894090427
0.01693356675307612 -0.0024362026014641104 0.07800844591417845
0.01634726632902638 -0.002319177017238233 0.07857998536674139
0.01583200569589704 -0.002222490159002153 0.07819864710297543
0.015291252233832505 -0.0021185046977470427 0.07815925082162875
0.014745609029236564 -0.0020131192979240126 0.07818544252576438
0.014130807042704068 -0.0018879336641374157 0.07913928740519464
0.013440160214732422 -0.00174103358104972 0.0811104665936552
0.012858201436804356 -0.001625250993358967 0.08162377296307075
0.02424018725017845 -0.004388421689932255 0.08070205900400879
0.0236922331007703 -0.004282374642674832 0.0807592513698801
0.02322804867385498 -0.004200310957442826 0.0796928084303275
0.022658563425891523 -0.004088099533414298 0.08003880565052277
0.022185961554792473 -0.004003626010576056 0.07908525680422523
0.021648110125646356 -0.0039004713830411266 0.07900693752186094
0.021128021930902265 -0.0038024023887007234 0.07869035318717604
0.020580067824759435 -0.0036963553538302083 0.07874754497271311
0.020042216395613318 -0.0035932007262952778 0.07866922569034882
0.019499461978778835 -0.0034886424109671086 0.07865666590441314
0.018992862958702728 -0.003394435381903171 0.07815914611420886
0.018450108576480502 -0.003289877076484527 0.07814658586400577
0.017914710135173956 -0.0031874247420174227 0.07803536371819278
0.017356492572139212 -0.003078439311231104 0.07823021702241069
0.016823608832323447 -0.002976706938516818 0.07808526422435777
0.016296671800816148 -0.002876677157691432 0.07786053980346543
0.015730891016007314 -0.002765526325465088 0.0781568476434848
0.015158158772082946 -0.002652385304424738 0.07854639498583497
0.014644993994558288 -0.0025562985133506287 0.07813694113408315
0.014064747274252123 -0.00244100608960614 0.07862728302025056
0.013444171693797502 -0.00231416748036321 0.07965856978383215
0.012725577370507153 -0.002159265988461643 0.08200462094666688
0.02409353746761118 -0.004918420624849641 0.08127104045999041
0.02360642339935272 -0.00482979215853587 0.08051216156371215
0.023115417096454607 -0.004740049341240949 0.0798054906983066
0.022577129639422287 -0.0046367698784512655 0.07973302002463416
0.02208246347662803 -0.004545979325070087 0.07907542795603788
0.02155587951340027 -0.004446050585197039 0.07884597384677226
0.021015126210075535 -0.004342065147950593 0.07880657851189116
0.02048854228146003 -0.004242136417987068 0.07857712393835813
0.019965717970627978 -0.004143284070655534 0.07829724017453207
0.019429970181859334 -0.004040731760510142 0.07819069780834584
0.018891682759439272 -0.003937452307629986 0.07811822667040598
0.01835593500528289 -0.0038349000073941196 0.07801168383995233
0.017810291994039003 -0.00372951464148928 0.07803787602628615
0.017274544274494874 -0.00362696235116294 0.07793133273156508
0.016720439432135376 -0.0035191543538704738 0.0780710266928493
0.016182151519174435 -0.0034158748034253594 0.07799855598331529
0.015624645936200613 -0.003307093170422034 0.07818386537825658
0.015070540883182933 -0.003199285134256616 0.07832355908947632
0.014522383098239106 -0.0030931798073641076 0.07838347982091595
0.013936082902153682 -0.0029761542669659432 0.07895501929140968
0.013332096015176514 -0.0028540650185822705 0.07976379556901328
0.02457898985324923 -0.005578558672404182 0.08065413113528519
0.024016980849146045 -0.005468487790822438 0.08089983433627451
0.02353282516822605 -0.005380706313998883 0.08010127345990012
0.023019660618665706 -0.005284619566752491 0.07969181962607905
0.022503038841290377 -0.00518754301144868 0.07932873891032746
0.021989873379872783 -0.005091456088891423 0.07891928500478332
0.02144958521334096 -0.0049876038208111605 0.07887365061231895
0.020929497053209126 -0.004889534836380284 0.07855706581336665
0.020391645572144627 -0.004786380193981063 0.07847874722740347
0.01985876176310435 -0.004684647801447726 0.07833379535788534
0.019323362900481433 -0.004582195389234714 0.07822257271194341
0.01881019826439045 -0.004486108617214506 0.07781312003879089
0.018244417040959124 -0.004374957702287494 0.078109427610815
0.01774388920083086 -0.00428248885859982 0.07753047276350443
0.017171156798166692 -0.004169347813550805 0.07792001915938901
0.016616699222313385 -0.004061438828278091 0.07806444446984398
0.016076410686383578 -0.0039575864973162116 0.07801880888084953
0.015531116532060909 -0.0038523010095246977 0.07804032171596247
0.014969108203197594 -0.0037422302569487193 0.07828602508681094
0.01440709992625266 -0.003632159519237033 0.07853172776125829
0.013817064531329902 -0.0035140645873775285 0.07915336888138759
0.013268326877127569 -0.0034077932540093753 0.07922106608297186
0.012672282387989916 -0.0032879779119860076 0.07992330948054156
0.02448014791950514 -0.006122245046074641 0.08058184764236256
0.023915727254595218 -0.0060114837033992076 0.08085989937151358
0.023422917142664965 -0.005921224453630174 0.08017742368609004
0.022931910891685236 -0.005831481651199543 0.07947075212428338
0.02238626794966586 -0.005726096305113754 0.07949694338208238
0.02189345689991917 -0.005635836872601712 0.07881446797313629
0.021357709618997536 -0.005533284664976042 0.07870792494641049
0.0208219623380759 -0.005430732457350371 0.07860138191968466
0.02029537837484814 -0.005330803717477322 0.07837192781041905
0.019762291114971183 -0.005229013076749706 0.07822970490473427
0.019219100652944375 -0.005124329921212021 0.07822299395962415
0.01869251670702274 -0.005024401186293737 0.07799353961822483
0.01815176305160615 -0.004920415691120436 0.07795414285467997
0.01760360539078987 -0.004814310378327065 0.07801406499685261
0.017049500127114002 -0.004706502303288693 0.07815375845800786
0.016501342535522236 -0.004600397010314373 0.07821367967164568
0.0159531845226141 -0.0044942916395941486 0.07827360038515455
0.01543036009063915 -0.004395439257579271 0.07799371824626444
0.014813502914917301 -0.004269665220908049 0.07897513016380542
0.01427274948746502 -0.004165679769562467 0.07893573341819131
0.013686449274073467 -0.004048654224209539 0.07950727312081873
0.012992974354435183 -0.0039009444554231965 0.08151638658372888
0.02489922064173627 -0.006763378610057093 0.0808553018110942
0.024372284022892272 -0.00666334890450023 0.08063057800639765
0.02386875608437236 -0.006570021215157611 0.08009185232266916
0.02333335760845356 -0.0064675688707809785 0.07998063064112358
0.02284140623523048 -0.006377555478831294 0.07928663636520217
0.022314469659651802 -0.006277525785661338 0.07906191198017137
0.02178753215490975 -0.006177495912225754 0.0788371877555512
0.021249680725763633 -0.006074341284690824 0.0787588684731869
0.020722744098266573 -0.005974311576656579 0.07853414478455721
0.02018986027192017 -0.005872579179168477 0.07838919314717281
0.019686333262563627 -0.005779251670091485 0.07785046730303367
0.019106086348905406 -0.005663959212428805 0.07834080870700291
0.01857068782106822 -0.005561506853187886 0.07822958772185844
0.01805059920500776 -0.005463437781101578 0.0779130028870446
0.017496141767603477 -0.00535552883546697 0.07805742634042992
0.016958289865222607 -0.005252374115321843 0.07797910725433779
0.016415535904316752 -0.005147815887649105 0.07796654750426366
0.01587524722993792 -0.005043963517049122 0.07792091377233885
0.015305761999280595 -0.004931752097975357 0.07826691076040042
0.014705462080455318 -0.004810718421836334 0.07902623386283814
0.014143453786204256 -0.004700647679169884 0.0792719367694192
0.013651502202322991 -0.004610634248347245 0.07857794224343331
0.013076068444420576 -0.00449671979165656 0.07900372448746516
0.024280268525812908 -0.007208989694360712 0.0804667289093586
0.02376500698082632 -0.007112302660813771 0.08008539057386958
0.02321936396958244 -0.0070069172949089285 0.0801115827602034
0.022732249884017848 -0.006918288823640396 0.07935270409605882
0.022205665938096215 -0.006818360088722109 0.07912324975465952
0.021690404375803496 -0.006721673050220404 0.07874191165130419
0.021157317064008155 -0.006619882394628499 0.07859968944202055
0.020630733152698776 -0.006519953669619739 0.0783702346363538
0.020069779877586312 -0.00641018495863343 0.07860178924369322
0.019554519209844717 -0.006313498090487827 0.07822045144419466
0.019016231296883773 -0.006210218540042711 0.07814798073466069
0.01848964735096214 -0.006110289805124427 0.07791852639326137
0.0179513594380012 -0.006007010254679311 0.07784605568372738
0.01737691702283301 -0.0058933795883260665 0.07825854528231878
0.016850332586370493 -0.005793450755842823 0.07802909136932533
0.01630217504669711 -0.005687345477732792 0.07808901188656203
0.015748069765715116 -0.005579537397739659 0.078228705579851
0.015170555426357993 -0.005465027236173283 0.07868240007170872
0.01460613543668794 -0.005354266022503615 0.0789604519707189
0.013995536719174327 -0.005230283789176877 0.07985791679626733
0.013406446420535727 -0.005112459439404281 0.08046688097871195
0.024720400996906602 -0.007856152687188155 0.08045770061734957
0.024177647105225256 -0.007751594479334471 0.08044513993874061
0.023657557964011665 -0.007653525299773679 0.08012855599660006
0.023150958943935557 -0.00755931827070974 0.07963103620639578
0.022634337287703123 -0.007462241750089272 0.07926795386570824
0.022114249127571286 -0.0073641727656583965 0.07895136906675596
0.021581364354755377 -0.0072624401829499054 0.07880641782191587
0.02104848061493961 -0.0071607078102356204 0.07866146502386294
0.020515596753980948 -0.007058975402837993 0.07851651385074594
0.01998019827806215 -0.006956523058461361 0.07840529216920035
0.01944479987136786 -0.006854070733903782 0.07829406955911994
0.018911915554480574 -0.006752338238850723 0.0781491183501414
0.018366621400157906 -0.006647052751059211 0.07817063118525436
0.01778869130972689 -0.00653242360238877 0.07862989615376405
0.017293949877215952 -0.006441611413451562 0.07797332600945928
0.016751195460381473 -0.006337053098123392 0.0779607662235236
0.016205901340671063 -0.006231767620241404 0.07798227859436913
0.01566060673041977 -0.006126482044794461 0.07800379139362051
0.015117852769513914 -0.006021923817121723 0.07799123164354639
0.014492431916115217 -0.005893697990282396 0.07908751144289036
0.013867010984838944 -0.005765472141146637 0.080183792286836
0.013331612272302767 -0.005663019750464907 0.08007257070342651
0.01262535144061611 -0.005511649361249657 0.08225318649154519
0.024072427871281558 -0.00829345526630429 0.08045839702122048
0.02356087077214347 -0.00819782881960477 0.08002736953768926
0.02304561010440187 -0.008101141951459164 0.07964603173819072
0.022509862823480234 -0.007998589743833495 0.07953948871146489
0.021998306653505516 -0.007902963477399601 0.07910846106752305
0.021483045091212797 -0.007806276438897896 0.07872712296416771
0.020928940266159424 -0.007698468446560195 0.07886681669331821
0.020402356302931666 -0.007598539706687146 0.0786373625840526
0.019875772374316165 -0.007498610976723623 0.07840790801051957
0.01934918842839453 -0.007398682241805338 0.07817845366912024
0.01881344067423814 -0.007296129941569473 0.0780719108386666
0.0182593358664909 -0.007188321954186535 0.0782116043356834
0.017732751430028393 -0.007088393121703291 0.07798215042268995
0.017187108522621272 -0.006983007785527029 0.07800834121622154
0.016660524120771014 -0.006883078962953312 0.07777888683896067
0.016074224135343776 -0.0067660534614281 0.07835042655951886
0.015513270525445582 -0.006656284697469702 0.0785819795060608
0.014952317267639242 -0.006546515991438156 0.07881353388126652
0.014350636371745691 -0.006425086940072957 0.07959138055694429
0.013865638995669607 -0.006337064506455855 0.07880410658369959
0.023970029190022637 -0.008836123580554108 0.0804338209524959
0.023466501182278214 -0.008742795871392435 0.07989509619730223
0.022946413022146377 -0.00864472688696156 0.07957851139834993
0.02242979126207718 -0.008547650336612513 0.07921543045046463
0.021896907504955286 -0.008445917958943464 0.0790704778845454
0.02136150808256698 -0.008343465429346442 0.07895925659554415
0.020837972247602626 -0.008244409371887348 0.07868891677685627
0.020302573754377697 -0.008141957022555952 0.07857769532744438
0.019779037902107218 -0.008042900960142093 0.07830735574089022
0.019236283975813617 -0.007938342742378882 0.07829479552654867
0.018700885078578446 -0.007835890320256344 0.07818357334487414
0.018160596894740495 -0.007732038047221319 0.07813793918454348
0.017627712647077725 -0.007630305571987312 0.07799298704703012
0.017073255105836672 -0.007522396596624126 0.07813741189321767
0.016540370858173895 -0.007420664121390119 0.0779924597557043
0.015985913334238974 -0.007312755150981693 0.07813688436975816
0.015427695857734867 -0.007203769744969192 0.07833173651330755
0.01485496392830545 -0.007090628792530372 0.07872128271291998
0.014239138647751 -0.006965150188560077 0.07968885342617996
0.013608786136379723 -0.006835512422716752 0.08085128343883922
0.012973370081363561 -0.0067044249588590005 0.08208163269774446
0.023807011089394658 -0.009361436489566395 0.08122235632511815
0.023351389419645884 -0.009281824416714247 0.08004104554810634
0.022839833249671163 -0.009186198150280354 0.0796100179041645
0.02231700893883911 -0.009087345802948819 0.07933013414033845
0.021790424975611348 -0.00898741706307577 0.07910068003107283
0.02126384010052634 -0.008887488147891857 0.07887122585008413
0.020737256137298578 -0.00878755940801881 0.07864177174081853
0.02020416886011549 -0.00868576876233643 0.07849954906726746
0.019671081582932407 -0.008583978116654048 0.07835732639371641
0.019132794091287833 -0.00848069864395484 0.07828485618431136
0.018609969237996515 -0.008381846184194058 0.0780049735452923
0.018066779266510586 -0.008277163126221333 0.0779982621717763
0.017518621253602453 -0.008171057755501105 0.07805818288528517
0.01697543128211652 -0.00806637469752838 0.07805147151176917
0.01641447762029994 -0.007956605918705692 0.07828302515471222
0.015853524362493605 -0.007846837212674145 0.07851457952991794
0.015245083465174735 -0.007723472787038435 0.07938309761275056
0.014680663738081249 -0.007612711627106009 0.07966114906542408
0.014047676481264733 -0.007482319530796046 0.08085891992576648
0.013416830407785876 -0.007352540457588247 0.08202797027561912
0.02426045554718115 -0.010012410477327306 0.08103476985726682
0.023733518936990217 -0.009912380774247824 0.08081004593650343
0.0232468633826453 -0.00982388366671757 0.0800450045150414
0.022746335542517038 -0.009731414823029893 0.07946604966773083
0.022219398949632232 -0.009631385124905176 0.07924132551483373
0.02168651517520421 -0.009529652742281363 0.07909637318104822
0.021159577670462157 -0.00942962286884578 0.07887164895642804
0.0206464130516773 -0.009333536101780336 0.0784621960511418
0.020098458893616084 -0.009227489052045531 0.07851938853307996
0.019553164791211802 -0.009122203579118308 0.07854090067179179
0.01902962893894132 -0.009023147516704449 0.07827056108523761
0.018491776967335942 -0.008919992776740271 0.07819224292768032
0.017958893210214044 -0.008818260399071224 0.0780472903617611
0.017404435247656627 -0.008710351345962129 0.07819171470781969
0.016866583766592128 -0.00860719670356291 0.07811339612185651
0.016321289156340835 -0.008501911128115965 0.0781349089211079
0.015766831701630422 -0.008394002177526592 0.07827933260662694
0.015197345997738343 -0.008281790665842635 0.07862532979096065
0.014588362836184919 -0.00815827094649347 0.07950112762263661
0.01395801031616058 -0.008028633178172762 0.08066355775136273
0.013344521525084143 -0.007903823513663555 0.08159978823822442
0.023622074230317588 -0.010452459201651512 0.08090680766413452
0.023127408024258018 -0.010361668635883427 0.08024921617587252
0.022624296292740622 -0.010268460021300302 0.07970492005135357
0.02210903564230515 -0.010171773158109462 0.07932358201972131
0.021582451696383516 -0.010071844423191176 0.079094127678322
0.021036807842506895 -0.009966458901794524 0.07912031886439792
0.020528498388610393 -0.00987176217368045 0.0786457417767715
0.0200019145292194 -0.009771833463535978 0.07841628627470365
0.019444408963551707 -0.009663051835487414 0.07860159543751123
0.01894129718011593 -0.009569843206040004 0.07805730000939338
0.01840300930176724 -0.009466563665504414 0.07798482883559199
0.01782549487587948 -0.009352053479164223 0.07843852448811825
0.017298910543253738 -0.009252124676409559 0.07820906918232257
0.0167379572854474 -0.009142355970378014 0.07844062355752829
0.016197203543500165 -0.009038370450430898 0.07840122795465193
0.015639697960526347 -0.008929588817427572 0.07858653734959323
0.01503571100283234 -0.00880749955951695 0.0793953130378972
0.01441885402911561 -0.008681725559241299 0.08037672532156949
0.013829763752109672 -0.008563901215662157 0.08098568921384698
0.02405670992130606 -0.01109804821916369 0.08097151037424415
0.02350225246659565 -0.01099013926857432 0.08111593405976317
0.023044107416333077 -0.010909804749155688 0.07996847035004424
0.022543579576204814 -0.01081733590546801 0.07938951550273367
0.022003291478897503 -0.0107134836572068 0.07934388018173447
0.021476354886012697 -0.010613453959082081 0.07911915602883737
0.020949417346658387 -0.010513424075736973 0.07889443226848461
0.020409129162820436 -0.010409571802701948 0.07884879810815394
0.019922474485720505 -0.010321074860573029 0.07808375722268239
0.01934454479929973 -0.010206445784693732 0.07854302292345475
0.018804256701992417 -0.010102593536432522 0.07849738760245555
0.01828763453791298 -0.01000551691329233 0.0781343059223076
0.017733177083202562 -0.00989760796270296 0.07827872960782664
0.017220012008489084 -0.009801521107982082 0.07786927666667885
0.01665052676052563 -0.009689309683953555 0.07821527388687413
0.016107772343691148 -0.009584751368625386 0.07820271410093844
0.015527525885961553 -0.009469458998618138 0.07869305554076922
0.014922920926449082 -0.009347192806119415 0.07951012072367075
0.014316137927516355 -0.009224302995704847 0.08035640693319107
0.013770843579841633 -0.009119017473995144 0.08037791928610584
0.023421361531338926 -0.011538965262426206 0.08080286640107455
0.022918248879311223 -0.011445756470054837 0.08025857032089938
0.022437507152234016 -0.011358952411903723 0.07941421677678431
0.021896753952746047 -0.011254967004385856 0.07937482004910097
0.021358466461101473 -0.011151687531686645 0.07930234983969593
0.020825378272061136 -0.011049896710693402 0.0791601270944218
0.02031706878355238 -0.010955199972669801 0.07868555047106279
0.01979803546651321 -0.01085743299095564 0.07835481665853695
0.019254845495027283 -0.010752749932982914 0.07834810528502097
0.0187116554889291 -0.010648066865100662 0.07834139437577237
0.01815755024255936 -0.010540258795017054 0.07848108760479393
0.01763472589711505 -0.010441406437775993 0.07820120430523529
0.01707377218338009 -0.010331637644089016 0.07843275864457945
0.016530582229200286 -0.010226954591071053 0.07842604703892976
0.015956139323491214 -0.01011332382715285 0.07883853706592703
0.015359253629738355 -0.00999326762590089 0.07955206693822058
0.014748654718872685 -0.009869285358655963 0.08044953128157084
0.014180777850494857 -0.009757534415439934 0.0807739546916453
0.023869692086909436 -0.012188475145767257 0.08068387463059135
0.023336808225950776 -0.01208674273836963 0.08053892345747435
0.022842065864276468 -0.011995930369166793 0.0798823534735802
0.022325444208044037 -0.011898853848546323 0.07951927113289269
0.02179004569751298 -0.011796401494260166 0.0794080499156145
0.021257161871166573 -0.011694669096772066 0.0792630982782301
0.02073022436642452 -0.011594639223336482 0.07903837405360992
0.020210136206292684 -0.011496570238905608 0.07872178925465763
0.019686600336716074 -0.011397514171536985 0.07845144990023716
0.019143846375810222 -0.011292955943864248 0.07843889015016303
0.01860109244951662 -0.011188397726101038 0.07842632993582146
0.01806324056444188 -0.011085243010910673 0.07834801061759565
0.01752048660353602 -0.010980684783237937 0.07833545086752151
0.016977732186701545 -0.010876126467909768 0.07832289108158583
0.01649837141938648 -0.010789717780030067 0.07746001419636443
0.01587295025149283 -0.01066149188458921 0.07855629513844616
0.015259461699197037 -0.010536682267004443 0.07949252549815505
0.014650478064408863 -0.010413162455045087 0.08036832352610317
0.014133856390870302 -0.010316085929469853 0.08000524141754935
0.02323407120989625 -0.012629314187002047 0.08051888560267814
0.02271880966490967 -0.012532627153455106 0.08013754726718912
0.02223381249949177 -0.012444604758710953 0.07935027354400892
0.021653298921681857 -0.012329235911936208 0.0798441979675729
0.021147690885087375 -0.012235312602513374 0.07933338573716571
0.020590184424868558 -0.012126530804108712 0.0795186945961165
0.020095519122013166 -0.012035740411174108 0.07886110329564443
0.019572694741956602 -0.01193688804402352 0.0785812204603532
0.019029504839695184 -0.011832205005869845 0.07857450815830237
0.018483861811145173 -0.011726819635010242 0.07860070057676988
0.01793821846511556 -0.01162143421613331 0.07862689110230624
0.01739993088694035 -0.011518154718660287 0.07855442205356972
0.016832053649164534 -0.011406403712562642 0.07887884426711413
0.01628389609218502 -0.011300298429497849 0.07893876501648453
0.015697595668135285 -0.011183272845271968 0.07951030446904747
0.015086997135320664 -0.011059290643386038 0.08040776989286096
0.014512554246917721 -0.0109456598844226 0.08082025968772451
0.023661713062047226 -0.013272900860901334 0.08067739934623051
0.02314509135389641 -0.013175824325416575 0.08031431770194408
0.02263192582325431 -0.013079737383040267 0.07990486472493478
0.022115304167021878 -0.012982660862419795 0.07954178238424726
0.02157745273787576 -0.012879506234884866 0.07946346310188296
0.021042054210038574 -0.012777053875643945 0.0793522421167385
0.020521965138049488 -0.012678984715902205 0.07903565724606311
0.019989081398233723 -0.012577252343187921 0.07889070444801019
0.01943462385699267 -0.012469343367824733 0.07903512929419773
0.018921459307432328 -0.012373256620578338 0.07862567546037667
0.01837870534652647 -0.012268698392905602 0.07861311571030254
0.017812924123095143 -0.01215754747797859 0.07890942328232667
0.017299759487004157 -0.012061460705958382 0.07849997060917413
0.016737750982094915 -0.011951389924418977 0.07874567326569071
0.016153306940409368 -0.011834895781591531 0.07929231850348128
0.015680705507932814 -0.011750422341453957 0.07833876992517899
0.015245938789617506 -0.011676780977966808 0.07687773601643141
0.014411031748942649 -0.011488579050892905 0.08078393103772767
0.013744290792472396 -0.01134852321247759 0.08243445624823115
0.02303082627625334 -0.013715095277565276 0.08044891014337574
0.022519269229033634 -0.013619468845730046 0.08001788196344341
0.022004008543985907 -0.01352278197262968 0.07963654439607856
0.021477424701901043 -0.013422853267439971 0.07940708866187701
0.02092331987684767 -0.013315045275102268 0.07954678239102751
0.020417710928395942 -0.013221121790368572 0.07903597008889725
0.019884623651212855 -0.013119331144686193 0.07889374741534619
0.019338980639968972 -0.013013945778781351 0.07891993960168
0.018800693182936656 -0.012910666315991666 0.07884746892800755
0.01826494590201502 -0.012808114108365997 0.07874092590128172
0.017697068664239205 -0.012696363102268352 0.07906534811482614
0.017158781086063994 -0.012593083604795328 0.07899287906608962
0.01661313774003438 -0.012487698185918397 0.07901906959162597
0.016045260940881063 -0.012375947262521423 0.07934349207316561
0.015575426948583522 -0.012292266143496081 0.07835282276199883
0.014842738894326035 -0.012133329579757938 0.08088792160076426
0.023456648267938775 -0.014358160923447735 0.08063183437092127
0.022929711605829458 -0.014258131205503965 0.08040711114655898
0.022423111760426745 -0.014163924025902979 0.0799095901239631
0.02189617509831743 -0.014063894307959207 0.07968486689960083
0.02138957616477196 -0.013969687303669084 0.07918734594872802
0.020831359092278092 -0.013860701970447723 0.07938219882454008
0.020304421552923783 -0.013760672087102615 0.0791574750641873
0.01977153772657738 -0.013658939689614517 0.0790125234268029
0.01922878385220216 -0.013554381486715592 0.07899996251606023
0.018674326310961113 -0.013446472511352404 0.07914438736224778
0.018157704620116424 -0.01334939598082241 0.07878130548582767
0.017609750058044965 -0.013243348858296464 0.0788384972355032
0.01704774195714596 -0.013133278149548202 0.07908420062428244
0.016504987644148247 -0.013028719863948612 0.07907163944554453
0.015932255610882063 -0.012915578881781214 0.07946118703795918
0.015329810767610901 -0.012793931132895417 0.08024927775609794
0.014784516621941298 -0.012688645647581284 0.08027079047514403
0.014078255624354103 -0.012537275221587887 0.08245140695069844
0.02281967247688556 -0.014798612051329488 0.0804850193228887
0.022304410879980596 -0.014701925002918257 0.08010368168380079
0.02178915024685125 -0.014605238144682179 0.07972234342003484
0.021228197058269425 -0.014495469458469686 0.07995389686670573
0.020709163741230253 -0.014397702476755526 0.07962316305417991
0.020173415548451368 -0.014295150093818992 0.079516619955731
0.01966185937847665 -0.014199523827385098 0.07908559231178915
0.01912611206294276 -0.014096971609849901 0.07897904974933073
0.018580469086311134 -0.013991586253854585 0.07900524147139715
0.01806143573465971 -0.013893819262230902 0.07867450812313871
0.01748699286356289 -0.013780188508222223 0.07908699768586859
0.01694870540653057 -0.01367690904543254 0.07901452701219613
0.01637426251812763 -0.0135632782864691 0.0794270168070597
0.015777376807068644 -0.01344322208026238 0.08014054691148696
0.015143952896360677 -0.013312704990910399 0.08134417170166562
0.023236031391440055 -0.015438968408008735 0.08079487542087446
0.022719409700595366 -0.01534189187747874 0.08043179354445433
0.02220624415264714 -0.015245804930147669 0.08002234079957873
0.021673360412831372 -0.015144072557433382 0.0798773880015258
0.02114642381994657 -0.015044042859308665 0.07965266384862871
0.020619487244367893 -0.01494401316613871 0.07942793946359791
0.02008660247155198 -0.014842280583430217 0.07928298821875783
0.019559665878667178 -0.014742250885305501 0.07905826406586075
0.01903272928578237 -0.01464222118718078 0.07883353991296364
0.018512641142956667 -0.014544152207704667 0.07851695488187764
0.017950633042057663 -0.014434081498956405 0.07876265827065687
0.017405338431806368 -0.014328795923509462 0.07878417106990827
0.01684333029629511 -0.014218725204851675 0.07902987492295493
0.016273844678933672 -0.01410651371794153 0.07937587094662013
0.015693598186591818 -0.013991221338024757 0.07986621285071831
0.015093297987883844 -0.01387018760319373 0.08062553663162636
0.01442882233970694 -0.01373078032498945 0.08224567639616766
0.022117127258888265 -0.01579227559326945 0.07981961162832668
0.021568969667296496 -0.01568617030029513 0.07987953284196452
0.021042385704068734 -0.015586241560422083 0.07965007873269889
0.020506638440453227 -0.015483689357751174 0.07954353547383937
0.01997355025141289 -0.015381898536757931 0.07940131272856522
0.019454516882455336 -0.015284131540179484 0.07907057961244052
0.018931692502398772 -0.015185279173028894 0.07879069677714928
0.01839340504536646 -0.01508199971023921 0.07871822610347684
0.0178502150565744 -0.014977316647311723 0.07871151496209453
0.017266772999098363 -0.014861109416523079 0.0792447140513081
0.016712668174044994 -0.014753301424185378 0.0793844077804586
0.01614479091896305 -0.01464155041313297 0.07970883022613671
0.015547905181944873 -0.014521494199494105 0.08042236067876453
0.014884544743317643 -0.014382406249865809 0.08202753555996531
0.022510364791331047 -0.016426012428757283 0.08043961537497066
0.021993742223241373 -0.01632893573282595 0.08007653296256007
0.021466805595744314 -0.016228906024791705 0.07985180927393039
0.020928954080067556 -0.01612575137248296 0.07977349115223462
0.02039110265092144 -0.016022596744948027 0.07969517186987032
0.019877937189503845 -0.015926509822390772 0.0792857179643262
0.01934505336315744 -0.01582477742490267 0.0791407663269418
0.01882843167231275 -0.015727700894372674 0.07877768445052166
0.018285677711406895 -0.015623142666699934 0.07876512470044753
0.017731220256696482 -0.015515233716110566 0.07890954838596655
0.0171617345528044 -0.015403022204426606 0.07925554557030029
0.016618980591898546 -0.01529846397675387 0.07924298582022615
0.016036570793018592 -0.015182552282716177 0.07976233883035092
0.015474562692119586 -0.015072481573967917 0.08000804221913016
0.014876394859277234 -0.014952058337787281 0.08073876376167105
0.021862393411152137 -0.016863315352117055 0.08044027665333557
0.021361598364412922 -0.016770770006888064 0.07986490595042674
0.020793721582565733 -0.016659019088445852 0.08018932819983268
0.020257974301644097 -0.01655646688082018 0.08008278517310687
0.019735149009730283 -0.01645761433835873 0.07980290226609255
0.01923435403221558 -0.016365069012948794 0.07922753063464891
0.018696066540571005 -0.016261789540249583 0.07915506042524385
0.018135113282764667 -0.016152020834218038 0.07938661480044958
0.01758947037535755 -0.016046635498041778 0.07941280559398115
0.017035365094375556 -0.01593882741804864 0.07955249928727012
0.01650227781719247 -0.015837036772366263 0.07941027661371906
0.01591597735853048 -0.015720011178230856 0.07998181653054942
0.015396944041491311 -0.0156222441965167 0.0796510827180236
0.014746156131440131 -0.015486755775398719 0.08108761746808736
0.021745810116325807 -0.01740192283741672 0.08060596363824923
0.021239211113555825 -0.01730771581330754 0.08010844361591124
0.020696457256486736 -0.017203157615363385 0.08009588247303487
0.020151163032939557 -0.017097872107752817 0.08011739623668263
0.01961331069193619 -0.016994717304907023 0.08003907688259526
0.01908637406443913 -0.01689468759687278 0.07981435319396558
0.01854608596713182 -0.016790835348611567 0.07976871787296638
0.018005797748681617 -0.016686983065667016 0.07972308417690312
0.017467946319535497 -0.016583828438132085 0.07964476489453882
0.016930094434460755 -0.01648067372294172 0.079566445576313
0.016384800297444217 -0.016375388240104972 0.07958795817929223
0.01584694839506335 -0.016272233519959843 0.0795096390932001
0.015253021062689765 -0.01615302430076596 0.08018348733359808
0.014670611255156743 -0.016037112604250885 0.08070284045978969
0.014072443938814462 -0.015916689473067354 0.08143356122572416
0.02108956928323181 -0.017836858121720603 0.08071755855204481
0.02058645754306135 -0.0177436495046601 0.08017326254359271
0.02000301590690168 -0.01762744235161736 0.08070646213293521
0.01946226171767889 -0.017523456746492194 0.08066706637813048
0.018914104126087117 -0.017417351453517874 0.0807269875917683
0.018451250350020862 -0.017335668735061125 0.07964269612378914
0.017854364517818987 -0.017215612494171063 0.08035622785315234
0.01733154020698693 -0.01711676014683953 0.08007634408932629
0.01679845247387522 -0.017014969413501717 0.0799341213799137
0.01626270521025971 -0.01691241721083081 0.07982757812105418
0.015714547076208684 -0.016806311805427243 0.07988750045949898
0.01512824717731208 -0.016689286328675848 0.08045903901938864
0.01458008906922024 -0.016583180930704423 0.08051896100963289
0.014015669402698203 -0.016472419788113667 0.08079701164983845
0.01345471568896324 -0.016362650994426693 0.08102856598918262
0.012890295944563626 -0.0162518898295395 0.08130661767398985
0.012332790153094887 -0.01614310815828257 0.08149192678984996
0.011722191489662923 -0.016019125940439465 0.08238939088998057
0.01009809970697737 -0.015706645236599842 0.08229576572921343
0.009571515473937081 -0.015606716446277568 0.08206631139441736
0.009033227807253748 -0.015503436941553487 0.08199384093774953
0.007957013466618236 -0.015296981289403863 0.08184405721812575
0.007396059980847587 -0.015187212539544602 0.08207561157540069
0.005804990498157005 -0.01488418613442065 0.08153904875905023
0.002562035444929365 -0.01426072165541515 0.08128166640574594
0.02045074921195416 -0.018276781471416505 0.08059548094992211
0.019892532191378678 -0.018167796153059433 0.08079033312933305
0.019349777309962506 -0.01806323774759845 0.08077777342360268
0.0188094890915123 -0.0179593854646539 0.08073213972753943
0.018251272088242947 -0.017850400151251593 0.08092699167481665
0.017744673094126032 -0.017756193129619798 0.0804294715364118
0.017217736501241226 -0.01765616343149508 0.08020474738351471
0.016694200175735995 -0.017557107276471026 0.07993440799323272
0.01615391195728579 -0.017453254993526474 0.07988877429716947
0.015616060072211049 -0.01735010027833611 0.07981045497894362
0.015057843051635567 -0.017241114959979043 0.08000530715835456
0.014515088669413341 -0.017136556654560396 0.07999274690815147
0.013977237240267225 -0.017033402027025465 0.07991442762578718
0.013436948565888396 -0.016929549656425482 0.07986879389386238
0.012891654411565728 -0.01682426416863397 0.07989030672897532
0.012307210193834253 -0.016707769996843095 0.080436951252434
0.011774326200094984 -0.01660603757286895 0.08029199878465085
0.011169721477199886 -0.01648377142667532 0.08110906386941631
0.01062696719165369 -0.016379213138215776 0.08109650386031231
0.010086678823116747 -0.01627536083373994 0.08105086910171662
0.00959472719089747 -0.016185347394437756 0.08035687445518118
0.009054438780102377 -0.016081495074513567 0.08031124074398883
0.008519040149509301 -0.015979042705282356 0.08020001834979237
0.007992103328660183 -0.01587901296332992 0.07997529417896451
0.00743009502575606 -0.01576894221818609 0.08022099720161244
0.006875637125262412 -0.015661033172126564 0.08036542225303753
0.006321179666225466 -0.015553124220298501 0.08050984599658999
0.005794242832396755 -0.015453094474629994 0.08028512199986239
0.0052514886608327135 -0.015348536208084303 0.0802725619997238
0.0046970307242344845 -0.015240627162407355 0.08041698599758183
0.0041490766007855244 -0.015134580122582078 0.0804741780152526
0.0036786332597333465 -0.015050724546350158 0.079491682131831
0.0031620115688886586 -0.014953648015820161 0.07912860025541088
0.0026291272866136297 -0.014851915530676628 0.07898364858216494
0.0020563953139188925 -0.0147387745658509 0.07937319536211161
0.0014309741460252444 -0.014610548670410043 0.08046947630419335
0.0009807781003668642 -0.014532489916717512 0.07921539570893552
0.0003324756850322922 -0.014397713052543937 0.0806185977197909
0.019732176509506837 -0.01869387107420283 0.08154315705121899
0.019205591634421825 -0.01859394215901892 0.08131370287023029
0.018659948718361644 -0.018488556820365272 0.08133989377982874
0.018124201446093075 -0.018386004615216982 0.08123335063703606
0.017597617482865317 -0.018286075875343935 0.08100389652777044
0.017089308098193326 -0.01819137916704891 0.0805293185116092
0.01654114998144842 -0.01808527376660011 0.0805892406179203
0.016035541962160067 -0.017991350462132037 0.08007842815537941
0.015540876220682181 -0.017900559986496763 0.07942083658691208
0.014976456493588695 -0.01778979882656434 0.07969888803958561
0.01444336872586473 -0.017688008083317 0.07955666579444041
0.013916784797249225 -0.017588079353353478 0.0793272112209074
0.013376031107220378 -0.017484093848270654 0.07928781492162994
0.012827873463710225 -0.017377988540432043 0.07934773683166887
0.012282230311032668 -0.017272603155473302 0.0793739278394034
0.011766969432632886 -0.017175916248454746 0.07899258978984038
0.011152167498018773 -0.017050730629532437 0.07994643397286952
0.01064385773678806 -0.016956033845586315 0.07947185639407953
0.01008290425101741 -0.016846265095727054 0.07970341075135448
0.009577295964079795 -0.016752341741429103 0.07919259803426641
0.009036542451104045 -0.016648356262248257 0.07915320291638993
0.00850345498463443 -0.016546565581801773 0.0790109799944554
0.0079651672996378 -0.016443286075184374 0.07893850930285219
0.007421977082881431 -0.016338602968429167 0.07893179814353914
0.006873819149343194 -0.01623249760971327 0.07899171933028079
0.006316313600981627 -0.016123715986619474 0.07917702826095467
0.005797280004059763 -0.01602594894621331 0.07884629512689918
0.005270695934010584 -0.015926020197195887 0.07861683937476686
0.004684395475348593 -0.015808994603060483 0.07918837929159721
0.004187798099095966 -0.015717651055425507 0.07855670363006007
0.0036547103313720004 -0.015615860312178171 0.07841448138491489
0.0031090673201281177 -0.015510474946273329 0.07844067357124869
0.0025481136410054105 -0.015400706162495878 0.07867222744632546
0.001987160452423583 -0.015290937476283385 0.07890378089299635
0.001426206730035556 -0.015181168680119025 0.07913533534840739
0.0008830162939679393 -0.015076485532013486 0.07912862405509669
0.0003255107283002452 -0.014967703903964924 0.07931393321790427
-0.00023890985007904214 -0.014856942586063307 0.07959198378638677
0.019548497001915115 -0.019213268841320318 0.08260883118279982
0.019061841427019166 -0.01912477172790628 0.08184379003699656
0.018534904816828235 -0.019024742024826798 0.08161906611623318
0.018028305827037846 -0.018930535004433695 0.0811215459197949
0.017490454397891732 -0.018827380376898763 0.08104322663743062
0.01697728977045381 -0.01873129360735594 0.08063377384821122
0.016450352721640384 -0.01863126382157579 0.0804090496594526
0.015926816843410713 -0.018532207751729785 0.08013871042109899
0.015403280483293227 -0.018433151586796204 0.0798683714950844
0.014886658792448538 -0.018336075056266207 0.07950528961866428
0.01437349370042893 -0.01823998819659057 0.0790958369096502
0.013846557124850254 -0.018139958503420612 0.07887111252461941
0.013323020833957278 -0.018040902358306084 0.07860077267007
0.012790136972998616 -0.01793916995090846 0.078455821496953
0.01224738285335296 -0.01783461169922706 0.07844326080041328
0.011702088522984364 -0.017729326182472117 0.07846477292119433
0.011161800076569845 -0.017625473855699847 0.07841913920720031
0.010626401327929087 -0.017523021465400697 0.07830791657022373
0.010091002589433719 -0.017420569067286822 0.0781966953350148
0.009545708202074045 -0.017315283539574955 0.07821820745131315
0.008983699908830151 -0.017205212793847055 0.0784639108249633
0.008448301209012566 -0.017102760404796795 0.07835268935930166
0.007910449551902135 -0.016999605733434148 0.0782743700590066
0.007367695363031969 -0.016895047461933696 0.07826181029100171
0.0068224008840689606 -0.01678976191335537 0.07828332286708477
0.006284549454922843 -0.01668660728582044 0.07820500358472049
0.005739255089941993 -0.016581321759155974 0.07822651616976894
0.005196500883765696 -0.016476763482700756 0.07821395663389774
0.004672964610178847 -0.016377707342540994 0.07794361654721463
0.004110956509279843 -0.01626763663379273 0.07818931993599387
0.0035682021270576183 -0.01616307832837409 0.07817675968579078
0.0030137446204288217 -0.016055169362920427 0.07832118406771092
0.0024442589165367423 -0.015942957851236467 0.07866718125204465
0.001889801461826329 -0.015835048900647096 0.07881160493756367
0.0013203157665873132 -0.01572283739144052 0.07915760200583055
0.0007658578472952123 -0.015614928350718333 0.07930202577155489
0.00020764074018909191 -0.015505943007587447 0.07949687911163435
-0.0003468176436846977 -0.015398033876732449 0.07964130295756401
-0.0009163028916481517 -0.01528582245270392 0.07998730017775928
-0.0020919560246859194 -0.015050897326022848 0.08117133285018928
0.018927871202768183 -0.019658401799001524 0.08224269337245597
0.01840504679458916 -0.01955954942379945 0.08196281091438203
0.01789349062028791 -0.019463923156126862 0.08153178332847359
0.01737445730324874 -0.019366156174412702 0.08120104951594777
0.01685542396025038 -0.0192683891852664 0.08087031605162248
0.016332599098306 -0.019169536723028235 0.08059043352867029
0.01580977477882088 -0.01907068437321932 0.08031054988091109
0.015283190376970627 -0.018970755550645604 0.08008109550365022
0.01479218410868477 -0.018881012743260206 0.07937442417397729
0.01425643637183451 -0.018778460447979105 0.07926788111138992
0.013769322268963794 -0.01868983197175581 0.07850900267937908
0.013201444944657342 -0.01857808094088435 0.07883342605359199
0.012727186594876403 -0.018493133080655547 0.07790210849179027
0.012208153049872921 -0.01839536605511367 0.07757137466133368
0.011633710406740416 -0.01828173534493271 0.0779838642419943
0.01109542268713153 -0.018178455828405785 0.0779113940146585
0.010549779385859563 -0.018073070411623662 0.07793758547769504
0.010009025923795026 -0.01796908495036855 0.07789818919634836
0.009470738095276682 -0.017865805408020408 0.07782571966093096
0.008864499752815946 -0.01774307155143094 0.07866469758989472
0.008371689442946102 -0.017652812264420423 0.07798222177215455
0.007830935980881564 -0.017548826803165316 0.07794282549080787
0.007285292776285625 -0.017443441403342284 0.07796901719494351
0.006737134842747388 -0.017337336044626388 0.07802893838168518
0.00619638155672878 -0.017233350612334705 0.07798954281467037
0.005660634047842835 -0.01713079836088132 0.07788299977001377
0.0051124762282867536 -0.01702469302407928 0.07794292096572084
0.0045692857835660725 -0.016920009873496362 0.07793620978847698
0.004004866143003226 -0.01680924873833775 0.07821426008048199
0.0034567080089521938 -0.016703143332934184 0.07827418241892681
0.0028992025471212667 -0.0165943617346142 0.07845949018893214
0.002334782329486901 -0.01648360047711682 0.07873754207001155
