ply
format ascii 1.0
element vertex 668
property float x
property float y
property float z
property uchar red
property uchar green
property uchar blue
end_header
0.02270323191017158 -0.017189491577077453 0.06564009255346749 99 155 0
0.022908285670262242 -0.016666591886184953 0.06560125926063481 71 183 0
0.023107422496153416 -0.016172894320064864 0.06549092131936572 54 200 0
0.023362104216174573 -0.015405063531540395 0.06605182872961661 0 183 71
0.01910857928212628 -0.023968801725670327 0.07095869661173132 0 41 213
0.019506063330597297 -0.022985303559940294 0.07072847857352986 0 14 240
0.019601386155426524 -0.023003964135709914 0.06936357477121845 0 197 57
0.019759175769219234 -0.02271432941801474 0.06875356626319165 7 247 0
0.019950483139333085 -0.022259272934725866 0.06854861133550179 8 246 0
0.020136925730760646 -0.021828225823418774 0.06828486679177827 18 236 0
0.020320866493851654 -0.02140952610364587 0.06799088828742209 35 219 0
0.02053001134590808 -0.020866434986926155 0.06800149720318181 0 252 2
0.020718894405507567 -0.020423343317802975 0.06776724509807101 3 251 0
0.020867730613502423 -0.020177896766552093 0.06704903695281665 94 160 0
0.021051671376593434 -0.01975919704677919 0.06675505844846047 110 144 0
0.02123561210075033 -0.019340497519159665 0.06646107947359539 126 128 0
0.02142205461430966 -0.018909450792159322 0.06619733398885408 137 117 0
0.021620988982804866 -0.018416752423586275 0.0660845494013263 121 133 0
0.02181229635291872 -0.0179616959402974 0.06587959447363645 122 132 0
0.022006056961594092 -0.017494531872885622 0.06570428631147716 117 137 0
0.02219981760920358 -0.01702736761332047 0.06552897861982679 112 142 0
0.022405222204600984 -0.01650273642837097 0.06549438508265507 83 171 0
0.022628808408575007 -0.01588837269201616 0.06567951167172574 14 240 0
0.022864274507803758 -0.015215377664215143 0.06600820318047694 0 184 70
0.01878199059320565 -0.023423093783087656 0.07046761937877227 0 81 173
0.01893400581059245 -0.023161957716661095 0.06978782875537694 0 156 98
0.019057430461730127 -0.023041926021987246 0.06876252839343847 35 219 0
0.0192540653424824 -0.022560576423861473 0.06862195508001001 24 230 0
0.01942799785780845 -0.02219127088190632 0.06820702944090967 61 193 0
0.019617314721312916 -0.021746038239885232 0.067978019745917 66 188 0
0.019809084862313014 -0.021288697821587866 0.06777865728696378 66 188 0
0.02000085474277929 -0.020831358222661994 0.06757929407978633 65 189 0
0.02020929195529771 -0.02029176001922469 0.06758134895102506 29 225 0
0.02035713090488097 -0.02005123528450648 0.06685108919091114 122 132 0
0.020543920516072043 -0.019618475510173088 0.06659153829297677 132 122 0
0.02069824067197782 -0.019345963771826836 0.06593960226672754 212 42 0
0.02091699632035229 -0.01875544050463769 0.06606635281708406 154 100 0
0.021103785931543363 -0.018322680730304297 0.06580680191914967 164 90 0
0.02134087102132762 -0.01764169530534712 0.06615505911802631 67 187 0
0.02150727823417968 -0.01730952974406213 0.06564919210799997 120 134 0
0.021699048336245665 -0.016852189517918136 0.06544982917853787 120 134 0
0.02189568329486617 -0.016370839535485612 0.06530925680612722 109 145 0
0.022161125151541332 -0.015549903619789194 0.06600019833762713 0 211 43
0.018080296873418396 -0.02375043578383904 0.07047720493330616 0 105 149
0.0182792312419136 -0.023257737415265992 0.07036442034577839 0 91 163
0.018394822115587232 -0.023176368132447913 0.06924445077093169 0 236 18
0.018615178033940367 -0.0225779469772629 0.06939054017792744 0 181 73
0.01873914262337944 -0.02245525049959244 0.06837176483335727 61 193 0
0.018928025682978925 -0.02201215883046926 0.06813751272824649 67 187 0
0.019099235886077395 -0.021656288844607702 0.067689688636636 110 144 0
0.019298170215638483 -0.02116359066818803 0.06757690357859934 95 159 0
0.019487053092572384 -0.020720499434129597 0.0673426516662821 100 154 0
0.01968081374018187 -0.020253335174564444 0.06716734397463173 95 159 0
0.019838603392908695 -0.019963700264715896 0.06655733593711383 167 87 0
0.02003236400158407 -0.01949653619730412 0.06638202777495456 163 91 0
0.020218806554077515 -0.0190654892781504 0.06611828276072214 173 81 0
0.02042795166666776 -0.01852239734205919 0.0661288924247061 136 118 0
0.020611892312956424 -0.018103698198746413 0.06583491250882322 152 102 0
0.020789916063979716 -0.01771420098805267 0.06546942841501281 181 73 0
0.021006586362241605 -0.017133969647751428 0.0655709780383961 127 127 0
0.021230172527281512 -0.01651960610354999 0.06575610415695787 59 195 0
0.021394494312152765 -0.01619773285345965 0.06522503527894051 117 137 0
0.02162555672268226 -0.015546471441839838 0.06550050992721947 33 221 0
0.02189674273068856 -0.014697186261433922 0.06626086746996852 0 133 121
0.017624908503634785 -0.02335128717396061 0.07094647219191674 0 25 229
0.01776331235455425 -0.02315732792723515 0.07010219165851518 0 127 127
0.017905588631446846 -0.022944256913735403 0.06930470841040863 0 220 34
0.01809490549495131 -0.022499024271714314 0.06907569871541594 0 225 29
0.01824082211155986 -0.022267986917705266 0.06832220804907592 63 191 0
0.018418495027276407 -0.02188022120106852 0.06795248419960456 93 161 0
0.018610265207210618 -0.021422880590617786 0.06775312221116025 92 162 0
0.018787938083993053 -0.021035115066134414 0.06738339789118002 122 132 0
0.01896187029985117 -0.02066581053570413 0.06696847103334654 160 94 0
0.019148659949976353 -0.020233050569217363 0.06670892060592105 170 84 0
0.019337976813480817 -0.019787817927196274 0.06647991091092838 174 80 0
0.01952476642467189 -0.01935505815286288 0.066220360012994 185 69 0
0.01972140142222651 -0.01887370797827698 0.06607978811109225 174 80 0
0.019908191033417583 -0.018440948203943583 0.06582023721315787 184 70 0
0.020113244793508244 -0.017918048513051087 0.0657814039203252 155 99 0
0.02030256165701271 -0.017472815871029997 0.06555239422533252 160 94 0
0.02051099886953113 -0.01693321766759269 0.06555444909657124 124 130 0
0.02071605262962179 -0.01641031797670019 0.06551561580373857 95 159 0
0.020915189377644732 -0.01591662079488685 0.06540527692145169 79 175 0
0.02115227446742899 -0.015235635369929676 0.06575353412032833 0 239 15
0.02140695618745015 -0.014467804581405206 0.06631444153057921 0 118 136
0.01688686671206488 -0.023858019529859963 0.07051680052192631 0 119 135
0.01709978352807377 -0.023296312927774118 0.07057299026469158 0 78 176
0.017235244037797012 -0.023116880091848896 0.06969314019977788 0 185 69
0.017399565822668266 -0.02279500684175855 0.0691620713217605 0 237 17
0.017567327241894658 -0.022456157801804096 0.0686725695521513 31 223 0
0.01773164902676591 -0.02213428455171375 0.06814150067413392 89 165 0
0.01792295643581388 -0.021679227876271502 0.06793654621695297 89 165 0
0.018094166599978232 -0.021323358082563318 0.06748872165483359 133 121 0
0.018283049698511834 -0.020880266221286765 0.06725447002023169 138 116 0
0.018466990240003138 -0.020461567128731983 0.06696049123816016 154 100 0
0.01865343275356247 -0.020030520401731644 0.06669674575341886 165 89 0
0.018817754616301953 -0.01970864676733455 0.06616567781641927 223 31 0
0.019034424914563843 -0.019128415427033304 0.06626722743980255 170 84 0
0.0191861742898161 -0.01886859138384736 0.06558422418166603 255 0 0
0.019409760376987776 -0.018254228223952677 0.06576934935921001 186 68 0
0.019615165089187522 -0.017729596462543056 0.06573475723356496 157 97 0
0.019806472420367264 -0.017274540171407553 0.0655298018353662 157 97 0
0.020002760320290143 -0.016794903044154708 0.06538503534665752 147 107 0
0.02021567713629903 -0.016233196442068863 0.06544122508942278 101 153 0
0.020428593913373802 -0.01567149003213639 0.06549741436167913 56 198 0
0.02066939518652927 -0.014972163951896522 0.06589058069365153 0 211 43
0.020869108789126546 -0.014475619909074798 0.065787212352459 0 195 59
0.021115888590250813 -0.013746787717424169 0.06625262767794113 0 90 164
0.016383913741420883 -0.023693618740769345 0.07041126164819311 0 130 124
0.016599229950110785 -0.023120070302677435 0.07049644744268593 0 85 169
0.016743300856082177 -0.022898142171536667 0.06972065183162693 0 175 79
0.01688557709404066 -0.02268507135019029 0.06892316811301148 16 238 0
0.01708221201372705 -0.02220372155991114 0.06878259527009192 5 249 0
0.017226282958632554 -0.021981793236616996 0.06800680012954183 106 148 0
0.017413072569823627 -0.021549033462283602 0.06774724923160745 116 138 0
0.017599862181014697 -0.02111627368795021 0.06748769833367307 126 128 0
0.017777535096731245 -0.020728507971313464 0.06711797448420173 156 98 0
0.017961678056684402 -0.020308809873365016 0.06682644187787998 171 83 0
0.018155872508198865 -0.019839504640901954 0.0666563765963477 166 88 0
0.018333545423915413 -0.019451738924265213 0.06628665274687635 195 59 0
0.01852531548704728 -0.018994398890274596 0.06608728934690536 195 59 0
0.01872445235187257 -0.01850070113200113 0.06597695187614516 179 75 0
0.018929506073029116 -0.017977801633262007 0.0659381181128036 150 104 0
0.019128642859986174 -0.017484104259295294 0.0658277797010256 134 120 0
0.019327779608009115 -0.01699040707748195 0.06571744081873872 117 137 0
0.019501712123335166 -0.0166211015355268 0.06530251517963838 155 99 0
0.01976919872184137 -0.015790074108912013 0.06601816689733311 0 249 5
0.019960968784973238 -0.015332734074921396 0.0658188034973621 0 248 6
0.020198053874757496 -0.014651748649964222 0.06616706069623875 0 162 92
0.015711912968403807 -0.023874415739124383 0.07077967893014862 0 98 156
0.01588993675836121 -0.023484918336277267 0.07041419530684712 0 124 130
0.016044670044157106 -0.023210367658474933 0.06976725185049228 0 194 60
0.016231112635584667 -0.02277932054716784 0.06950350730676876 0 203 51
0.016374329171345077 -0.02256160902967558 0.06871738684849815 45 209 0
0.01655235292236837 -0.022172111818981842 0.06835190275468775 74 180 0
0.01673037667339166 -0.021782614608288103 0.06798641866087735 103 151 0
0.016919259732991146 -0.021339522939164926 0.06775216655576656 109 145 0
0.01709728352294855 -0.02095002553631781 0.06738668293246505 137 117 0
0.017281224247105445 -0.02053132600869828 0.06709270395759998 154 100 0
0.017435957350235752 -0.020256775765960692 0.06644576069403867 232 22 0
0.017667019721831125 -0.019605514546494257 0.06672123487180873 148 106 0
0.017853462352192803 -0.01917446724303379 0.06645749079859412 159 95 0
0.018024672516357157 -0.01881859744932561 0.06600966623647474 202 52 0
0.01823007711175456 -0.01829396626437611 0.06597507269930301 172 82 0
0.018418960171354047 -0.017850874595252933 0.06574082059419223 178 76 0
0.018612720818963535 -0.01738371033568778 0.06556551290254183 173 81 0
0.01880402826694562 -0.016928653468092157 0.06536055891586977 174 80 0
0.019024384185298754 -0.016330232312907145 0.06550664832286551 112 142 0
0.019275397759913847 -0.015580504979014132 0.06602322772670546 0 242 12
0.019488314536988616 -0.01501879856908166 0.06607941699896183 0 201 53
0.019631531072749026 -0.014801087051589404 0.06529329654069123 43 211 0
0.019857804944320913 -0.014173458859031433 0.0655109023106474 0 227 27
0.015380192081830685 -0.023354036973975777 0.07022658039080444 0 147 107
0.015546599294682746 -0.023021871412690784 0.0697207133807781 0 195 59
0.015743234292237368 -0.022540521238104884 0.06958014147887634 0 185 69
0.01588163814315683 -0.022346561991379424 0.06873586094547479 35 219 0
0.016059311058873378 -0.021958796274742683 0.06836613709600345 65 189 0
0.016225718271725437 -0.02162663071345769 0.0678602700859771 119 135 0
0.016409861453278298 -0.02120693198829112 0.0675687377573707 134 120 0
0.01658753433006073 -0.020819166463807753 0.06719901343739046 164 90 0
0.01679940167701033 -0.020262639355929694 0.06724252061286676 121 133 0
0.016965808746130913 -0.01993047403755607 0.06673665426614286 174 80 0
0.017155125609635377 -0.01948524139553498 0.06650764457115017 179 75 0
0.017332798525351925 -0.01909747567889824 0.06613792072167883 208 46 0
0.01752211538885639 -0.018652243036877153 0.06590891102668614 213 41 0
0.017747403247243516 -0.018029481045139458 0.06611460167756097 141 113 0
0.017925076162960064 -0.017641715328502713 0.06574487782808963 171 83 0
0.018124212910983005 -0.017148018146689377 0.06563453894580273 155 99 0
0.01832926667107367 -0.016625118455796874 0.06559570565297007 126 128 0
0.018557610818523494 -0.01598727261631972 0.06583833078166405 47 207 0
0.018772927027213396 -0.015413724178227811 0.06592351657615687 0 252 2
0.01903418700957251 -0.014613427264325657 0.0665639212176572 0 119 135
0.019274048004393113 -0.013918741784154986 0.06694572452453919 0 27 227
0.014687238720366147 -0.02363824227154776 0.07034179095788753 0 155 99
0.014880999290107406 -0.023171078396289357 0.07016648232521935 0 151 103
0.015052209532139989 -0.022815208218274426 0.06971865870411778 0 190 64
0.015209999184866815 -0.02252557330842588 0.06910865066659988 0 254 0
0.015377760487290865 -0.022186724844931543 0.068619147485464 49 205 0
0.015548970651455218 -0.02183085505122336 0.06817132292334462 93 161 0
0.01573291141454623 -0.02141215533145046 0.06787734441898843 109 145 0
0.01591685206083489 -0.020993456188137683 0.06758336450310556 125 129 0
0.016100792823925902 -0.020574756468364784 0.06728938599874938 141 113 0
0.016287235415353464 -0.02014370935705769 0.06702564145502588 152 102 0
0.016473677746247202 -0.019712663065122094 0.06676189616307811 163 91 0
0.016657618509338213 -0.019293963345349194 0.06646791765872193 179 75 0
0.016853906409261092 -0.01881432621809635 0.06632315117001322 169 85 0
0.017082663764469264 -0.01817444105485636 0.06657076980961939 90 164 0
0.017228656185798958 -0.017943029578227288 0.06581819522409968 187 67 0
0.01742241683340845 -0.01747586531866214 0.0656428875324493 182 72 0
0.017618704694397212 -0.016996228383562666 0.06549812057323169 172 82 0
0.017814992594320095 -0.01651659125630982 0.065353354084523 162 92 0
0.01800875324192958 -0.01604942699674467 0.06517804639287263 157 97 0
0.018284759948472153 -0.015176349878589636 0.06599666145429248 0 234 20
0.018560766732882955 -0.014303272376127853 0.06681527745673012 0 74 180
0.018747209324310517 -0.013872225264820761 0.0665515329130066 0 83 171
0.014384391139582451 -0.02297536371684133 0.07013761899268851 0 149 105
0.01454711273234327 -0.022661387970440105 0.0695872121990497 0 204 50
0.014713519984129444 -0.022329222217001735 0.06908134565953225 0 252 2
0.014900309595320516 -0.021896462442668338 0.06882179476159789 7 247 0
0.015063031188081336 -0.02158248669626711 0.06827138796795906 69 185 0
0.015229438400933396 -0.02125032113498212 0.06776552095793273 122 132 0
0.015434492161024055 -0.02072742144408962 0.06772668766510005 93 161 0
0.015612165076740604 -0.020339655727452877 0.06735696381562871 123 131 0
0.015789837953523036 -0.019951890202969506 0.06698723949564847 152 102 0
0.015967510686573993 -0.01956412492139751 0.06661751583897067 182 72 0
0.016154300297765066 -0.019131365147064115 0.0663579649410363 192 62 0
0.016359354057855727 -0.018608465456171615 0.06631913164820363 163 91 0
0.016537026973572275 -0.018220699739534874 0.06594940779873229 193 61 0
0.016733661893258665 -0.01773934994925572 0.06580883495581275 182 72 0
0.0169113347700411 -0.017351584424772352 0.0654391106358325 211 43 0
0.01714841989875947 -0.016670598807661807 0.06578736830521803 114 140 0
0.017360287128906728 -0.01611407227624387 0.06583087406916766 71 183 0
0.017572154475856323 -0.015557545168365815 0.06587438124464395 28 226 0
0.01782454199644186 -0.014801036934042507 0.06640756443691129 0 164 90
0.01796083970643154 -0.014617472224106896 0.0655378317247861 16 238 0
0.01388497677381293 -0.0227934986840088 0.07007484326097688 0 153 101
0.014039710137477054 -0.022518947621899713 0.06942790074563981 0 224 30
0.014210920301641408 -0.022163077828191532 0.06898007618352045 8 246 0
0.014378681720867804 -0.021824228788237074 0.06849057441391125 59 195 0
0.01456262236715647 -0.021405529644924298 0.06819659449802838 75 179 0
0.014749064997518144 -0.020974482341463832 0.06793285042481376 86 168 0
0.014923705296113674 -0.0206016836433149 0.06752647816693196 122 132 0
0.015110147887541234 -0.020170636532007808 0.06726273362320845 133 121 0
0.01528478822507088 -0.0197978376417055 0.06685636183583554 169 85 0
0.015478548651080663 -0.019330674009358468 0.06668105386646982 164 90 0
0.01566499120357411 -0.018899627090204752 0.0664173088522374 175 79 0
0.015856298612622076 -0.0184445704147625 0.06621235439505643 175 79 0
0.016040239297844858 -0.01802587107929635 0.06591837494968246 192 62 0
0.01624564397111049 -0.017501239510040102 0.06588378235352853 162 92 0
0.01642958465633327 -0.01708254017457395 0.06558980290815455 178 76 0
0.016634989329598903 -0.016557908605317705 0.06555521031200061 149 105 0
0.016844134364320917 -0.01601481705353324 0.06556581903496679 111 143 0
0.017067720451492595 -0.015400453893638555 0.06575094421251078 43 211 0
0.01733418039633067 -0.014574493359354138 0.06645418908112956 0 151 103
0.013445873395613928 -0.022313977986130405 0.07074091051072949 0 43 211
0.01355294418071825 -0.02227465829877589 0.06951797782741213 0 203 51
0.013715665773479067 -0.021960682552374662 0.06896757103377332 4 250 0
0.013889598172002776 -0.02159137758687963 0.06855264398314628 41 213 0
0.014067271087719324 -0.02120361187024289 0.06818292013367494 71 183 0
0.014244944003435872 -0.020815846153606144 0.0678131962842036 100 154 0
0.01442261691915242 -0.020428080436969403 0.06744347243473225 130 124 0
0.014606760061771168 -0.02000838190395621 0.06715193963561696 146 108 0
0.014790903204389914 -0.019588683370943015 0.06686040683650166 162 92 0
0.014980219924162902 -0.019143450971833297 0.06663139780481141 166 88 0
0.015154152400554836 -0.018774145622031523 0.06621647169520217 204 50 0
0.015348346852069301 -0.01830484038956846 0.06604640641366989 198 56 0
0.015547483600092244 -0.01781114320775512 0.06593606753138301 182 72 0
0.015741678051606707 -0.017341837975292054 0.06576600224985074 176 78 0
0.015953545320688076 -0.01678531125172075 0.06580950848430925 133 121 0
0.016165412667637675 -0.01622878414384269 0.06585301565978555 90 164 0
0.016424525589312556 -0.015439083719926913 0.06646747361771264 0 206 48
0.01663984175906834 -0.014865535473988379 0.06655265894169657 0 161 93
0.01273967581638281 -0.0226635480970826 0.07069606806669469 0 76 178
0.012917699586873159 -0.022274050790312173 0.07033058420813874 0 101 153
0.01305564635128711 -0.022082347424202533 0.06948077990029934 0 203 51
0.013207395726539364 -0.021822523381016593 0.0687977766421628 27 227 0
0.013385419477562655 -0.02143302617032285 0.06843229254835241 56 198 0
0.013569360162785435 -0.0210143268348567 0.06813831310297844 72 182 0
0.013747383913808725 -0.020624829624162958 0.06777282900916803 101 153 0
0.013911705776548206 -0.020302955989765867 0.06724176107216845 159 95 0
0.01411064014504341 -0.01981025762119282 0.06712897648464068 143 111 0
0.014306928006032177 -0.019330620686093345 0.0669842095254231 133 121 0
0.01448156816089623 -0.018957822230855785 0.06657783793084374 169 85 0
0.014670451298363946 -0.01851473017742586 0.06634358676675074 175 79 0
0.014854391944652613 -0.018096031034113082 0.06604960685086787 191 63 0
0.015059796578984132 -0.01757139965701021 0.06601501378420505 161 93 0
0.01524867971645185 -0.01712830760358028 0.06578076262011205 167 87 0
0.01544496761637473 -0.016648670476327437 0.06563599613140335 157 97 0
0.015650372211772134 -0.01612403929137794 0.06560140259423161 127 127 0
0.015870728130125265 -0.015525618136192925 0.06574749200122737 66 188 0
0.016130380990101546 -0.014733252929280537 0.06636847497652278 0 184 70
0.016411294271102446 -0.013835960162496264 0.06724638474527604 0 14 240
0.01242728517175256 -0.022047767560528793 0.07037657130834943 0 88 166
0.012573201827295225 -0.02181673001436637 0.0696230811125183 0 175 79
0.012727521944266889 -0.021544218468173497 0.06897114461576018 0 246 8
0.012893929157118948 -0.0212120529068885 0.06846527760573383 44 210 0
0.013071602072835496 -0.02082428719025176 0.06809555375626249 73 181 0
0.013268236992521887 -0.02034293739997261 0.06795498091334294 62 192 0
0.013427728377530045 -0.020044903850434427 0.06736553787864698 131 123 0
0.013605401215378364 -0.019657138518104435 0.06699581308815784 160 94 0
0.013813838388962671 -0.0191175405068205 0.06699786748888768 124 130 0
0.01396815836220286 -0.018845029203538997 0.066345931655432 203 51 0
0.014157475225707322 -0.018399796561517908 0.0661169219604393 208 46 0
0.014385819451025378 -0.017761950337734006 0.0663595480301511 130 124 0
0.014563492288873697 -0.01737418500540401 0.06598982323966196 159 95 0
0.014775359635823295 -0.016817657897525953 0.06603333041513827 116 138 0
0.014967129776823393 -0.01636031747922859 0.06583396795618505 115 139 0
0.015175566989341815 -0.015820719275791283 0.06583602282742378 79 175 0
0.015430248624762461 -0.015052888788186374 0.06639692981536414 0 206 48
0.01569773524273572 -0.0142218612654949 0.06711258176831333 0 61 193
0.011739800681404532 -0.022304982237973375 0.07055787143921287 0 86 168
0.011945205276801936 -0.021780351053023877 0.07052327790204115 0 59 195
0.012054786592017424 -0.02172864102785598 0.06933068433809468 0 215 39
0.012206535967269679 -0.02146881698467004 0.06864768107995814 41 213 0
0.012397843298449418 -0.021013760693534538 0.0684427256817594 41 213 0
0.01257586704947271 -0.0206242634828408 0.06807724158794899 70 184 0
0.012753890839430114 -0.020234766079993683 0.06771175796464748 99 155 0
0.012945198248478082 -0.019779709404551434 0.06750680350746652 99 155 0
0.013083145051826148 -0.01958800584628842 0.06665699967013601 213 41 0
0.013311902445968436 -0.01894812049089505 0.06690461878025107 134 120 0
0.013503209594482585 -0.018493064634824294 0.06669966357484586 134 120 0
0.013670970935840748 -0.01815421597917659 0.06621016086421888 185 69 0
0.013876375531238152 -0.01762958479422709 0.06617556732704716 156 98 0
0.014040697393977635 -0.01730771115983 0.06564449939004757 214 40 0
0.014261053312330768 -0.016709290004644984 0.06579058879704332 152 102 0
0.014454813959940256 -0.016242125745079834 0.06561528110539294 147 107 0
0.014685876331535633 -0.0155908645256134 0.06589075528316299 63 191 0
0.014941172814494185 -0.014819999551919476 0.06645909254758739 0 190 64
0.01519863672067891 -0.014038437592024349 0.0670536225717376 0 64 190
0.015394924601134733 -0.01355880056084819 0.06690885584777445 0 55 199
0.01142439260113565 -0.02170409408980644 0.07020190906933849 0 104 150
0.011578712718107315 -0.021431582543613565 0.06954997257258036 0 175 79
0.011710776654606174 -0.021268912975920335 0.06862907578209734 37 217 0
0.011902546717738043 -0.02081157294192972 0.06842971238212633 37 217 0
0.012091863620176621 -0.020366340107755256 0.06820070315764255 41 213 0
0.01227600676279537 -0.019946641574742064 0.06790917035852725 57 197 0
0.012435498186737642 -0.01964860783305051 0.06731972779434019 126 128 0
0.012605658881842707 -0.019297917533550115 0.06685922066493187 171 83 0
0.01279985333335717 -0.01882861230108705 0.06668915538339959 165 89 0
0.012994047602206044 -0.01835930750368873 0.06651909029466085 160 94 0
0.013199101323362588 -0.017836408004949608 0.0664802565313193 131 123 0
0.01337303376082041 -0.017467102847301207 0.06606532995120117 168 86 0
0.013584901107770008 -0.016910575739423152 0.06610883712667748 125 129 0
0.013779095520350356 -0.01644127069911346 0.0659387713746363 119 135 0
0.0140043834176716 -0.015818508515222394 0.06614446249602003 48 206 0
0.014252000380128194 -0.01508554464171475 0.06661999470378176 0 191 63
0.014513260323553193 -0.014285247919965969 0.0672603988747732 0 58 196
0.01473201604979589 -0.013694724268470073 0.0673871503661475 0 6 248
0.010723282867130734 -0.02202855377991501 0.07021855225536237 0 127 127
0.010907223630221743 -0.02160985406014211 0.06992457375100619 0 142 112
0.011053216051551438 -0.021378442583513044 0.06917199916548648 0 229 25
0.011220977353975488 -0.021039594120018712 0.0686824959843506 21 233 0
0.011407419984337164 -0.020608546816558243 0.06841875191113599 32 222 0
0.011591360708494059 -0.02018984728893872 0.06812477293627091 48 206 0
0.011769384459517349 -0.019800350078244978 0.0677592888424605 77 177 0
0.011940594623681702 -0.019444480284536797 0.06731146428034113 120 134 0
0.012115234961211347 -0.01907168139423449 0.06690509249296822 156 98 0
0.012308995608820835 -0.018604517134669336 0.06672978480131785 152 102 0
0.012502756034830618 -0.018137353502322304 0.06655447683195212 147 107 0
0.012691639094430105 -0.017694261833199127 0.06632022472684132 153 101 0
0.012885399742039593 -0.017227097573633974 0.06614491703519094 148 106 0
0.013079160389649083 -0.016759933314068824 0.06596960934354057 143 111 0
0.013485857164588303 -0.015730967144344108 0.06585072476706781 93 161 0
0.01374999250917953 -0.01491647931943347 0.06652587743154804 0 200 54
0.014009645388622866 -0.014124114016444395 0.0671468606420979 0 70 184
0.014177406710513972 -0.013785265456873376 0.06665735769621647 0 115 139
0.01040814594809125 -0.02142632769215161 0.06986586604366213 0 145 109
0.010574553160943311 -0.021094162130866616 0.06935999903363578 0 193 61
0.010710850870932993 -0.020910597420931005 0.06849026632151059 49 205 0
0.010942179006794691 -0.020258024562530702 0.06876895219300405 0 222 32
0.011098982730937271 -0.01997325555258287 0.06814702945871531 38 216 0
0.011307419904521578 -0.01943365754129894 0.06814908385944514 2 252 0
0.01145333656006424 -0.019202619995136515 0.06739559366361401 99 155 0
0.011627269036456177 -0.01883331464533474 0.06698066755400478 136 118 0
0.011821463410102411 -0.018364009797178425 0.06681060133145471 131 123 0
0.01201809822499144 -0.01788266005765727 0.0666700296223465 120 134 0
0.012214733105743714 -0.017401310459531496 0.06652945630891806 109 145 0
0.012404050086050522 -0.016956077241050284 0.06630044802545206 114 140 0
0.012622805734424992 -0.01636555397386114 0.06642719857580857 56 198 0
0.012821942482447935 -0.015871856792047796 0.06631685969352169 40 214 0
0.013059027572232195 -0.015190871367090622 0.06666511689239833 0 204 50
0.013320287593525423 -0.014390574261035094 0.06730552200440754 0 71 183
0.013545575471379608 -0.013767812173220715 0.06751121289053681 0 6 248
0.00972761969412999 -0.021649200899212566 0.07013125505166488 0 129 125
0.009895381035488154 -0.02131035224356486 0.0696417523410379 0 175 79
0.010059702898227637 -0.020988478609167766 0.06911068440403831 0 226 28
0.010227464200651687 -0.020649630145673437 0.06862118122290244 19 235 0
0.010416347260251176 -0.020206538476550254 0.06838692911779164 24 230 0
0.01060278989061285 -0.01977549117308979 0.06812318504457703 35 219 0
0.010774000054777206 -0.019419621379381607 0.06767536048245765 79 175 0
0.01095794070106587 -0.01900092223606883 0.06738138056657478 95 159 0
0.011163345374331501 -0.018476290666812584 0.06734678797042085 65 189 0
0.011327667159202755 -0.01815441741672224 0.06681571909240347 123 131 0
0.011521427624146652 -0.017687253592221834 0.06664041159354664 119 135 0
0.011738097922408543 -0.017107022251920588 0.06674196121692992 65 189 0
0.011902419785148026 -0.016785148617523494 0.06621089327993034 123 131 0
0.012115336562222797 -0.016223442207591025 0.0662670825521867 77 177 0
0.012350575162687604 -0.015551569848569615 0.06659302539616645 0 241 13
0.013045289390251047 -0.013590249358365005 0.06743790269990045 0 12 242
0.009407772700225666 -0.021070220350850224 0.06972164949233854 0 156 98
0.00957049425405237 -0.02075624479660237 0.06917124222819082 0 211 43
0.009736901505838546 -0.020424079043164 0.06866537568867338 4 250 0
0.00991457430475275 -0.02003631390298738 0.06829565042767534 34 220 0
0.01011962806484341 -0.019513414212094883 0.06825681713484268 5 249 0
0.01027643178898599 -0.01922864520214705 0.06763489440055394 79 175 0
0.010460574931604735 -0.01880894666913386 0.06734336160143864 95 159 0
0.010657209929159356 -0.018327596494547963 0.06720278969953689 84 170 0
0.010846526792663819 -0.01788236385252687 0.0669737800045442 89 165 0
0.0110333162211893 -0.01744960451325822 0.06671422929940336 99 155 0
0.011252071869563769 -0.016859081246069073 0.06684097984975988 41 213 0
0.011441388849870577 -0.01641384802758786 0.06661197156629389 46 208 0
0.011638023730622853 -0.015932498429462087 0.06647139825286544 35 219 0
0.011856779378997323 -0.015341975162272937 0.06659814880322196 0 234 20
0.012360718971937107 -0.013833081920734864 0.06765441900786841 0 4 250
0.008729057038330186 -0.021284157657386636 0.07000891904603616 0 137 117
0.008907080867221705 -0.020894660062386147 0.06964343589324357 0 163 91
0.009064870442080302 -0.02060502553684435 0.06903342691470787 0 227 27
0.009242894270971823 -0.02021552794184386 0.06866794376191526 0 253 1
0.009400683845830418 -0.01992589341630206 0.06805793478337957 69 185 0
0.009609828919486547 -0.01938280167236422 0.06806854397685463 32 222 0
0.009787852709443953 -0.018993304269517106 0.06770306035355314 61 193 0
0.009971793433600846 -0.01857460474189758 0.06740908137868806 77 177 0
0.010165554003342105 -0.01810744086663918 0.06723377274601988 72 182 0
0.010370958676607738 -0.01758280929738293 0.06719918014986595 43 211 0
0.010538719835300314 -0.017243961076799968 0.06670967763203252 93 161 0
0.010737654164861402 -0.016751262900380294 0.06659689257399586 77 177 0
0.010950570980870288 -0.01618955629829445 0.06665308231676112 32 222 0
0.011144331511677432 -0.015722392615189422 0.06647777321358404 27 227 0
0.011367917715651455 -0.015108028878834612 0.06666289980265472 0 218 36
0.011621065074417698 -0.014347770579255908 0.0672052654465344 0 101 153
0.011817352974340578 -0.013868133452003063 0.0670604989578257 0 92 162
0.008415268075856696 -0.020675278620422947 0.06967252325938499 0 152 102
0.008581675327642872 -0.020343112866984578 0.06916665671986753 0 200 54
0.00874808254049493 -0.020010947305699585 0.06866078970984119 0 248 6
0.0089599498095763 -0.019454420582128273 0.0687042959442997 0 209 45
0.009130110504681366 -0.01910373028262788 0.06824378881489138 0 250 4
0.009316900115872438 -0.018670970508294485 0.06798423791695701 4 250 0
0.009479621708633255 -0.01835699476189326 0.0674338311233182 66 188 0
0.009666411358758441 -0.01792423479540649 0.06717428069589272 76 178 0
0.009863046317378946 -0.017442884812973965 0.06703370832348207 65 189 0
0.010033206868752536 -0.017092194756384942 0.06657320185737618 111 143 0
0.010258494727139661 -0.01646943276464725 0.06677889250825102 39 215 0
0.010447811590644125 -0.01602420012262616 0.06654988281325833 43 211 0
0.010673099487965368 -0.015401437938735095 0.06675557393464206 0 230 24
0.010920716450421962 -0.014668474065227447 0.0672311061424038 0 123 131
0.007745967344753645 -0.020842749974414567 0.07007356986276218 0 115 139
0.007913728686111812 -0.02050390131876686 0.06958406715213519 0 160 94
0.008078050548851292 -0.020182027684369767 0.06905299921513561 0 212 42
0.008261991195139958 -0.01976332854105699 0.06875901929925274 0 226 28
0.00844001494616325 -0.019373831330363248 0.06839353520544234 0 252 2
0.00861803869718654 -0.01898433411966951 0.06802805111163193 26 228 0
0.00880197946027755 -0.01856563439989661 0.06773407260727576 42 212 0
0.008980003211300838 -0.018176137189202867 0.06736858851346536 71 183 0
0.00915802696232413 -0.017786639978509128 0.06700310441965496 100 154 0
0.009329237126488484 -0.017430770184800944 0.06655527985753558 143 111 0
0.009542153759831778 -0.01686906401777984 0.06661146979309439 97 157 0
0.009738441659754658 -0.016389426890526998 0.0664667033043857 87 167 0
0.00995135851469766 -0.015827720096287776 0.06652289351765985 42 212 0
0.010171714355182564 -0.015229299325409514 0.06666898198363781 0 237 17
0.010402776765712055 -0.014578037913789702 0.06694445663191677 0 162 92
0.01065379039872832 -0.013828310291666632 0.06746103674152006 0 49 205
0.007565422022451671 -0.020065379122512387 0.06883053370517371 0 241 13
0.007764558809408728 -0.01957168174854567 0.06872019529339572 0 227 27
0.007942231725125277 -0.019183916031908926 0.06835047144392438 0 253 1
0.008129021336316348 -0.018751156257575532 0.06809092054599 8 246 0
0.008313164478935096 -0.01833145772456234 0.0677993877468747 24 230 0
0.008483325212974274 -0.017980767232908573 0.06733888108797527 69 185 0
0.008657257689366211 -0.017611461883106794 0.06692395497836603 107 147 0
0.008846574552870676 -0.017166229241085705 0.06669494528337336 112 142 0
0.009040768821719548 -0.016696924443687387 0.06652488019463462 106 148 0
0.009275010085904527 -0.016029974285505406 0.06683877048273702 15 239 0
0.009480063845995187 -0.015507074594612908 0.06679993718990436 0 243 11
0.009698819494369657 -0.014916551327423762 0.06692668774026088 0 191 63
0.009946436495760366 -0.01418358726176274 0.06740222041853151 0 84 170
0.006919125902306556 -0.020119314733687672 0.06950958519478166 0 160 94
0.007086887204730606 -0.019780466270193343 0.06902008201364578 0 205 49
0.007264910994688012 -0.019390968867346228 0.06865459839034427 0 231 23
0.0074537941321557305 -0.018947876813916298 0.06842034722625127 0 236 18
0.00764267719175522 -0.01850478514479312 0.06818609512114049 0 241 13
0.007806998976626472 -0.018182911894702777 0.06765502624312311 43 211 0
0.007990939700783364 -0.017764212367083254 0.06736104726825803 59 195 0
0.00815870104214153 -0.01742536371143555 0.06687154455763104 110 144 0
0.008352461689751019 -0.016958199451870392 0.06669623686598067 105 149 0
0.008557866102482832 -0.01643356870198564 0.06666164352160249 75 179 0
0.008778222020835964 -0.015835147546800626 0.06680773292859823 14 240 0
0.008971982668445452 -0.015367983287235477 0.06663242523694786 9 245 0
0.009205196928555273 -0.01470610175076424 0.06693390444139424 0 184 70
0.00941811374456416 -0.014144395148678391 0.06699009418415951 0 143 111
0.009667005857675375 -0.013405137963928069 0.06748103626402528 0 34 220
0.006616275712937182 -0.019456449053257333 0.06930538170548661 0 155 99
0.006768290930323987 -0.01919531298683078 0.06862559108209128 0 230 24
0.0069870465786984574 -0.018604789719641628 0.0687523416324478 0 178 76
0.00717383618988953 -0.018172029945308234 0.06849279073451343 0 187 67
0.007347768666281467 -0.017802724595506456 0.06807786462490419 0 221 33
0.007499783805800041 -0.01754158891338665 0.06739807306049106 46 208 0
0.007689100708238619 -0.01709635607921219 0.06716906383600728 51 203 0
0.007900968055188216 -0.01653982897133413 0.06721257101148359 7 247 0
0.008097602753274903 -0.016058479808273098 0.06707199789084868 0 252 2
0.008302656513365562 -0.0155355801173806 0.06703316459801602 0 226 28
0.00848679965598431 -0.015115881584367408 0.06674163179890072 0 240 14
0.008723884784702682 -0.014434895967256861 0.06708988946828626 0 153 101
0.008894045479807749 -0.014084205667756464 0.06662938233887793 0 194 60
0.0061309737567559084 -0.01920493437894815 0.06941315086276251 0 132 122
0.0062887634094827335 -0.018915299469099603 0.06880314282524462 0 196 58
0.006482523940289878 -0.018448135785994572 0.06862783372206754 0 192 62
0.006678811918080987 -0.017968498274434978 0.06848306817437665 0 183 71
0.006867694977680476 -0.0175254066053118 0.06824881606926586 0 188 66
0.00704571876763788 -0.017135909202464685 0.06788333244596435 0 213 41
0.00723702609881762 -0.016680852911329185 0.0676783770477656 0 214 40
0.007428333546799703 -0.016225796043733556 0.06747342306109352 0 214 40
0.007617216423733602 -0.015782704809675124 0.06723917114877628 0 219 35
0.007806099483333088 -0.015339613140551947 0.0670049190436655 0 224 30
0.008002387383255968 -0.014859976013299102 0.0668601525549568 0 215 39
0.008191270442855458 -0.014416884344175925 0.06662590044984601 0 221 33
0.008435944103049948 -0.013698446689315141 0.06706586359660449 0 119 135
0.00866915836315977 -0.013036565152843904 0.06736734280105088 0 40 214
0.005836351864233907 -0.018501459196518924 0.06930838425301783 0 110 144
0.00599067198120557 -0.01822894765032605 0.0686564477562597 0 181 73
0.006224913284324666 -0.017561997299990695 0.068970338514871 0 100 154
0.0064166834253247635 -0.017104656881693332 0.0687709760559178 0 100 154
0.006615820212281819 -0.01661095950772662 0.06866063764413981 0 85 169
0.006730087209256399 -0.01653612401609932 0.06752466935530586 0 232 22
0.006977704288515337 -0.01580315956613155 0.0680002029745943 0 125 129
0.007151636504373454 -0.015433855035701266 0.06758527611676081 0 159 95
0.0073357796469922 -0.015014156502688074 0.06729374331764551 0 173 81
0.007522569258183272 -0.01458139672835468 0.06703419241971115 0 182 72
0.007721706123008559 -0.014087698970081218 0.06692385494895095 0 168 86
0.007958791134924589 -0.01340671392943079 0.0672721112068098 0 81 173
0.008157927980282819 -0.012913016267234016 0.06716177350079515 0 66 188
0.008373244091637432 -0.012339468309525543 0.06724695811901572 0 21 233
0.005524397749779601 -0.01788352454747842 0.06899416213910367 0 122 132
0.005733542784501616 -0.017340432995693957 0.06900477086206984 0 89 165
0.005927303432111105 -0.016873268736128808 0.06882946317041946 0 84 170
0.006118610880093187 -0.01641821186853318 0.06862450918374739 0 85 169
0.006327755895348145 -0.015875120412825405 0.06863511767145912 0 51 203
0.0064855455286079115 -0.015585485599053542 0.06802510939868676 0 116 138
0.006663569096965612 -0.015195988823424548 0.06765962549766992 0 141 113
0.006838209434495255 -0.01482318993312224 0.06725325371029701 0 174 80
0.007029516882477339 -0.014368133065526615 0.06704829972362494 0 174 80
0.0072183999420768275 -0.013925041396403437 0.06681404761851416 0 179 75
0.007427544976798843 -0.013381949844618973 0.06682465634148033 0 146 108
0.007621305585474217 -0.012914785777207196 0.06664934817932106 0 141 113
0.007810188645073706 -0.012471694108084018 0.06641509607421024 0 146 108
0.008001496093055789 -0.012016637240488392 0.06621014208753818 0 147 107
0.008197783992978668 -0.011537000113235546 0.06606537559882948 0 138 116
0.00843302255450936 -0.010865127946367514 0.06639131797230034 0 54 200
0.008616963220265084 -0.01044642870697805 0.06609733829167191 0 69 185
0.00940054426343967 -0.00853563155632503 0.06549929195977819 0 36 218
0.009591851704643148 -0.008080574704874385 0.06529433798026056 0 36 218
0.009778294233031542 -0.00764952789284392 0.06503059273566886 0 46 208
0.009956317995471432 -0.007260030654958634 0.06466510862980886 0 72 182
0.010169234792013261 -0.006698324148949475 0.06472129813731967 0 31 223
0.010374639484745953 -0.006173692483616541 0.06468670577642018 0 4 250
0.010758067804967308 -0.005259564100662801 0.0642866284288909 0 4 250
0.010951828433109738 -0.0047923999371743365 0.06411132050198606 0 0 254
0.01147798488682307 -0.0036629705881210776 0.06291921987863427 0 92 162
0.011645746228181235 -0.003324121932473372 0.0624297171680073 0 137 117
0.01182968695233813 -0.0029054224048538453 0.06213573819314222 0 152 102
0.012053273078443918 -0.002291059052805786 0.062320863841195104 0 91 163
0.012430953075381381 -0.001405300757823671 0.06185131886529579 0 101 153
0.005469463497932903 -0.01648621944777818 0.06926910389538199 0 9 245
0.005666098398152236 -0.016004869753575717 0.06912853081720799 0 0 255
0.005852888009343308 -0.015572109979242323 0.06886897991927361 0 9 245
0.006030560925059856 -0.015184344262605579 0.06849925606980227 0 35 219
0.006190052069001253 -0.014886311436362204 0.06790981252213651 0 96 158
0.00638918891435948 -0.014392613774165428 0.06779947481612188 0 82 172
0.006545992619035002 -0.014107844860294285 0.06717755184657868 0 148 106
0.0066919092745776655 -0.01387680731413186 0.06642406165074756 0 235 19
0.006907225444333453 -0.013303259068193324 0.06650924697473148 0 189 65
0.007091368625886316 -0.012883560343026759 0.06621771464612507 0 203 51
0.007269041502668749 -0.01249579481854339 0.06584799032614481 0 230 24
0.007460811604734732 -0.012038454592399401 0.06564862739668272 0 229 25
0.007659948430625903 -0.011544757026279311 0.06553828945541362 0 215 39
0.007856583350312293 -0.011063407236000161 0.06539771661249408 0 205 49
0.008022990563164354 -0.010731241674715168 0.06489184960246773 0 253 1
0.008288432380905403 -0.009910305951172121 0.06558279066345875 0 112 142
0.008447923772645846 -0.009612272485021129 0.06499334711005551 0 173 81
0.008659791119595445 -0.00905574537714307 0.06503685428553183 0 135 119
0.008816594804803908 -0.008770976559348616 0.06441493108073419 0 201 53
0.009008364977959513 -0.00831363596504286 0.06421556909944433 0 200 54
0.009192508115940268 -0.00789393744307623 0.06392403630522417 0 214 40
0.009381824990861331 -0.007448704773863596 0.0636950265981819 0 219 35
0.009576019442375794 -0.006979399541400533 0.0635249613166496 0 214 40
0.009775156229332851 -0.006485702167433818 0.06341462290487161 0 199 55
0.009983593357250761 -0.005946104264916072 0.06341667735379984 0 167 87
0.010153754091289942 -0.005595413773262302 0.0629561706949004 0 208 46
0.010331426890204144 -0.005207648633085683 0.06258644543390238 0 234 20
0.010568512018922518 -0.004526663015975135 0.06293470310328791 0 147 107
0.010716350929571662 -0.004286138473410301 0.0622044428726651 0 231 23
0.010900494111124526 -0.0038664397482437328 0.06191291054405869 0 245 9
0.011097129108679146 -0.003385089573657835 0.061772338642156935 0 235 19
0.011308996416694628 -0.0028285626579331517 0.061815845347124344 0 196 58
0.011520863685775994 -0.0022720359343618443 0.061859351581582865 0 158 96
0.011732731032725593 -0.001715508826483786 0.06190285875705917 0 119 135
0.011926925484240056 -0.0012462035940207245 0.06173279347552689 0 114 140
0.012135362677291421 -0.0007066054866601058 0.06173484811151118 0 82 172
0.012350678971311629 -0.00013305709388688764 0.0618200325369382 0 36 218
0.005347003630809218 -0.01542217670594268 0.06872801572500485 0 25 229
0.005535886690408706 -0.0149790850368195 0.06849376361989407 0 30 224
0.005700208370482598 -0.014657211837487152 0.06796269587568803 0 82 172
0.005878232121505887 -0.014267714626793413 0.06759721178187764 0 108 146
0.006052872459035532 -0.013894915736491105 0.06719083999450473 0 140 114
0.006227512835499291 -0.013522116654035424 0.06678446867764072 0 172 82
0.006395274176857457 -0.013183267998387715 0.06629496596701374 0 217 37
0.006559596039596939 -0.012861394363990622 0.06576389803001416 16 238 0
0.006737619790620229 -0.012471897153296881 0.06539841393620374 45 209 0
0.006912260089215761 -0.012099098455147946 0.06499204167832194 81 173 0
0.007096200852306768 -0.011680398735375047 0.06469806317396576 97 157 0
0.007289961422048027 -0.011213234860116644 0.06452275454129759 92 162 0
0.007486249283036792 -0.010733597925017173 0.06437798758207999 82 172 0
0.007677556731018876 -0.010278541057421547 0.06417303359540794 82 172 0
0.007863999290244606 -0.009847494221655019 0.06390928806246823 93 161 0
0.00805044192060628 -0.009416446918194552 0.06364554398925361 104 150 0
0.008246729781595047 -0.008936809983095081 0.06350077703003602 94 160 0
0.008459646590825327 -0.008375103397154218 0.06355696677995573 49 205 0
0.008646089177614894 -0.00794405629689369 0.06329322224112736 59 195 0
0.008834972248630984 -0.007500964600578967 0.06305897012396698 65 189 0
0.009028732896240472 -0.007033800341013814 0.06288366243231658 60 194 0
0.009225020796163351 -0.006554163213760969 0.06273889594360789 50 204 0
0.009413903810096443 -0.006111071653403978 0.0625046438866955 56 198 0
0.009610191710019322 -0.005631434526151131 0.06235987739798679 46 208 0
0.009803952357628811 -0.00516427026658598 0.062184569706336415 41 213 0
0.009978592656224342 -0.004791471568437045 0.061778197448454614 77 177 0
0.01019150947223323 -0.0042297649663512 0.06183438719121988 31 223 0
0.010385270080908601 -0.0037626008989394217 0.06165907902906059 27 227 0
0.010590674715240122 -0.0032379695218365504 0.061624485962397765 0 252 2
0.010811030633593254 -0.0026395483666515366 0.06177057536939352 0 197 57
0.011016435228990654 -0.0021149171817020397 0.061735981832221794 0 171 83
0.01123679114734379 -0.0015164960265170255 0.06188207123921753 0 116 138
0.011442195742741194 -0.0009918648415675286 0.061847477702045815 0 90 164
0.011651340855331437 -0.00044877290547631725 0.061858087366029775 0 56 198
0.011856745652861489 7.585881061461346e-05 0.06182349387131895 0 30 224
0.00505000094904942 -0.014730449021027141 0.06859448357726254 0 8 246
0.005220161480955951 -0.014379759060514804 0.06813397687590221 0 49 205
0.005394093976814944 -0.014010453614636341 0.06771905100154742 0 82 172
0.005568026375338652 -0.013641148649141312 0.06730412395092039 0 116 138
0.0057456992910552 -0.013253382932504571 0.06693440010144905 0 142 112
0.005887975529013684 -0.013040312111158196 0.06613691638283359 0 236 18
0.006074765140204756 -0.012607552336824802 0.06587736548489921 0 245 9
0.006213169030058333 -0.012413592897945969 0.06503308542200655 102 152 0
0.0064319247563010325 -0.01182306924645007 0.06515983691338086 44 210 0
0.0065575382833620265 -0.011692234689065707 0.0641609885615698 185 69 0
0.006727698978467093 -0.01134154438956531 0.06370048143216148 231 23 0
0.00695298683685422 -0.01071878239782762 0.06390617208303631 159 95 0
0.007142303739292798 -0.010273549563653155 0.06367716285855252 163 91 0
0.007338938743579701 -0.009792199472454445 0.06353659043794348 152 102 0
0.007530708845645685 -0.009334859246310454 0.06333722750848136 152 102 0
0.007720025787018378 -0.008889626219982617 0.06310821875450648 157 97 0
0.007976947606746795 -0.008110739627664676 0.06369619789045351 17 237 0
0.008121018508080193 -0.007888811507570469 0.06292040228428968 119 135 0
0.008312788621562775 -0.007431471254234934 0.06272103934277796 118 136 0
0.008509423580183278 -0.006950121271802409 0.0625804669703673 107 147 0
0.008708560367140336 -0.006456423897835696 0.06247012855858931 91 163 0
0.008900330462474036 -0.005999083588304517 0.0622707661478345 91 163 0
0.00908712007366511 -0.005566323813971121 0.06201121524990012 101 153 0
0.009286256860622167 -0.005072626440004407 0.061900876838122135 84 170 0
0.00948045131213663 -0.004603321207541344 0.06173081155658986 79 175 0
0.009695767404024188 -0.00402977334590956 0.06181599593955599 28 226 0
0.009894904268849475 -0.0035360755876360952 0.061705658468795783 12 242 0
0.010103341364565553 -0.0029964779606589122 0.06170771192850783 0 233 21
0.010318657573255455 -0.0024229295225670026 0.061792897723000645 0 188 66
0.01053052492020505 -0.0018664024146889465 0.06183640489847696 0 149 105
0.010738962093789356 -0.001326804403405013 0.06183845929920678 0 117 137
0.010957717761630884 -0.0007362810401391785 0.06196521008481775 0 65 189
0.004555915106205302 -0.014522285877369975 0.06859610169304362 0 2 252
0.004733938674563002 -0.014132789101740978 0.06823061779202676 0 28 226
0.004917879418186952 -0.013714089478044766 0.06793663905241612 0 42 212
0.00507566905144672 -0.013424454664272906 0.06732663077964378 0 107 147
0.005253692841404125 -0.01303495726142579 0.06696114715634227 0 132 122
0.005377657430843197 -0.012912260783755326 0.06594237181177212 7 247 0
0.005523649813238776 -0.012680849499279634 0.0651897967557435 104 150 0
0.005691411154596941 -0.012342000843631929 0.06470029404511651 155 99 0
0.005866051453192471 -0.011969202145482994 0.06429392178723471 191 63 0
0.006040691868590344 -0.011596402870873938 0.0638875509408796 227 27 0
0.006239626198151434 -0.011103704694454264 0.06377476588284293 211 43 0
0.006430933568265288 -0.010648648211165387 0.06356981095515309 211 43 0
0.006629867936760493 -0.010155949842592339 0.06345702636762532 196 58 0
0.006823628591102264 -0.009688785666414375 0.06328171815726764 191 63 0
0.007017389160843524 -0.009221621791155972 0.06310640952459948 186 68 0
0.007213677060766404 -0.008741984663903128 0.06296164303589077 176 78 0
0.007430347430117918 -0.008161752955440114 0.06306319360744629 122 132 0
0.0076142880717685905 -0.0077430538231739 0.06276921369645858 139 115 0
0.007813222451680393 -0.007250355427409308 0.06265642909688121 123 131 0
0.008009510312669159 -0.0067707184923098355 0.06251166213766361 113 141 0
0.008214914947000678 -0.006246087115206965 0.062477069071000785 83 171 0
0.008605810382661741 -0.005295105924801154 0.06216722991885259 67 187 0
0.00880209828258462 -0.0048154687975483085 0.06202246343014389 56 198 0
0.009007502955850254 -0.004290837228292061 0.06198787083398996 27 227 0
