ply
format ascii 1.0
element vertex 722
property float x
property float y
property float z
end_header
0.0015395118258027854 -0.010491841275761797 -0.004341079853475093
0.0018161132334797206 -0.010012753584220274 -0.004272024612873792
0.002092714408326012 -0.009533666295953253 -0.004043042659759521
0.0023693158160029474 -0.00905457860441173 -0.003585726721212267
0.002645916990849239 -0.00857549131614471 -0.003516671480610966
0.002922518398526174 -0.008096403624603185 -0.003147870069369673
0.0031991195733724657 -0.007617316336336166 -0.002964736195281147
0.003475720981049401 -0.007138228644794643 -0.002595933619886636
0.003752322155895692 -0.006659141356527623 -0.00259279878810048
0.004028923447157305 -0.006180053866623352 -0.0022239964455366126
0.004305524738418919 -0.0057009663767190796 -0.0021210401318967334
0.004582126029680532 -0.005221878886814808 -0.002018083352595567
0.0048587273209421454 -0.004742791396910536 -0.002118297386914491
0.005135328612203759 -0.004263703907006264 -0.002115161856636404
0.005411929903465372 -0.003784616417101993 -0.0023030503652989856
0.005688531174718102 -0.003305528961854124 -0.0022339951246976844
0.0059651324568847685 -0.0028264414877027626 -0.0020508605521172276
0.006241733777250212 -0.0023473539473891775 -0.0017753993161022654
0.006518335010304165 -0.001868266558303532 -0.001963287824764847
0.006794936359773439 -0.0013891789675806341 -0.001993394922465085
0.0070715375346197306 -0.0009100916793136147 -0.002093608956784009
0.007348138825881344 -0.000431004189409343 -0.0019104743842035523
0.007624740117142957 4.8083300494928725e-05 -0.0018744884291663757
0.00790134140840457 0.0005271707903992004 -0.00183850317262113
0.008177942583250861 0.00100625807866622 -0.0018686102703213683
0.008454543990927797 0.0014853457702077438 -0.001765653956681489
0.008731145165774088 0.0019644330584747635 -0.0021561398170888415
0.009007746573451023 0.002443520750016287 -0.0018806779989972702
0.009284347748297315 0.002922608038283307 -0.0018446920439600936
0.00956094915597425 0.0034016957298248305 -0.0016615575877949587
0.009837550330820542 0.00388078301809185 -0.0004974405164830379
0.010114151738497477 0.004359870709633374 -0.0004943056846968822
0.010390753146174412 0.004838958401174898 -0.0003913483233191065
0.010667354553851347 0.005318046092716422 -2.2546988475368483e-05
-0.0005991829772032701 -0.013089764637066632 -0.004198092035949229
-4.598016184939977e-05 -0.012131589253983584 -0.004662051331251859
0.00023062124582753538 -0.011652501562442059 -0.00442347815260291
0.0005072221878431833 -0.011173414677449544 -0.004459463991224765
0.0007838235955201185 -0.01069432698590802 -0.004359249956905841
0.0010604245375357662 -0.010215240100915506 -0.004171360284090041
0.0013370259452127014 -0.009736152409373982 -0.004207346122711896
0.001613627120058993 -0.009257065121106961 -0.003968773409724235
0.0018902285277359282 -0.008777977429565438 -0.003971907310187816
0.0021668297025822197 -0.008298890141298419 -0.004155042115598916
0.002443431110259155 -0.007819802449756896 -0.003590320469811558
0.0027200322851054456 -0.007340715161489875 -0.0028131564613431683
0.002996633692782381 -0.006861627469948351 -0.002422670600935816
0.003273234867628672 -0.006382540181681331 -0.0024258061312139026
0.0035498361588902853 -0.00590345269177706 -0.002237916458398103
0.0038264374501518986 -0.005424365201872788 -0.002137703588232397
0.004103038741413512 -0.004945277711968517 -0.0021736884955316773
0.004379640032675125 -0.004466190222064245 -0.002109335269778966
0.004656241323936739 -0.003987102732159973 -0.002338317222893237
0.004932842615198352 -0.0035080152422557014 -0.0024412735365331164
0.005209443886451082 -0.0030289277870078324 -0.0024444088339805594
0.005486045168617748 -0.002549840312856471 -0.0019400797318667167
0.005762646488983192 -0.002070752772542886 -0.00239739567041397
0.006039247722037145 -0.0015916653834572405 -0.0022971821017563334
0.006315849071506419 -0.0011125777927343426 -0.00230031763203442
0.0065924502463527105 -0.0006334905044673232 -0.002200103597715496
0.006869051537614324 -0.00015440301456305145 -0.002099890261888503
0.007145652828875937 0.00032468447534122027 -0.0022028465755283824
0.007422254120137551 0.0008037719652454919 -0.0019642733968794337
0.007698855294983842 0.0012828592535125115 -0.002147407736629247
0.007975456702660777 0.0017619469450540354 -0.0021173001732677213
0.008252057877507069 0.002241034233321055 -0.002052947646006941
0.008528659285184004 0.0027201219248625787 -0.0019885944202542296
0.008805260460030296 0.0031992092131295983 -0.001958486856892704
0.00908186186770723 0.003678296904671122 -0.001668804907239973
0.009358463042553522 0.004157384192938142 -0.0017047902802005404
0.009635064450230458 0.004636471884479665 -0.0006895744008943431
0.009911665857907393 0.0051155595760211895 -2.204447264375557e-05
0.010188267265584328 0.005594647267562714 -0.00047936051851138397
0.010464868207599976 0.006073734152555229 -8.684689419168706e-06
-0.001354871207485938 -0.013292250347212854 -0.0019566898699849835
-0.0008016688577933541 -0.012334075770678816 -0.003846973413601517
-0.000525067450116419 -0.011854988079137293 -0.0043176491744816295
-0.0002484660424394838 -0.011375900387595768 -0.004417863208800553
2.8134899576164053e-05 -0.010896813502603252 -0.004482216201722621
0.0003047363072530992 -0.01041772581106173 -0.004512323066592216
0.000581337249268747 -0.009938638926069214 -0.004443268291652202
0.0008579386569456822 -0.00945955123452769 -0.004507620818912982
0.0011345398317919738 -0.00898046394626067 -0.004008891526609658
0.001411141239468909 -0.008501376254719147 -0.004399376455694436
0.0016877424143152005 -0.008022288966452127 -0.0039006464648991815
0.0019643438219921357 -0.007543201274910603 -0.0037976894527673713
0.0022409449968384264 -0.007064113986643583 -0.0033403737470507613
0.0025175464045153616 -0.00658502629510206 -0.002484758384525775
0.0027941475793616527 -0.00610593900683504 -0.0020274424459785214
0.003070748870623266 -0.005626851516930769 -0.0017052476759999984
0.0033473501618848794 -0.0051477640270264965 -0.001476265839301049
0.003623951453146493 -0.004668676537122225 -0.0014402800006791943
0.003900552744408106 -0.004189589047217953 -0.000104991675470955
0.0041771540356697195 -0.0037105015573136815 -0.0015923465834930533
0.004453755326931333 -0.00323141406740941 -0.0019828323274850837
0.004730356598184063 -0.002752326612161541 -0.0024535078555345527
0.005006957880350729 -0.0022732391380101795 -0.0025537218898534766
0.005283559200716173 -0.0017941515976965946 -0.0025505875237286082
0.0055601604337701255 -0.001315064208610949 -0.0024815311189740888
0.0058367617832394 -0.0008359766178880512 -0.0024124758783727876
0.006113362958085691 -0.00035688932962103163 -0.002229341771453618
0.006389964249347305 0.0001221981602832401 -0.0021933559328317634
0.006666565540608918 0.0006012856501875118 -0.0021902199368923894
0.006943166831870531 0.0010803731400917836 -0.0021211651619523755
0.007219768006716823 0.001559460428358803 -0.0021512722596526137
0.007496369414393758 0.002038548119900327 -0.0021152868866920463
0.00777297058924005 0.0025176354081673465 -0.002046231646090745
0.008049571996916985 0.0029967230997088702 -0.0020102455746382466
0.008326173171763276 0.00347581038797589 -0.002074598800390958
0.008602774579440212 0.003954898079517414 -0.002038612961769103
0.008879375754286503 0.004433985367784434 -0.0018554783891886466
0.009155977161963438 0.004913073059325957 -0.001919831498526036
0.009432578569640374 0.005392160750867481 -0.0016443696804344648
0.009709179977317309 0.005871248442409005 -0.0007887547835707658
-0.0018339588990274622 -0.013015648939535919 -0.0025082142092287536
-0.0015573579570118143 -0.012536562054543404 -0.0017882136162370437
-0.0012807565493348782 -0.01205747436300188 -0.0038084262050688262
-0.001004155141657943 -0.011578386671460357 -0.004083886742591857
-0.000727553733981008 -0.011099298979918832 -0.00435934867709875
-0.00045095279196536006 -0.010620212094926317 -0.004428404849022626
-0.00017435138428842492 -0.010141124403384794 -0.004497460089623927
0.00010224955772722294 -0.009662037518392279 -0.004533445928245782
0.0003788509654041581 -0.009182949826850756 -0.004569431766867637
0.0006554521402504497 -0.008703862538583735 -0.004505078773945569
0.0009320535479273847 -0.008224774847042211 -0.004608035553246736
0.0012086547227736764 -0.007745687558775192 -0.004420146346092223
0.0014852561304506114 -0.007266599867233668 -0.0041815722361207
0.001761857305296902 -0.006787512578966648 -0.003461571410298347
0.0020384587129738375 -0.006308424887425125 -0.002193515188992023
0.0023150598878201286 -0.005829337599158105 -0.0017228391952812665
0.002591661179081742 -0.005350250109253833 -0.0016226257430389517
0.0028682624703433553 -0.004871162619349561 -0.0013329432113096111
0.0031448637616049687 -0.00439207512944529 -0.00099239929113537
0.003421465052866582 -0.003912987639541018 -0.0015710394363850349
0.0036980663441281954 -0.0034339001496367463 -0.0013324652099981898
0.003974667635389809 -0.0029548126597324746 -0.0012681122170761221
0.004251268906642539 -0.0024757252044846057 -0.0017668431391939514
0.004527870188809205 -0.0019966377303332443 -0.0021356444340199228
0.004804471509174649 -0.0015175501900196594 -0.0023187790066003795
0.005081072742228601 -0.0010384628009340138 -0.002594240708276629
0.005357674091697876 -0.000559375210211116 -0.002253696788102388
0.005634275266544167 -8.028792194409642e-05 -0.002575891092419624
0.0059108765578057805 0.0003987995679601753 -0.002644947031512856
0.006187477849067394 0.000877887057864447 -0.0024063743185251947
0.006464079140329007 0.0013569745477687188 -0.0023420201614499088
0.006740680315175299 0.0018360618360357382 -0.0027993360999971624
0.007017281722852234 0.002315149527577262 -0.002181136747822165
0.0072938828976985256 0.0027942368158442817 -0.00221712258644402
0.007570484305375461 0.0032733245073858054 -0.0021169087849557395
0.007847085480221751 0.003752411795652825 -0.0020166947506368156
0.008123686887898687 0.004231499487194349 -0.0016262090066447848
0.008400288062744978 0.004710586775461369 -0.002083525294438004
0.008676889470421913 0.005189674467002892 -0.002119511133059859
0.008953490878098849 0.005668762158544416 -0.0015013103839009994
0.009230092285775784 0.00614784985008594 -0.0012627372052520507
0.009506693227791432 0.0066269367350784555 -0.000339759921189397
-0.002036445648553338 -0.012259960646866469 -0.0019186243880540128
-0.0017598442408764028 -0.011780872955324945 -0.002753449138253927
-0.0014832428331994667 -0.011301785263783422 -0.003646766068413853
-0.0012066414255225315 -0.010822697572241897 -0.0047913449816405764
-0.0009300404835068838 -0.010343610687249382 -0.004469150211662053
-0.0006534390758299486 -0.009864522995707859 -0.004569364245980977
-0.00037683813381430073 -0.009385436110715344 -0.004757252987474202
-0.00010023672613736559 -0.00890634841917382 -0.0047541181556880465
0.00017636444870892593 -0.0084272611309068 -0.004784225951880216
0.0004529658563858611 -0.007948173439365276 -0.004748240113258361
0.0007295670312321526 -0.007469086151098257 -0.004712254274636506
0.0010061684389090877 -0.006989998459556733 -0.004343452863395213
0.0012827696137553792 -0.006510911171289714 -0.0037262791302055116
0.0015593710214323135 -0.0060318234797481895 -0.0015685376711189743
0.001835972196278605 -0.005552736191481169 -0.001358551206067204
0.0021125734875402182 -0.005073648701576898 -0.0009897487470880146
0.002665776070063445 -0.004115473721768355 -0.0004892852739430959
0.0029423773613250583 -0.0036363862318640828 -0.0004861504130531097
0.0032189786525866717 -0.003157298741959811 -0.00025716886739246493
0.003495579943848285 -0.0026782112520555394 -0.0005468510789796705
0.003772181215101015 -0.0021991237968076705 -0.0005769587587565178
0.004048782497267681 -0.0017200363226563089 -0.0010112152667716141
0.004325383817633125 -0.0012409487823427242 -0.001351758604869246
0.004601985050687077 -0.0007618613932570786 -0.0019949697889387603
0.0048785864001563515 -0.00028277380253418076 -0.0019589839503169055
0.005155187575002643 0.0001963134857328388 -0.0024296594783663745
0.005431788866264256 0.0006754009756371105 -0.002426525112241506
0.00570839015752587 0.001154488465541382 -0.002104330342262983
0.005984991448787483 0.001633575955445654 -0.0021686828695237632
0.006261592623633775 0.0021126632437126736 -0.0019855482969433065
0.00653819403131071 0.0025917509352541973 -0.0018024143064394589
0.006814795206157001 0.003070838223521217 -0.001766428467817604
0.007091396613833937 0.0035499259150627406 -0.001697373110800981
0.007367997788680228 0.004029013203329761 -0.0016283182194456454
0.007644599196357163 0.004508100894871284 -0.001559261814691126
0.007921200371203455 0.004987188183138304 -0.0017471503233537074
0.00819780177888039 0.005466275874679827 -0.0016441940097138281
0.008474403186557325 0.0059453635662213514 -0.001744407461956143
0.00875100459423426 0.006424451257762876 -0.0006878977292217309
-0.002792134080473257 -0.012462446240597372 -0.002525882795453071
-0.0025155331384576094 -0.011983359355604857 -0.0019337298581376667
-0.0022389317307806742 -0.011504271664063332 -0.0037643346004188056
-0.001962330323103739 -0.011025183972521809 -0.004650306422263383
-0.0016857289154268036 -0.010546096280980284 -0.004114743322134017
-0.001409127973411156 -0.010067009395987769 -0.004436938557773828
-0.0011325265657342208 -0.009587921704446245 -0.004472923465073108
-0.0008559256237185729 -0.00910883481945373 -0.004701904486864804
-0.0005793242160416377 -0.008629747127912207 -0.0047378907911479464
-0.0003027230411953462 -0.008150659839645186 -0.004840847570449113
-2.6121633518411016e-05 -0.007671572148103663 -0.004810739774256944
0.0002504795413278805 -0.007192484859836644 -0.004846725612878799
0.0005270809490048157 -0.0067133971682951194 -0.004816617816686629
0.0008036821238511072 -0.0062343098800281 -0.004716404248028993
0.0010802835315280423 -0.005755222188486576 -0.0042457282543182364
0.0013568847063743334 -0.005276134900219556 -0.001509431283921003
0.0016334859976359468 -0.004797047410315285 -0.0006161142955534156
0.0019100872888975602 -0.004317959920411013 -2.3961943952599073e-05
0.00439949891025208 -6.1725112725676e-06 -0.0011153828818351026
0.004676100085098372 0.0004729147769944519 -0.0008257008739747103
0.004952701376359985 0.0009520022668987237 -0.0016813158290460701
0.0052293026676215985 0.0014310897568029952 -0.0017503711860626932
0.005505903958883212 0.0019101772467072671 -0.0017202635062858458
0.0057825051337295034 0.0023892645349742865 -0.0017562494613230224
0.006059106541406439 0.0028683522265158107 -0.0016560354270040985
0.00633570771625273 0.00334743951478283 -0.001692021382041275
0.006612309123929665 0.003826527206324354 -0.0015918079297989603
0.006888910298775957 0.004305614494591373 -0.0012512640096247192
0.007165511706452892 0.004784702186132897 -0.0013203204143792386
0.007442112881299183 0.0052637894743999165 -0.00103063799906522
0.007718714288976118 0.005742877165941441 -0.000966283841989934
0.007995315696653054 0.006221964857482965 -0.0009694197215139862
0.00827191710432999 0.006701052549024489 -0.00046509012463502537
-0.0029946206283618815 -0.011706758064343244 -0.001976986182853579
-0.0027180192206849463 -0.011227670372801719 -0.0027828973252326246
-0.002441417813008011 -0.010748582681260195 -0.0038946627173572774
-0.002164816405331076 -0.01026949498971867 -0.004133235663175583
-0.001888215463315428 -0.009790408104726155 -0.004422918427735567
-0.0016116140556384929 -0.009311320413184632 -0.004763461649417877
-0.001335013113622845 -0.008832233528192117 -0.004951349925249815
-0.0010584117059459098 -0.008353145836650594 -0.00491536408662796
-0.0007818105310996182 -0.007874058548383573 -0.004945471882820129
-0.0005052091234226832 -0.007394970856842049 -0.005045685917139053
-0.0002286079485763916 -0.00691588356857503 -0.00477022398263216
4.799345910054356e-05 -0.006436795877033506 -0.004767090082168579
0.00032459463394683507 -0.005957708588766487 -0.004954978823661804
0.0006011960416237702 -0.005478620897224963 -0.0047718435525894165
0.0008777972164700617 -0.0049995336089579435 -0.003947315737605095
0.005303417643825231 0.0026658658262359 -0.0003867842897307124
0.0055800190515021665 0.003144953517777424 -0.00035079944063909314
0.005856620226348458 0.0036240408060444432 -0.0004510133876465257
0.006133221634025393 0.004103128497585967 -8.221098687499722e-05
0.006409822808871685 0.004582215785852987 -1.3155624401405985e-05
-0.003750309060281801 -0.011909243658074144 -0.0016668607713654633
-0.003473708118266153 -0.01143015677308163 -0.002245500916615128
-0.003197106710589218 -0.010951069081540105 -0.0033291317522525783
-0.002920505302912283 -0.010471981389998582 -0.0037864474579691883
-0.0026439038952353476 -0.009992893698457057 -0.004243763163685799
-0.0023673029532196997 -0.009513806813464542 -0.004426897969096899
-0.0020907015455427645 -0.009034719121923019 -0.004610032308846712
-0.0018141006035271167 -0.008555632236930504 -0.004793166182935238
-0.0015374991958501815 -0.00807654454538898 -0.004862221423536539
-0.00126089802100389 -0.00759745725712196 -0.004898207262158394
-0.0009842966133269547 -0.007118369565580436 -0.0049013420939445496
-0.0007076954384806633 -0.006639282277313417 -0.004611659795045853
-0.0004310940308037281 -0.006160194585771893 -0.004933854565024376
-0.0001544928559574366 -0.0056811072975048735 -0.005302655976265669
0.00012210855171949857 -0.005202019605963349 -0.004710503853857517
0.0003987097265657901 -0.00472293231769633 -0.004746489692479372
0.0006753110178274035 -0.004243844827792058 -0.004682136233896017
0.0009519123090890167 -0.0037647573378877864 -0.003962134942412376
-0.003952795406533173 -0.011153555598235337 -0.0015867358306422827
-0.003676193998856237 -0.010674467906693814 -0.00273131625726819
-0.003399592591179302 -0.01019538021515229 -0.004184377379715443
-0.003122991183502367 -0.009716292523610765 -0.004001242574304342
-0.002846390241486719 -0.00923720563861825 -0.004435498733073473
-0.0025697888338097837 -0.008758117947076727 -0.004623387940227985
-0.002293187891794136 -0.008279031062084212 -0.004861962050199509
-0.002016586484117201 -0.007799943370542688 -0.004926314577460289
-0.0017399853092709093 -0.007320856082275669 -0.004956420976668596
-0.0014633839015939741 -0.0068417683907341445 -0.004953286144882441
-0.0011867827267476826 -0.006362681102467125 -0.004850328899919987
-0.0009101813190707475 -0.005883593410925601 -0.0047473725862801075
-0.000633580144224456 -0.005404506122658582 -0.004711386747658253
-0.0003569787365475208 -0.004925418431117058 -0.0046754018403589725
-8.037756170122933e-05 -0.004446331142850039 -0.0049650841392576694
0.000196223729560384 -0.0039672436529457665 -0.004896027501672506
0.00047282502082199735 -0.003488156163041495 -0.004136142320930958
-0.004708483838453092 -0.01135604119196624 -0.0012454242678359149
-0.004431882896437444 -0.010876954306973725 -0.0015208850381895898
-0.004155281488760509 -0.0103978666154322 -0.002550013130530715
-0.0038786800810835737 -0.009918778923890677 -0.0035791415721178055
-0.0036020786734066385 -0.009439691232349154 -0.0036820978857576847
-0.0033254777313909906 -0.008960604347356639 -0.004506626632064581
-0.0030488763237140554 -0.008481516655815114 -0.0046095834113657475
-0.0027722753816984075 -0.008002429770822599 -0.0047927177511155605
-0.0024956739740214723 -0.007523342079281075 -0.004828703589737415
-0.0022190727991751808 -0.007044254791014055 -0.005588589236140251
-0.0019424713914982456 -0.006565167099472532 -0.004868587478995323
-0.001665870216651954 -0.006086079811205512 -0.004904573317617178
-0.001389268808975019 -0.005606992119663988 -0.005180034786462784
-0.0011126676341287275 -0.005127904831396969 -0.004839490633457899
-0.0008360662264517923 -0.0046488171398554445 -0.0049085458740592
-0.0005594650516055008 -0.004169729851588425 -0.004878438077867031
-0.00028286376034388747 -0.0036906423616841536 -0.00463986536487937
-6.262469082274106e-06 -0.003211554871779882 -0.004868846852332354
0.0002703388221793392 -0.0027324673818756103 -0.00476863281801343
0.0005469401134409526 -0.002253379891971338 -0.00447895098477602
-0.005187571328357364 -0.011079439900704625 -0.0007962437230162321
-0.004634368978664781 -0.010121265324170587 -0.0022376738488674164
-0.004357767570987846 -0.009642177632629064 -0.0030724985990673304
-0.004081166163310911 -0.00916308994108754 -0.003936444874852896
-0.0038045652212952623 -0.008684003056095024 -0.004124333616346121
-0.003527963813618327 -0.0082049153645535 -0.0045585911720991135
-0.003251362871602679 -0.007725828479560985 -0.004329609218984842
-0.002974761463925744 -0.007246740788019462 -0.004921761807054281
-0.0026981602890794524 -0.006767653499752442 -0.005021975375711918
-0.0024215588814025172 -0.006288565808210919 -0.0050188396126031876
-0.0021449577065562257 -0.0058094785199438986 -0.004949785303324461
-0.0018683562988792907 -0.005330390828402374 -0.004946649540215731
-0.0015917551240329992 -0.004851303540135355 -0.005752561613917351
-0.001315153716356064 -0.004372215848593831 -0.005097773391753435
-0.0010385525415097727 -0.003893128560326812 -0.005028716754168272
-0.0007619512502481592 -0.0034140410704225402 -0.004845582880079746
-0.00048534995898654587 -0.0029349535805182686 -0.00494579691439867
-0.00020874866772493253 -0.002455866090613997 -0.0049759033136069775
6.78526235366808e-05 -0.001976778600709725 -0.0045185876078903675
0.000344453914798294 -0.0014976911108054531 -0.0037259473465383053
-0.005390057825836674 -0.010323751753554329 -0.0018185365479439497
-0.005113456418159739 -0.009844664062012804 -0.001854521338827908
-0.004836855010482804 -0.00936557637047128 -0.002770183375105262
-0.004560253602805869 -0.008886488678929758 -0.0034963793586939573
-0.004283652660790221 -0.008407401793937242 -0.004035543650388718
-0.004007051253113286 -0.007928314102395717 -0.004492859356105328
-0.003730450311097638 -0.007449227217403202 -0.004721841309219599
-0.0034538489034207026 -0.006970139525861679 -0.004824797622859478
-0.003177247728574411 -0.006491052237594659 -0.004927753936499357
-0.002900646320897476 -0.006011964546053136 -0.004963739775121212
-0.0026240451460511844 -0.005532877257786116 -0.005032795015722513
-0.0023474437383742496 -0.0050537895662445915 -0.005354990251362324
-0.002070842563527958 -0.004574702277977572 -0.004964504856616259
-0.0017942411558510229 -0.004095614586436048 -0.004321293439716101
-0.0015176399810047313 -0.003616527298169029 -0.005207264330238104
-0.001241038689743118 -0.0031374398082647573 -0.005019375588744879
-0.0009644373984815046 -0.0026583523183604857 -0.005248357076197863
-0.0006878361072198912 -0.002179264828456214 -0.004777682013809681
-0.0004112348159582779 -0.001700177338551942 -0.004780815914273262
-0.00013463352469666459 -0.0012210898486476704 -0.004716462921351194
0.00014196776656494876 -0.0007420023587433987 -0.0044267806224524975
-0.005592543892311101 -0.009568062779846138 -0.0016476501477882266
-0.005315942484634166 -0.009088975088304614 -0.0024535623379051685
-0.005039341076957231 -0.008609887396763091 -0.0031735633965581656
-0.004762740134941583 -0.008130800511770576 -0.003791763912886381
-0.004486138727264648 -0.007651712820229051 -0.004409964196383953
-0.004209537785249 -0.007172625935236536 -0.0045978534035384655
-0.0039329363775720645 -0.006693538243695013 -0.005032109096646309
-0.0036563352027257725 -0.006214450955427993 -0.00492915278300643
-0.0033797337950488373 -0.005735363263886469 -0.005029366817325354
-0.0031031326202025458 -0.005256275975619449 -0.005059473682194948
-0.0028265312125256106 -0.004777188284077926 -0.005123827140778303
-0.0025499300376793195 -0.004298100995810906 -0.005153934936970472
-0.0022733286300023843 -0.0038190133042693823 -0.005150798708200455
-0.0019967274551560927 -0.0033399260160023626 -0.005147662945091724
-0.0017201261638944794 -0.002860838526098091 -0.005078608635812998
-0.001443524872632866 -0.0023817510361938193 -0.005009553395211697
-0.0011669235813712526 -0.0019026635462895476 -0.004973567556589842
-0.0008903222901096393 -0.0014235760563852758 -0.004790432285517454
-0.0006137209988480259 -0.0009444885664810041 -0.005130976904183626
-0.0003371197075864127 -0.00046540107657673237 -0.004129556007683277
-6.0518436333682814e-05 1.3686378671136666e-05 -0.003760754596441984
-0.0060716313475589695 -0.009291461508593408 -0.002184847602620721
-0.005795029939882034 -0.008812373817051885 -0.0022539026103913784
-0.005518428532205099 -0.008333286125510361 -0.0032272215466946363
-0.005241827590189451 -0.007854199240517846 -0.0037663865368813276
-0.004965226182512516 -0.007375111548976322 -0.004559025634080172
-0.004688625240496868 -0.006896024663983806 -0.004528919700533152
-0.004412023832819933 -0.006416936972442283 -0.005027648992836475
-0.004135422657973641 -0.005937849684175263 -0.005030784755945206
-0.0038588212502967062 -0.0054587619926337394 -0.005033918656408787
-0.0035822200754504147 -0.004979674704366719 -0.0050038122572004795
-0.00330561866777348 -0.004500587012825196 -0.005106769502162933
-0.0030290174929271884 -0.004021499724558176 -0.0051758247427642345
-0.002752416085250253 -0.0035424120330166523 -0.005075610708445311
-0.0024758149104039616 -0.0030633247447496327 -0.005258745048195124
-0.0021992136191423483 -0.002584237254845361 -0.0053617022931575775
-0.001922612327880735 -0.0021051497649410894 -0.0049712173640728
-0.0016460110366191215 -0.0016260622750368177 -0.005074173677712679
-0.0013694097453575082 -0.001146974785132546 -0.004973959643393755
-0.001092808454095895 -0.0006678872952282742 -0.004786071367561817
-0.0008162071628342816 -0.0001887998053240025 -0.004037529230117798
-0.0005396058915815517 0.0002902876499238665 -0.004654703661799431
-0.0002630046094148854 0.0007693751240752279 -0.004220446106046438
1.3596710950558289e-05 0.0012484626643888127 -0.0034719055984169245
-0.006274117429786306 -0.008535772525790271 -0.0020831834990531206
-0.005997516022109371 -0.008056684834248748 -0.002675335854291916
-0.005720915080093723 -0.007577597949256232 -0.0034238772932440042
-0.005444313672416788 -0.007098510257714709 -0.0040160296484827995
-0.00516771273040114 -0.0066194233727221935 -0.004580752458423376
-0.004891111322724205 -0.006140335681180669 -0.004768641199916601
-0.0046145101478779135 -0.005661248392913649 -0.004956529941409826
-0.004337908740200978 -0.005182160701372126 -0.005020882468670607
-0.004061307565354687 -0.004703073413105106 -0.0051210965029895306
-0.0037847061576777516 -0.004223985721563583 -0.005221310071647167
-0.00350810498283146 -0.003744898433296563 -0.005152253899723291
-0.003231503575154525 -0.003265810741755039 -0.005542739760130644
-0.0029549024003082333 -0.0027867234534880193 -0.005173938348889351
-0.00267830110904662 -0.0023076359635837477 -0.005204045679420233
-0.0024016998177850066 -0.001828548473679476 -0.0052683986723423
-0.002125098526523393 -0.0013494609837752043 -0.0050394171848893166
-0.00184849723526178 -0.0008703734938709327 -0.005003431346267462
-0.0015718959440001667 -0.00039128600396666095 -0.0047279708087444305
-0.0012952946527385533 8.780148593761077e-05 -0.0047248350456357
-0.0010186933814858234 0.0005668889411854798 -0.004621878266334534
-0.000742092099319157 0.0010459764153368412 -0.004552822094410658
-0.0004654907789537135 0.001525063955650426 -0.004013657569885254
-0.007029806327367514 -0.008738258926070181 -0.0006205575191415849
-0.0067532049196905785 -0.008259171234528658 -0.0009893599199131133
-0.006476603512013643 -0.007780083542987134 -0.0024759219959378242
-0.006200002569997995 -0.0073009966579946186 -0.003532431088387966
-0.005923401162321059 -0.006821908966453095 -0.004187219310551882
-0.0056468002203054115 -0.00634282208146058 -0.004644535481929779
-0.005370198812628476 -0.005863734389919056 -0.004580182489007711
-0.005093597637782185 -0.005384647101652036 -0.004948983434587717
-0.0048169962301052496 -0.004905559410110513 -0.00531778484582901
-0.004540395055258958 -0.004426472121843493 -0.005079212132841349
-0.004263793647582023 -0.003947384430301969 -0.005182168446481228
-0.003987192472735731 -0.0034682971420349497 -0.0051178159192204475
-0.0037105910650587965 -0.0029892094504934256 -0.005393277388066053
-0.003433989890212505 -0.002510122162226406 -0.005293063819408417
-0.0031573885989508916 -0.0020310346723221343 -0.005296199582517147
-0.0028807873076892782 -0.0015519471824178626 -0.005299333482980728
-0.002604186016427665 -0.001072859692513591 -0.005111444741487503
-0.0023275847251660515 -0.0005937722026093193 -0.004923556465655565
-0.002050983433904438 -0.00011468471270504757 -0.00495954230427742
-0.001774382142642825 0.00036440277719922414 -0.004859328269958496
-0.001497780871390095 0.0008434902324470932 -0.004671439994126558
-0.0012211795892234287 0.0013225777065984546 -0.0047074249014258385
-0.0009445782688579852 0.0018016652469120395 -0.004316939041018486
-0.0006679770358040327 0.002280752635997685 -0.004216725938022137
-0.00039137568633475846 0.002759840226720583 -0.003712395904585719
-0.006955691102736541 -0.007503482193517859 -0.001955095678567887
-0.006679090160720893 -0.007024395308525344 -0.0033040416892617945
-0.0064024887530439575 -0.006545307616983821 -0.004138866439461708
-0.00612588781102831 -0.006066220731991306 -0.004377439152449369
-0.005849286403351374 -0.005587133040449782 -0.005097440909594297
-0.005572685228505083 -0.005108045752182762 -0.004728639032691717
-0.005296083820828148 -0.004628958060641238 -0.005119124427437782
-0.005019482645981856 -0.004149870772374218 -0.005183478817343712
-0.004742881238304921 -0.0036707830808326946 -0.005283691920340061
-0.004466280063458629 -0.0031916957925656755 -0.005247707013040781
-0.004189678655781694 -0.0027126081010241518 -0.005347919650375843
-0.003913077480935403 -0.002233520812757132 -0.005378026515245438
-0.0036364761896737897 -0.0017544333228528602 -0.005308971274644136
-0.0033598748984121764 -0.0012753458329485884 -0.005033510271459818
-0.003083273607150563 -0.0007962583430443167 -0.005221399012953043
-0.0028066723158889496 -0.000317170853140045 -0.004945938475430012
-0.0025300710246273363 0.0001619166367642267 -0.005046150181442499
-0.002253469733365723 0.0006410041266684984 -0.004863016307353973
-0.001976868462112993 0.0011200915819163674 -0.004893123637884855
-0.0017002671799463266 0.0015991790560677289 -0.004570928402245045
-0.0014236658595808828 0.0020782665963813137 -0.0044679720886051655
-0.0011470646265269303 0.0025573539854669594 -0.004398916848003864
-0.0008704632770576561 0.003036441576189857 -0.003941601142287254
-0.0005938621022113646 0.0035155288644568767 -0.0030859843827784066
-0.007434778592640812 -0.007226880902256246 -0.0028591360896825795
-0.007158177650625164 -0.006747794017263731 -0.002928192494437099
-0.006881576242948229 -0.006268706325722208 -0.0039847008883953094
-0.006604975300932581 -0.0057896194407296925 -0.00430689612403512
-0.0063283738932556465 -0.005310531749188168 -0.004846061114221811
-0.006051772718409355 -0.004831444460921148 -0.004949018359184265
-0.00577517131073242 -0.004352356769379625 -0.004952153190970421
-0.005498570135886128 -0.0038732694811126054 -0.0050551095046103
-0.005221968728209193 -0.0033941817895710813 -0.005158066749572754
-0.004945367553362901 -0.002915094501304062 -0.00548026105388999
-0.0046687661456859654 -0.0024360068097625384 -0.0054833958856761456
-0.004392164970839675 -0.0019569195214955183 -0.005049140192568302
-0.0041155636795780605 -0.001477832031591247 -0.005417941603809595
-0.0038389623883164476 -0.0009987445416869752 -0.005317727569490671
-0.0035623610970548342 -0.0005196570517827035 -0.005386784207075834
-0.0032857598057932213 -4.056956187843163e-05 -0.004952526651322842
-0.003009158514531608 0.00043851792802584007 -0.005135660525411367
-0.0027325572232699945 0.0009176054179301118 -0.004897087812423706
-0.002455955952017264 0.0013966928731779806 -0.005623283330351114
-0.0021793546698505983 0.0018757803473293422 -0.004788459278643131
-0.0019027533494851544 0.002354867887642927 -0.004223736468702555
-0.001626152116431202 0.0028339552767285728 -0.004592537879943848
-0.001349550766961928 0.0033130428674514704 -0.004302855581045151
-0.0010729495921156364 0.00379213015571849 -0.004114966839551926
-0.000796348300854023 0.004271217645622762 -0.0036807104479521517
-0.007637265140529436 -0.0064711927260021175 -0.002705321647226811
-0.007360663732852501 -0.005992105034460594 -0.0034824861213564877
-0.007084062790836853 -0.005513018149468079 -0.004018049221485853
-0.006807461383159918 -0.005033930457926555 -0.004766589961946011
-0.006530860208313626 -0.004554843169659535 -0.004796696826815605
-0.006254258800636691 -0.004075755478118012 -0.005035270471125841
-0.0059776576257903995 -0.003596668189850992 -0.0048521352000534534
-0.005701056218113464 -0.003117580498309468 -0.0051926798187196255
-0.005424455043267173 -0.0026384932100424487 -0.005482361651957035
-0.0051478536355902375 -0.002159405518500925 -0.005413306411355734
-0.004871252460743946 -0.0016803182302339052 -0.005310350097715855
-0.004594651169482333 -0.0012012307403296337 -0.005374702624976635
-0.004318049878220719 -0.0007221432504253617 -0.005145721603184938
-0.004041448586959106 -0.00024305576052108998 -0.005245935171842575
-0.003764847295697493 0.00023603172938318175 -0.005062801297754049
-0.0034882460044358796 0.0007151192192874535 -0.005092908162623644
-0.003211644713174266 0.0011942067091917253 -0.004770713858306408
-0.0029350434419215363 0.0016732941644395942 -0.004800820257514715
-0.00265844215975487 0.0021523816385909554 -0.004764835350215435
-0.002381840839389426 0.0026314691789045405 -0.0046957796439528465
-0.0021052396063354737 0.003110556567990186 -0.004592822398990393
-0.0018286382568661996 0.003589644158713084 -0.004409687593579292
-0.001552037082019908 0.004068731446980103 -0.004306731279939413
-0.0012754357907582947 0.004547818936884375 -0.004031269811093807
-0.0009988344994966813 0.005026906426788646 -0.003928313031792641
-0.0007222332082350679 0.0055059939166929184 -0.0030726979020982985
-0.008116352630433707 -0.006194591434740504 -0.0025962144136428837
-0.007839751222756772 -0.005715503743198981 -0.003356101224198938
-0.007563150280741124 -0.005236416858206466 -0.0038134171627461915
-0.00728654887306419 -0.004757329166664942 -0.004539613146334887
-0.007009947698217898 -0.0042782418783979224 -0.004861807916313411
-0.006733346290540963 -0.0037991541868563987 -0.005044940859079362
-0.006456745115694672 -0.003320066898589379 -0.005080926697701217
-0.006180143708017736 -0.002840979207047855 -0.005183885339647532
-0.005903542533171445 -0.0023618919187808358 -0.005252939648926259
-0.00562694112549451 -0.0018828042272393116 -0.005288925487548114
-0.005350339950648218 -0.0014037169389722922 -0.005357980728149415
-0.005073738659386605 -0.0009246294490680205 -0.005460937041789294
-0.004797137368124991 -0.00044554195916374873 -0.005396584514528514
-0.004520536076863378 3.354553074052296e-05 -0.005399720277637244
-0.004243934785601765 0.0005126330206447947 -0.005161146633327008
-0.003967333494340151 0.0009917205105490663 -0.005131038837134839
-0.003690732203078538 0.0014708080004533382 -0.005030826199799777
-0.003414130931825808 0.0019498954557012071 -0.005133782513439656
-0.0031375296496591416 0.0024289829298525683 -0.004793238826096059
-0.0028609283292936978 0.0029080704701661534 -0.004605350084602834
-0.0025843270962397453 0.003387157859251799 -0.004708306398242713
-0.002307725746770471 0.0038662454499746968 -0.004608092829585076
-0.0020311245719241795 0.004345332738241716 -0.004507880192250014
-0.0017545232806625663 0.004824420228145988 -0.004218197893351317
-0.001477921989400953 0.00530350771805026 -0.0041880905628204354
-0.0012013206981393396 0.005782595207954531 -0.0035448793787509207
-0.0009247195232930482 0.006261682496221551 -0.0035808652173727755
-0.008318838511023793 -0.005438902568352689 -0.002883107634261251
-0.008042237569008145 -0.004959815683360174 -0.0035263181198388342
-0.007765636161331209 -0.00448072799181865 -0.004061880055814982
-0.0074890349864849175 -0.004001640703551631 -0.004566209856420756
-0.007212433578807982 -0.003522553012010107 -0.004956695716828109
-0.006935832403961691 -0.0030434657237430876 -0.005021048244088889
-0.006659230996284756 -0.0025643780322015634 -0.005121261812746526
-0.006382629821438464 -0.0020852907439345442 -0.005085277371108533
-0.006106028413761529 -0.00160620305239302 -0.005149630829691888
-0.005829427238915237 -0.0011271157641260007 -0.0053375191055238256
-0.005552825947653624 -0.0006480282742217289 -0.005154384300112725
-0.0052762246563920106 -0.00016894078431745722 -0.005254598334431649
-0.004999623365130397 0.00031014670558681453 -0.005071463994681836
-0.004723022073868784 0.0007892341954910862 -0.005035478156059981
-0.0044464207826071704 0.0012683216853953579 -0.004806497134268285
-0.004169819491345557 0.0017474091752996297 -0.004577516112476588
-0.003893218220092827 0.0022264966305474984 -0.004867198877036572
-0.003616616937926161 0.00270558410469886 -0.004864062648266555
-0.003340015617560717 0.003184671645012445 -0.0047950074076652536
-0.0030634143845067645 0.0036637590340980906 -0.0046920501627028
-0.0027868130350374902 0.004142846624820988 -0.004589093383401633
-0.0025102118601911987 0.004621933913088008 -0.004520038608461619
-0.0022336105689295853 0.005101021402992279 -0.004336903803050519
-0.001957009277667972 0.005580108892896551 -0.004267847631126643
-0.0016804079864063588 0.0060591963828008225 -0.004164891317486764
-0.0014038068115600673 0.0065382836710678426 -0.003981756977736951
-0.001127205403883133 0.007017371362609367 -0.0035244410391896967
-0.008797925799290812 -0.005162301393506398 -0.003273728303611279
-0.008521324857275164 -0.004683214508513883 -0.0033097143750637774
-0.008244723449598229 -0.0042041268169723586 -0.004195685032755137
-0.007968122274751938 -0.0037250395287053394 -0.004517879802733661
-0.007691520867075002 -0.0032459518371638157 -0.004975195508450271
-0.007414919692228711 -0.002766864548896796 -0.005044251680374146
-0.007138318284551776 -0.002287776857355272 -0.005113307386636735
-0.006861717109705484 -0.0018086895690882525 -0.005216263700276614
-0.006585115702028549 -0.0013296018775467286 -0.005252249538898469
-0.006308514527182257 -0.000850514589279709 -0.00532130477949977
-0.006031913235920644 -0.00037142709937543737 -0.005291198380291463
-0.005755311944659031 0.00010766039052883434 -0.005261090584099294
-0.005478710653397417 0.0005867478804331061 -0.005444225389510394
-0.005202109362135804 0.0010658353703373777 -0.00515454262495041
-0.0049255080708741905 0.0015449228602416494 -0.0050543295219540605
-0.004648906779612577 0.002024010350145921 -0.0049899760633707055
-0.004372305508359847 0.00250309780539379 -0.005059031303972007
-0.004095704226193181 0.0029821852795451514 -0.004958817269653083
-0.003819102905827737 0.0034612728198587365 -0.0049619534984231
-0.0035425016727737846 0.003940360208944382 -0.0048617394641041764
-0.0032659003233045103 0.004419447799667279 -0.004797386936843396
-0.0029892991484582188 0.0048985350879342995 -0.004558813758194447
-0.0027126978571966054 0.005377622577838572 -0.0031057526357471947
-0.002436096565934992 0.005856710067742843 -0.004385853651911021
-0.002159495274673379 0.006335797557647114 -0.004355745855718852
-0.0018828940998270873 0.006814884845914134 -0.004255532287061215
-0.0016062926921501521 0.007293972537455658 -0.003865046659484506
-0.0013296915173038608 0.007773059825722677 -0.0030591355171054606
-0.009000412548816688 -0.0044066131008369475 -0.002965227235108615
-0.008723811141139752 -0.003927525409295423 -0.003713768674060703
-0.00844720996629346 -0.003448438121028404 -0.004331969656050206
-0.008170608558616526 -0.0029693504294868805 -0.004896691069006921
-0.007894007383770234 -0.002490263141219861 -0.00499690417200327
-0.007617405976093299 -0.0020111754496783367 -0.004893947858363391
-0.007340804801247007 -0.0015320881614113173 -0.005284433718770743
-0.007064203393570072 -0.0010530004698697934 -0.0052484478801488885
-0.006787602218723781 -0.0005739131816027738 -0.005179391242563725
-0.006511000927462167 -9.482569169850217e-05 -0.005176257342100144
-0.006234399636200554 0.00038426179820576955 -0.005276471376419068
-0.0059577983449389405 0.0008633492881100413 -0.0046592974103987226
-0.005681197053677327 0.001342436778014313 -0.005093553569167853
-0.005404595762415714 0.0018215242679185846 -0.00505756912752986
-0.0051279944711541 0.0023006117578228563 -0.005054432898759843
-0.0048513931999013705 0.002779699213070725 -0.004985377658158542
-0.004574791917734704 0.0032587866872220866 -0.004802243784070016
-0.00429819059736926 0.0037378742275356717 -0.004866596311330796
-0.004021589364315308 0.004216961616621317 -0.003980626352131368
-0.0037449880148460336 0.004696049207344215 -0.004700626712292434
-0.003468386839999742 0.005175136495611235 -0.004597670864313842
-0.0031917855487381287 0.005654223985515506 -0.004594534635543824
-0.0029151842574765153 0.006133311475419778 -0.004137218929827214
-0.0026385829662149024 0.006612398965324049 -0.004426900763064624
-0.002361981791368611 0.007091486253591069 -0.004151439759880305
-0.0020853803836916756 0.007570573945132593 -0.003572800662368537
-0.001808779208845385 0.008049661233399613 -0.0023094795178622016
-0.009479499837083709 -0.004130011925990656 -0.00267332629300654
-0.009202898429406772 -0.0036509242344491323 -0.00381069420836866
-0.00892629725456048 -0.0031718369461821126 -0.004389333538711072
-0.008649695846883545 -0.002692749254640589 -0.004888063296675683
-0.008373094672037253 -0.0022136619663735693 -0.004991019610315562
-0.008096493264360318 -0.0017345742748320454 -0.005093976855278016
-0.007819892089514027 -0.0012554869865650257 -0.005163032095879317
-0.007543290681837092 -0.0007763992950235019 -0.005062818061560393
-0.007266689506990801 -0.00029731200675648235 -0.005032710731029511
-0.006990088215729187 0.00018177548314778937 -0.005215845536440612
-0.006713486924467574 0.000660862973052061 -0.0051857391372323045
-0.006436885633205961 0.0011399504629563328 -0.00518887396901846
-0.006160284341944347 0.0016190379528606045 -0.005192008800804616
-0.005883683050682734 0.002098125442764876 -0.005195143632590772
-0.0056070817594211205 0.002577212932669148 -0.005094929598271848
-0.0053304804881683905 0.0030563003879170167 -0.00506482319906354
-0.005053879206001724 0.003535387862068378 -0.0036117625422775754
-0.00477727788563628 0.004014475402381963 -0.004915532190352679
-0.004500676652582328 0.004493562791467609 -0.004951518028974534
-0.004224075303113054 0.004972650382190506 -0.00485130399465561
-0.003947474128266762 0.005451737670457526 -0.004663414787501098
-0.0036708728370051487 0.0059308251603617974 -0.004563201684504748
-0.0033942715457435354 0.0064099126502660695 -0.004533093888312579
-0.0031176702544819224 0.006889000140170341 -0.00450298609212041
-0.002841069079635631 0.007368087428437361 -0.0039382651448249826
-0.0025644676719586957 0.007847175119978884 -0.0035977212246507415
-0.002287866497112405 0.008326262408245905 -0.0028777194675058135
-0.00201126508943547 0.008805350099787428 -0.0029137053061276683
-0.0017346639145891783 0.009284437388054448 -0.0009579660836607225
-0.009681985717673793 -0.0033743230596028403 -0.002567298477515579
-0.0094053845428275 -0.002895235771335821 -0.0038466269616037616
-0.009128783135150564 -0.0024161480797942974 -0.004438779782503844
-0.008852181960304272 -0.0019370607915272777 -0.004909456241875888
-0.008575580552627337 -0.0014579730999857538 -0.004939563106745482
-0.008298979377781046 -0.0009788858117187342 -0.004903578199446202
-0.00802237797010411 -0.0004997981201772104 -0.005294064059853555
-0.00774577679525782 -2.0710831910190807e-05 -0.004408092238008977
-0.0074691755039962065 0.0004583766579940809 -0.0045959819108247766
-0.007192574212734593 0.0009374641478983526 -0.005030238535255195
-0.00691597292147298 0.0014165516378026244 -0.0051304525695741185
-0.006639371630211366 0.001895639127706896 -0.005127316340804101
-0.006362770338949753 0.0023747266176111677 -0.00515742413699627
-0.00608616904768814 0.0028538141075154394 -0.004974288865923882
-0.00580956777643541 0.0033329015627633083 -0.004905234556645156
-0.005532966494268743 0.0038119890369146697 -0.005143807269632817
-0.0052563651739033 0.004291076577228254 -0.005074752029031516
-0.004979763940849347 0.0047701639663139 -0.00489161815494299
-0.004703162591380073 0.005249251557036798 -0.004392886999994517
-0.004426561416533781 0.005728338845303818 -0.004070691764354707
-0.004149960125272168 0.006207426335208089 -0.0043603754602372655
-0.0038733588340105546 0.006686513825112361 -0.004177240654826165
-0.0035967575427489416 0.007165601315016632 -0.003994106315076352
-0.003320156367902651 0.007644688603283652 -0.003536790609359742
-0.0030435549602257157 0.008123776294825177 -0.002744149649515749
-0.002766953785379424 0.008602863583092197 -0.0013184259878471502
-0.002490352377702489 0.00908195127463372 -0.0001387084776069977
-0.009884472234369024 -0.002618634363658886 -0.003560607787221671
-0.009607870826692089 -0.002139546672117362 -0.004017924424260856
-0.009331269651845797 -0.0016604593838503426 -0.004842451307922603
-0.009054668244168862 -0.0011813716923088186 -0.005025586113333703
-0.00877806706932257 -0.000702284404041799 -0.004925373475998641
-0.008501465661645636 -0.00022319671250027514 -0.004825159441679717
-0.008224864486799344 0.0002558905757667444 -0.004724945407360793
-0.00794826319553773 0.0007349780656710161 -0.004794000647962094
-0.007671661904276117 0.0012140655555752879 -0.004829986952245236
-0.007395060613014504 0.0016931530454795595 -0.004799879156053067
-0.0071184593217528905 0.002172240535383831 -0.0048030149191617974
-0.006841858030491277 0.002651328025288103 -0.004872070159763099
-0.006565256739229664 0.0031304155151923745 -0.004875204991549254
-0.006288655467976934 0.0036095029704402435 -0.0049781613051891336
-0.0060120541858102675 0.004088590444591605 -0.0047395890578627595
-0.005735452865444824 0.0045676779849051895 -0.004551700316369534
-0.005458851632390871 0.005046765373990836 -0.004211156629025937
-0.005182250282921597 0.005525852964713733 -0.003972582053393126
-0.004905649108075305 0.006004940252980753 -0.003975718282163144
-0.004629047816813692 0.006484027742885024 -0.004078674595803023
-0.0043524465255520796 0.006963115232789296 -0.0033586726058274516
-0.004075845234290466 0.007442202722693568 -0.0030689903069287547
-0.003799244059444175 0.007921290010960588 -0.002634734148159624
-0.003522642651767239 0.00840037770250211 -0.0038256130646914252
-0.0032460414769209483 0.008879464990769132 -0.0008928010356612512
-0.010086958114959108 -0.0018629454972710704 -0.0036054153461009273
-0.009810356940112817 -0.001383858209004051 -0.0037933038547635087
-0.009533755532435882 -0.000904770517462527 -0.004297633189707995
-0.00925715435758959 -0.0004256832291955075 -0.004768310114741326
-0.008980552949912655 5.3404462346016404e-05 -0.004269578959792853
-0.008703951775066363 0.000532491750613036 -0.0042335931211709985
-0.00842735048380475 0.0010115792405173075 -0.004769156221300364
-0.008150749192543136 0.0014906667304215794 -0.004190517589449883
-0.007874147901281523 0.001969754220325851 -0.00400738324970007
-0.00759754661001991 0.0024488417102301228 -0.004071736242622138
-0.007320945318758296 0.0029279292001343944 -0.0037962745409458884
-0.007044344027496683 0.003407016690038666 -0.0035672944504767665
-0.006767742756243953 0.003886104145286535 -0.004037969745695592
-0.006491141474077287 0.004365191619437897 -0.003740895539522172
-0.006214540153711843 0.004844279159751481 -0.004276457708328963
-0.0059379389206578904 0.005323366548837127 -0.0036904767621308574
-0.005661337571188617 0.005802454139560025 -0.003490369068458677
-0.005384736396342325 0.0062815414278270445 -0.0035984814167022714
-0.005108135105080712 0.006760628917731317 -0.0032616041135042914
-0.004831533813819099 0.007239716407635588 -0.0008648443035781393
-0.004554932522557485 0.00771880389753986 -0.00041817975579761066
-0.010012843223977407 -0.0006281691097855918 -0.0037273752968758353
