ply
format ascii 1.0
element vertex 722
property float x
property float y
property float z
end_header
0.0023948734181558295 -0.01288700779500209 -0.0021981614698094393
0.00277745260302357 -0.012431067676984193 -0.002201534992863015
0.0031600317878913097 -0.0119751275589663 -0.00354905985049872
0.0035426109727590494 -0.011519187440948408 -0.0029728516376470496
0.0039251901576267895 -0.011063247322930514 -0.00367733467204188
0.00430776934249453 -0.01060730720491262 -0.0034206540876937767
0.00469034852736227 -0.010151367086894727 -0.0036670141198631564
0.005072927712230009 -0.009695426968876833 -0.0036703876429167322
0.005455506897097749 -0.009239486850858939 -0.003601150665186254
0.005838086081965489 -0.008783546732841046 -0.003639866425170197
0.006220665266833229 -0.008327606614823152 -0.0032197449578644194
0.0066032444517009695 -0.00787166649680526 -0.0016565515094461877
0.007750982006304189 -0.0065038461427515785 -0.0011614304585163676
-0.0007391209939362417 -0.0156960094362596 -0.002061086205099347
-0.00035654180906850207 -0.01524006931824171 -0.002168905620801772
2.603737579923756e-05 -0.014784129200223815 -0.0028059991396323725
0.00040861656066697833 -0.01432818908220592 -0.0027672833796484287
0.000791195745534718 -0.013872248964188028 -0.0031874048469542064
0.0011737749304024576 -0.013416308846170134 -0.0031486878965951565
0.0015563541152701973 -0.012960368728152242 -0.002951654628114579
0.001938933300137937 -0.012504428610134349 -0.002705294595945198
0.0023215124850056775 -0.012048488492116453 -0.0029619739899181957
0.002704091669873417 -0.01159254837409856 -0.0037673258397649804
0.003086670854741157 -0.011136608256080668 -0.003763953507086512
0.003469250039608897 -0.010680668138062774 -0.00387177173241383
0.0038518292244766376 -0.01022472802004488 -0.0038683993997353614
0.004234408409344377 -0.009768787902026987 -0.0039007918871502875
0.0046169875942121165 -0.009312847784009093 -0.0038974183640967117
0.004999566779079857 -0.008856907665991199 -0.0038231222921609772
0.005382145963947597 -0.008400967547973306 -0.0036260890236804004
0.005764725148815337 -0.007945027429955412 -0.0035153174777123207
0.006147304333683077 -0.0074890873119375185 -0.0025947658864989708
-0.0019602194816896153 -0.01622531048742765 -0.0015077474788056508
-0.001195061111954135 -0.015313430251391862 -0.00129771650453044
-0.0008124819270863955 -0.014857490133373969 -0.0027004354847579384
-0.0004299027422186558 -0.014401550015356077 -0.0031924591796590345
-4.732355735091504e-05 -0.013945609897338182 -0.0031958327027126103
0.0003352556275168246 -0.013489669779320288 -0.003270128774648345
0.0007178348123845642 -0.013033729661302396 -0.0033808991302413183
0.001100413997252304 -0.012577789543284501 -0.003124219736268322
0.0014829931821200436 -0.012121849425266609 -0.0031629366866273725
0.0018655723669877844 -0.011665909307248715 -0.0037854909638996193
0.002248151551855524 -0.01120996918923082 -0.003896261319492592
0.0026307307367232635 -0.010754029071212928 -0.004007031675085566
0.0030133099215910036 -0.010298088953195034 -0.004081328937396407
0.003395889106458744 -0.009842148835177141 -0.003973509521693982
0.003778468291326484 -0.009386208717159247 -0.003976883044747559
0.004161047476194223 -0.008930268599141354 -0.0039444905573326325
0.004543626661061963 -0.00847432848112346 -0.0039120980699177054
0.004926205845929703 -0.008018388363105566 -0.0037099497596018377
0.0053087850307974435 -0.0075624482450876735 -0.003242734672308212
0.005691364215665184 -0.007106508127069779 -0.002602324768429178
-0.0020335804148397694 -0.015386791184542017 -0.0018112240893648228
-0.0016510012299720284 -0.014930851066524123 -0.0023874323022164924
-0.0012684220451042887 -0.01447491094850623 -0.0033804586914516844
-0.0008858428602365492 -0.014018970830488336 -0.003306162619515949
-0.0005032636753688084 -0.013563030712470442 -0.003562842013488946
-0.00012068449050106876 -0.01310709059445255 -0.003595234500903872
0.0002618946943666709 -0.012651150476434656 -0.0035918609778502965
0.0006444738792344105 -0.012195210358416763 -0.0035884886451718278
0.0010270530641021502 -0.01173927024039887 -0.003342128613002447
0.001409632248969891 -0.011283330122380975 -0.003979222131833048
0.0017922114338376307 -0.010827390004363082 -0.0040484591095635266
0.00217479061870537 -0.01037144988634519 -0.004591064223516329
0.0025573698035731103 -0.009915509768327295 -0.00419427291793498
0.002939948988440851 -0.009459569650309401 -0.004263509895665458
0.0033225281733085905 -0.009003629532291509 -0.003599496043787359
0.0037051073581763298 -0.008547689414273614 -0.0039658851691328845
0.00408768654304407 -0.00809174929625572 -0.003962512836454416
0.00447026572791181 -0.007635809178237828 -0.0038882155741435743
0.00485284491277955 -0.007179869060219934 -0.0028107927801887416
-0.002872099717725403 -0.01546015211769217 -0.0019984712840897725
-0.0024895205328576636 -0.015004211999674277 -0.0018906518683873485
-0.0021069413479899227 -0.014548271881656381 -0.0029978852261497665
-0.001724362163122183 -0.014092331763638489 -0.002577763758843989
-0.0013417829782544435 -0.013636391645620596 -0.003562918197495801
-0.0009592037933867026 -0.013180451527602702 -0.003601635147854852
-0.000576624608518963 -0.012724511409584808 -0.003898002838274308
-0.00019404542365122334 -0.012268571291566915 -0.003790183422571883
0.0001885337612165163 -0.011812631173549021 -0.003828900372930934
0.000571112946084256 -0.011356691055531129 -0.003796507885516007
0.0009536921309519968 -0.010900750937513234 -0.004288531580417103
0.0013362713158197365 -0.01044481081949534 -0.004256139093002177
0.001718850500687476 -0.009988870701477448 -0.004330436355313019
0.002101429685555216 -0.009532930583459553 -0.004073755770964915
0.0024840088704229566 -0.009076990465441661 -0.004184527316932995
0.0028665880552906963 -0.008621050347423767 -0.004381560585413572
0.0032491672401584355 -0.008165110229405874 -0.004015171460068046
0.003631746425026176 -0.00770917011138798 -0.0035479563727744213
0.004014325609893916 -0.007253229993370087 -0.003944748868730878
0.004396904794761656 -0.006797289875352193 -0.0033685394655041004
0.004779483979629396 -0.006341349757334299 -0.0022073737827634347
-0.0033280398357432963 -0.01507757293282443 -0.0013872838987154066
-0.002945460650875557 -0.014621632814806537 -0.002161930022674054
-0.002562881466007816 -0.014165692696788641 -0.0028801214168024682
-0.0021803022811400763 -0.013709752578770749 -0.0029125139042173952
-0.001797723096272336 -0.013253812460752856 -0.003577632424194901
-0.0014151439114045952 -0.012797872342734962 -0.0037797807345107694
-0.0010325647265368556 -0.01234193222471707 -0.0037764072114571936
-0.0006499855416691159 -0.011885992106699175 -0.0039785555217730605
-0.0002674063568013762 -0.011430051988681283 -0.004235236106121164
0.00011517282806636346 -0.01097411187066339 -0.004304473083851643
0.0004977520129341043 -0.010518171752645494 -0.004336865571266569
0.0008803311978018438 -0.010062231634627602 -0.004406102548997049
0.0012629103826695834 -0.00960629151660971 -0.004331805286686206
0.0016454895675373238 -0.009150351398591815 -0.004401042264416685
0.002028068752405064 -0.00869441128057392 -0.004204008995936108
0.0024106479372728038 -0.008238471162556028 -0.0042364014833510336
0.002793227122140543 -0.007782531044538135 -0.003990041451181654
0.0031758063070082836 -0.007326590926520241 -0.003793008182701077
0.0035583854918760233 -0.006870650808502347 -0.0036822378271081043
0.0039409646767437625 -0.006414710690484453 -0.003018223975230004
0.004323543861611503 -0.005958770572466559 -0.0020976723840166545
-0.00416655913862893 -0.015150933865974584 -0.0021044444280010556
-0.0037839799537611896 -0.014694993747956691 -0.001792776846329797
-0.0034014007688934504 -0.014239053629938797 -0.0026103336121498758
-0.0030188215840257094 -0.013783113511920903 -0.003007126108106332
-0.0026362423991579697 -0.01332717339390301 -0.0033537728623002873
-0.002253663214290229 -0.012871233275885118 -0.0037505653582567433
-0.0018710840294224886 -0.012415293157867224 -0.0037539376909352115
-0.001488504844554749 -0.01195935303984933 -0.004050305381354668
-0.0011059256596870092 -0.011503412921831437 -0.004089022331713719
-0.0007233464748192696 -0.011047472803813543 -0.0041997926873066915
-0.0003407672899515299 -0.01059153268579565 -0.004274089949617534
4.181189491621085e-05 -0.010135592567777756 -0.004670881255198883
0.0004243910797839505 -0.009679652449759862 -0.004304492129853356
0.0008069702646516902 -0.00922371233174197 -0.004884576204053807
0.0011895494495194304 -0.008767772213724075 -0.004417362307135288
0.0015721286343871705 -0.008311832095706182 -0.0042152128064443135
0.0019547078192549104 -0.007855891977688288 -0.00421858632949789
0.0023372870041226497 -0.007399951859670396 -0.00414934935176741
0.00271986618899039 -0.0069440117416525015 -0.003837681770096152
0.003102445373858129 -0.006488071623634607 -0.003526014188424893
0.003485024558725869 -0.006032131505616714 -0.0028078227942964786
0.003867603743593609 -0.00557619138759882 -0.0026886436289468166
0.0042501829284613485 -0.005120251269580926 -0.0018832917791000306
-0.004622499256646823 -0.014768354681106844 -0.002186694586402561
-0.004239920071779083 -0.014312414563088951 -0.0018400466418334988
-0.0038573408869113437 -0.013856474445071057 -0.0025320735911074335
-0.0034747617020436028 -0.013400534327053163 -0.0032502649852358474
-0.003092182517175863 -0.01294459420903527 -0.0031759689133001134
-0.0027096033323081234 -0.012488654091017376 -0.003867995862574048
-0.002327024147440383 -0.012032713972999482 -0.003937232840304526
-0.0019444449625726432 -0.01157677385498159 -0.0040064698180350055
-0.0015618657777049035 -0.011120833736963697 -0.004208618128350872
-0.0011792865928371638 -0.010664893618945803 -0.004316437544053297
-0.0007967074079694241 -0.01020895350092791 -0.004277720593694248
-0.0004141282231016834 -0.009753013382910016 -0.004479868904010115
-3.1549038233943734e-05 -0.009297073264892122 -0.004476496571331647
0.00035103014663379593 -0.008841133146874229 -0.004365725025363566
0.0007336093315015362 -0.008385193028856335 -0.00416869175688299
0.0011161885163692763 -0.00792925291083844 -0.004057921401290017
0.001498767701237016 -0.007473312792820548 -0.003947151045697044
0.0018813468861047556 -0.007017372674802655 -0.0042038304396700395
0.002263926070972496 -0.0065614325567847605 -0.0030965970819076217
0.0026465052558402357 -0.006105492438766867 -0.0030932247492291534
0.003029084440707976 -0.005649552320748974 -0.002429210897351054
-0.005461018559532457 -0.014841715614256996 -0.001941052350422774
-0.005078439374664717 -0.014385775496239104 -0.0021380856189033496
-0.004695860189796977 -0.01392983537822121 -0.002674667434814131
-0.004313281004929238 -0.013473895260203317 -0.0027489635067498653
-0.003930701820061497 -0.013017955142185423 -0.003453446541144695
-0.0035481226351937564 -0.01256201502416753 -0.003650479809625272
-0.0031655434503260168 -0.012106074906149636 -0.003847513078105849
-0.002782964265458276 -0.011650134788131742 -0.003886230028464899
-0.0024003850805905365 -0.01119419467011385 -0.004083263296945476
-0.002017805895722797 -0.010738254552095957 -0.004194033652538449
-0.0016352267108550572 -0.010282314434078062 -0.00473061546844923
-0.0012526475259873175 -0.00982637431606017 -0.004154406065222453
-0.0008700683411195767 -0.009370434198042276 -0.004228702137158188
-0.0004874891562518371 -0.008914494080024381 -0.004525069827577643
-0.00010490997138409745 -0.008458553962006489 -0.004322921517261776
0.00027766921348364274 -0.008002613843988595 -0.004361638467620826
0.0006602483983513829 -0.007546673725970701 -0.004329245980205901
0.0010428275832191226 -0.007090733607952808 -0.0043326183128843685
0.0014254067680868623 -0.006634793489934915 -0.003912496845578591
0.0018079859529546015 -0.0061788533719170195 -0.0030454216656774624
0.0021905651378223414 -0.005722913253899126 -0.002733754084006204
0.0025731443226900816 -0.005266973135881233 -0.0034382371184010336
0.0029557235075578212 -0.004811033017863339 -0.0029318396440814747
-0.00553437949268261 -0.014003196311371363 -0.0023193511787150275
-0.005151800307814871 -0.013547256193353471 -0.0026857403040605535
-0.0047692211229471305 -0.013091316075335577 -0.002611443041749711
-0.00438664193807939 -0.012635375957317682 -0.003386089165708359
-0.00400406275321165 -0.01217943583929979 -0.003588237476024226
-0.00362148356834391 -0.011723495721281897 -0.003954626601369752
-0.0032389043834761696 -0.011267555603264003 -0.004062446017072176
-0.00285632519860843 -0.010811615485246109 -0.004264594327388045
-0.00247374601374069 -0.010355675367228217 -0.003968226636968588
-0.0020911668288729505 -0.009899735249210322 -0.004334615762314115
-0.0017085876440052108 -0.00944379513119243 -0.004367008249729041
-0.00132600845913747 -0.008987855013174536 -0.004569156560044909
-0.0009434292742697305 -0.008531914895156641 -0.004601549047459835
-0.0005608500894019908 -0.008075974777138749 -0.0041095253525587384
-0.0001782709045342506 -0.0076200346591208555 -0.004311673662874607
0.0002043082803334896 -0.007164094541102961 -0.004200903307281634
0.0005868874652012292 -0.006708154423085068 -0.0040038700388010575
0.0009694666500689685 -0.0062522143050671745 -0.0034672894132653843
0.0013520458349367086 -0.00579627418704928 -0.0031206414686963226
0.0017346250198044485 -0.005340334069031387 -0.0021041849262277037
0.0021172042046721886 -0.0048843939510134935 -0.0013997018918328742
-0.006372898795568243 -0.014076557244521518 -0.0023791734797233
-0.005990319610700503 -0.013620617126503623 -0.0023467821826834807
-0.005607740425832764 -0.01316467700848573 -0.0026431486827278305
-0.005225161240965024 -0.012708736890467838 -0.0031351723776289263
-0.004842582056097284 -0.012252796772449942 -0.0034818203221979875
-0.004460002871229543 -0.01179685665443205 -0.0037781880126174436
-0.0040774236863618035 -0.011340916536414157 -0.003888958368210417
-0.0036948445014940625 -0.010884976418396263 -0.003999729914178496
-0.003312265316626323 -0.010429036300378369 -0.0041105002697714695
-0.002929686131758583 -0.009973096182360476 -0.004184796341707204
-0.0025471069468908434 -0.009517156064342584 -0.004259093604018047
-0.0021645277620231038 -0.00906121594632469 -0.00436986395961102
-0.001781948577155363 -0.008605275828306795 -0.0043006269818805405
-0.0013993693922876233 -0.008149335710288903 -0.0037580218679277378
-0.0010167902074198838 -0.00769339559227101 -0.004422035719805838
-0.0006342110225521435 -0.007237455474253115 -0.0043896432323909116
-0.00025163183768440333 -0.006781515356235222 -0.004320406254660433
0.00013094734718333633 -0.006325575238217329 -0.004251169276929955
0.000513526532051076 -0.005869635120199435 -0.004218776789515028
0.0008961057169188153 -0.005413695002181541 -0.0029873301700749405
0.0012786849017865551 -0.004957754884163648 -0.0017558823602597466
0.0016612640866542953 -0.004501814766145754 -0.0018301784321954817
-0.006446259728718397 -0.013238037941635883 -0.0023365318626360774
-0.006063680543850657 -0.01278209782361799 -0.002756653329941855
-0.005681101358982917 -0.012326157705600098 -0.0031230424552873815
-0.005298522174115177 -0.011870217587582202 -0.003192279433017861
-0.004915942989247437 -0.01141427746956431 -0.0036124009003236385
-0.004533363804379698 -0.010958337351546417 -0.003978790025669163
-0.004150784619511957 -0.010502397233528523 -0.003781756757188587
-0.003768205434644217 -0.010046457115510629 -0.0039839050675044545
-0.0033856262497764774 -0.009590516997492736 -0.004186053377820323
-0.0030030470649087377 -0.009134576879474842 -0.00438820168813619
-0.002620467880040998 -0.00867863676145695 -0.004457438665866669
-0.0022378886951732574 -0.008222696643439055 -0.004260405397386092
-0.0018553095103055175 -0.007766756525421162 -0.00446255370770196
-0.001472730325437778 -0.007310816407403269 -0.004388257635766225
-0.0010901511405700377 -0.006854876289385375 -0.0045904059460820925
-0.0007075719557022976 -0.006398936171367481 -0.003926392094203993
-0.00032499277083455794 -0.005942996053349588 -0.0036300255941596436
5.758641403318173e-05 -0.005487055935331695 -0.0033336579037401876
0.0004401655989009219 -0.005031115817313801 -0.002446552281911566
0.0008227447837686619 -0.0045751756992959075 -0.003251904131758352
-0.006902199846736291 -0.012855458756768145 -0.0023671935446452535
-0.006519620661868551 -0.01239951863875025 -0.0029037741701809262
-0.0061370414770008114 -0.011943578520732358 -0.0032001418606003823
-0.0057544622921330705 -0.011487638402714464 -0.0035467886147943373
-0.005371883107265331 -0.01103169828469657 -0.003657560160762417
-0.004989303922397591 -0.010575758166678677 -0.0037318562326981524
-0.00460672473752985 -0.010119818048660783 -0.003978216264867533
-0.004224145552662111 -0.009663877930642889 -0.004052512336803268
-0.003841566367794371 -0.009207937812624996 -0.004298872368972648
-0.0034589871829266315 -0.008751997694607104 -0.004266479881557722
-0.003076407998058892 -0.00829605757658921 -0.004340777143868564
-0.0026938288131911512 -0.007840117458571315 -0.004344149476547032
-0.0023112496283234116 -0.007384177340553422 -0.004454921022515112
-0.0019286704434556719 -0.0069282372225355285 -0.0042527715218241375
-0.0015460912585879315 -0.006472297104517635 -0.004363543067792217
-0.0011635120737201914 -0.006016356986499741 -0.004161393567101243
-0.0007809328888524517 -0.005560416868481848 -0.0039047141731282466
-0.00039835370398471205 -0.005104476750463955 -0.003437500276209728
-1.5774519116971867e-05 -0.004648536632446061 -0.002345234695044226
-0.007358139964754184 -0.012472879571900403 -0.0015185894152812927
-0.006975560779886444 -0.01201693945388251 -0.00275003603472138
-0.006592981595018705 -0.011560999335864618 -0.0031701575020271575
-0.006210402410150964 -0.011105059217846724 -0.003426838086375261
-0.005827823225283225 -0.01064911909982883 -0.0036289863966911294
-0.0054452440404154845 -0.010193178981810937 -0.0038311347070069967
-0.0050626648555477435 -0.009737238863793043 -0.004033283017322865
-0.004680085670680004 -0.009281298745775149 -0.004141102433025289
-0.004297506485812264 -0.008825358627757256 -0.004248921848727714
-0.003914927300944525 -0.008369418509739364 -0.00428131433614264
-0.003532348116076785 -0.00791347839172147 -0.004537993730115638
-0.0031497689312090446 -0.007457538273703575 -0.0044992767797565865
-0.002767189746341305 -0.007001598155685682 -0.0043885064241636134
-0.0023846105614735652 -0.006545658037667789 -0.004349789473804564
-0.002002031376605825 -0.006089717919649895 -0.004053422973760214
-0.0016194521917380848 -0.005633777801632002 -0.0037570552833407576
-0.001236873006870345 -0.005177837683614108 -0.0027719008446889454
-0.0008542938220026054 -0.004721897565596215 -0.002425252900119883
-0.00047171463713486546 -0.004265957447578321 -0.0010840584573038382
-0.008196659267639817 -0.012546240505050557 -0.001771497700914936
-0.007814080082772077 -0.012090300387032665 -0.0019685309693955127
-0.007431500897904337 -0.01163436026901477 -0.0027498408132038124
-0.007048921713036598 -0.011178420150996878 -0.0033299248874042627
-0.006666342528168857 -0.010722480032978984 -0.0035269581558848395
-0.006283763343301118 -0.01026653991496109 -0.0036377297018529192
-0.005901184158433378 -0.009810599796943197 -0.0038347629703334965
-0.005518604973565638 -0.009354659678925303 -0.004231554275914846
-0.005136025788697898 -0.00889871956090741 -0.004123734860212422
-0.004753446603830158 -0.008442779442889516 -0.004054497882481942
-0.004370867418962418 -0.007986839324871623 -0.004300857914651323
-0.003988288234094679 -0.00753089920685373 -0.004339573674635266
-0.003605709049226938 -0.007074959088835835 -0.004450345220603346
-0.0032231298643591983 -0.0066190189708179425 -0.004248196910287479
-0.0028405506794914586 -0.006163078852800049 -0.004286912670271422
-0.0024579714946237185 -0.005707138734782155 -0.004217675692540944
-0.0020753923097559784 -0.0052511986167642615 -0.004015527382225075
-0.0016928131248882387 -0.004795258498746368 -0.0035954059149192973
-0.001310233940020499 -0.004339318380728475 -0.0026023795256841053
-0.0009276547551527588 -0.003883378262710581 -0.0012994008853070146
-0.008270020200789971 -0.011707721202164924 -0.001867982364847372
-0.00788744101592223 -0.01125178108414703 -0.002533100884824879
-0.0075048618310544915 -0.010795840966129138 -0.0030757059987776814
-0.0071222826461867506 -0.010339900848111244 -0.003442095124123208
-0.006739703461319011 -0.009883960730093351 -0.003644243434439076
-0.006357124276451271 -0.009428020612075457 -0.0035699473625033407
-0.005974545091583531 -0.008972080494057563 -0.004037161259421859
-0.005591965906715791 -0.00851614037603967 -0.004239310760112834
-0.005209386721848052 -0.008060200258021776 -0.003992950727943454
-0.004826807536980312 -0.007604260140003883 -0.004535555841896257
-0.004444228352112572 -0.00714832002198599 -0.004567948329311183
-0.004061649167244831 -0.006692379903968096 -0.004031366513400403
-0.0036790699823770917 -0.006236439785950202 -0.004233516014091379
-0.003296490797509352 -0.005780499667932309 -0.003937148323671922
-0.002913911612641612 -0.005324559549914415 -0.003933774800618347
-0.0025313324277738717 -0.004868619431896521 -0.003687414768448966
-0.002148753242906132 -0.004412679313878628 -0.0027668631772356173
-0.0017661740580383926 -0.003956739195860735 -0.0016596298194731989
-0.009108539503675604 -0.011781082135315077 -0.0018480757219310187
-0.008725960318807865 -0.011325142017297184 -0.0016459274116151503
-0.008343381133940125 -0.010869201899279292 -0.002840773567636645
-0.007960801949072385 -0.010413261781261398 -0.003420857641837095
-0.007578222764204644 -0.009957321663243503 -0.003424231164890671
-0.007195643579336905 -0.009501381545225611 -0.003621264433371248
-0.006813064394469165 -0.009045441427207717 -0.003818297701851825
-0.006430485209601424 -0.008589501309189822 -0.0038216700345302932
-0.006047906024733684 -0.00813356119117193 -0.004602979878338593
-0.005665326839865945 -0.007677621073154037 -0.00406037476438579
-0.005282747654998205 -0.007221680955136143 -0.0040637482874393656
-0.004900168470130466 -0.00676574083711825 -0.004410396232008428
-0.004517589285262725 -0.006309800719100356 -0.00420824792169256
-0.0041350101003949855 -0.005853860601082462 -0.00460503922727391
-0.0037524309155272458 -0.005397920483064569 -0.004184917759968132
-0.0033698517306595052 -0.0049419803650466755 -0.004152525272553205
-0.002987272545791765 -0.004486040247028781 -0.003576315869326428
-0.002604693360924026 -0.004030100129010888 -0.0026468007535564724
-0.002222114176056286 -0.003574160010992995 -0.0016856871305680372
-0.0018395349911885458 -0.003118219892975101 -0.0016164501528375592
-0.009181900436825758 -0.010942562832429444 -0.00198855188832215
-0.008799321251958018 -0.010486622714411552 -0.0025311570022749537
-0.00841674206709028 -0.010030682596393658 -0.0033982321821760812
-0.008034162882222537 -0.009574742478375763 -0.003394859849497613
-0.007651583697354798 -0.00911880236035787 -0.0034272523369125387
-0.007269004512487059 -0.008662862242339977 -0.0035350717526149637
-0.006886425327619318 -0.008206922124322082 -0.004002285649533482
-0.006503846142751578 -0.00775098200630419 -0.004313953231204741
-0.006121266957883838 -0.0072950418882862965 -0.00427523628084569
-0.005738687773016099 -0.006839101770268403 -0.00423651933048664
-0.005356108588148359 -0.00638316165225051 -0.004039486062006064
-0.004973529403280618 -0.0059272215342326155 -0.004296166646354167
-0.004590950218412879 -0.005471281416214722 -0.0039997989559347105
-0.004208371033545139 -0.00501534129819683 -0.003961082005575659
-0.003825791848677399 -0.004559401180178935 -0.0034690583106745635
-0.003443212663809659 -0.004103461062161041 -0.002651501544854485
-0.003060633478941919 -0.0036475209441431482 -0.0016350461927609747
-0.0026780542940741795 -0.003191580826125255 -0.0012382536968045179
-0.010020419739711392 -0.011015923765579597 -0.0021672843299058767
-0.009637840554843652 -0.010559983647561704 -0.0022780546854988502
-0.009255261369975912 -0.010104043529543812 -0.0029420685373769497
-0.008872682185108172 -0.009648103411525917 -0.003288716481946012
-0.008490103000240432 -0.009192163293508023 -0.0033630125538817463
-0.008107523815372691 -0.00873622317549013 -0.00347378290947472
-0.007724944630504952 -0.008280283057472236 -0.003670816177955297
-0.007342365445637211 -0.007824342939454342 -0.003967183868374753
-0.006959786260769472 -0.00736840282143645 -0.0042135439005441325
-0.006577207075901732 -0.006912462703418556 -0.004181151413129207
-0.0061946278910339925 -0.006456522585400663 -0.00414875892571428
-0.005812048706166252 -0.0060005824673827705 -0.0041874758760733315
-0.0054294695212985114 -0.005544642349364875 -0.0041550833886584045
-0.005046890336430772 -0.005088702231346983 -0.004122690901243478
-0.004664311151563032 -0.0046327621133290895 -0.0050097965230721
-0.004281731966695293 -0.004176821995311195 -0.0037783487132569053
-0.0038991527818275523 -0.0037208818772933015 -0.0027199731113910866
-0.0035165735969598126 -0.003264941759275408 -0.0017269467221558948
-0.003133994412092073 -0.002809001641257515 -0.002073594666724957
-0.010093780672861544 -0.010177404462693964 -0.0023038084509413733
-0.009711201487993806 -0.009721464344676072 -0.0026701975762868984
-0.009328622303126066 -0.009265524226658179 -0.0034755494261336844
-0.008946043118258324 -0.008809584108640283 -0.0028954653519332346
-0.008563463933390586 -0.00835364399062239 -0.0034018628262527948
-0.008180884748522846 -0.007897703872604498 -0.0031555027940834146
-0.0077983055636551045 -0.007441763754586603 -0.0038206213140609207
-0.007415726378787365 -0.00698582363656871 -0.004077300708033917
-0.007033147193919625 -0.006529883518550816 -0.004038584948049974
-0.006650568009051886 -0.006073943400532924 -0.0039642876857391325
-0.006267988824184146 -0.00561800328251503 -0.0038899916138033968
-0.005885409639316406 -0.005162063164497135 -0.003922382910843216
-0.0055028304544486656 -0.004706123046479243 -0.0035255916052618665
-0.005120251269580926 -0.004250182928461349 -0.003414821249668894
-0.004737672084713186 -0.0037942428104434556 -0.0027508073977907934
-0.004355092899845446 -0.0033383026924255614 -0.0017343508553221759
-0.003972513714977706 -0.0028823625744076684 -0.00124232716042108
-0.010932299975747179 -0.010250765395844118 -0.002182458041396325
-0.010549720790879439 -0.009794825277826224 -0.0025291059859653873
-0.010167141606011698 -0.009338885159808331 -0.002925897291546736
-0.009784562421143958 -0.008882945041790439 -0.0032725452361157988
-0.009401983236276218 -0.008427004923772543 -0.0033112621864748487
-0.009019404051408478 -0.00797106480575465 -0.0033855582584105845
-0.00863682486654074 -0.007515124687736757 -0.0036819259488300405
-0.008254245681672998 -0.007059184569718863 -0.0037926974947981203
-0.007871666496805258 -0.0066032444517009695 -0.0035905479941071455
-0.0074890873119375185 -0.006147304333683077 -0.0039873404900636015
-0.007106508127069779 -0.005691364215665184 -0.0039549480026486745
-0.00672392894220204 -0.00523542409764729 -0.0035885588773031498
-0.006341349757334299 -0.004779483979629396 -0.003985350182884498
-0.005958770572466559 -0.004323543861611503 -0.0036736826012132404
-0.00557619138759882 -0.0038676037435936093 -0.00303658908238264
-0.0051936122027310795 -0.0034116636255757155 -0.004021743521034453
-0.004811033017863339 -0.002955723507557822 -0.005555671597444159
-0.004428453832995599 -0.0024997833895399283 -0.001285697287073859
-0.011005660908897331 -0.009412246092958486 -0.002387648950485989
-0.010623081724029593 -0.008956305974940591 -0.0028077704177917667
-0.010240502539161853 -0.008500365856922699 -0.003174159543137293
-0.009857923354294112 -0.008044425738904805 -0.003376309043828269
-0.009475344169426372 -0.00758848562088691 -0.003179275775347692
-0.009092764984558632 -0.007132545502869018 -0.003685673249667251
-0.008710185799690892 -0.006676605384851123 -0.003793492665369676
-0.008327606614823152 -0.00622066526683323 -0.0037191954030588344
-0.007945027429955412 -0.005764725148815337 -0.00375158789047376
-0.007562448245087673 -0.0053087850307974435 -0.0038208248682042385
-0.007179869060219933 -0.00485284491277955 -0.003424033562622889
-0.006797289875352192 -0.004396904794761656 -0.003456424859662709
-0.006414710690484453 -0.0039409646767437625 -0.003382128787726974
-0.006032131505616713 -0.0034850245587258696 -0.002985337482145625
-0.005649552320748973 -0.003029084440707976 -0.004010632559784602
-0.005266973135881233 -0.0025731443226900816 -0.0012233061565844227
-0.011844180211782965 -0.009485607026108638 -0.0022399019729405748
-0.011461601026915225 -0.009029666908090745 -0.0024369340510460445
-0.011079021842047485 -0.008573726790072851 -0.0029289589363222465
-0.010696442657179747 -0.008117786672054959 -0.0031259910144277162
-0.010313863472312005 -0.0076618465540370636 -0.0036180158997039195
-0.009931284287444267 -0.007205906436019171 -0.003361335315355816
-0.009548705102576526 -0.006749966318001278 -0.0035583685838363934
-0.009166125917708785 -0.0062940261999833835 -0.0036691389394293656
-0.008783546732841046 -0.00583808608196549 -0.003636747642389547
-0.008400967547973306 -0.005382145963947597 -0.003434598141698572
-0.008018388363105566 -0.004926205845929703 -0.003781246086267634
-0.007635809178237827 -0.004470265727911811 -0.003673426670565209
-0.007253229993370086 -0.004014325609893916 -0.0033617590888939505
-0.0068706508085023465 -0.003558385491876023 -0.003329367791854132
-0.006488071623634606 -0.0031024453738581295 -0.002862152704560506
-0.006105492438766866 -0.0026465052558402357 -0.001963969451985033
-0.005722913253899126 -0.002190565137822342 -0.0018947324742545537
-0.01191754114493312 -0.008647087723223005 -0.0023567730009575326
-0.01153496196006538 -0.008191147605205111 -0.0027231621263030586
-0.01115238277519764 -0.0077352074871872185 -0.003089551251648585
-0.0107698035903299 -0.0072792673691693234 -0.0027931847516042365
-0.010387224405462159 -0.006823327251151431 -0.003104852333275495
-0.010004645220594419 -0.006367387133133538 -0.003174089311005973
-0.009622066035726679 -0.005911447015115643 -0.0035942107783117506
-0.009239486850858939 -0.00545550689709775 -0.00366344775604223
-0.008856907665991199 -0.004999566779079857 -0.003589150493731387
-0.00847432848112346 -0.004543626661061963 -0.0039008180754026463
-0.00809174929625572 -0.004087686543044071 -0.00340879438050155
-0.007709170111387979 -0.0036317464250261756 -0.0034411868679164763
-0.00732659092652024 -0.0031758063070082827 -0.00294916317301538
-0.0069440117416525 -0.0027198661889903893 -0.002131606407195302
-0.012756060447818752 -0.008720448656373158 -0.002071767440935529
-0.012373481262951014 -0.008264508538355263 -0.0024184153855045915
-0.011990902078083274 -0.007808568420337371 -0.0028152066910859404
-0.011608322893215534 -0.0073526283023194776 -0.00292597823705402
-0.011225743708347793 -0.006896688184301583 -0.003123011505534597
-0.010843164523480053 -0.00644074806628369 -0.0033200447740151743
-0.010460585338612313 -0.005984807948265797 -0.003430815129608147
-0.010078006153744571 -0.005528867830247903 -0.003627848398088724
-0.009695426968876833 -0.00507292771223001 -0.0038248816665693007
-0.009312847784009093 -0.004616987594212117 -0.004121249356988758
-0.008930268599141353 -0.004161047476194224 -0.0038095817753174984
-0.008547689414273614 -0.0037051073581763306 -0.0037403447975870195
-0.008165110229405874 -0.003249167240158435 -0.0034286760255406537
-0.007782531044538134 -0.002793227122140542 -0.0030085557486099835
-0.007399951859670394 -0.002337287004122649 -0.0024323463453832066
-0.007017372674802654 -0.001881346886104755 -0.001565269975106971
-0.012446842196101166 -0.007425989235469632 -0.0030385151093059583
-0.012064263011233428 -0.006970049117451738 -0.0029277447537129856
-0.011681683826365686 -0.006514108999433844 -0.003129893064028853
-0.011299104641497948 -0.006058168881415951 -0.003199130041759332
-0.010916525456630207 -0.005602228763398057 -0.003306949457461756
-0.010533946271762466 -0.005146288645380164 -0.003618617039133015
-0.010151367086894725 -0.004690348527362271 -0.0038752964331060114
-0.009768787902026985 -0.004234408409344377 -0.0039076889205209376
-0.009386208717159247 -0.0037784682913264843 -0.003868971970161887
-0.009003629532291509 -0.0033225281733085905 -0.0032464176928896403
-0.008621050347423767 -0.002866588055290696 -0.003049384424409063
-0.008238471162556027 -0.002410647937272803 -0.002652593118827714
-0.007855891977688288 -0.0019547078192549095 -0.0018350363530076363
-0.013285361498986799 -0.007499350168619785 -0.0024181285051037764
-0.01290278231411906 -0.007043410050601892 -0.0027647764496728376
-0.01252020312925132 -0.006587469932583999 -0.0029618097181534145
-0.01213762394438358 -0.006131529814566104 -0.0030005254781373582
-0.01175504475951584 -0.0056755896965482115 -0.0030392424284964087
-0.0113724655746481 -0.005219649578530318 -0.0034360349244528647
-0.010989886389780358 -0.004763709460512424 -0.0035468052800458386
-0.010607307204912618 -0.0043077693424945305 -0.0038934532246149
-0.01022472802004488 -0.0038518292244766376 -0.0038610607371999737
-0.00984214883517714 -0.0033958891064587446 -0.0036589124268841056
-0.009459569650309401 -0.002939948988440851 -0.003238790959578328
-0.00907699046544166 -0.002484008870422956 -0.0032063984721634018
-0.00869441128057392 -0.0020280687524050632 -0.0025988167329885
-0.00831183209570618 -0.00157212863438717 -0.002287149151317241
-0.00792925291083844 -0.001116188516369276 -0.0014510022974492823
-0.013358722432136955 -0.006660830865734151 -0.002375524980019981
-0.012976143247269215 -0.006204890747716258 -0.0029517331928716507
-0.012593564062401474 -0.005748950629698364 -0.002554941887290302
-0.012210984877533734 -0.0052930105116804705 -0.00262417886502078
-0.011828405692665994 -0.004837070393662577 -0.002880858258993777
-0.011445826507798254 -0.004381130275644683 -0.003457067662220554
-0.011063247322930514 -0.0039251901576267895 -0.00348946014963548
-0.010680668138062774 -0.0034692500396088966 -0.003193092459216024
-0.010298088953195035 -0.0030133099215910036 -0.0031187963872802895
-0.009915509768327295 -0.0025573698035731103 -0.0029217631187997127
-0.009532930583459553 -0.0021014296855552156 -0.0030295825345021364
-0.009150351398591815 -0.0016454895675373227 -0.0023655686826240373
-0.008767772213724075 -0.0011895494495194295 -0.0026772362642952952
-0.008385193028856335 -0.0007336093315015356 -0.0010778518414953197
-0.013814662550154847 -0.006278251680866411 -0.0022004434188897886
-0.013432083365287107 -0.005822311562848518 -0.0026924671137908847
-0.013049504180419367 -0.005366371444830624 -0.002660075816751066
-0.012666924995551627 -0.00491043132681273 -0.0025908376486454797
-0.012284345810683888 -0.004454491208794837 -0.0026295545990045305
-0.011901766625816147 -0.003998551090776943 -0.002826587867485108
-0.011519187440948406 -0.00354261097275905 -0.002829961390538683
-0.011136608256080668 -0.0030866708547411565 -0.002833333723217152
-0.010754029071212928 -0.0026307307367232635 -0.002872050673576202
-0.010371449886345188 -0.00217479061870537 -0.0029107676239352523
-0.009988870701477448 -0.0017188505006874757 -0.002841530646204774
-0.009606291516609708 -0.0012629103826695826 -0.0028802475965638242
-0.009223712331741967 -0.0008069702646516893 -0.002105601472605177
-0.008841133146874227 -0.0003510301466337955 -0.001498019733430275
-0.013888023483305001 -0.005439732377980779 -0.0020378810327611684
-0.013505444298437261 -0.0049837922599628845 -0.0025804861467139716
-0.013122865113569521 -0.004527852141944991 -0.0019579318694417248
-0.012740285928701781 -0.004071912023927098 -0.001954558346388149
-0.01235770674383404 -0.0036159719059092035 -0.0018437879907951765
-0.0119751275589663 -0.0031600317878913106 -0.002970322090544424
-0.01159254837409856 -0.002704091669873417 -0.0021527641343492385
-0.011209969189230822 -0.0022481515518555243 -0.002409444718697342
-0.010827390004363082 -0.001792211433837631 -0.002517264134399766
-0.01044481081949534 -0.0013362713158197365 -0.002586501112130245
-0.010062231634627602 -0.0008803311978018432 -0.002475729566162165
-0.009679652449759862 -0.00042439107978395005 -0.0018117169046591717
-0.009297073264892122 3.1549038233943774e-05 -0.0017009453586910917
-0.008914494080024381 0.0004874891562518376 -0.0013542986044971367
-0.013961384416455154 -0.004601213075095144 -0.002128001951370946
-0.013578805231587414 -0.004145272957077251 -0.001871322557397949
-0.013196226046719675 -0.003689332839059358 -0.001838930069983023
-0.012813646861851933 -0.0032333927210414634 -0.0018423024026614913
-0.012431067676984193 -0.0027774526030235704 -0.0015856230086884952
-0.012048488492116455 -0.002321512485005677 -0.0020776467035895914
-0.011665909307248715 -0.001865572366987784 -0.0022746799720701682
-0.011283330122380975 -0.0014096322489698908 -0.002521040004239548
-0.010900750937513234 -0.0009536921309519963 -0.0025244123369180167
-0.010518171752645494 -0.0004977520129341031 -0.0025631292872770675
-0.010135592567777754 -4.181189491620994e-05 -0.0023064498933040704
-0.009753013382910014 0.00041412822310168387 -0.0022740574058891447
-0.009370434198042274 0.0008700683411195778 -0.0023127743562481947
-0.008987855013174536 0.001326008459137471 -0.002316146688926663
-0.008605275828306795 0.001781948577155364 -0.002246909711196185
-0.008222696643439055 0.002237888695173258 -0.0016098161923655849
-0.007840117458571315 0.0026938288131911512 -0.0017205877383336648
-0.006309800719100356 0.004517589285262726 -0.0014665366925971878
-0.0059272215342326155 0.004973529403280619 -0.0014699090252756563
-0.005544642349364875 0.005429469521298512 -0.0015442062875864985
-0.005162063164497135 0.005885409639316406 -0.0017412395560670753
-0.004779483979629396 0.006341349757334299 -0.0014295719743958166
-0.004396904794761656 0.006797289875352193 -0.0012274224737048416
-0.003631746425026176 0.00770917011138798 -0.001222307431869551
-0.0032491672401584355 0.008165110229405874 -0.0011899149444546243
-0.002101429685555216 0.009532930583459553 -0.0018964037609049494
-0.001718850500687476 0.009988870701477448 -0.002243051705474012
-0.0013362713158197365 0.01044481081949534 -0.0023538220610669854
-0.0009536921309519968 0.010900750937513234 -0.0018866081641484669
-0.0001885337612165163 0.011812631173549021 -0.001965297910604578
-0.01365216616473757 -0.003306753654191617 -0.0012634836971999095
-0.013269586979869828 -0.0028508135361737224 -0.0011891876252641746
-0.012887007795002087 -0.0023948734181558295 -0.0012584246029946533
-0.012504428610134349 -0.001938933300137936 -0.001460572913310521
-0.012121849425266609 -0.001482993182120043 -0.0019277880006041464
-0.011739270240398869 -0.0010270530641021498 -0.0018170164546360665
-0.011356691055531129 -0.0005711129460842553 -0.0023234139289556263
-0.010974111870663389 -0.00011517282806636213 -0.0029885324489331323
-0.010591532685795648 0.00034076728995153106 -0.002641884504364071
-0.010208953500927908 0.0007967074079694249 -0.0027497039200664953
-0.009826374316060168 0.0012526475259873188 -0.0029518522303823634
-0.00944379513119243 0.001708587644005212 -0.002948479897703895
-0.00906121594632469 0.002164527762023105 -0.002837708351735814
-0.00867863676145695 0.002620467880040999 -0.0027634122798000796
-0.00829605757658921 0.0030764079980588922 -0.003129801405145606
-0.00791347839172147 0.003532348116076786 -0.002052378611190772
-0.007530899206853729 0.00398828823409468 -0.002519593698484398
-0.00714832002198599 0.004444228352112573 -0.002223226008064942
-0.00676574083711825 0.0049001684701304666 -0.002729623482384502
-0.00638316165225051 0.00535610858814836 -0.002726249959330927
-0.00600058246738277 0.005812048706166253 -0.0028340693750333506
-0.0056180032825150295 0.006267988824184147 -0.0028664618624482776
-0.00523542409764729 0.00672392894220204 -0.0028277449120892276
-0.00485284491277955 0.007179869060219934 -0.0027169745564962536
-0.00447026572791181 0.007635809178237828 -0.002470614524326874
-0.00408768654304407 0.00809174929625572 -0.0027822821059981322
-0.0037051073581763298 0.008547689414273614 -0.002984431606689108
-0.0033225281733085905 0.009003629532291509 -0.0023204177548110075
-0.002939948988440851 0.009459569650309401 -0.002957511273641608
-0.0025573698035731103 0.009915509768327295 -0.003065330689344032
-0.00217479061870537 0.01037144988634519 -0.00299103342703319
-0.0017922114338376307 0.010827390004363082 -0.0026946657366137346
-0.001409632248969891 0.011283330122380975 -0.0023982992365693847
-0.0010270530641021502 0.01173927024039887 -0.0021019315461499287
-0.0006444738792344105 0.012195210358416763 -0.0020632145957908787
-0.0002618946943666709 0.012651150476434656 -0.0018168545636214983
0.00012068449050106876 0.01310709059445255 -0.0014702078094275433
-0.013342947913019982 -0.00201229423328809 -0.00138341160849195
-0.012960368728152242 -0.0015563541152701968 -0.0014221285588510008
-0.012577789543284503 -0.0011004139972523037 -0.0018189198644323501
-0.012195210358416763 -0.0006444738792344105 -0.0020159531329129268
-0.011812631173549021 -0.00018853376121651604 -0.002262313165082308
-0.011430051988681283 0.0002674063568013771 -0.0025086720068765805
-0.011047472803813543 0.0007233464748192703 -0.0028553199514456426
-0.010664893618945803 0.0011792865928371642 -0.0032521112570269915
-0.010282314434078062 0.001635226710855058 -0.003449144525507569
-0.009899735249210322 0.002091166828872951 -0.0036955045576769494
-0.009517156064342582 0.0025471069468908443 -0.003806274913269922
-0.009134576879474842 0.003003047064908738 -0.0037738836162301025
-0.008751997694607102 0.0034589871829266315 -0.0037046466384996245
-0.008369418509739364 0.003914927300944525 -0.003708018971178093
-0.007986839324871623 0.004370867418962419 -0.0037823162334889356
-0.007604260140003883 0.0048268075369803124 -0.0038566123054246696
-0.007221680955136143 0.005282747654998206 -0.0037873753276941916
-0.006839101770268403 0.005738687773016099 -0.0034757077460229324
-0.006456522585400663 0.0061946278910339925 -0.0035500038179586677
-0.006073943400532923 0.006650568009051886 -0.003588720768317718
-0.005691364215665184 0.007106508127069779 -0.003556328280902792
-0.0053087850307974435 0.0075624482450876735 -0.003487091303172313
-0.004926205845929703 0.008018388363105566 -0.003525808253531364
-0.004543626661061963 0.00847432848112346 -0.003456571275800885
-0.004161047476194223 0.008930268599141354 -0.003424178788385959
-0.003778468291326484 0.009386208717159247 -0.003670538820555339
-0.003395889106458744 0.009842148835177141 -0.0033588712388840807
-0.0030133099215910036 0.010298088953195034 -0.0033264787514691537
-0.0026307307367232635 0.010754029071212928 -0.0031243304411532865
-0.002248151551855524 0.01120996918923082 -0.0027042089738475088
-0.0018655723669877844 0.011665909307248715 -0.0025020606635316406
-0.0014829931821200436 0.012121849425266609 -0.002081939196225863
-0.001100413997252304 0.012577789543284501 -0.0018797908859099954
-0.0007178348123845642 0.013033729661302396 -0.0016231103015618919
-0.0003352556275168246 0.013489669779320288 -0.0014209619912460237
-0.013416308846170136 -0.0011737749304024576 -0.0012555510374860674
-0.013033729661302396 -0.0007178348123845644 -0.0015672186191573259
-0.012651150476434656 -0.0002618946943666713 -0.0018238980131303221
-0.012268571291566915 0.0001940454236512232 -0.0020805785974784257
-0.011885992106699175 0.0006499855416691164 -0.002282726907794294
-0.011503412921831435 0.0011059256596870095 -0.003000918301922708
-0.011120833736963695 0.0015618657777049035 -0.0030701552796531862
-0.010738254552095955 0.0020178058957227973 -0.003844801403611834
-0.010355675367228217 0.00247374601374069 -0.003448008907655377
-0.009973096182360476 0.0029296861317585836 -0.004409123721018918
-0.009590516997492736 0.0033856262497764774 -0.004720791302690176
-0.009207937812624996 0.0038415663677943707 -0.00422876760778908
-0.008825358627757256 0.004297506485812264 -0.004261160095204007
-0.008442779442889516 0.004753446603830158 -0.004186862832893165
-0.008060200258021776 0.005209386721848052 -0.004183490500214696
-0.007677621073154037 0.005665326839865945 -0.004215881797254516
-0.0072950418882862965 0.006121266957883838 -0.003262671074602246
-0.006912462703418556 0.006577207075901732 -0.00395469802387618
-0.006529883518550816 0.007033147193919625 -0.003951325691197712
-0.006147304333683077 0.0074890873119375185 -0.0038770284288868707
-0.005764725148815337 0.007945027429955412 -0.003766258073293898
-0.005382145963947597 0.008400967547973306 -0.0037628845502403222
-0.004999566779079857 0.008856907665991199 -0.0038321215279708003
-0.0046169875942121165 0.009312847784009093 -0.003721351172377828
-0.004234408409344377 0.009768787902026987 -0.003682634222018777
-0.0038518292244766376 0.01022472802004488 -0.0033359874678248217
-0.003469250039608897 0.010680668138062774 -0.0032252159218567416
-0.003086670854741157 0.011136608256080668 -0.002978857080062468
-0.002704091669873417 0.01159254837409856 -0.002632209135493407
-0.0023215124850056775 0.012048488492116453 -0.0023358414450739507
-0.001938933300137937 0.012504428610134349 -0.0020894814129045697
-0.0015563541152701973 0.012960368728152242 -0.0016926901073232208
-0.0011737749304024576 0.013416308846170134 -0.0011126060331227707
-0.000791195745534718 0.013872248964188028 -0.0011449985205376973
-0.013872248964188028 -0.0007911957455347175 -0.001208528840004647
-0.013489669779320288 -0.0003352556275168244 -0.0014055621084852234
-0.013107090594452548 0.00012068449050106882 -0.0015163324640781965
-0.012724511409584808 0.0005766246085189633 -0.002008356158979293
-0.012341932224717068 0.0010325647265368564 -0.002205389427459869
-0.011959353039849328 0.0014885048445547496 -0.003190543866111682
-0.011576773854981588 0.0019444449625726436 -0.0038545577179897824
-0.011194194670113847 0.0024003850805905374 -0.004201205662558843
-0.010811615485246109 0.0028563251986084303 -0.004447565694728224
-0.010429036300378369 0.0033122653166263237 -0.004693924536522497
-0.010046457115510629 0.0037682054346442175 -0.004586105120820073
-0.009663877930642889 0.004224145552662111 -0.004589478643873649
-0.009281298745775149 0.004680085670680004 -0.004481659228171223
-0.008898719560907408 0.0051360257886978984 -0.004449266740756298
-0.008516140376039668 0.005591965906715792 -0.004416875443716477
-0.008133561191171928 0.006047906024733685 -0.004347638465986
-0.007750982006304189 0.0065038461427515785 -0.003981248150265366
-0.007368402821436449 0.006959786260769472 -0.004092019696233447
-0.006985823636568709 0.007415726378787365 -0.003984200280531022
-0.0066032444517009695 0.00787166649680526 -0.003914963302800544
-0.006220665266833229 0.008327606614823152 -0.003712814992484676
-0.005838086081965489 0.008783546732841046 -0.004760002258718682
-0.005455506897097749 0.009239486850858939 -0.0035988377663531243
-0.005072927712230009 0.009695426968876833 -0.003529600788622645
-0.00469034852736227 0.010151367086894727 -0.0033274512879316706
-0.00430776934249453 0.01060730720491262 -0.0031253029776158025
-0.0039251901576267895 0.011063247322930514 -0.0028686235836428062
-0.0035426109727590494 0.011519187440948408 -0.002666475273326939
-0.0031600317878913097 0.0119751275589663 -0.0036829306254204494
-0.00277745260302357 0.012431067676984193 -0.0022690959224426726
-0.0023948734181558295 0.01288700779500209 -0.0016928865192158955
-0.0020122942332880898 0.013342947913019982 -0.0012727650519101178
-0.0131804515276027 0.0009592037933867025 -0.0013455993432143103
-0.012797872342734962 0.0014151439114045957 -0.0016572669248855689
-0.012415293157867222 0.0018710840294224888 -0.002524343295161804
-0.012032713972999482 0.002327024147440383 -0.0034538584109317606
-0.011650134788131742 0.0027829642654582766 -0.003820247536277287
-0.011267555603264002 0.0032389043834761696 -0.0041866366616228135
-0.010884976418396261 0.003694844501494063 -0.004553025786968339
-0.010502397233528521 0.004150784619511957 -0.004755174097284208
-0.010119818048660781 0.00460672473752985 -0.0044085261527151455
-0.009737238863793043 0.0050626648555477435 -0.0045163455684175706
