ply
format ascii 1.0
element vertex 764
property float x
property float y
property float z
end_header
0.02517576138439678 -0.007123061278849358 0.0565191976813164
0.02540164832348841 -0.007313300864935045 0.05663796211575031
0.02563397972916092 -0.0075104470830698366 0.056739832615992664
0.025890268302554684 -0.0077332687299873385 0.056778897933258805
0.02610362360966807 -0.007910077888391445 0.05693051479963166
0.026297332562845607 -0.008065831639689366 0.05713363541917361
0.02657134089880889 -0.008307643925257516 0.05712624762896702
0.026790941261789145 -0.00849114603649961 0.0572614928667303
0.02687680433849997 -0.008531319097047959 0.05774733626907329
0.027227612517333494 -0.008855439381935563 0.057538614331413884
0.02748390103940665 -0.009078260983406488 0.05757767965220484
0.027697256370969096 -0.009255070163235771 0.05772929651999061
0.027944829390634585 -0.009468551177615914 0.0577912099213327
0.02811223649400759 -0.009596116675670386 0.05806328213061789
0.02186690887261279 -0.004659147164826684 0.05613312459289174
0.02227763654252234 -0.0049956362147660525 0.0564782584621964
0.022778530359208817 -0.005428758295529745 0.05658701668463205
0.0233116083268735 -0.005896372692604629 0.056611404283626626
0.02362023987587697 -0.006175291435160337 0.056513249749110546
0.02385204990408305 -0.006371878901216959 0.056616486801741917
0.02410052673443162 -0.006586328529390572 0.05667603108486106
0.024300159012397217 -0.006748430424283517 0.05686362355328607
0.024595469927696834 -0.00701307312554006 0.05680039018166449
0.024863297633046837 -0.007248261493120682 0.05680920527786047
0.02514079395328735 -0.0074938119375796775 0.05679267340434466
0.025372603943630615 -0.007690399343948322 0.056895910818264034
0.025584767572790608 -0.007865931360823497 0.05705065165634478
0.025833244383535084 -0.008080380972764388 0.05711019592534971
0.02600247484921608 -0.00820990061458504 0.0573774879980025
0.02626058691687011 -0.008434676535338416 0.05741177298829711
0.026466505558665462 -0.008603515658458677 0.05758288547192748
0.026691498349888848 -0.008792796957928221 0.05770399408612515
0.026897417088583536 -0.008961636184897539 0.057875106315729556
0.02716524461861781 -0.009196824383698217 0.05788392160949465
0.027358432286447357 -0.009352019454471762 0.0580884089125054
0.027570595576011214 -0.009527551116949423 0.05824315050983818
0.02781907250325912 -0.009742000848972091 0.05830269453893136
0.028050882424875932 -0.009938588200794752 0.05840593187099129
0.02826304609324412 -0.010114120250135371 0.05856067273730046
0.02112866016937244 -0.004431721801899087 0.05611747088025159
0.021666345194813245 -0.004904273717831383 0.05612978034654924
0.021990338423737175 -0.005147807644600332 0.05670229244392419
0.022290032753144465 -0.005417148181094837 0.05662756723151546
0.02250963295929194 -0.0056006501624751535 0.05676281235636503
0.022774757485027695 -0.005832941437435357 0.056778714483246
0.023057625595298066 -0.00608424892305051 0.05674810048320996
0.023289957095179156 -0.0062813952994794225 0.05684996995039347
0.023522288403055414 -0.006478541431913515 0.05695184044498416
0.02377857702534731 -0.0067013631216813665 0.05699090576507613
0.024010908371983303 -0.006898509295655081 0.057092776158056434
0.02432616217847011 -0.007184525212506415 0.05697726160252207
0.024558493641385303 -0.007381671511098996 0.05707913169067122
0.02487374738883559 -0.0076676873837892515 0.05696361702787481
0.0250871030943574 -0.007844496945289041 0.057115233177338263
0.025319434401785197 -0.008041643086797313 0.05721710354209014
0.02558455873170421 -0.008273934194893206 0.05723300559274837
0.02575196580381216 -0.00840149966750213 0.057505077773452845
0.02597785260179113 -0.008591739089515148 0.05762384275387062
0.02618488868673401 -0.008761775799940225 0.05779202581015969
0.02641077566503383 -0.008952015418491355 0.05791079027282204
0.026643107011669824 -0.00914916159246507 0.05801266066580234
0.026868993756962778 -0.009339400970852646 0.05813142560828817
0.027082349287168864 -0.009516210363572492 0.05828304195532073
0.027276058282221332 -0.009671964170796393 0.05848616231360019
0.027508389628857325 -0.009869110344770105 0.058588032706580494
0.02770209870232618 -0.010024864216924894 0.05879115312131681
0.027915454251912136 -0.010201673630414552 0.05894276941754418
0.028329054407138954 -0.010593089396006528 0.05856943549683521
0.028399517452025663 -0.010616757909255073 0.059095650904486215
0.02875032567446389 -0.010940878240874752 0.05888692885251513
0.029015449883203173 -0.01117316925254159 0.05890283076230081
0.020510197496357744 -0.004332672890211757 0.055787794543807126
0.020923922685511995 -0.004672374520958395 0.056125069233823204
0.02112355481023249 -0.004834476213396141 0.05631266262804499
0.021348547813289043 -0.005023757768556141 0.056433770293869125
0.02157354089745274 -0.005213039334201965 0.056554878795182985
0.021805350419988434 -0.00540962629654021 0.05665811664939409
0.022053827403582103 -0.005624076127169022 0.05671766000671645
0.022321654874579856 -0.005859264281808623 0.05672647519321949
0.022570131861761204 -0.006073714039844014 0.05678601958925234
0.02282824374196707 -0.006298489753434916 0.05682030515692898
0.023076720493002332 -0.006512939334825996 0.05687984912391363
0.023325197517149576 -0.006727389170697719 0.05693939289898086
0.02355700723527778 -0.006923976304437364 0.0570426307644953
0.023824835134426455 -0.007159164879716098 0.057051445352639375
0.024056644968833866 -0.007355752138074609 0.05715468291332266
0.02428163777988558 -0.007545033449239788 0.05727579160655395
0.024474825398368538 -0.007700228486237162 0.05748027877690006
0.024800152240610152 -0.007997039868087032 0.057338357568273136
0.02510238653552865 -0.008269102510334097 0.057256974115373845
0.025262781345595856 -0.008389152791063411 0.0575474293006341
0.025474944690184118 -0.008564684501464147 0.057702170905203416
0.025693427584286464 -0.008746989004095977 0.05784034555178308
0.025911910504119187 -0.008929293528033256 0.05797852021688765
0.026022175546920583 -0.008995618688459965 0.058400392770418384
0.026347502427025014 -0.009292430129997812 0.05825847120050346
0.02656598497774334 -0.009474734277457035 0.058396646571229054
0.026797794986569555 -0.009671321722743846 0.05849988367466561
0.02701627782798589 -0.009853626181750234 0.05863805828331333
0.02722219646978124 -0.010022465304870495 0.05880917076694369
0.02743436004125009 -0.01019799725036206 0.05896391188727882
0.027633992125417013 -0.010360098937556895 0.05915150486375574
0.027839910961011037 -0.010528938268375265 0.05932261683933419
0.028064903888341958 -0.010718219704159312 0.059443725227734334
0.028313380718690526 -0.010932669332332924 0.05950326951085348
0.02862201226769399 -0.011211588074888633 0.0594051149763374
0.028952290977001183 -0.01151370645762895 0.05925021248807944
0.02031211777350562 -0.0045804612107974325 0.05577793888817771
0.020722241408124023 -0.004916302979859592 0.05612465521498022
0.020935596959503814 -0.005093112357052538 0.05627627203056284
0.02114895235225699 -0.005269921640680417 0.056427888213876495
0.02137483931341924 -0.005460161193090849 0.05654665337653808
0.021600726115954882 -0.005650400651936214 0.056665417906930714
0.021826612763451582 -0.0058406399446230915 0.05678418284376487
0.022082901228910694 -0.006063461504529164 0.05682324805094313
0.022382595871983543 -0.006332802300747224 0.056748523064361844
0.022608482753832482 -0.006523041806375123 0.05686728791088896
0.022891350668510346 -0.006774349120588875 0.05683667389954957
0.023138923660608577 -0.0069878300863150025 0.05689858763518941
0.02342179192591789 -0.007239137738088643 0.05686797322871183
0.02363514735922464 -0.007415947026959434 0.05701958982977035
0.023918015663293685 -0.007667254720272696 0.056988975321682386
0.024150347009929678 -0.00786440089424641 0.057090845714662684
0.02438267835566875 -0.00806154708636848 0.057192715847965356
0.024576387410654658 -0.0082173009196051 0.05739583657318449
0.024789742921032417 -0.008394110300629315 0.057547452841183434
0.024966785075855355 -0.008532001890585332 0.05779426626534372
0.025192671885862647 -0.008722241327280892 0.05791303118966348
0.025440244929749972 -0.008935722354780816 0.05797494470355764
0.025705369182373743 -0.009168013375260377 0.057990847022356046
0.025882411356352317 -0.009305904990523296 0.058237660330791745
0.026089447518814667 -0.009475941784027617 0.05840584318386005
0.0262831564169678 -0.009631695487402461 0.058608963796165474
0.026530729525345232 -0.009845176577747455 0.05867087722697416
0.026750329809909098 -0.01002867862405866 0.05880612240828058
0.02696993009536988 -0.01021218065222151 0.05894136784926463
0.02717696625783223 -0.01038221744572583 0.05910955070233294
0.027409297604468225 -0.010579363619699547 0.05921142109531324
0.02754782636244265 -0.010675979588097998 0.05955919918258316
0.027812950731345626 -0.010908270733196425 0.05957510119655041
0.02803255109432588 -0.011091772844438519 0.05971034643431371
0.028280124026490664 -0.011305253784151923 0.059772259803013865
0.02871418059757681 -0.01171859308230258 0.05934529899448457
0.02892753587405078 -0.011895402241311593 0.05949691548262937
0.029159867566473256 -0.012092548747652743 0.05959878549317277
0.029442735809048763 -0.01234385633684288 0.059568171670350764
0.020142927076175817 -0.004859210507152183 0.055692349356140064
0.020480247836242506 -0.005117027905569741 0.0562299216846171
0.02073835987328115 -0.0053418037490224205 0.05626420736520745
0.020944278358243727 -0.005510642742280904 0.0564353197359241
0.02117608850452285 -0.005707230296659681 0.05653855700307957
0.02142456541059705 -0.0059216800442092495 0.056598100563622696
0.021630483895559625 -0.006090519037467733 0.05676921293433934
0.02188859561893271 -0.006315294621196857 0.05680349838910226
0.022100759463513548 -0.006490826821169065 0.05695823931751995
0.022278705359911714 -0.006629686965186426 0.05720268360810492
0.022598817464774094 -0.006920909660725553 0.05707443228137114
0.022959314656705365 -0.007255413864569299 0.05684031016121352
0.023246304903506543 -0.0075111391305332014 0.056798889795337246
0.02345846839745593 -0.007686670992945521 0.05695363111889315
0.02370694542160317 -0.007901120828817245 0.05701317489396038
0.023938755217250845 -0.008097708045636134 0.05711641255625405
0.02414467397442848 -0.008266547311523617 0.057287524475375634
0.02436966698017579 -0.008455828812238551 0.05740863292023264
0.024538897362211036 -0.008585348365907235 0.0576759251916955
0.02473208500074655 -0.008740543410063152 0.057880412505994634
0.02494424842285428 -0.008916075203543131 0.05803515390734318
0.02525288010296015 -0.00919499405465517 0.05793699946721591
0.02537870458273595 -0.00927799458112162 0.05831808238971494
0.025610514455454633 -0.009474581890093932 0.05842131971894903
0.025822677910644284 -0.00965011371096663 0.05857606114411531
0.02605448786043398 -0.009846701112092363 0.05867929814028983
0.026286297772360856 -0.010043288453530117 0.05878253549775235
0.026479485390843813 -0.010198483490527491 0.05898702266809845
0.02673759727104968 -0.010423259204118393 0.05902130823577508
0.026915543206207586 -0.010562119389675377 0.05926575242474966
0.02713402612604031 -0.010744423913612654 0.05940392708985423
0.027359018937092024 -0.010933705224777834 0.059525035783085524
0.027584011864422945 -0.01112298666056188 0.05964614417148567
0.027802494784255664 -0.011305291184499158 0.05978431883659025
0.02807032223587355 -0.011540479318368947 0.059793134073898475
0.028276241131401016 -0.011709318675200042 0.0599642464164166
0.028681991503505828 -0.01209232170147239 0.05961149053025617
0.029021647601278584 -0.012404490028501596 0.059432004797453176
0.0291474721664239 -0.012487490608241145 0.05981308802021007
0.02944970628088465 -0.012759553085752254 0.05973170464734544
0.02014783049853526 -0.005376388381240464 0.054439426314286415
0.020214009399502016 -0.0053436172746452165 0.05568781023830694
0.02033729406835709 -0.005423895870591774 0.0560755508650162
0.02053100316299965 -0.005579649727219662 0.05627867174830258
0.020731529083611557 -0.005742709395936194 0.05646392096838237
0.020938565480426153 -0.005912746402381538 0.05663210373114362
0.021164452050403383 -0.006102985611989169 0.056750868871198554
0.02136497804853476 -0.006266045363784946 0.056936117888057566
0.02167254510018811 -0.0065438232621596116 0.05684075398109963
0.021811074208793985 -0.006640439568117952 0.05718853167323136
0.022118641494799578 -0.006918217679433639 0.05709316767596638
0.022350972800882 -0.007115363848164442 0.05719503765120181
0.0226506673258818 -0.007384704556060346 0.057120312450096425
0.023026078062122212 -0.0077351919187555246 0.056847093804490254
0.023325772625881747 -0.008004532668191051 0.056772368501774494
0.02359978088098614 -0.008246344860830687 0.05676498100952137
0.023856069483898165 -0.008469166529828728 0.056804046380418534
0.02407566976846203 -0.008652668576139933 0.05693929156172496
0.024542265651808184 -0.009100880958178598 0.056427027224318735
0.024472281162871052 -0.008974028907410243 0.057321432011544285
0.024610809901241378 -0.009070644859575972 0.05766921008469999
0.024734094655087576 -0.009150923516451966 0.05805695090211563
0.02492780360592672 -0.009306677263452252 0.058260071552352986
0.025141158922954265 -0.009483486427704177 0.058411688458242655
0.025367045920633956 -0.009673726067025119 0.05853045287009981
0.025592932724963432 -0.009863965489573773 0.05864921791984769
0.025840505638645272 -0.010077446390369012 0.05871113159903067
0.026060106001625526 -0.010260948501611106 0.05884637683679395
0.026273461589074294 -0.010437757974788742 0.058997992771733315
0.026499348315884304 -0.010627997314258151 0.059116758024701954
0.026706384478346654 -0.010798034107762472 0.05928494087777026
0.026925984763807437 -0.010981536135925321 0.05942018631875431
0.027151871568136914 -0.011171775558473977 0.05953895136850219
0.027371471931117164 -0.011355277669716071 0.05967419660626547
0.02757199800856185 -0.011518337468294379 0.05985944593925898
0.02779159821470932 -0.011701839449674695 0.05999469106410854
0.028039171479919536 -0.011915320669881468 0.06005660460783095
0.02823969740053144 -0.012078380338598 0.06024185382791073
0.028504821926267195 -0.012310671613558203 0.06025775595479171
0.028880232693371245 -0.012661158971111388 0.059984537752333006
0.01983456246471517 -0.005500726968223835 0.0547315419833658
0.020184193173056097 -0.005823585295020202 0.05452590736148358
0.020012913161547578 -0.005588172732602219 0.05568586251234326
0.02017330779562637 -0.005708222858162857 0.0559763177004144
0.02033370258833177 -0.005828273077288564 0.05626677352075451
0.02053333447690618 -0.005990374593081998 0.056454366485928095
0.020732966911704554 -0.006152476617836721 0.056641959067266816
0.020938885396667127 -0.006321315611095204 0.05681307143798346
0.0211448038816297 -0.0064901546043536875 0.05698418380870011
0.02136979665212784 -0.006679435910275955 0.05710529208418654
0.02156298435082103 -0.006834630975907507 0.05730977983034475
0.021811461258689064 -0.007049080687160365 0.05736932391024313
0.022069573214620563 -0.007273856520127221 0.05740360875534374
0.022419203727368976 -0.0075967146755221895 0.057197974122158185
0.022873018856240806 -0.0080312296735066 0.05671921484393971
0.0231752531903675 -0.008303292348219108 0.05663783141926885
0.023407063102294377 -0.008499879689656865 0.056741068776731365
0.023674890827024245 -0.008735068078007297 0.05674988382212216
0.023952387127884892 -0.008980618501696482 0.056733351999411534
0.024055148093621064 -0.009038901356366183 0.057174897220655406
0.024313260147797274 -0.009263677265959563 0.0572091822012465
0.0245382530555241 -0.009452958685510885 0.057330290575532426
0.02465620452803365 -0.009527521552696913 0.057732012829230434
0.0247988553968085 -0.00962855528013867 0.05806898453213522
0.024976801331966406 -0.009767415465695652 0.0583134287211098
0.025137195928630836 -0.009887465522494135 0.05860388440030776
0.025414692327287738 -0.010133016031884018 0.058587352583248806
0.02556620307606203 -0.010243545091755093 0.05890109753721795
0.025765835160228956 -0.010405646778949926 0.05908869051369487
0.026023946884498966 -0.010630422344530696 0.0591229762281354
0.02624894000562856 -0.010819703988012852 0.059244084108483634
0.026374764446644626 -0.01090270447293968 0.05962516713259305
0.026705042727800898 -0.011204822435040864 0.059470265242694054
0.026910961369596247 -0.011373661558161125 0.05964137772632442
0.02714277139780233 -0.011570249024217747 0.05974461477895579
0.027374581387248676 -0.011766836448734748 0.05984785193319755
0.027661571496596944 -0.012022561605606684 0.05980643140360236
0.02778739599754645 -0.012105562116546235 0.06018751479465145
0.027993314482509024 -0.012274401109804718 0.0603586271653681
0.028323593211196083 -0.012576519513314847 0.060203724626304946
0.028581705267614593 -0.012801295377537337 0.0602380102560901
0.028969921220298532 -0.013165506398022052 0.0599312216370597
0.019950978215936915 -0.006033718446657969 0.054608160298700255
0.020005038619013264 -0.006039807942188127 0.055177375443644344
0.020047979706956858 -0.006033980634012733 0.05577574037203675
0.02004315663494644 -0.00597696339538935 0.05649932223663035
0.02031716481073752 -0.006218775541246453 0.056491934428242754
0.020510873905380082 -0.006374529397874341 0.05669505531152912
0.02068791584545487 -0.006512420791122062 0.05694186884011068
0.02090127108316911 -0.006689229908591453 0.057093485429865864
0.021108307011279213 -0.0068592664891547524 0.05726166837324122
0.021327907531092247 -0.007042768730258624 0.05739691372391822
0.021547507971591964 -0.007226270924579962 0.05753215875846074
0.021830375847510092 -0.007477578197254092 0.05750154484873174
0.02216045912844176 -0.007779487173516549 0.05734715416066951
0.022783402087773207 -0.008395260021707488 0.05642501868759374
0.023036079698154015 -0.00861421171412307 0.0564735504374056
0.023318947982843192 -0.008865519386666522 0.05644293598012282
0.023839604286223084 -0.009319821282408929 0.05649988674320614
0.024052959797946222 -0.009496630636210607 0.05665150340072152
0.024309248308355416 -0.009719452215626225 0.05669056888310453
0.024466939631781624 -0.009836605112907309 0.0569881113798763
0.024673975683642588 -0.010006641795939667 0.05715629441234763
0.02480418364079893 -0.01009434019350607 0.05752588576626651
0.024952206363196835 -0.010201131043097408 0.057848774999887956
0.025042692371588918 -0.010246258596681705 0.05832249917943743
0.02526229273456917 -0.0104297607079238 0.05845774441720072
0.025385577404321163 -0.010510039285722002 0.05884548530358761
0.025598932760108443 -0.010686848491513547 0.05899710210786689
0.025872940936796446 -0.010928660619222296 0.058989714559156914
0.026073467130520334 -0.011091720542419472 0.05917496358731927
0.02632104020013803 -0.011305201591224844 0.05923687711973834
0.026568613192236263 -0.011518682556950972 0.059298790855378175
0.02678821359397625 -0.011702184709732688 0.059434035991531076
0.027014100398305724 -0.011892424132281343 0.05955280104127895
0.02723998712511573 -0.012082663471750753 0.0596715662942476
0.027465873985790968 -0.012272902992905552 0.059790330672224654
0.027642916336430647 -0.012410794749725881 0.060037144172607686
0.027875247506853995 -0.012607940773068007 0.06013901450347946
0.02806895673715563 -0.012763694775084572 0.06034213503112949
0.028482557315688398 -0.013155110956123229 0.05996880052476286
0.019414355588212424 -0.00597053147244007 0.0547748720907461
0.019739682625149635 -0.006267343043839695 0.05463295063374489
0.01960444672492401 -0.006070559712967977 0.055698414529887996
0.01964878417106507 -0.00606622891121795 0.05629311884262319
0.01996335355995275 -0.006351511285125732 0.056179399042586724
0.02011486407527172 -0.006462040113907428 0.05649314434654054
0.02032078310645825 -0.006630879616127199 0.05666425633342232
0.020490013409628655 -0.00676039911393917 0.056931548418589516
0.020695931894591228 -0.006929238107197653 0.05710266078930616
0.020889119279618854 -0.00708443291310565 0.05730714830963694
0.021107602356284356 -0.007266737566904706 0.05744532308765523
0.0213135209980797 -0.007435576690024967 0.057616435571285596
0.021532003761079648 -0.007617881084100467 0.057754610123476456
0.021763813828045465 -0.00781446859169671 0.05785784707449744
0.02206604800713322 -0.00808653110025073 0.0577764640562681
0.02279897353500257 -0.008820174578480491 0.05656600434580071
0.023181551265932004 -0.009178342960001744 0.05627399710209602
0.023506878050651152 -0.009475154299313178 0.056132075782237896
0.025214235936450786 -0.010838331749750768 0.058054596934146774
0.02548206346648506 -0.011073519948551446 0.058063412227911865
0.025532171851299457 -0.011075373944837489 0.05864298829008053
0.025731803953949327 -0.01123747567095049 0.05883058095607463
0.02595028687378205 -0.011419780194887768 0.0589687556211792
0.0261562055155774 -0.01158861931800803 0.05913986810480957
0.026388015543783484 -0.011785206784064651 0.05924310515744094
0.026593934166198964 -0.011954045886415101 0.05941421769187649
0.02682574409750571 -0.012150633248622669 0.05951745499853382
0.027103240476782746 -0.01239618373724274 0.05950092323228007
0.027302872307217556 -0.012558285190726742 0.05968851634986922
0.027570700188780203 -0.012793473708938954 0.05969733150817373
0.027795693153077016 -0.012982755222559332 0.059818439275608246
0.028007856687579973 -0.013158287090214563 0.05997318101690901
0.028316488637458396 -0.013437206185957977 0.059875026479597006
0.019523035555330328 -0.006495232348478883 0.0546717701111467
0.01958259243760572 -0.006507212536277812 0.055226575989290885
0.01958400684981209 -0.006456880217011712 0.05593380496107228
0.0197514141312146 -0.006584445867644943 0.056205877227703024
0.019909105273807425 -0.006701598604564898 0.056503419739986974
0.020057128114278372 -0.00680838954247839 0.05682630918813252
0.020234170131872627 -0.006946281018805354 0.05707312251349331
0.020453770338020105 -0.007129783000185671 0.057208367638342875
0.02066080626613021 -0.0072998195807489705 0.05737655058171823
0.02085451543829224 -0.007455573520456104 0.05757967126178384
0.021119639807195213 -0.00768786466555453 0.0575955732757511
0.021332994889870515 -0.007864673616865433 0.05774719027194781
0.02151003706429755 -0.008002565223054176 0.057994003710222314
0.021757610250194452 -0.008216046396478412 0.05805591693781024
0.022127111328465354 -0.008560200254533355 0.05779819072568654
0.026208114709537392 -0.012104326014378953 0.05847465528891007
0.02642771487871897 -0.012287827917922937 0.05860990103472526
0.02662142386013346 -0.012443581691421122 0.05881302169078624
0.02690429214603388 -0.012694889365262687 0.05878240723032815
0.027130178969289008 -0.01288512880809436 0.05890117223046158
0.01916080620986661 -0.006618946319818824 0.05438130209022309
0.019263567273399042 -0.006677229260189224 0.05482284731711863
0.019270330025098936 -0.006632628868756273 0.055516055376983876
0.019396154348041962 -0.006715629265360946 0.05589713818656919
0.019521978945890806 -0.006798629880149552 0.05627822132359233
0.019699924685456196 -0.006937489894305135 0.05652266550126357
0.01987787073868714 -0.007076350168184274 0.05676710990476225
0.020055816555772005 -0.007215210265419101 0.05701155387921272
0.020255448599385356 -0.007377311947371025 0.05719914643794478
0.020461367084347926 -0.007546150940629508 0.05737025880866142
0.020673530851409293 -0.007721683057522472 0.05752499994029989
0.020941358556759288 -0.007956871425103094 0.05753381503649588
0.021092869149597727 -0.008067400336964035 0.05784756013722892
0.021235520044102955 -0.008168434085711239 0.05818453185865862
0.021560846807928184 -0.008465245402630219 0.058042610593574843
0.021766765449723533 -0.00863408452575048 0.05821372307720521
0.021991758377054454 -0.008823365961534525 0.05833483146560536
0.022341389122361274 -0.009146224366167226 0.0581291962227575
0.019180373515504424 -0.007048143114235003 0.05451181314543117
0.019175549839130442 -0.006991125304340899 0.05523539554627522
0.019112084447926368 -0.006871259936279451 0.056112709833294444
0.01935965771313658 -0.007084741156486223 0.05617462337701685
0.01948986564577979 -0.007172439559730258 0.056544214357118365
0.01966690789952013 -0.007310331212701532 0.05679102811152735
0.01983431463469868 -0.007437896354373476 0.05706310076199295
0.020034840632830057 -0.007600956106169251 0.057248349778851966
0.020241876793498564 -0.007770992935970284 0.057416532112565026
0.02045523234487836 -0.00794780231316323 0.05756814892814764
0.020687563885313023 -0.008144948694835055 0.057670018813076034
0.020919895036356505 -0.00834209469740737 0.057771889194753
0.02113949539933676 -0.008525596808649463 0.05790713443251628
0.021359095607278073 -0.00870909875373307 0.05804238007672109
0.021516786984223144 -0.008826251703594046 0.058339922498697995
0.021742674021111026 -0.009016491375380433 0.058458686938783574
0.022099886558096256 -0.009347475345489896 0.05823317568892115
0.018824072626130988 -0.007178210651771845 0.05420580350841853
0.018984467612635066 -0.0072982610785956616 0.05449625882070673
0.019001591267741473 -0.007264764685082852 0.05516230530748741
0.019018714806568682 -0.007231268166951177 0.055828352099099234
0.019211902660300803 -0.007386463398741217 0.056032839438815915
0.01926792035245326 -0.007394650562107609 0.056596923462640315
0.01946110805114644 -0.0075498456277391605 0.05680141120879852
0.019639053790711833 -0.0076887056418947445 0.05704585538646977
0.019844972275674406 -0.007857544635153228 0.05721696775718642
0.019913278586632 -0.007878901769544342 0.05774883661552878
0.0202629094887716 -0.008201760304038819 0.057543201485594636
0.020468828130566944 -0.00837059942715908 0.057714313969225
0.020629222609606795 -0.00849064938656123 0.05800476956373767
0.020906719085783166 -0.008736199979030359 0.05798823754345795
0.021106351286229293 -0.00889830179084406 0.058175830215103724
0.021324834206062016 -0.009080606314781338 0.058314004880208305
0.021582946008748414 -0.009305381945292995 0.058348290651105694
0.02175217646875159 -0.009434901572966743 0.0586155828491866
0.02198398645730102 -0.009631489015632098 0.05871881974375073
0.022251814086028474 -0.00986667728198512 0.05872763530284511
0.018701037107931508 -0.0075064254235739265 0.05399921610370583
0.018852542415316385 -0.007565100419912576 0.05502391302544115
0.018906602818392737 -0.0075711899154427345 0.05559312817038523
0.018955127521006348 -0.0075713466080131455 0.0561768564505473
0.019132169616120073 -0.007709238167419355 0.056423669572687324
0.01926237755235096 -0.007796936498069967 0.056793261591499326
0.019518665940290607 -0.008019757974896796 0.05683232700189835
0.019618858024408208 -0.008075287762478393 0.05728060587546206
0.019812566882904684 -0.008231041442461971 0.05748372632970024
0.020025922666842885 -0.00840785106889265 0.057635342535620554
0.02025180923861395 -0.008598090242203572 0.05775410819503073
0.020465164786406066 -0.008774899691989939 0.057905723971902856
0.02052472155419609 -0.008786879718873292 0.05846053067423343
0.020861955308479924 -0.00909645200769791 0.058287394699498424
0.021087842345367806 -0.009286691679484297 0.05840615913958401
0.021335415376225773 -0.009500172686750047 0.05846807277361346
0.021529124314035558 -0.009655926413516158 0.05867119354398612
0.021736160553120457 -0.009825963308248078 0.05883937593415604
0.022035855195296383 -0.010095304122614494 0.05876465068789712
0.02239929436691194 -0.010432961317467813 0.05852281590500142
0.018511036391707772 -0.007711023891964618 0.054679118983468555
0.018716955070469016 -0.007879863092921211 0.05485023084613329
0.01875564844034181 -0.0078694834160215 0.055459731358006775
0.018830359297147527 -0.007897704360354257 0.05597481146020729
0.018940624338603548 -0.0079640295480035 0.05639668362422159
0.01906644893645239 -0.008047030162792106 0.05677776676124472
0.019235679162103322 -0.008176549577524832 0.05704505904963268
0.019428866702169895 -0.008331744549591317 0.057249546163521924
0.01962205424223646 -0.008486939521657803 0.05745403327741117
0.019827973040864588 -0.008655778774639841 0.05762514587395525
0.02002760516379124 -0.008817880503374297 0.05781273874882179
0.02017911567911021 -0.008928409332155994 0.0581264840527756
0.020466105964671123 -0.00918413463965952 0.05808506358528894
0.02080113894122631 -0.009491348308741942 0.0579176970480995
0.020845476699239085 -0.009487017803012181 0.05851240106730689
0.021093953529587654 -0.009701467431185794 0.05857194535042603
0.0212631840671103 -0.009830987141938786 0.05883923734528618
0.021565418090262196 -0.010103049502482675 0.058757854473820745
0.021777581933946112 -0.010278581720603237 0.058912595142560815
0.022002574744549367 -0.010467863040842596 0.0590337037059533
0.022270402430295273 -0.010703051392190495 0.05904251878803507
0.018547856904453264 -0.00815871148814248 0.05476439881833193
0.018607413573550113 -0.008170691447473488 0.055319205255333216
0.018683302067371142 -0.008200174490144166 0.05583119812926767
0.018778542440359022 -0.008250397424845447 0.05629245813569852
0.018873783204531928 -0.008300620702349527 0.056753718164736025
0.019050825067087246 -0.008438512012518004 0.057000531896538344
0.01918103299973046 -0.008526210415762039 0.057370122876639854
0.019413364228293404 -0.008723356501413598 0.05747199305509606
0.01960707332293597 -0.008879110358041486 0.05767511393838243
0.019814109640437255 -0.009049147317704296 0.05784329638500921
0.02001463540601022 -0.00921220682026234 0.05802854601153053
0.020221671490953105 -0.009382243530687416 0.05819672906781959
0.020435027195577996 -0.009559053110335562 0.05834834495760543
0.020648382822683418 -0.009735862606904462 0.05849996105061204
0.020874269394454487 -0.009926101780215385 0.05861872671002222
0.021100156198783963 -0.010116341202764039 0.0587374917597701
0.0213197565608673 -0.010299843332154487 0.05887273673785575
0.02156732982518059 -0.010513324570509614 0.058934650021900535
0.021715352314571622 -0.010620115179937398 0.05925753973534548
0.022118480388714067 -0.01100030780093281 0.05891165877948394
0.022401348388383053 -0.011251615176076 0.05888104495885093
0.018237312407928395 -0.008285968888992301 0.05504937467924863
0.018436944529061215 -0.008448070654023468 0.05523696703475991
0.018464677696099316 -0.008425944620973456 0.05587520125817009
0.01857494266003587 -0.008492269725543455 0.056297073625405154
0.01863702276585943 -0.008506954028607313 0.056845265807938264
0.0188555052187815 -0.008689258090365836 0.05698344117301219
0.0189734568582382 -0.00876382116662997 0.05738516257553633
0.0191856200790756 -0.008939352774561647 0.05753990409100966
0.019397784001175904 -0.0091148850576131 0.05769464481620659
0.019616266688450217 -0.009297189332312645 0.05783282009097347
0.019809453995958376 -0.009452384055141398 0.05803730781452501
0.020009086196404503 -0.009614485866955097 0.05822490048617078
0.020240896185850853 -0.009811073291472098 0.05832813764041254
0.02041884223728796 -0.009949933601647948 0.05857258152455597
0.020612029701628898 -0.010105128454338478 0.05877706936102123
0.0208990197546314 -0.01036085351260427 0.05873564950319687
0.021092207373114357 -0.010516048549601644 0.05894013667354297
0.021324017440977096 -0.010712636039049532 0.059043373884241586
0.02157249423211747 -0.010927085634757703 0.0591029181391323
0.021927550390425772 -0.011255758573299161 0.058883059867202325
0.022022986003668317 -0.011306190720927096 0.05934380845606123
0.022318297203315435 -0.01157083373319517 0.059280574253031675
0.022673353071149958 -0.011899506355652376 0.059060716808098976
0.018260973939850936 -0.0087195537129828 0.05516915139095255
0.01836116633763409 -0.00877508376028795 0.0556174304903437
0.018431629085183986 -0.008798751993093589 0.05614364615341862
0.018531821405447665 -0.008854281957319497 0.056591925456030534
0.0186372278366564 -0.008915400070260683 0.05702653468477205
0.018814269776731188 -0.009053291463508402 0.05727334821335359
0.018991311794325443 -0.009191182939835367 0.057520161538714386
0.019191838106122374 -0.009354242951354697 0.05770541078140083
0.019385547121451623 -0.009509996761200052 0.057908531348552734
0.019579255979948102 -0.00966575044118363 0.058111651802790903
0.019805142939316515 -0.009855990029890772 0.05823041644609725
0.019943671736050675 -0.009952606039828846 0.05857819443175679
0.02022653976880158 -0.010203913442364754 0.05854758063494152
0.02043357585374446 -0.010373950152789831 0.058715763691230584
0.02063410208622808 -0.010537010117526628 0.05890101261778256
0.02089039047506465 -0.010759831576205104 0.0589400782878592
0.02110999091646129 -0.010943333752378086 0.05907532358207934
0.02137511509111713 -0.01117562469885258 0.059091225974259705
0.02158847054357952 -0.01135243401303027 0.059242842459593624
0.021820801973412803 -0.011549580284230133 0.05934471252392504
0.02204668898457031 -0.011739819934711073 0.05946347694548571
0.022361942791057115 -0.012025835851562406 0.059347962389951346
0.018117833522801184 -0.009078069816725117 0.054304332963676406
0.0182604840763649 -0.009179103238297338 0.0546413050548417
0.018190650522498946 -0.009052412900042734 0.05553531481407935
0.018202569094090786 -0.009013338109140017 0.0562150066608007
0.01829085450141533 -0.009056107184539532 0.05669450046984306
0.018416678630559683 -0.009139107373446094 0.057075583787480295
0.018641671401057828 -0.009328388679368362 0.05719669206296672
0.018784322293769216 -0.009429422464412276 0.057533663265041175
0.018926973345107224 -0.009530456343021257 0.05787063509938458
0.01918508514779362 -0.009755231973532914 0.057904920870281984
0.019378272687860187 -0.009910426945599399 0.058109407984171225
0.019603265537671638 -0.010099708298304201 0.05823051657579214
0.019763660173544265 -0.01021975838756813 0.05852097228321853
0.019995470162990615 -0.010416345812085129 0.058624209437460294
0.020207633540660793 -0.010591877549878583 0.05877895106584734
0.02041979730592832 -0.010767409703068257 0.05893369167813055
0.0206682740578605 -0.010981859266310982 0.05899323590479283
0.020916750966625458 -0.011196308959415485 0.05905278024436884
0.02112266956921261 -0.011365148050070302 0.05922389269977077
0.021354479539054866 -0.011561735458354578 0.05932712983989831
0.02160295633632152 -0.011776185059135472 0.05938667409919972
0.021808875184944898 -0.01194502441018802 0.059557785954642874
0.022095865392986344 -0.0122007496346123 0.05951636569037698
0.022327675188185556 -0.012397336860505367 0.05961960322283184
0.022636307126580206 -0.012676255982160585 0.05952144819156718
0.0180812347777386 -0.009395224269265645 0.05529302256229416
0.01803756146359452 -0.009296570486129443 0.05611845103140078
0.018091622141576693 -0.009302660199843535 0.05668766650378268
0.01825902926435259 -0.009430225756911699 0.05695973813814445
0.01833491728946913 -0.009459708373700332 0.057471731192693
0.01861778532042619 -0.00971101581253295 0.05744111687652247
0.0187563143515126 -0.009807632035412045 0.05778889477187496
0.018956840118879402 -0.009970691501673378 0.05797414491775153
0.019150549132414818 -0.010126445347815444 0.05817726496554817
0.019370149340356132 -0.01030994729289905 0.05831251060975298
0.019563858510724324 -0.010465701268902894 0.058515630770463345
0.019770894750706144 -0.010635738145486458 0.05868381342031089
0.01999678163255509 -0.010825977651114357 0.058802578266838004
0.02026190576889966 -0.011058268546975052 0.05881848089046756
0.020438947864910306 -0.011196160088232904 0.0590652942722852
0.02070407215719073 -0.011428451132103732 0.05908119674915085
0.020897781443389666 -0.01158420524180062 0.05928431647519125
0.021145354454643533 -0.011797686232833646 0.059346230095106485
0.0213523905065045 -0.011967722915866005 0.059514413127577825
0.021626398813397982 -0.012209535170279439 0.05950702541357903
0.02185873019879371 -0.012406681385792775 0.05960889570494895
0.02208461696391499 -0.012596920775875984 0.059727660726468394
0.022384311527674526 -0.012866261525311512 0.05965293542375263
0.022759722340537487 -0.013216748989234289 0.05937971631524808
0.017700953953555178 -0.009447743840510508 0.0557608152675971
0.017900585764610122 -0.009609845273224699 0.055948408435991456
0.017912504843666185 -0.009570770949743646 0.05662810000048832
0.018064015281465683 -0.009681299695446099 0.0569418455076629
0.018174280245402234 -0.009747624800016097 0.05736371787489796
0.018367467552910393 -0.00990281952284485 0.05756820559844951
0.01857963124245229 -0.01007835155665857 0.05772294693330873
0.01877281893935163 -0.010233546658586832 0.0579274341601117
0.018966006246859794 -0.010388741381415585 0.05813192188366324
0.019117517074050475 -0.010499270506217547 0.05844566689408925
0.019329680606759592 -0.01067480241016949 0.05860040811603476
0.01962499144453974 -0.010939445028346787 0.05853717494763395
0.019767642416564438 -0.011040478860173236 0.05887414646584288
0.019999452406010785 -0.011237066284690235 0.05897738362008464
0.020199084295482117 -0.011399167782335315 0.05916497684493584
0.020494395599276 -0.011663810880839722 0.059101742716888055
0.02067234161150491 -0.011802671158550129 0.05934618657280306
0.020930453394587212 -0.012027446772829062 0.05938047232958623
0.02100516417775744 -0.01205566768452619 0.05989555199022415
0.0213766224418546 -0.012401919106032673 0.05963269484167661
0.021696734936108162 -0.01269314218067131 0.05950444301819426
0.021839385791405198 -0.012794175896953069 0.059841414711395535
0.022107213496755197 -0.013029364264533692 0.05985022980759152
0.02235569024868738 -0.013243813827776415 0.059909774034253814
0.022651001241506465 -0.013508456612112203 0.059846540459411464
0.017734529101897833 -0.009891953380342294 0.055854602891606875
0.017799550955295736 -0.009909790416103816 0.05639508315090301
0.01791050057118366 -0.009976849276558388 0.05681516067233313
0.017980963396253026 -0.010000517592443272 0.05734137613218728
0.018187999556921533 -0.010170554422244304 0.05750955846590035
0.01835540668328511 -0.010298119906719045 0.05778163113897261
0.01860297986918201 -0.010511601080143283 0.057843544366560536
0.018751002240948465 -0.010618391592174734 0.058166433995320184
0.018908693617893536 -0.01073554454203571 0.05846397641729708
0.019134580422223012 -0.010925783964584365 0.05858274146704496
0.019366911807618736 -0.0111229301800977 0.058684611758414884
0.01956743796258289 -0.011285990061755255 0.05886986088818762
0.019823726507355314 -0.01150881166844386 0.058908926411500355
0.02001743536674871 -0.011664565330279084 0.05911204712541615
0.020265008476023062 -0.011878046402475723 0.05917396081590247
0.020472044676796686 -0.012048083246593844 0.05934214343752158
0.020746052834777512 -0.012289895339921513 0.05933475613437501
0.020953089119196886 -0.012459932272191604 0.05950293855718405
0.021172689223888354 -0.012643434112890518 0.05963818438608472
0.02139857618325677 -0.012833673701597662 0.05975694902939106
0.02163090768448324 -0.013030820050804042 0.05985881888609102
0.0218784807153412 -0.01324430105806979 0.05992073252012048
0.022110812022320542 -0.013441447208652238 0.060022602755033544
0.022375936391223518 -0.013673738353750665 0.0600385047690008
0.022608267698202858 -0.013870884504333113 0.06014037500391385
0.0229836783569238 -0.014221371783949046 0.05986715656152845
0.01754684625078492 -0.010150884077297313 0.05581749156531583
0.017615152526570456 -0.010172241097555382 0.056349361563979065
0.017740976849513482 -0.010255241494160055 0.056730444373564386
0.01781568743141338 -0.010283462220308879 0.05724552414832708
0.017967198024251813 -0.01039399113216982 0.05755926924906014
0.01814514438756064 -0.010532851738365935 0.057803712839675746
0.018351063029355984 -0.010701690861486196 0.05797482532330611
0.01854425010430574 -0.010856885335077216 0.05817931365651995
0.018743882459790803 -0.011018987313049405 0.05836690592172419
0.01894980110158615 -0.011187826436169666 0.05853801840535455
0.01914943330203228 -0.011349928247983367 0.05872561107700033
0.019342620998931623 -0.01150512334991163 0.05893009830380329
0.019567613771223607 -0.011694404619537187 0.05905120709864497
0.0197797770704774 -0.011869936292399751 0.05920594867057515
0.020037889184138593 -0.01209471223708003 0.05924023388826711
0.02025637206476312 -0.012277016728551865 0.059378408525143256
0.02048818187956643 -0.012473603970677653 0.05948164607171233
0.020681369465864394 -0.012628798962133952 0.059686133477918325
0.02095886576127145 -0.012874349367139146 0.059669601845555226
0.021207342669139487 -0.013088799078392003 0.0597291459254536
0.021400530326830636 -0.01324399414785482 0.059933633124028135
0.021632340238757517 -0.013440581489292575 0.06003687048149066
0.02186414999474854 -0.013637168682720198 0.06014010798571709
0.022131977545059602 -0.013872356884142333 0.06014892348835461
0.022350460463995404 -0.014054661426227966 0.060287097893781554
0.022685493363031124 -0.014361875012231146 0.06011973155981287
0.022891412004826472 -0.014530714135351407 0.06029084404344324
0.017496643864360183 -0.01050530739605516 0.05613090680320967
0.01758712981326729 -0.010550434914552558 0.056604630745658274
0.01769807966171362 -0.010617494024244863 0.057024707657426094
0.01781496672630073 -0.010690916173248709 0.057429219890729154
0.0179534956023482 -0.010787532229969317 0.057776998192523174
0.018154021757312348 -0.010950592111626871 0.057962247322295914
0.018347730615808827 -0.011106345791610447 0.05816536777653408
0.018567330746230674 -0.01128984765361481 0.05830061362395966
0.018767856746155887 -0.011452907369113875 0.058485863160173936
0.01894489892058292 -0.011590798975302616 0.05873267659844844
0.019192472106479824 -0.011804280148726854 0.058794589826036366
0.01938618112180908 -0.01196003395857221 0.058997710393188255
0.019633753996731184 -0.012173514817827826 0.05905962417398162
0.019853354438127826 -0.01235701699400081 0.05919486946820176
0.020109642943692056 -0.012579838568223973 0.05923393496328607
0.020365931313821445 -0.012802659992521368 0.059273000878926126
0.02052362258016513 -0.012919812831910382 0.059570543480306055
0.02073697818154018 -0.013096622307173835 0.05972215955478775
0.020962864985869654 -0.013286861729722491 0.05984092460453562
0.021195196487096123 -0.013484008078928869 0.05994279446123558
0.02142752795001132 -0.01368115437752145 0.06004466454938473
0.02165341459840494 -0.013871393652059971 0.06016342974589652
0.021900987706782372 -0.014084874742404966 0.06022534317670521
0.022126874587734397 -0.01427511426618122 0.06034410776355469
0.022359205973130125 -0.014472260481694556 0.06044597805492461
0.022606779081507558 -0.01468574157203955 0.0605078914857333
0.022906473645267097 -0.014955082321475077 0.06043316618301753
0.017213963500027792 -0.010662427092105445 0.056342835914563454
0.017419881984990365 -0.010831266085363929 0.056513948285280106
0.017464219663689832 -0.010826935532851634 0.057108651988353
0.017615730256528267 -0.010937464444712573 0.05742239708908606
0.01774155485437711 -0.01102046505950118 0.057803480226109184
0.017941186822264827 -0.011182566622077148 0.05799107350741726
0.018140818865878178 -0.011344668304029071 0.058178666066149305
0.018334006562777522 -0.011499863405957335 0.058383153292952274
0.018539925204572875 -0.011668702529077596 0.05855426577658263
0.01873955732749953 -0.011830804257812052 0.05874185865144917
0.018958040092293314 -0.01201310861559084 0.05888003372299528
0.019176523012126037 -0.012195413139528119 0.05901820838809986
0.01935446875258835 -0.012334273135535347 0.05926265282544872
0.019622296613874206 -0.012569461651126101 0.0592714677748808
0.01985410640907342 -0.012766048877019171 0.059374705307335664
0.020079099394319715 -0.012955330379649736 0.05949581347840082
0.020278731561683926 -0.013117432164070719 0.05968340612622886
0.020510541525399897 -0.013314019567282271 0.0597866432619457
0.02072270490307008 -0.013489551305075726 0.059941384890332745
0.0209545149308277 -0.013686138780206525 0.06004462181312531
0.02117950770311968 -0.01387542004983208 0.06016573060796698
0.02143761958242863 -0.014100195781571338 0.06020001591596599
0.021926603782815794 -0.014572402212593741 0.05962905933903708
0.021896017926503177 -0.014487774513945152 0.060420178712346076
0.022114500846335896 -0.01467007903788243 0.06055835337745065
0.022346310835782247 -0.01486666646239943 0.06066159053169241
0.02263330104382369 -0.015122391686823711 0.06062017026742651
0.02299926304825086 -0.015462752645064982 0.06037172189615188
0.017276944379914262 -0.011138151372408372 0.0563595350941495
0.017347407088704424 -0.011161819563674388 0.05688575085883481
0.017442647384172835 -0.011212042415296426 0.05734701106848642
0.01754805428408606 -0.011273160954119654 0.05778162011661383
0.01774176353197372 -0.011428915013202742 0.05798474007410343
0.0179740946830172 -0.011626061015775057 0.058086610455780396
0.01811262340223189 -0.011722676942633887 0.058434388644660704
0.018332223765212145 -0.011906179053875981 0.058569633882423984
0.018558110802100028 -0.012096418725662368 0.05868839832250957
0.018771466041608106 -0.012273227806835048 0.05884001543162
0.01896517505693736 -0.012428981616680403 0.059043135998771895
0.019295258336972113 -0.012730890611091216 0.05888874505103204
0.019425466427345016 -0.012818589126048673 0.059258336403724896
0.019645066518558667 -0.01300209095558759 0.05939358222292205
0.019858422126059993 -0.013178900435923768 0.059545198301814435
0.020084308974827023 -0.013369139914158949 0.059663963124523815
0.020331881902435144 -0.013582620817040007 0.05972587694324912
0.020532408057399296 -0.013745680698697561 0.05991112607302186
0.02091358910991499 -0.014102352240165743 0.05962278015342123
0.02098947760194218 -0.01413183531913313 0.060134772508000436
0.02122180883140205 -0.014328981386636333 0.06023664294613426
0.02143516445850747 -0.014505790883205236 0.060388259039140864
0.02173485894385062 -0.014775131567709873 0.06031353367996824
0.021892550320795692 -0.01489228451757085 0.06061107610194513
0.0221576746121792 -0.015124575579590032 0.060626978319133155
0.022480432535836346 -0.015418633816515464 0.0604917913837917
0.02293334750863262 -0.01585218409831649 0.06001539190510754
0.017124010251696298 -0.011434323175519928 0.056231328236893086
0.01712055764279298 -0.011378774767447777 0.05695131632285481
0.017223318567078656 -0.011437057635022922 0.057392860866676186
0.017341270365161972 -0.011511620804852123 0.05779458290146929
0.017534458062061314 -0.011666815906780386 0.05799907012827227
0.017727645369569472 -0.011822010629609138 0.05820355785182381
0.017927277570015603 -0.01198411244142284 0.058391150523469576
0.01815908755946195 -0.012180699865939839 0.058494387677711326
0.01837757047929467 -0.012363004389877117 0.058632562342815914
0.01855551629817337 -0.012501864450815234 0.058877006836621636
0.018773999062967155 -0.012684168808594022 0.05901518190816774
0.018986162517259885 -0.012859700647615076 0.05916992307365639
0.01919832620590486 -0.01303523269957715 0.059324664148838
0.019410489699405783 -0.01321076457106365 0.05947940534255509
0.019642299746767504 -0.01340735206242717 0.059582642279461855
0.0198607824009599 -0.013589656309733997 0.059720817530410995
0.020349766536856956 -0.01406186267791133 0.05914986103656756
0.020314681412693127 -0.013972413000242713 0.05995277570442079
0.02052060001528028 -0.014141252090897529 0.060123888159822725
0.020752410004726628 -0.014337839515414529 0.06022712531406448
0.02100088683417828 -0.014552289161736497 0.060286669337506
0.02123269674610516 -0.014748876503174253 0.06038990669496853
0.02145117966504096 -0.014931181045259886 0.060528081100395474
0.021669662584873683 -0.015113485569197165 0.06066625576550005
0.0219897746915299 -0.01540470822843958 0.06053800495812153
0.022267271090186804 -0.015650258737829464 0.06052147314106258
0.022616901835493624 -0.015973117142462162 0.06031583789821472
0.022822820477288973 -0.016141956265582423 0.06048695038184508
0.023407363082313535 -0.016716574647060705 0.059665483160277595
0.01714850124228904 -0.011868797032583173 0.05634893038797208
0.017118062129434564 -0.011784326621092167 0.05713966480469349
0.01721825444969825 -0.011839856585318075 0.0575879441073054
0.017341539042827685 -0.011920135061888678 0.05797568545659069
