ply
format ascii 1.0
element vertex 722
property float x
property float y
property float z
end_header
-0.007754833617193277 -0.0061733520980045455 -0.00012057288141538416
-0.007275874419731542 -0.006449879319589925 -0.0002235015910032192
-0.006796915679040893 -0.0067264062774583955 1.50076735450059e-05
-0.006317956481579157 -0.007002933499043775 -2.0968587182568938e-05
-0.005838997284117423 -0.007279460720629155 -0.0005994527244556493
-0.005360038086655687 -0.007555987942214535 -0.0007023814340434844
-0.0048810788891939525 -0.007832515163799915 -0.0008053106710651374
-0.004402119691732217 -0.008109042385385293 -0.0008743485932418736
-0.003923160494270482 -0.008385569606970674 -0.0007741614846401394
-0.0034442012968087473 -0.008662096828556053 -0.0007772960238206697
-0.0029652420993470123 -0.008938624050141434 -0.0007471969581273622
-0.002486282901885277 -0.009215151271726812 -0.0007170973650002365
-0.0020073237044235426 -0.009491678493312193 -0.0005292591947836173
-0.001528364506961807 -0.009768205714897572 -9.511787048979821e-05
-0.0010494051953073011 -0.010044733002412178 0.0004999577523969358
-0.009873102382916573 -0.004311756792615911 0.0012350565052932955
-0.009394143185454838 -0.004588284014201291 0.0006996378666958818
-0.008915183987993102 -0.004864811235786671 -0.00022309230236043087
-0.008436224790531369 -0.0051413384573720505 -0.00015405596248514868
-0.007957265593069631 -0.00541786567895743 -0.00039256469959955573
-0.007478306395607898 -0.00569439290054281 -0.0004226642927266814
-0.006999347198146162 -0.00597092012212819 -0.000419529753546151
-0.006520388457455513 -0.00624744707999666 -0.0004163962692332567
-0.0060414292599937774 -0.00652397430158204 -0.00018747575149674996
-0.005562470062532043 -0.00680050152316742 -0.0007794695785847563
-0.005083510865070307 -0.007077028744752799 -0.000843805428273788
-0.004604551667608573 -0.007353555966338179 -0.001347999457410226
-0.004125592470146837 -0.007630083187923559 -0.0009792968469189314
-0.0036466332726851026 -0.007906610409508939 -0.0010436326966079632
-0.0031676740752233676 -0.008183137631094317 -0.00042662426583242293
-0.0026887148777616325 -0.008459664852679698 -0.00076707699359641
-0.0022097556802998975 -0.008736192074265077 -0.0007639429818496977
-0.0017307964828381626 -0.009012719295850458 -0.0006949055871067794
-0.0012518372853764274 -0.009289246517435837 0.00030624713405041166
-0.010075534358792928 -0.0035562703735687973 0.001061064527667503
-0.009596575161331193 -0.0038327975951541766 0.0011612516362692375
-0.009117615963869457 -0.004109324816739556 0.00013239861842312235
-0.008638656766407724 -0.004385852038324936 0.0005227798137029343
-0.008159697568945988 -0.004662379259910316 -0.00039263590316498937
-0.0076807383714842525 -0.004938906481495696 -0.0004286121638925642
-0.007201779174022518 -0.005215433703081075 -0.0007039996009971892
-0.006722819976560782 -0.005491960924666455 -0.0006038130198292729
-0.006243861235870133 -0.0057684878825349254 -0.0006397892805568478
-0.005764902038408398 -0.006045015104120305 -0.0006096896874297222
-0.005285942840946663 -0.006321542325705685 -0.001066883034174199
-0.004806983643484928 -0.006598069547291065 -0.0010367839684808915
-0.004328024446023193 -0.0068745967688764445 -0.0011058213632238099
-0.003849065248561458 -0.007151123990461824 -0.0008673110438079488
-0.003370106051099723 -0.007427651212047204 -0.0009702413356972379
-0.002891146853637988 -0.007704178433632584 -0.0011533267997796217
-0.0024121876561762528 -0.007980705655217963 -0.0008128740720156349
-0.001933228458714518 -0.008257232876803343 -0.0003787332751556338
-0.0014542692612527829 -0.008533760098388722 -0.0007474369405145642
-0.0009753100637910476 -0.008810287319974103 -0.00021201671961569636
-0.0004963507521365416 -0.009086814607488709 0.0008669504224501888
-0.009799007137207548 -0.0030773111761070618 0.0016289862753007883
-0.009320047939745814 -0.003353838397692441 0.0009091767739213754
-0.008841088742284078 -0.003630365619277821 0.00024182636751667757
-0.008362129544822343 -0.003906892840863201 0.0002117267743895519
-0.00788317034736061 -0.00418342006244858 -0.0004063085700296856
-0.007404211149898873 -0.00445994728403396 -0.0005941467402463047
-0.006925251952437138 -0.00473647450561934 -0.0005910116736319562
-0.006446292754975403 -0.00501300172720472 -0.0007788503712823935
-0.005967334014284753 -0.00528952868507319 -0.0010173606906982548
-0.005488374816823018 -0.00556605590665857 -0.0010816960129534684
-0.005009415619361283 -0.0058425831282439495 -0.001111795606080594
-0.004530456421899548 -0.006119110349829329 -0.0011761314557696258
-0.004051497224437813 -0.006395637571414709 -0.0011070935335928895
-0.003572538026976078 -0.006672164793000089 -0.001171429383281921
-0.003093578829514343 -0.0069486920145854685 -0.000988343919199537
-0.002614619632052608 -0.007225219236170848 -0.0010184435123266628
-0.002135660434590873 -0.007501746457756228 -0.0007895229945901559
-0.0016567012371291382 -0.007778273679341607 -0.0006064375305077719
-0.0011777420396674031 -0.008054800900926987 -0.0005035088209199368
-0.0006987828422056678 -0.008331328122512367 0.00011349960985560341
-0.00021982353055116183 -0.008607855410026974 0.0009688859741586803
-0.010001439113083902 -0.0023218247570599474 0.0009625931612758082
-0.009522479915622169 -0.002598351978645327 0.0012521981043791504
-0.009043520718160433 -0.0028748792002307065 0.0004925156612245843
-0.008564561520698698 -0.0031514064218160862 0.00012381199586565384
-0.008085602323236964 -0.003427933643401466 -0.00019829552883974196
-0.0076066431257752285 -0.0037044608649868453 -0.0005669991941986724
-0.007127683928313493 -0.0039809880865722255 -0.0005701332059453848
-0.006648724730851758 -0.004257515308157605 -0.0008455211704838277
-0.006169765533390023 -0.004534042529742985 -0.0008814969037775845
-0.005690806792699374 -0.004810569487611455 -0.0009844261407992376
-0.005211847595237638 -0.005087096709196835 -0.0010534640629759739
-0.0047328883977759036 -0.005363623930782215 -0.0014221666734672684
-0.004253929200314168 -0.005640151152367595 -0.0010817139457032813
-0.0037749700028524335 -0.005916678373952974 -0.0016207339024101788
-0.0032960108053906984 -0.006193205595538354 -0.0011865941604178136
-0.0028170516079289633 -0.006469732817123734 -0.0009987544078997404
-0.0023380924104672283 -0.006746260038709114 -0.0010018894745140888
-0.0018591332130054932 -0.007022787260294493 -0.0009375536248250572
-0.0013801740155437584 -0.007299314481879872 -0.000647948681721715
-0.0009012148180820234 -0.007575841703465252 -0.0003583442660521907
-0.0004222556206202881 -0.007852368925050632 0.0003090066677863251
5.670369103421792e-05 -0.008128896212565238 0.00041974930938822
0.0005356628884959528 -0.008405423434150619 0.0011680903431537664
-0.009724911891498524 -0.0018428655595982128 0.0008861653638747052
-0.009245952694036788 -0.0021193927811835925 0.0012082744708815552
-0.008766993496575054 -0.002395920002768972 0.0005652355988849621
-0.008288034299113319 -0.0026724472243543516 -0.00010211533495355366
-0.007809075101651584 -0.0029489744459397314 -3.307846764445343e-05
-0.00733011590418985 -0.0032255016675251107 -0.0006761168122072284
-0.006851156706728113 -0.003502028889110491 -0.00074045266189626
-0.006372197509266379 -0.00377855611069587 -0.0008047885115852917
-0.005893238311804644 -0.00405508333228125 -0.0009926266818019106
-0.005414279571113994 -0.004331610290149721 -0.001092813790403645
-0.004935320373652259 -0.0046081375117351005 -0.0010568375296760703
-0.004456361176190524 -0.00488466473332048 -0.0012446756998926894
-0.003977401978728789 -0.00516119195490586 -0.0012415422155797951
-0.003498442781267054 -0.00543771917649124 -0.001138611923690506
-0.003019483583805319 -0.0057142463980766195 -0.00095552698704194
-0.002540524386343584 -0.005990773619661999 -0.0008525977500202868
-0.002061565188881849 -0.006267300841247379 -0.0007496690404324518
-0.001582605991420114 -0.006543828062832759 -0.0009881777775468587
-0.001103646793958379 -0.006820355284418138 4.0674712865438084e-05
-0.000624687596496644 -0.007096882506003517 4.380819717833241e-05
-0.00014572839903490876 -0.007373409727588897 0.0006608166279538727
-0.00992734386737488 -0.001087379140551097 0.0011144186778314085
-0.009448384669913145 -0.0013639063621364773 0.0009313337411828426
-0.00896942547245141 -0.0016404335837218568 0.00043273631228948173
-0.008490466274989674 -0.0019169608053072366 0.0003636994449803815
-0.00801150707752794 -0.002193488026892616 -0.00029091343471898077
-0.0075325478800662045 -0.002470015248477996 -0.0004739988988013648
-0.00705358868260447 -0.002746542470063375 -0.0006570843628837488
-0.0065746294851427335 -0.0030230696916487554 -0.0006930606236113236
-0.006095670287680999 -0.0032995969132341347 -0.0008761455602598896
-0.005616711090219264 -0.003576124134819515 -0.0009790747972815428
-0.005137752349528614 -0.0038526510926879852 -0.0014776722261749036
-0.0046587931520668795 -0.004129178314273365 -0.0009422525327098537
-0.004179833954605144 -0.004405705535858745 -0.001011288872585136
-0.0037008747571434094 -0.0046822327574441245 -0.001286676837123579
-0.0032219155596816744 -0.004958759979029504 -0.0010988386669069598
-0.0027429563622199393 -0.005235287200614884 -0.0011348149276345348
-0.0022639971647582043 -0.005511814422200264 -0.001104715334507409
-0.0017850379672964692 -0.0057883416437856435 -0.0011078488188203033
-0.0013060787698347342 -0.006064868865371023 -0.0007174676235404913
-0.0008271195723729992 -0.006341396086956402 8.82276184648724e-05
-0.00034816037491126433 -0.006617923308541782 0.00037783203413439663
0.000130798822550471 -0.006894450530127162 -0.0002767808455649657
0.000609758134204977 -0.007170977817641769 0.00019376923518720984
-0.009171857448327764 -0.0008849471646747426 0.0007628998611314114
-0.008692898250866029 -0.0011614743862601222 0.00042244713336742437
-0.008213939053404295 -0.001438001607845502 0.0004914850555441607
-0.007734979855942559 -0.0017145288294308815 -0.0002283244458352523
-0.007256020658480825 -0.0019910560510162613 -0.00041616261605187144
-0.00677706146101909 -0.0022675832726016406 -0.0007566153438158585
-0.006298102263557354 -0.0025441104941870208 -0.0008568019249837747
-0.005819143066095619 -0.0028206377157724 -0.0010446406226342119
-0.0053401838686338845 -0.0030971649373577803 -0.000769252658095769
-0.004861225127943234 -0.0033736918952262506 -0.001109704858425938
-0.0043822659304815 -0.0036502191168116304 -0.0011398044515530635
-0.0039033067330197643 -0.00392674633839701 -0.0013276426217696828
-0.0034243475355580297 -0.00420327355998239 -0.0013577422148968084
-0.0029453883380962946 -0.00447980078156777 -0.0009005488681523312
-0.0024664291406345596 -0.004756328003153149 -0.0010883870383689505
-0.0019874699431728245 -0.005032855224738529 -0.0009854583287811154
-0.0015085107457110895 -0.005309382446323909 -0.0008023728646987313
-0.0010295515482493544 -0.005585909667909289 -0.0003037764906730066
-0.0005505923507876195 -0.0058624368894946675 1.8332616333843306e-05
-7.163315332588456e-05 -0.006138964111080047 0.000962834198530646
0.00040732604413585075 -0.006415491332665427 0.0016174473419469173
-0.00937428942420412 -0.00012946074562762792 0.0007073120287481641
-0.008895330226742385 -0.000405987967213008 0.0007374105670076537
-0.00841637102928065 -0.0006825151887983876 0.0004620236573368468
-0.007937411831818916 -0.0009590424103837672 4.830310592369616e-06
-0.0074584526343571805 -0.0012355696319691469 -0.00031727879641448026
-0.006979493436895445 -0.0015120968535545264 -0.0005926667609529232
-0.00650053423943371 -0.0017886240751399062 -0.0006955954705407583
-0.006021575041971975 -0.002065151296725286 -0.0007985257624300475
-0.00554261584451024 -0.0023416785183106655 -0.0009014544720178826
-0.005063656647048505 -0.0026182057398960457 -0.0009704913393269827
-0.0045846979063578555 -0.002894732697764516 -0.0010395292615037188
-0.00410573870889612 -0.0031712599193498957 -0.001142457971091554
-0.003626779511434385 -0.0034477871409352755 -0.0010781221214025223
-0.0031478203139726504 -0.0037243143625206553 -0.0005739280922660844
-0.0026688611165109153 -0.004000841584106035 -0.0011909365230416246
-0.0021899019190491802 -0.004277368805691415 -0.0011608369299144989
-0.0017109427215874452 -0.0045538960272767945 -0.0010965016076592852
-0.0012319835241257101 -0.004830423248862174 -0.0010321657579702537
-0.0007530243266639751 -0.005106950470447554 -0.0010020661648431279
-0.00027406512920224015 -0.005383477692032933 0.00014220677770313927
0.00020489406825949477 -0.005660004913618313 0.0012864807751170426
0.0006838532657212301 -0.005936532135203692 0.0012174439078079424
-0.008618803005157005 7.297123024872794e-05 0.0007469349668935728
-0.008139843807695269 -0.0002035559913366517 0.0003565537716137609
-0.007660884610233535 -0.0004800832129220313 1.6101571283591865e-05
-0.0071819254127718 -0.000756610434507411 -4.8234278405439815e-05
-0.006702966215310065 -0.0010331376560927905 -0.0004386154736852517
-0.006224007017848331 -0.0013096648776781703 -0.0007790682014492387
-0.005745047820386594 -0.0015861920992635502 -0.0005959827373668547
-0.00526608862292486 -0.0018627193208489298 -0.0007838209075834738
-0.004787129425463125 -0.0021392465424343097 -0.000971659605233911
-0.004308170684772475 -0.00241577350030278 -0.0011594977754505304
-0.00382921148731074 -0.00269230072188816 -0.001223833625139562
-0.003350252289849005 -0.0029688279434735396 -0.001040748161057178
-0.00287129309238727 -0.0032453551650589193 -0.001228586331273797
-0.002392333894925535 -0.003521882386644299 -0.001159549463964697
-0.0019133746974638 -0.0037984096082296784 -0.001347388161615134
-0.001434415500002065 -0.004074936829815058 -0.0007303792034057757
-0.00095545630254033 -0.004351464051400438 -0.00045499282116878676
-0.0004764971050785949 -0.004627991272985818 -0.00017960485663034385
2.4620923831400367e-06 -0.0049045184945711974 0.0006447029973793505
0.00048142128984487493 -0.005181045716156577 -0.0001036380363861959
-0.008342275783571626 0.000551930427710463 0.0007184440469114273
-0.00786331658610989 0.0002754032061250834 0.0002198476728857026
-0.007384357388648156 -1.1240154602962732e-06 -5.554029165274038e-05
-0.00690539819118642 -0.0002776512370456759 -0.0003776478163581362
-0.0064264389937246855 -0.0005541784586310556 -0.00048057810824742535
-0.005947479796262951 -0.0008307056802164352 -0.0005496144481227075
-0.0054685205988012145 -0.0011072329018018152 -0.0007785349658592142
-0.00498956140133948 -0.0013837601233871947 -0.0008475718331683145
-0.004510602203877745 -0.0016602873449725745 -0.0010764918234710031
-0.004031643463187095 -0.0019368143028410452 -0.0010463927577776956
-0.00355268426572536 -0.0022133415244264248 -0.0011154301525206137
-0.003073725068263625 -0.0024898687460118045 -0.0011185641642673261
-0.0025947658708018904 -0.0027663959675971843 -0.0012214939287227972
-0.0021158066733401554 -0.003042923189182564 -0.0010336547036385421
-0.0016368474758784203 -0.0033194504107679434 -0.0011365844680940131
-0.0011578882784166853 -0.003595977632353323 -0.000948745243009758
-0.0006789290809549502 -0.003872504853938703 -0.0007102359784615329
-0.00019996988349321512 -0.004149032075524083 -0.00027609623646916785
0.0002789893139685198 -0.004425559297109462 0.0007388483515955933
-0.008065748561986245 0.0010308896251721975 0.0015069758013274877
-0.0075867893645245104 0.000754362403586818 0.0003627025950643115
-0.007107830167062776 0.00047783518200143836 -2.767860021550044e-05
-0.00662887096960104 0.0002013079604160587 -0.0002661889196313616
-0.006149911772139306 -7.521926116932092e-05 -0.00045402708984798075
-0.005670952574677571 -0.00035174648275470053 -0.0006418652600645999
-0.005191993377215836 -0.0006282737043400807 -0.0008297034302812191
-0.004713034179754101 -0.00090480092592546 -0.0009298905388829533
-0.0042340749822923655 -0.0011813281475108398 -0.0010300776474846875
-0.003755116241601716 -0.0014578551053793106 -0.0010601767131779953
-0.0032761570441399808 -0.0017343823269646902 -0.0012986859777262202
-0.0027971978466782457 -0.00201090954855007 -0.0012627097169986454
-0.0023182386492165107 -0.0022874367701354497 -0.0011597810074108104
-0.0018392794517547758 -0.0025639639917208294 -0.0011238047466832356
-0.0013603202542930408 -0.0028404912133062087 -0.0008484178370124286
-0.0008813610568313057 -0.0031170184348915885 -0.0005730298724739857
-0.0004024018593695707 -0.0033935456564769683 0.00034238584439393786
7.655733809216442e-05 -0.003670072878062348 0.0006644944239669698
-0.008268180537862602 0.0017863760442193128 0.0012719708070662293
-0.007789221340400865 0.0015098488226339326 0.0010888856067007542
-0.007310262142939131 0.001233321601048553 0.00036288403229771247
-0.006831302945477396 0.0009567943794631734 -0.00017613592440918498
-0.006352343748015661 0.0006802671578777938 -0.000359221388491569
-0.005873384550553926 0.0004037399362924141 -0.0004621511529470401
-0.005394425353092191 0.0001272127147070345 -0.0006452366170294242
-0.004915466155630456 -0.00014931450687834556 -0.0010139392275207186
-0.004436506958168721 -0.000425841728463725 -0.0009137521189189842
-0.003957547760706986 -0.0007023689500491048 -0.0008494167966637706
-0.003478589020016336 -0.0009788959079175756 -0.0010783367869664595
-0.002999629822554601 -0.001255423129502955 -0.0011143119928263981
-0.002520670625092866 -0.0015319503510883349 -0.0012172422847156873
-0.002041711427631131 -0.0018084775726737144 -0.0010294035870652503
-0.001562752230169396 -0.0020850047942590944 -0.001065378792925189
-0.001083793032707661 -0.0023615320158444737 -0.0010010429432361573
-0.000604833835245926 -0.0026380592374298534 -0.000813204773019538
-0.00012587463778419093 -0.002914586459015233 -0.0004228235777397261
0.00035308455967754415 -0.003191113680600613 0.0004999065913165865
0.0008320437571392791 -0.0034676409021859927 0.0017106480621950748
-0.007512694085850873 0.0019888080771920534 0.0011823162880935714
-0.007033734888389137 0.0017122808556066737 0.000564281471108152
-0.006554775690927403 0.001435753634021294 6.0086914537896e-05
-0.006075816493465668 0.0011592264124359144 -0.000280365813226091
-0.0055968572960039325 0.0008826991908505347 -0.0004682039834427102
-0.005117898098542198 0.0006061719692651551 -0.0003991671161336099
-0.004638938901080462 0.00032964474767977506 -0.000833307385559793
-0.004159979703618728 5.3117526094395634e-05 -0.0010211466106440483
-0.0036810205061569923 -0.0002234096954909842 -0.0007922266203413596
-0.0032020617654663426 -0.0004999366533594548 -0.0012964206494777974
-0.0027231025680046076 -0.0007764638749448345 -0.0013265202426049232
-0.0022441433705428725 -0.0010529910965302142 -0.0008279228137115624
-0.0017651841730811377 -0.0013295183181155938 -0.0010157620387958176
-0.0012862249756194028 -0.0016060455397009735 -0.0007403740742573747
-0.0008072657781576677 -0.0018825727612863533 -0.0007372395350768443
-0.00032830658069593274 -0.002159099982871733 -0.0005083190173403375
0.00015065261676580228 -0.002435627204457113 0.00034706681952892133
0.0006296118142275374 -0.0027121544260424926 0.0013759195736581273
-0.007715126078209535 0.0027442944676909758 0.0012008139195255722
-0.007236166880747799 0.002467767246105596 0.0013886520897421915
-0.006757207683286064 0.0021912400245202163 0.00027838860721607887
-0.00627824848582433 0.0019147128029348365 -0.00026063134949081855
-0.005799289288362595 0.001638185581349457 -0.00026376641610516695
-0.00532033009090086 0.0013616583597640774 -0.000446851880187551
-0.004841370893439125 0.0010851311381786977 -0.000629936816836117
-0.0043624116959773895 0.0008086039165933176 -0.0006330708285828293
-0.003883452498515655 0.0005320766950079381 -0.0013590718755520533
-0.0034044933010539194 0.00025554947342255836 -0.0008548773189817971
-0.0029255345603632697 -2.0977484445912262e-05 -0.0008580123855961455
-0.0024465753629015347 -0.0002975047060312921 -0.0011801209651691774
-0.0019676161654397996 -0.0005740319276166719 -0.0009922827949525584
-0.0014886569679780648 -0.0008505591492020515 -0.0013609854054438526
-0.00100969777051633 -0.0011270863707874312 -0.0009706042101640407
-0.0005307385730545948 -0.001403613592372811 -0.000940504617036915
-5.1779375592859704e-05 -0.0016801408139581902 -0.0004050849235718653
0.0004271798218688753 -0.00195666803554357 0.00045863014815166505
0.0009061390193306105 -0.00223319525712895 0.0013517069330909023
0.0013850982167923453 -0.0025097224787143293 0.001416042519063025
-0.0069596396571021315 0.0029467264471358546 0.0010702819610713301
-0.006480680459640397 0.0026701992255504753 0.000566087404501074
-0.006001721262178661 0.0023936720039650955 -0.00023960783750428977
-0.005522762064716927 0.0021171447823797158 -0.00023647435319139543
-0.005043802867255192 0.0018406175607943362 -0.00026657341888470306
-0.004564843669793457 0.0015640903392089567 -0.00036676052748643733
-0.004085884472331721 0.0012875631176235765 -0.0008009002694788023
-0.003606925274869987 0.001011035896038197 -0.0010905052125821445
-0.0031279660774082515 0.0007345086744528172 -0.0010545289518545697
-0.002649007336717602 0.00045798171658434654 -0.0010185526911269949
-0.0021700481392558668 0.0001814544949989669 -0.000835467754478429
-0.0016910889417941317 -9.507272658641285e-05 -0.001073977546460472
-0.0012121297443323969 -0.0003715999481717925 -0.0007985895819220291
-0.0007331705468706618 -0.0006481271697571722 -0.0007626138486282722
-0.0002542113494089267 -0.0009246543913425518 -0.0003054199744499771
0.0002247478480528083 -0.0012011816129279314 0.00045426194127077104
0.0007037070455145433 -0.001477708834513311 0.001398762996033756
0.0011826662429762784 -0.0017542360560986907 0.0017674666613926864
-0.007162071618556469 0.0037022128911626388 0.0009042014907159322
-0.0066831124210947335 0.0034256856695772586 0.0008012727811280971
-0.006204153223632999 0.003149158447991879 0.00018426435035255695
-0.005725194026171263 0.002872631226406499 -0.0001378447566542929
-0.005246234828709529 0.0025961040048211198 -0.0002068810965295751
-0.004767275631247794 0.00231957678323574 -0.0003098103335512282
-0.004288316433786059 0.0020430495616503602 -0.0004928957976336123
-0.003809357236324323 0.00176652234006498 -0.0007682837621720552
-0.0033303980388625885 0.0014899951184796007 -0.0009972037524747439
-0.0028514388414008535 0.0012134678968942208 -0.0009671041593476183
-0.002372480100710204 0.0009369409390257502 -0.0009370050936543107
-0.0018935209032484687 0.0006604137174403706 -0.0009729813543818855
-0.0014145617057867337 0.0003838864958549908 -0.0009428817612547599
-0.0009356025083249987 0.00010735927426961119 -0.0009127821681276342
2.2315886598471362e-05 -0.00044569516890114813 -0.0005928160247234253
0.0005012750840602064 -0.0007222223904865277 0.00039063759980225685
0.0009802342815219414 -0.0009987496120719072 0.0013133680325754784
0.0014591934789836766 -0.0012752768336572872 0.0009912591892855375
-0.006406585232473967 0.003904644809942608 0.0007773420539366072
-0.005927626035012233 0.003628117588357228 0.00043688932617262026
-0.005448666837550497 0.0033515903667718483 -0.0003114517075929261
-0.004969707640088763 0.003075063145186469 0.0002275682491139713
-0.004490748442627028 0.0027985359236010893 -0.0002429813042043862
-0.0040117892451652926 0.0025220087020157095 -1.4061313901697488e-05
-0.003532830047703557 0.0022454814804303293 -0.000632096130887117
-0.0030538708502418225 0.00196895425884495 -0.000870605395435342
-0.0025749116527800874 0.0016924270372595702 -0.0008346301895754033
-0.0020959529120894377 0.0014159000793910997 -0.000765592267398667
-0.0016169937146277027 0.00113937285780572 -0.0006965559275233848
-0.0011380345171659676 0.0008628456362203402 -0.0007266539383490564
-0.0006590753197042327 0.0005863184146349606 -0.00035795132785776195
-0.00018011612224249759 0.00030979119304958095 -0.0002550226182699269
0.0002988430752192375 3.3263971464201315e-05 0.00036198581250561335
0.0007778022726809725 -0.00024326325012117824 0.0013064879221362342
0.0012567614701427077 -0.0005197904717065578 0.0017636815325976203
-0.006609017208350323 0.004660131228989723 0.0008901021298924527
-0.006130058010888588 0.004383604007404343 0.0005679935503194208
-0.005651098813426853 0.004107076785818963 0.00019929093982812648
-0.0051721396159651175 0.0038305495642335834 -0.00012281816717872338
-0.004693180418503383 0.003554022342648204 -0.0001587944279062982
-0.004214221221041648 0.0032774951210628243 -0.0002278307677815804
-0.0037352620235799132 0.0030009678994774446 -0.0005032187323200234
-0.0032563028261181773 0.0027244406778920644 -0.0006061490242093126
-0.0027773436286564427 0.002447913456306685 -0.0004183097991250573
-0.0022983844311947076 0.0021713862347213053 -0.0007870134644839878
-0.001819425690504058 0.0018948592768528345 -0.0007569138713568621
-0.001340466493042323 0.001618332055267455 -0.0004164611435928751
-0.0008615072955805879 0.0013418048336820752 -0.0007851637540841695
-0.0003825480981188529 0.0010652776120966957 -0.0004955593384146453
9.641109934288214e-05 0.0007887503905113161 9.643501610717905e-05
0.0015332886917280872 -4.0831274244822804e-05 0.0017233816331467748
-0.005853530789303208 0.0048625632048660775 0.0006994369144112126
-0.005374571591841473 0.004586035983280698 0.0003090551916975825
-0.004895612394379738 0.004309508761695319 -3.139700863258649e-05
-0.004416653196918003 0.004032981540109939 -0.00021923676115065974
-0.0039376939994562685 0.0037564543185245594 -3.615129706827568e-05
-0.0034587348019945335 0.0034799270969391796 -0.0005067008503866331
-0.0029797756045327976 0.0032033998753537994 -0.0006068879589883674
-0.0025008164070710634 0.00292687265376842 -0.0005378500368116311
-0.002021857209609328 0.0026503454321830404 -0.0005679496299387567
-0.0015428984689186782 0.0023738184743145696 -0.0006322854796277884
-0.0010639392714569432 0.00209729125272919 -0.00026358286913649416
-0.0005849800739952081 0.0018207640311438103 -0.00029368087996216574
-0.00010602087653347322 0.0015442368095584308 -0.00022464454008688353
0.0003729383209282618 0.001267709587973051 0.00014405807040441087
0.001330856715851732 0.0007146551448022918 0.0017813561035565908
-0.006055962765179564 0.005618049623913193 0.0008367247726405536
-0.005577003567717828 0.005341522402327813 0.0006536403634258057
-0.0050980443702560935 0.005064995180742433 0.00019644596181369242
-0.004619085172794358 0.0047884679591570535 1.3361552598944422e-05
-0.004140125975332623 0.004511940737571674 -0.00044383284901316876
-0.0036611667778708883 0.004235413515986294 -0.00020532305703112563
-0.0031822075804091537 0.003958886294400915 -0.00038840799367969165
-0.002703248382947418 0.0036823590728155345 -0.0004913372307013447
-0.0022242891854856836 0.003405831851230155 -0.00046123869244185515
-0.0017453299880239481 0.0031293046296447754 -0.00027339946735759996
-0.0012663712473332984 0.0028527776717763046 -0.0005955080469306318
-0.0007874120498715635 0.002576250450190925 -0.0004953214657627156
-0.0003084528524098284 0.0022997232286055456 -0.00020571652265937327
0.00017050634505190652 0.002023196007020166 -0.0001756185118337017
0.0006494655425136415 0.001746668785434786 0.00025852281246011743
0.0011284247399753766 0.0014701415638494065 0.0010931240648624132
0.0016073839374371116 0.001193614342264027 0.001157459914551445
-0.005300476346132448 0.0058204815997895485 0.0007281266769427536
-0.004821517148670714 0.005543954378204169 0.00038767447661258465
-0.004342557951208978 0.005267427156618789 4.722174884859763e-05
-0.0038635987537472436 0.004990899935033409 0.0003226086585194046
-0.0033846395562855086 0.0047143727134480295 3.30037154160623e-05
-0.002905680358823774 0.00443784549186265 -3.133213427296939e-05
-0.002426721161362038 0.00416131827027727 -0.0004217133295527813
-0.0019477619639003037 0.0038847910486918906 -0.00048604865180799494
-0.0014688027664385684 0.0036082638271065105 -0.0004170112570650767
-0.0009898440257479185 0.00333173686923804 -0.000706615672734601
-0.0005108848282861836 0.0030552096476526604 -0.0002494223259901238
-3.192563082444852e-05 0.0027786824260672806 -0.00027952191911724945
0.0004470335666372864 0.002502155204481901 0.00017767195506104572
0.0009259927640990214 0.002225627982896521 0.0009373538707817938
-0.005502908322008804 0.006575968018836663 0.0009929569987457637
-0.005023949124547069 0.006299440797251283 0.000670848419172732
-0.004544989927085334 0.006022913575665903 0.0003021458086814376
-0.004066030729623599 0.005746386354080524 0.00019921551679214847
-0.003587071532161864 0.005469859132495145 1.6130052709764406e-05
-0.0031081123347001293 0.005193331910909765 -0.00016695541137261963
-0.0026291531372383942 0.004916804689324385 -0.0002698841209604547
-0.0021501939397766587 0.004640277467739005 -0.0004529695850428388
-0.0016712347423149241 0.004363750246153626 -0.0006360550491252227
-0.0011922755448531888 0.004087223024568246 -0.0009114430136636657
-0.000713316804162539 0.003810696066699775 -0.0006218380705603235
-0.00023435760670080408 0.0035341688451143954 -0.0005575022208712918
0.000244601590760931 0.0032576416235290157 -0.0002678967503341316
0.0007235607882226659 0.002981114401943636 0.00012248339007804433
0.0012025199856844008 0.002704587180358256 0.0006579036109769122
0.0016814791831461359 0.002428059958772877 0.001463599644133003
-0.004268462705499954 0.006501872773127638 9.46449057287974e-05
-0.0037895035080382196 0.006225345551542258 0.0001975741427504505
-0.0033105443105764846 0.005948818329956879 9.73597253383134e-06
-0.0028315851131147495 0.0056722911083715 -5.4599877155200345e-05
-0.002352625915653015 0.00539576388678612 -0.00015478698575693465
-0.001873666718191279 0.005119236665200739 -0.00044439140142645884
-0.0013947075207295446 0.00484270944361536 -0.000682900665974684
-0.0009157483232678092 0.0045661822220299806 -0.0007130002591018097
-0.00043678958257715946 0.004289655264161509 -0.0006770239983742348
4.216961488457545e-05 0.00401312804257613 -9.854038853497252e-05
0.0005211288123463106 0.0037366008209907503 8.454507554741153e-05
0.0010000880098080455 0.0034600735994053705 0.0004532476860387059
0.0014790472072697804 0.0031835463778199908 0.001212930129193272
-0.004470894681376309 0.007257359192174753 0.0006711147732508351
-0.0039919354839145745 0.0069808319705893735 0.00034900566624398527
-0.0035129762864528394 0.006704304749003994 0.00016592072959541927
-0.0030340170889911044 0.006427777527418615 0.00012994552373548048
-0.0025550578915293698 0.006151250305833235 9.396926300790562e-05
-0.0020760986940676347 0.005874723084247855 -0.0002747344023510248
-0.001597139496605899 0.005598195862662475 -0.0003776636393726779
-0.0011181802991441646 0.005321668641077096 -0.0006997722189457097
-0.0006392211016824292 0.005045141419491716 -0.0006696726258185842
-0.00016026236099177948 0.004768614461623245 -0.00048183445560196495
0.0003186968364699554 0.004492087240037865 -9.145326032215301e-05
0.0007976560339316906 0.004215560018452486 -6.135366719502736e-05
0.0012766152313934255 0.0039390327968671065 0.0005032172933923368
0.0017555744288551603 0.0036625055752817263 0.000792822236495679
0.0022345336263168954 0.003385978353696347 0.0015697784009075161
-0.003715408262329195 0.007459791168051108 0.0007107023733304361
-0.00323644906486746 0.007183263946465728 0.0001752837347330223
-0.002757489867405725 0.006906736724880349 0.0005439863452243167
-0.0022785306699439904 0.006630209503294969 0.00047965049553528504
-0.0017995714724822554 0.006353682281709589 0.00024114123098705988
-0.0013206122750205197 0.006077155060124209 -0.0002942784624779899
-0.0008416530775587852 0.0058006278385388296 -0.00032437752817129754
-0.0003626938800970499 0.00552410061695345 -4.898956363285458e-05
0.00011626486059359982 0.0052475736590849795 2.0046776242427606e-05
0.0005952240580553347 0.0049710464374996 0.00020313224032481164
0.0010741832555170698 0.00469451921591422 0.00010294513172307736
0.0015531424529788048 0.00441799199432884 0.0007199540899324357
0.0020321016504405397 0.0041414647727434604 0.00043034914682909344
-0.003438881040743816 0.007938750365512842 0.0008733898619344704
-0.002959921843282081 0.007662223143927463 0.00041619651518999323
-0.0024809626458203457 0.007385695922342083 0.0004462945260156648
-0.002002003448358611 0.0071091687007567034 0.0005106314305723326
-0.001523044250896876 0.006832641479171324 0.0004746551698447577
-0.0010440850534351404 0.006556114257585944 0.0002915702331961917
-0.0005651258559734059 0.006279587036000564 0.0002884351665818433
-8.616665851167058e-05 0.006003059814415184 0.000285301682268949
0.00039279208217897916 0.005726532856546714 0.00024932542154137413
0.000871751279640714 0.005450005634961334 0.0002133491608137993
0.001350710477102449 0.005173478413375955 0.000277685010502831
0.0018296696745641842 0.004896951191790575 0.00024170874977525616
0.002308628872025919 0.004620423970205195 0.0009615182511546691
0.002787588069487654 0.004343896748619815 0.0015260892117420332
-0.0026833946216967006 0.008141182341389198 0.0010244447976819344
-0.0022044354242349655 0.00786465511980382 0.0005202502411116785
-0.0017254762267732307 0.007588127898218439 0.0010987343783847587
-0.0012465170293114959 0.007311600676633059 0.0011018689175652891
-0.0007675578318497602 0.007035073455047679 0.0012047981545869422
-0.00028859863438802566 0.0067585462334623 0.00015801080462647841
0.0001903605630737096 0.00648201901187692 0.0009176943026486807
0.0006693193037643593 0.00620549205400845 0.0006791839832328196
0.0011482785012260942 0.00592896483242307 0.0005789968746310852
0.0016272376986878293 0.00565243761083769 0.0005146610249420535
0.002106196896149564 0.00537591038925231 0.0006175913168313428
0.002585156093611299 0.0050993831676669306 0.001234598692739247
0.0030641152910730342 0.004822855946081551 0.001337528720911627
0.0035430744885347693 0.004546328724496171 0.001659636509333932
-0.001927908202649586 0.008343614317265555 0.0009407030755262605
-0.001448949005187851 0.008067087095680174 0.0011792123400744855
-0.0009699898077261161 0.007790559874094795 0.001209311933201611
-0.0004910306102643804 0.007514032652509415 0.0012061784488887168
-1.2071412802645931e-05 0.007237505430924035 0.001444687449720033
0.00046688778465908936 0.006960978209338655 0.0009874938392586468
0.000945846525349739 0.006684451251470185 0.0008044083751762628
0.001424805722811474 0.006407924029884805 0.0005754883848735742
0.001903764920273209 0.0061313968082994256 0.0005723549005606798
0.002382724117734944 0.005854869586714046 0.0005363786398331049
0.002861683315196679 0.005578342365128666 0.0007748879043813301
0.003340642512658414 0.005301815143543286 0.0008049869700746377
0.003819601710120149 0.0050252879219579065 0.0007690107093470628
0.004298560907581884 0.004748760700372527 0.0007658772250341686
0.004777520105043619 0.004472233478787147 0.0008302130747232002
0.005256479302505354 0.004195706257201768 0.0014222069018112063
0.005735438499967089 0.003919179035616388 0.0013192768736388263
0.0076512754040068 0.0028130700833456424 0.0015553435921757716
0.008130234584518045 0.0025365428715466323 0.001552210107862877
0.008609193770382079 0.0022600156566571893 0.00148317244940305
0.009088152996392006 0.001983488418589503 0.001300086985320666
0.009567112193853741 0.0017069611970041234 0.001589691664707099
0.010046071391315477 0.0014304339754187432 0.0017775311535082633
0.011003989672046174 0.0008773795981772114 0.0017822841233594074
0.01148294886950791 0.0006008523765918317 0.0018123834527696242
0.012919826461893116 -0.00022872928816430803 0.0011559066219573569
0.01339878565935485 -0.0005052565097496877 0.0008337980423843251
0.013877744856816586 -0.0007817837313350674 0.000730868805362672
0.014356704054278321 -0.001058310952920447 0.0011650090747888548
0.01531462244920179 -0.0016113653960912063 0.001091889869728231
-0.0006934625861407364 0.00826951907155653 0.0017440227556152336
-0.00021450338867900072 0.007992991849971149 0.0018130593592074248
0.00026445580878273385 0.00771646462838577 0.0017487235095183932
0.0007434150062444691 0.00743993740680039 0.001560885339301774
0.001222373746935119 0.00716341044893192 0.001126744278724864
0.0017013329443968537 0.00688688322734654 0.001229674306897244
0.002180292141858589 0.00661035600576116 0.0007591244898619775
0.0026592513393203236 0.00633382878417578 0.0001410896728765581
0.0031382105367820587 0.006057301562590401 0.00046319825244959
0.0036171697342437937 0.005780774341005021 0.0003630116712816737
0.004096128931705529 0.005504247119419641 0.0001751729736312365
0.004575088129167263 0.005227719897834261 0.00017830698537794884
0.005054047326628999 0.004951192676248882 0.00028123674983342
0.0055330065240907335 0.004674665454663503 0.0003502736171425202
0.006011965721552469 0.004398138233078123 9.82088937853317e-06
0.006490924919014204 0.004121611011492743 0.001010973083101906
0.00696988423066871 0.003845083723978136 0.0005768322862419051
0.007448843428130445 0.0035685565023927564 0.000852220250780348
0.00792780262559218 0.003292029280807377 0.00038167017002817255
0.008406761806103426 0.003015502069008367 0.00038480523664252095
0.008885720991967458 0.002738974854118924 0.0002846181280407867
0.009364680217977385 0.002462447616051238 0.000254518534913661
0.00984363941543912 0.002185920394465858 0.00029049479564123587
0.010322598612900856 0.0019093931728804778 0.00039342403266288896
0.01080155769616982 0.0016328660172243257 0.0006223440229655776
0.011280516893631555 0.001356338795638946 0.0003327396072960534
0.011759476091093289 0.0010798115740535664 0.00014489985477798018
0.012238435288555024 0.0008032843524681867 0.0007619088129873384
0.01271739448601676 0.0005267571308828062 0.00016991445846551416
0.013196353683478495 0.00025022990929742656 6.97278772975979e-05
0.01367531288094023 -2.6297312287953058e-05 0.00013876579947433418
0.014154272078401964 -0.0003028245338733327 0.0004141532365789591
0.0146332312758637 -0.0005793517554587123 0.000689540146249766
0.015112190473325435 -0.0008558789770440919 0.000964928110788209
0.015591149670787171 -0.0011324061986294717 0.0010009043715157838
0.016070108868248906 -0.0014089334202148512 0.0012298246255353815
0.016549068522481725 -0.0016854609055171402 0.0015519324139576863
0.0005409830303681132 0.008195423825847505 0.001632584428807362
0.0010199422278298483 0.007918896604262125 0.0015966081680797873
0.0014989009685204982 0.007642369646393654 0.0012279055575884928
0.0019778601659822333 0.0073658424248082745 0.0010448200935061088
0.0024568193634439683 0.007089315203222895 0.00081590010320342
0.002935778560905703 0.006812787981637515 0.0005869806403345493
0.003414737758367438 0.006536260760052135 0.0002648720607615175
0.003893696955829173 0.0062597335384667555 -0.00010383054972977692
0.0043726561532909086 0.005983206316881376 -0.00028691601381216096
0.004851615350752643 0.005706679095295996 -0.0005158365315486677
0.005330574548214379 0.005430151873710616 -0.0006187652411365028
0.005809533745676113 0.005153624652125237 -0.0005886667028770132
0.006288492943137848 0.004877097430539858 -0.0005243313806217994
0.006767452140599583 0.004600570208954478 -0.0005274648649346938
0.0072464114522540896 0.004324042921439871 -0.00059650278711143
0.007725370649715824 0.004047515699854491 -0.0006655391269867122
0.008204329847177559 0.0037709884782691117 -0.0006012038047314986
0.008683289027688805 0.0034944612664701015 -0.0003115988616281564
0.009162248213552836 0.0032179340515806586 -0.00038063572893725663
0.009641207439562765 0.0029414068135129724 -0.0004166119896648314
0.010120166637024499 0.0026648795919275927 -0.0003865123965377058
0.010599125834486234 0.0023883523703422125 -0.0003221765468486741
0.011078084917755198 0.00211182521468606 -0.00035815280757624897
0.011557044115216934 0.0018352979931006805 -0.00029381695788721727
0.01203600331267867 0.001558770771515301 -0.0002637173647600916
0.012514962510140403 0.0012822435499299212 -0.0004926378824965982
0.01299392170760214 0.0010057163283445408 -0.00020303293939325607
0.013472880905063874 0.0007291891067591612 -0.00017293387369994844
0.01395184010252561 0.0004526618851737816 1.4904823950488738e-05
0.014430799299987345 0.00017613466358840194 0.00040528601923030066
0.014909758497449079 -0.00010039255799697771 0.0005931241894469198
0.015388717694910814 -0.00037691977958235736 0.0009835053847267318
0.015867676892372548 -0.000653447001167737 0.0011713435549433509
0.016346636089834284 -0.0009299742227531166 0.0014098538743592122
0.016825595744067105 -0.0012065017080554056 0.0015976923082927402
0.001296469713132137 0.008397856258494946 0.0017513936432221513
0.001775428453822787 0.008121329300626475 0.0014617889638357182
0.002254387651284522 0.007844802079041095 0.001223279963004402
0.002733346848746257 0.007568274857455716 0.0009847696435885409
0.0032123060462079917 0.007291747635870336 0.0007969314733719216
0.0036912652436697268 0.007015220414284956 0.0001295805395334058
0.004170224441131462 0.006738693192699576 6.52446898443741e-05
0.004649183638593197 0.006462165971114197 -0.0006545642841012208
0.0051281428360549315 0.006185638749528817 -0.0002858606187422904
0.005607102033516667 0.005909111527943437 -0.0011789384585491635
0.006086061230978402 0.005632584306358058 -0.0014685434016525058
0.006565020428440137 0.0053560570847726785 -0.0010113500549080285
0.007043979625901872 0.005079529863187299 -0.0010414491206013363
0.007522938937556378 0.004803002575672692 -0.000972411725858418
0.008001898135018113 0.004526475354087312 -0.0009692777141117057
0.008480857332479847 0.004249948132501932 -0.0009993762523711953
0.008959816512991093 0.003973420920702922 -0.00011364292848033852
0.009438775698855126 0.0036968937058134794 -0.0007566818004769314
0.009917734924865054 0.0034203664677457933 -0.0007535477887302191
0.010396694122326789 0.0031438392461604135 -0.0006845103939873008
0.010875653319788525 0.0028673120245750333 -0.0005815811569656477
0.011354612403057487 0.002590784868918881 -0.0005784466177851174
0.011833571600519222 0.0023142576473335016 -0.0006427824674741491
0.012312530797980958 0.002037730425748122 -0.0005398532304524959
0.012791489995442691 0.001761203204162742 -0.0005038769697249211
0.013270449192904429 0.0014846759825773617 -0.00018176944501952533
0.013749408390366164 0.0012081487609919821 -7.883915313023617e-05
0.014228367587827898 0.0009316215394066024 0.00015007978230481648
0.014707326785289633 0.0006550943178212227 0.00047218888931166637
0.015186285982751369 0.00037856709623584314 0.0007475768538501093
0.015665245180213103 0.00010203987465046351 0.000976496844152798
0.016144204377674838 -0.00017448734693491612 0.0013451997183610016
0.0015729969347175168 0.00887681545595668 0.001795087315575087
0.0020519556754081667 0.008600288498088209 0.001612001851492703
0.002530914872869902 0.00832376127650283 0.001509072878187959
0.003009874070331637 0.008047234054917451 0.0010518792677265726
0.0034888332677933715 0.0077707068333320705 0.0008687943310780067
0.0039677924652551065 0.007494179611746691 -4.662138578991691e-05
0.004446751662716842 0.007217652390161311 -0.0006636303439992753
0.004925710860178577 0.006941125168575931 -0.000985738923572307
0.005404670057640311 0.0066645979469905515 -0.0012146594413088138
0.005883629255102047 0.006388070725405172 -0.0014435783767438664
0.006362588452563781 0.006111543503819793 -0.0013433917955759502
0.006841547650025517 0.005835016282234413 -0.0013465263347564806
0.0073205068474872514 0.005558489060649033 -0.0012463392261547464
0.007799466159141758 0.005281961773134426 -0.0012162401604614386
0.008278425356603492 0.0050054345515490465 -0.001186141622201949
0.008757384554065228 0.004728907329963667 -0.0011218057725129174
0.009236343734576474 0.004452380118164657 -0.0007813519898812943
0.009715302920440505 0.004175852903275214 -0.0008842822817705834
0.010194262146450432 0.003899325665207528 -0.0007840951731688492
0.010673221343912168 0.003622798443622148 -0.0007197598509136355
0.011152180541373903 0.003346271222036768 -0.0005319211532631983
0.012110098822104603 0.002793216844795236 -0.0004260124426035145
0.012589058019566337 0.0025166896232098565 -0.0003616765929144829
0.013068017217028072 0.0022401624016244767 -0.00017383736783022766
0.013546976414489808 0.0019636351800390965 1.4000802386391501e-05
0.014025935611951543 0.0016871079584537168 0.0002525100669346166
0.014504894809413279 0.001410580736868337 0.0004403482371512358
0.015462813204336748 0.0008575262936975778 0.0008095972690780053
0.015941772401798483 0.0005809990721121982 0.0013450172262599643
0.01642073159926022 0.0003044718505268185 0.0017353984215397762
0.0032864012919170175 0.008526193252379187 0.0016677199600290027
0.003765360489378752 0.008249666030793808 0.0013781152806425694
0.004244319686840487 0.007973138809208427 0.0005724187200526606
0.004723278884302223 0.007696611587623047 -0.0002912963516708697
0.005202238081763957 0.007420084366037668 -0.0006317485520010386
0.005681197279225692 0.007143557144452288 -0.0009722012797650257
0.006160156476687427 0.006867029922866908 -0.0013126540075290127
0.006639115674149162 0.006590502701281529 -0.0015004921777456318
0.0071180748716108974 0.0063139754796961494 -0.0011783835981726
0.007597034069072632 0.00603744825811077 -0.0012785701793405163
0.008075993380727139 0.005760920970596163 -0.0011756414697526813
0.008554952578188873 0.005484393749010783 -0.0009925560056702973
0.009033911775650608 0.005207866527425403 -0.0009894214664897668
0.009512870956161854 0.004931339315626393 -0.0006673123594829169
0.009991830142025886 0.00465481210073695 -0.0006641788751700226
0.010470789368035813 0.004378284862669264 -0.0003887909106315796
0.010949748565497549 0.004101757641083884 -0.00031975298845484334
0.011428707762959284 0.0038252304194985043 2.3545362505524074e-06
0.011907666846228248 0.003548703263842352 -2.7743474575119168e-05
0.012386626043689983 0.0032721760422569726 0.00047085237201678756
0.012865585241151717 0.002995648820671593 0.0003706657908488713
0.013344544438613453 0.002719121599086213 0.00040664205157644616
0.013823503636075188 0.002442594377500833 0.0007753446620677406
0.014302462833536924 0.002166067155915453 0.0007784792012482709
0.01478142203099866 0.0018895399343300734 0.000961564665330655
0.015260381228460393 0.0016130127127446938 0.001144650129413039
0.01573934042592213 0.001336485491159314 0.0013735690648480916
0.016218299623383864 0.0010599582695739345 0.001742272730207022
0.004520846908425867 0.008452098006670163 0.0011410440643991931
0.004999806105887602 0.008175570785084784 0.0006424476903734682
0.005478765303349337 0.007899043563499403 0.00027374402501453783
0.005957724500811072 0.007622516341914023 -1.6439395239051425e-06
0.006436683698272807 0.007345989120328644 -0.0002770308491947121
0.006915642895734542 0.007069461898743265 -0.0004601163132770961
0.007394602093196277 0.006792934677157885 -0.0005291537080200143
0.007873561290658013 0.006516407455572505 -0.0004990546423267068
0.008352520602312518 0.006239880168057898 -0.001153667522026069
0.008831479799774253 0.005963352946472518 -0.0005356321776068316
0.009310438997235987 0.0056868257248871385 -0.00053876724422118
0.009789398177747233 0.005410298513088128 -0.0005086676510940543
0.010268357363611267 0.005133771298198686 -0.00021906270799071205
0.010747316589621194 0.004857244060130999 -0.0001547273857354984
0.01122627578708293 0.0045807168385456195 3.311131191493878e-05
0.011705234984544665 0.00430418961696024 9.744663417015243e-05
0.012184194067813627 0.004027662461304087 0.0002852853318205896
0.012663153265275362 0.003751135239718708 0.00034962065407580326
0.013142112462737098 0.0034746080181333283 0.00044980776267753754
0.013621071660198832 0.0031980807965479485 0.0005499948712792719
0.014100030857660569 0.0029215535749625684 0.0008904470716094409
0.014578990055122304 0.0026450263533771886 0.0008873135872965465
0.015057949252584038 0.002368499131791809 0.0009174121255560361
0.015536908450045774 0.002091971910206429 0.0013077933208358481
0.016494826844969245 0.00153891746703567 0.001767746465033148
0.01697378604243098 0.0012623902454502903 0.0017646129807202537
0.005276333327472981 0.008654529982546517 0.001742976326920269
0.0062342517223964505 0.008101475539375758 0.0015821348566793267
0.006713210919858186 0.007824948317790377 0.0013824832238065541
