ply
format ascii 1.0
element vertex 633
property float x
property float y
property float z
property uchar red
property uchar green
property uchar blue
end_header
0.0074745876956761595 0.00023929416044797845 -0.0011575005882230095 184 70 0
0.0074745876956761595 0.0007857725503753373 -0.0009765920884065589 155 99 0
0.0074745876956761595 0.001332250940302696 -0.0010063337845319464 160 94 0
0.0074745876956761595 0.0018787293302300549 -0.0007801352294009863 124 130 0
0.0074745876956761595 0.0024252077201574137 -0.0005992267295845357 95 159 0
0.0074745876956761595 0.0029716861100847728 -0.0004975218862595654 79 175 0
0.0074745876956761595 0.0035181645000121314 0.00011215005107937058 0 239 15
0.0074745876956761595 0.004064643020230092 0.0009573655066323312 0 118 136
0.0069281093057488 -0.00741140277737264 0.0009511475179789353 0 119 135
0.0069281093057488 -0.006864924387445281 0.00123730893477322 0 78 176
0.0069281093057488 -0.006318445997517922 0.0004866594399222963 0 185 69
0.0069281093057488 -0.005771967607590564 0.0001223398184208505 0 237 17
0.0069281093057488 -0.005225489217663205 -0.00019593771041575032 31 223 0
0.0069281093057488 -0.004679010827735846 -0.0005602573319171961 89 165 0
0.0069281093057488 -0.004132532437808487 -0.0005633540789273778 89 165 0
0.0069281093057488 -0.0035860540478811283 -0.0008354675630963766 133 121 0
0.0069281093057488 -0.0030395756579537697 -0.0008710155295752539 138 116 0
0.0069281093057488 -0.0024930977891888155 -0.0009727208940626291 154 100 0
0.0069281093057488 -0.001946619399261457 -0.0010409379258954688 165 89 0
0.0069281093057488 -0.001400141009334098 -0.0014052565050721047 223 31 0
0.0069281093057488 -0.0008536626194067392 -0.0010688519054667153 170 84 0
0.0069281093057488 -0.0003071842294793804 -0.0016014626849608989 255 0 0
0.0069281093057488 0.00023929416044797845 -0.001172485049689981 186 68 0
0.0069281093057488 0.0007857725503753373 -0.0009868787919553586 157 97 0
0.0069281093057488 0.001332250940302696 -0.0009899765812903503 157 97 0
0.0069281093057488 0.0018787293302300549 -0.0009264057122975931 147 107 0
0.0069281093057488 0.0024252077201574137 -0.0006402442955033083 101 153 0
0.0069281093057488 0.0029716861100847728 -0.00035408339987142844 56 198 0
0.0069281093057488 0.0035181645000121314 0.00030533244669467513 0 211 43
0.0069281093057488 0.004064643020230092 0.0004147583110489021 0 195 59
0.0069281093057488 0.004611121410157451 0.0011542012507062987 0 90 164
0.006381630915821442 -0.00741140277737264 0.0008756284796904145 0 130 124
0.006381630915821442 -0.006864924387445281 0.0011939075720142302 0 85 169
0.006381630915821442 -0.006318445997517922 0.0005585147065040553 0 175 79
0.006381630915821442 -0.005771967607590564 -0.00010090114006204829 16 238 0
0.006381630915821442 -0.005225489217663205 -3.26851505540185e-05 5 249 0
0.006381630915821442 -0.004679010827735846 -0.0006680774949017884 106 148 0
0.006381630915821442 -0.004132532437808487 -0.0007316483638945455 116 138 0
0.006381630915821442 -0.0035860540478811283 -0.0007952192328873027 126 128 0
0.006381630915821442 -0.0030395756579537697 -0.0009808239271347104 156 98 0
0.006381630915821442 -0.0024930977891888155 -0.0010798197682787777 171 83 0
0.006381630915821442 -0.001946619399261457 -0.0010442712806374955 166 88 0
0.006381630915821442 -0.001400141009334098 -0.0012298759748849033 195 59 0
0.006381630915821442 -0.0008536626194067392 -0.0012267797490371265 195 59 0
0.006381630915821442 -0.0003071842294793804 -0.0011250733422249414 179 75 0
0.006381630915821442 0.00023929416044797845 -0.0009441653635708959 150 104 0
0.006381630915821442 0.0007857725503753373 -0.0008424599990835206 134 120 0
0.006381630915821442 0.001332250940302696 -0.0007407551557585503 117 137 0
0.006381630915821442 0.0018787293302300549 -0.0009764279222490013 155 99 0
0.006381630915821442 0.0024252077201574137 4.019107317902736e-05 0 249 5
0.006381630915821442 0.0029716861100847728 4.3287299026804194e-05 0 248 6
0.006381630915821442 0.0035181645000121314 0.0006529592363657401 0 162 92
0.005835152525894083 -0.007957881167299998 0.0011011677643791194 0 98 156
0.005835152525894083 -0.00741140277737264 0.000920259785725074 0 124 130
0.005835152525894083 -0.006864924387445281 0.00042759089294585684 0 194 60
0.005835152525894083 -0.006318445997517922 0.000359374903437827 0 203 51
0.005835152525894083 -0.005771967607590564 -0.0002874543498864556 45 209 0
0.005835152525894083 -0.005225489217663205 -0.0004683628497029062 74 180 0
0.005835152525894083 -0.004679010827735846 -0.0006492713495193566 103 151 0
0.005835152525894083 -0.004132532437808487 -0.0006848198371606388 109 145 0
0.005835152525894083 -0.0035860540478811283 -0.0008657278158146844 137 117 0
0.005835152525894083 -0.0030395756579537697 -0.0009674331803020597 154 100 0
0.005835152525894083 -0.0024930977891888155 -0.001460102073081277 232 22 0
0.005835152525894083 -0.001946619399261457 -0.0009310487481632461 148 106 0
0.005835152525894083 -0.001400141009334098 -0.000999264216508871 159 95 0
0.005835152525894083 -0.0008536626194067392 -0.0012713777006778699 202 52 0
0.005835152525894083 -0.0003071842294793804 -0.001085773006430462 172 82 0
0.005835152525894083 0.00023929416044797845 -0.0011213214940717442 178 76 0
0.005835152525894083 0.0007857725503753373 -0.0010915797979463566 173 81 0
0.005835152525894083 0.001332250940302696 -0.0010946760237941333 174 80 0
0.005835152525894083 0.0018787293302300549 -0.0007089366274494577 112 142 0
0.005835152525894083 0.0024252077201574137 8.71785544464421e-05 0 242 12
0.005835152525894083 0.0029716861100847728 0.0003733394500783219 0 201 53
0.005835152525894083 0.0035181645000121314 -0.0002734898032459607 43 211 0
0.005835152525894083 0.004064643020230092 0.00019146523632550876 0 227 27
0.005288674135966724 -0.00741140277737264 0.0007538286563555839 0 147 107
0.005288674135966724 -0.006864924387445281 0.00041742405675019434 0 195 59
0.005288674135966724 -0.006318445997517922 0.00048564108858303406 0 185 69
0.005288674135966724 -0.005771967607590564 -0.0002256095707788756 35 219 0
0.005288674135966724 -0.005225489217663205 -0.0004112142650262834 65 189 0
0.005288674135966724 -0.004679010827735846 -0.0007476188646316729 119 135 0
0.005288674135966724 -0.004132532437808487 -0.0008466141846133355 134 120 0
0.005288674135966724 -0.0035860540478811283 -0.001032219400023148 164 90 0
0.005288674135966724 -0.0030395756579537697 -0.0007601059158541494 121 133 0
0.005288674135966724 -0.0024930977891888155 -0.001096509994297134 174 80 0
0.005288674135966724 -0.001946619399261457 -0.0011262516904225217 179 75 0
0.005288674135966724 -0.001400141009334098 -0.0013118563846699295 208 46 0
0.005288674135966724 -0.0008536626194067392 -0.001341598080795317 213 41 0
0.005288674135966724 -0.0003071842294793804 -0.0008898409579666688 141 113 0
0.005288674135966724 0.00023929416044797845 -0.0010754456522140765 171 83 0
0.005288674135966724 0.0007857725503753373 -0.0009737408088891063 155 99 0
0.005288674135966724 0.001332250940302696 -0.0007928323090726557 126 128 0
0.005288674135966724 0.0018787293302300549 -0.00030016445861824853 47 207 0
0.005288674135966724 0.0024252077201574137 1.8114633705567106e-05 0 252 2
0.005288674135966724 0.0029716861100847728 0.0009513856891979948 0 119 135
0.005288674135966724 0.0035181645000121314 0.00159821520310348 0 27 227
0.004742195746039365 -0.007957881167299998 0.0006989017870112405 0 155 99
0.004742195746039365 -0.00741140277737264 0.0007286424408118183 0 151 103
0.004742195746039365 -0.006864924387445281 0.0004565299989676295 0 190 64
0.004742195746039365 -0.006318445997517922 4.772876138981131e-06 0 254 0
0.004742195746039365 -0.005771967607590564 -0.0003135062161848345 49 205 0
0.004742195746039365 -0.005225489217663205 -0.0005856197003538333 93 161 0
0.004742195746039365 -0.004679010827735846 -0.0006873245436788036 109 145 0
0.004742195746039365 -0.004132532437808487 -0.0007890309504909888 125 129 0
0.004742195746039365 -0.0035860540478811283 -0.0008907357938159591 141 113 0
0.004742195746039365 -0.0030395756579537697 -0.0009589517833239889 152 102 0
0.004742195746039365 -0.0024930977891888155 -0.0010271688151568285 163 91 0
0.004742195746039365 -0.001946619399261457 -0.0011288736584817987 179 75 0
0.004742195746039365 -0.001400141009334098 -0.0010653027894890416 169 85 0
0.004742195746039365 -0.0008536626194067392 -0.0005671038424309557 90 164 0
0.004742195746039365 -0.0003071842294793804 -0.0011767757797698916 187 67 0
0.004742195746039365 0.00023929416044797845 -0.001147034083644504 182 72 0
0.004742195746039365 0.0007857725503753373 -0.0010834637358141518 172 82 0
0.004742195746039365 0.001332250940302696 -0.0010198928668213947 162 92 0
0.004742195746039365 0.0018787293302300549 -0.000990151170696007 157 97 0
0.004742195746039365 0.0024252077201574137 0.00014051587845570373 0 234 20
0.004742195746039365 0.0029716861100847728 0.0012711839699322245 0 74 180
0.004742195746039365 0.0035181645000121314 0.0012029679804241946 0 83 171
0.004195717356112006 -0.00741140277737264 0.0007380535915203107 0 149 105
0.004195717356112006 -0.006864924387445281 0.0003523141951756352 0 204 50
0.004195717356112006 -0.006318445997517922 1.591011673265063e-05 0 252 2
0.004195717356112006 -0.005771967607590564 -4.76607522601065e-05 7 247 0
0.004195717356112006 -0.005225489217663205 -0.00043340014860478204 69 185 0
0.004195717356112006 -0.004679010827735846 -0.0007698047482101716 122 132 0
0.004195717356112006 -0.004132532437808487 -0.000588896248393721 93 161 0
0.004195717356112006 -0.0035860540478811283 -0.0007745009426411288 123 131 0
0.004195717356112006 -0.0030395756579537697 -0.0009601061580509415 152 102 0
0.004195717356112006 -0.0024930977891888155 -0.0011457108522983494 182 72 0
0.004195717356112006 -0.001946619399261457 -0.0012092817212911065 192 62 0
0.004195717356112006 -0.001400141009334098 -0.001028373221474656 163 91 0
0.004195717356112006 -0.0008536626194067392 -0.0012139779157220637 193 61 0
0.004195717356112006 -0.0003071842294793804 -0.001145761926214034 182 72 0
0.004195717356112006 0.00023929416044797845 -0.0013313671416238467 211 43 0
0.004195717356112006 0.0007857725503753373 -0.0007216946831225057 114 140 0
0.004195717356112006 0.001332250940302696 -0.00044958276244072185 71 183 0
0.004195717356112006 0.0018787293302300549 -0.0001774692782717231 28 226 0
0.004195717356112006 0.0024252077201574137 0.0006370372037322725 0 164 90
0.004195717356112006 0.0029716861100847728 -0.00010240573592512408 16 238 0
0.0036492389661846474 -0.00741140277737264 0.0007099014407300046 0 153 101
0.0036492389661846474 -0.006864924387445281 0.0002172335902755973 0 224 30
0.0036492389661846474 -0.006318445997517922 -5.487989389340141e-05 8 246 0
0.0036492389661846474 -0.005771967607590564 -0.00037315742273000225 59 195 0
0.0036492389661846474 -0.005225489217663205 -0.0004748638295421874 75 179 0
0.0036492389661846474 -0.004679010827735846 -0.0005430792978878122 86 168 0
0.0036492389661846474 -0.004132532437808487 -0.0007692778530187724 122 132 0
0.0036492389661846474 -0.0035860540478811283 -0.0008374938425268023 133 121 0
0.0036492389661846474 -0.0030395756579537697 -0.0010636918764953575 169 85 0
0.0036492389661846474 -0.0024930977891888155 -0.0010339507015323748 164 90 0
0.0036492389661846474 -0.001946619399261457 -0.0011021672122028096 175 79 0
0.0036492389661846474 -0.001400141009334098 -0.0011052639592129914 175 79 0
0.0036492389661846474 -0.0008536626194067392 -0.0012069698448627716 192 62 0
0.0036492389661846474 -0.0003071842294793804 -0.001021364108290554 162 92 0
0.0036492389661846474 0.00023929416044797845 -0.001123069993940334 178 76 0
0.0036492389661846474 0.0007857725503753373 -0.0009374642573681165 149 105 0
0.0036492389661846474 0.001332250940302696 -0.0007017909697152604 111 143 0
0.0036492389661846474 0.0018787293302300549 -0.00027281333444434267 43 211 0
0.0036492389661846474 0.0024252077201574137 0.0007300631295276976 0 151 103
0.0031027605762572884 -0.00741140277737264 0.0014890572162253944 0 43 211
0.0031027605762572884 -0.006864924387445281 0.0003583899064924811 0 203 51
0.0031027605762572884 -0.006318445997517922 -2.7349489852194427e-05 4 250 0
0.0031027605762572884 -0.005771967607590564 -0.00026302381982986034 41 213 0
0.0031027605762572884 -0.005225489217663205 -0.00044862851407726813 71 183 0
0.0031027605762572884 -0.004679010827735846 -0.0006342332083246759 100 154 0
0.0031027605762572884 -0.004132532437808487 -0.0008198379025720836 130 124 0
0.0031027605762572884 -0.0035860540478811283 -0.000918833743716151 146 108 0
0.0031027605762572884 -0.0030395756579537697 -0.0010178295848602185 162 92 0
0.0031027605762572884 -0.0024930977891888155 -0.0010475707598232012 166 88 0
0.0031027605762572884 -0.001946619399261457 -0.0012832440474760574 204 50 0
0.0031027605762572884 -0.001400141009334098 -0.0012476955598347752 198 56 0
0.0031027605762572884 -0.0008536626194067392 -0.0011459907165098048 182 72 0
0.0031027605762572884 -0.0003071842294793804 -0.0011104422288685226 176 78 0
0.0031027605762572884 0.00023929416044797845 -0.0008383297870243337 133 121 0
0.0031027605762572884 0.0007857725503753373 -0.0005662163028553349 90 164 0
0.0031027605762572884 0.001332250940302696 0.00033831473065400885 0 206 48
0.0031027605762572884 0.0018787293302300549 0.0006565933018154196 0 161 93
0.0025562821863299298 -0.007957881167299998 0.0012568465315909911 0 76 178
0.0025562821863299298 -0.00741140277737264 0.0010759382923557432 0 101 153
0.0025562821863299298 -0.006864924387445281 0.00035856918635978203 0 203 51
0.0025562821863299298 -0.006318445997517922 -0.00017404159313440162 27 227 0
0.0025562821863299298 -0.005771967607590564 -0.00035495009295085213 56 198 0
0.0025562821863299298 -0.005225489217663205 -0.0004566559786006323 72 182 0
0.0025562821863299298 -0.004679010827735846 -0.0006375644784170828 101 153 0
0.0025562821863299298 -0.004132532437808487 -0.001001883057593719 159 95 0
0.0025562821863299298 -0.0035860540478811283 -0.0009028872164496514 143 111 0
0.0025562821863299298 -0.0030395756579537697 -0.0008393168686192992 133 121 0
0.0025562821863299298 -0.0024930977891888155 -0.0010655149025878545 169 85 0
0.0025562821863299298 -0.001946619399261457 -0.001101062347904327 175 79 0
0.0025562821863299298 -0.001400141009334098 -0.001202768754716512 191 63 0
0.0025562821863299298 -0.0008536626194067392 -0.0010171635393066993 161 93 0
0.0025562821863299298 -0.0003071842294793804 -0.0010527109846231717 167 87 0
0.0025562821863299298 0.00023929416044797845 -0.0009891401156304144 157 97 0
0.0025562821863299298 0.0007857725503753373 -0.0008035354213830066 127 127 0
0.0025562821863299298 0.001332250940302696 -0.0004177960250383311 66 188 0
0.0025562821863299298 0.0018787293302300549 0.0004939624887027867 0 184 70
0.0025562821863299298 0.0024252077201574137 0.0016903077270316487 0 14 240
0.00200980373125727 -0.00741140277737264 0.001168258043092468 0 88 166
0.00200980373125727 -0.006864924387445281 0.0005575719237135096 0 175 79
0.00200980373125727 -0.006318445997517922 5.937245549301879e-05 0 246 8
0.00200980373125727 -0.005771967607590564 -0.0002770321441123707 44 210 0
0.00200980373125727 -0.005225489217663205 -0.0004626368383597785 73 181 0
0.00200980373125727 -0.004679010827735846 -0.0003944208488517487 62 192 0
0.00200980373125727 -0.004132532437808487 -0.0008233990052850714 131 123 0
0.00200980373125727 -0.0035860540478811283 -0.0010090047418572891 160 94 0
0.00200980373125727 -0.0030395756579537697 -0.0007828067078887338 124 130 0
0.00200980373125727 -0.0024930977891888155 -0.0012810056549468196 203 51 0
0.00200980373125727 -0.001946619399261457 -0.0013107473510722075 208 46 0
0.00200980373125727 -0.001400141009334098 -0.0008180784582929903 130 124 0
0.00200980373125727 -0.0008536626194067392 -0.001003684194865208 159 95 0
0.00200980373125727 -0.0003071842294793804 -0.0007315707106962093 116 138 0
0.00200980373125727 0.00023929416044797845 -0.0007284734425236226 115 139 0
0.00200980373125727 0.0007857725503753373 -0.0005022748873926623 79 175 0
0.00200980373125727 0.001332250940302696 0.00034294004699789355 0 206 48
0.00200980373125727 0.0018787293302300549 0.0013595593030071246 0 61 193
0.0014633253739025614 -0.007957881167299998 0.001186535729796286 0 86 168
0.0014633253739025614 -0.00741140277737264 0.0013721404240436936 0 59 195
0.0014633253739025616 -0.006864924387445281 0.00027507844792522604 0 215 39
0.0014633253739025616 -0.006318445997517922 -0.0002575323315689576 41 213 0
0.0014633253739025616 -0.005771967607590564 -0.00026063012090394926 41 213 0
0.0014633253739025616 -0.005225489217663205 -0.0004415386207203998 70 184 0
0.0014633253739025616 -0.004679010827735846 -0.0006224465993744453 99 155 0
0.0014633253739025616 -0.004132532437808487 -0.0006255433463846271 99 155 0
0.0014633253739025618 -0.0035860540478811283 -0.0013429119312181833 213 41 0
0.0014633253739025616 -0.0030395756579537697 -0.0008447124629976924 134 120 0
0.0014633253739025616 -0.0024930977891888155 -0.0008478102523326841 134 120 0
0.0014633253739025618 -0.001946619399261457 -0.0011660888234940948 185 69 0
0.0014633253739025618 -0.001400141009334098 -0.000980484129246687 156 98 0
0.0014633253739025618 -0.0008536626194067392 -0.0013448027084233228 214 40 0
0.0014633253739025618 -0.0003071842294793804 -0.0009590633120786473 152 102 0
0.0014633253739025618 0.00023929416044797845 -0.0009293216159532596 147 107 0
0.0014633253739025616 0.0007857725503753373 -0.000400268291035229 63 191 0
0.0014633253739025616 0.001332250940302696 0.00045317684005421446 0 190 64
0.0014633253739025614 0.0018787293302300549 0.001335634561064528 0 64 190
0.0014633253739025614 0.0024252077201574137 0.0013992051694760826 0 55 199
0.0009168469799036216 -0.00741140277737264 0.0010575558520085314 0 104 150
0.0009168469799036216 -0.006864924387445281 0.0005593563837880404 0 175 79
0.0009168469799036217 -0.006318445997517922 -0.00023675879810785942 37 217 0
0.0009168469799036217 -0.005771967607590564 -0.0002336625722600826 37 217 0
0.0009168469799036217 -0.005225489217663205 -0.0002634037472230653 41 213 0
0.0009168469799036217 -0.004679010827735846 -0.0003623995883671328 57 197 0
0.0009168469799036218 -0.004132532437808487 -0.0007913772236380505 126 128 0
0.0009168469799036218 -0.0035860540478811283 -0.0010775386404323353 171 83 0
0.0009168469799036218 -0.0030395756579537697 -0.001041990152791053 165 89 0
0.0009168469799036218 -0.0024930977891888155 -0.0010064416651497708 160 94 0
0.0009168469799036218 -0.001946619399261457 -0.0008255336864957252 131 123 0
0.0009168469799036218 -0.001400141009334098 -0.001061207495310986 168 86 0
0.0009168469799036218 -0.0008536626194067392 -0.0007890940111419875 125 129 0
0.0009168469799036218 -0.0003071842294793804 -0.0007535460446631102 119 135 0
0.0009168469799036217 0.00023929416044797845 -0.00030178840067205694 48 206 0
0.0009168469799036216 0.0007857725503753373 0.00044886057301646184 0 191 63
0.0009168469799036215 0.001332250940302696 0.0013821311073464848 0 58 196
0.0009168469799036215 0.0018787293302300549 0.0017464507288479307 0 6 248
0.00037036856147519375 -0.007957881167299998 0.0008934501492899047 0 127 127
0.00037036856147519375 -0.00741140277737264 0.0007917453059649344 0 142 112
0.00037036856147519386 -0.006864924387445281 0.00018207336862599856 0 229 25
0.00037036856147519386 -0.006318445997517922 -0.0001362057236978171 21 233 0
0.00037036856147519386 -0.005771967607590564 -0.00020442119204344195 32 222 0
0.0003703685614751939 -0.005225489217663205 -0.0003061265565308172 48 206 0
0.0003703685614751939 -0.004679010827735846 -0.00048703505634726775 77 177 0
0.00037036856147519396 -0.004132532437808487 -0.0007591485405162665 120 134 0
0.00037036856147519396 -0.0035860540478811283 -0.000985346574484822 156 98 0
0.00037036856147519396 -0.0030395756579537697 -0.0009556048783594341 152 102 0
0.00037036856147519396 -0.0024930977891888155 -0.0009258637033964514 147 107 0
0.00037036856147519396 -0.001946619399261457 -0.0009614121910377336 153 101 0
0.00037036856147519396 -0.001400141009334098 -0.0009316704949123459 148 106 0
0.00037036856147519396 -0.0008536626194067392 -0.0009019287987869582 143 111 0
0.0003703685614751939 0.00023929416044797845 -0.0005857671893144332 93 161 0
0.0003703685614751938 0.0007857725503753373 0.00038599275210797517 0 200 54
0.0003703685614751937 0.001332250940302696 0.0012977515264302954 0 70 184
0.00037036856147519375 0.0018787293302300549 0.0009794726946876823 0 115 139
-0.00017610976330686444 -0.00741140277737264 0.0007680991253277807 0 145 109
-0.00017610976330686442 -0.006864924387445281 0.0004316945257223912 0 193 61
-0.00017610976330686433 -0.006318445997517922 -0.00030774841393500535 49 205 0
-0.0001761097633068644 -0.005771967607590564 0.00022486236555917827 0 222 32
-0.00017610976330686433 -0.005225489217663205 -0.00024009215284988628 38 216 0
-0.00017610976330686436 -0.004679010827735846 -1.389411888133096e-05 2 252 0
-0.00017610976330686428 -0.004132532437808487 -0.0006245802382602894 99 155 0
-0.00017610976330686425 -0.0035860540478811283 -0.0008602535259131454 136 118 0
-0.00017610976330686425 -0.0030395756579537697 -0.0008247060805966731 131 123 0
-0.00017610976330686428 -0.0024930977891888155 -0.0007564890487638334 120 134 0
-0.00017610976330686428 -0.001946619399261457 -0.0006882735804182086 109 145 0
-0.00017610976330686428 -0.001400141009334098 -0.0007180137130563814 114 140 0
-0.0001761097633068643 -0.0008536626194067392 -0.00035369513387974546 56 198 0
-0.00017610976330686433 -0.0003071842294793804 -0.0002519902905547752 40 214 0
-0.00017610976330686442 0.00023929416044797845 0.0003576816467841608 0 204 50
-0.00017610976330686452 0.0007857725503753373 0.0012909532234389935 0 71 183
-0.00017610976330686458 0.001332250940302696 0.0017427106068488444 0 6 248
-0.0007225881532342233 -0.007957881167299998 0.0008795184358809212 0 129 125
-0.0007225881532342233 -0.00741140277737264 0.0005612398647195106 0 175 79
-0.0007225881532342232 -0.006864924387445281 0.00019692128554287469 0 226 28
-0.0007225881532342232 -0.006318445997517922 -0.00012135780678094097 19 235 0
-0.0007225881532342232 -0.005771967607590564 -0.00015690629442222318 24 230 0
-0.0007225881532342232 -0.005225489217663205 -0.00022512176276784802 35 219 0
-0.0007225881532342231 -0.004679010827735846 -0.0004972352469368468 79 175 0
-0.0007225881532342231 -0.004132532437808487 -0.000598941653749032 95 159 0
-0.0007225881532342232 -0.0035860540478811283 -0.0004133359171768143 65 189 0
-0.0007225881532342231 -0.0030395756579537697 -0.0007776555386782601 123 131 0
-0.0007225881532342231 -0.0024930977891888155 -0.0007479138425528724 119 135 0
-0.0007225881532342232 -0.001946619399261457 -0.0004115092429474829 65 189 0
-0.0007225881532342231 -0.001400141009334098 -0.0007758278221241188 123 131 0
-0.0007225881532342231 -0.0008536626194067392 -0.000489666926492239 77 177 0
-0.0007225881532342232 -0.0003071842294793804 9.528836262978673e-05 0 241 13
-0.0007225881532342234 0.001332250940302696 0.0017028898903930273 0 12 242
-0.0012690665431615822 -0.00741140277737264 0.0006911203111430096 0 156 98
-0.0012690665431615822 -0.006864924387445281 0.00030538039363592904 0 211 43
-0.0012690665431615822 -0.006318445997517922 -3.1023684807055535e-05 4 250 0
-0.0012690665431615822 -0.005771967607590564 -0.00021662994254167814 34 220 0
-0.0012690665431615822 -0.005225489217663205 -3.572144272522762e-05 5 249 0
-0.0012690665431615822 -0.004679010827735846 -0.0005006759611342921 79 175 0
-0.0012690665431615822 -0.004132532437808487 -0.0005996718022783595 95 159 0
-0.0012690665431615822 -0.0035860540478811283 -0.0005314547704455199 84 170 0
-0.0012690665431615822 -0.0030395756579537697 -0.0005611964665709076 89 165 0
-0.0012690665431615822 -0.0024930977891888155 -0.0006247673355636647 99 155 0
-0.0012690665431615822 -0.001946619399261457 -0.0002604487563870288 41 213 0
-0.0012690665431615822 -0.001400141009334098 -0.00029018888902520163 46 208 0
-0.0012690665431615822 -0.0008536626194067392 -0.0002219734206795768 35 219 0
-0.0012690665431615822 -0.0003071842294793804 0.0001423451584970591 0 234 20
-0.0012690665431615825 0.0007857725503753373 0.0017601750196197454 0 4 250
-0.001815544933088941 -0.007957881167299998 0.0008267757581757013 0 137 117
-0.001815544933088941 -0.00741140277737264 0.0006458683006840607 0 163 91
-0.001815544933088941 -0.006864924387445281 0.0001941101355306025 0 227 27
-0.001815544933088941 -0.006318445997517922 1.3202678038961855e-05 0 253 1
-0.001815544933088941 -0.005771967607590564 -0.00043855548711449634 69 185 0
-0.001815544933088941 -0.005225489217663205 -0.00020288167829923538 32 222 0
-0.001815544933088941 -0.004679010827735846 -0.000383789656953281 61 193 0
-0.001815544933088941 -0.004132532437808487 -0.00048549502144065623 77 177 0
-0.001815544933088941 -0.0035860540478811283 -0.00045575436764007843 72 182 0
-0.001815544933088941 -0.0030395756579537697 -0.0002701486310678608 43 211 0
-0.001815544933088941 -0.0024930977891888155 -0.0005884272022292715 93 161 0
-0.001815544933088941 -0.001946619399261457 -0.000489431882247609 77 177 0
-0.001815544933088941 -0.001400141009334098 -0.00020327046545332418 32 222 0
-0.001815544933088941 -0.0008536626194067392 -0.00017353033281515133 27 227 0
-0.001815544933088941 -0.0003071842294793804 0.00025544886594298125 0 218 36
-0.0018155449330889413 0.00023929416044797845 0.0010801263534418787 0 101 153
-0.0018155449330889413 0.0007857725503753373 0.001143697222434636 0 92 162
-0.0023620233230163 -0.00741140277737264 0.0007194689401599797 0 152 102
-0.0023620233230163 -0.006864924387445281 0.00038306486171699514 0 200 54
-0.0023620233230163 -0.006318445997517922 4.666026211160562e-05 0 248 6
-0.0023620233230163 -0.005771967607590564 0.00031877270395579447 0 209 45
-0.0023620233230163 -0.005225489217663205 3.261128716150967e-05 0 250 4
-0.0023620233230163 -0.004679010827735846 -3.095958183124746e-05 4 250 0
-0.0023620233230163 -0.004132532437808487 -0.000416698978175923 66 188 0
-0.0023620233230163 -0.0035860540478811283 -0.00048026932600627516 76 178 0
-0.0023620233230163 -0.0030395756579537697 -0.00041205281533584045 65 189 0
-0.0023620233230163 -0.0024930977891888155 -0.0006982137109677203 111 143 0
-0.0023620233230163 -0.001946619399261457 -0.00024645658813907194 39 215 0
-0.0023620233230163 -0.001400141009334098 -0.00027619828426445964 43 211 0
-0.0023620233230163 -0.0008536626194067392 0.0001755593597265936 0 230 24
-0.0023620233230163 -0.0003071842294793804 0.0009262083334151124 0 123 131
-0.0029085017129436585 -0.007957881167299998 0.000981150316469199 0 115 139
-0.0029085017129436585 -0.00741140277737264 0.0006628717453077885 0 160 94
-0.0029085017129436585 -0.006864924387445281 0.0002985531661311524 0 212 42
-0.0029085017129436585 -0.006318445997517922 0.0001968467593189673 0 226 28
-0.0029085017129436585 -0.005771967607590564 1.5938259502516778e-05 0 252 2
-0.0029085017129436585 -0.005225489217663205 -0.00016497024031393375 26 228 0
-0.0029085017129436585 -0.004679010827735846 -0.0002666750836389041 42 212 0
-0.0029085017129436585 -0.004132532437808487 -0.00044758358345535466 71 183 0
-0.0029085017129436585 -0.0035860540478811283 -0.0006284920832718051 100 154 0
-0.0029085017129436585 -0.0030395756579537697 -0.0009006055674408038 143 111 0
-0.0029085017129436585 -0.0024930977891888155 -0.000614444150646519 97 157 0
-0.0029085017129436585 -0.001946619399261457 -0.000550873281653762 87 167 0
-0.0029085017129436585 -0.001400141009334098 -0.0002647113436970722 42 212 0
-0.0029085017129436585 -0.0008536626194067392 0.00012102701032279343 0 237 17
-0.0029085017129436585 -0.0003071842294793804 0.0006500808564032291 0 162 92
-0.0029085017129436585 0.00023929416044797845 0.0014461968200427363 0 49 205
-0.0034549801028710176 -0.006864924387445281 9.351953742740389e-05 0 241 13
-0.0034549801028710176 -0.006318445997517922 0.00019522490191477913 0 227 27
-0.0034549801028710176 -0.005771967607590564 9.620207667371358e-06 0 253 1
-0.0034549801028710176 -0.005225489217663205 -5.395066132538577e-05 8 246 0
-0.0034549801028710176 -0.004679010827735846 -0.00015294650246945322 24 230 0
-0.0034549801028710176 -0.004132532437808487 -0.0004391073981013331 69 185 0
-0.0034549801028710176 -0.0035860540478811283 -0.000674780685754189 107 147 0
-0.0034549801028710176 -0.0030395756579537697 -0.0007045223818795767 112 142 0
-0.0034549801028710176 -0.0024930977891888155 -0.0006689738942382945 106 148 0
-0.0034549801028710176 -0.001946619399261457 -9.73687012813339e-05 15 239 0
-0.0034549801028710176 -0.001400141009334098 8.353979853511664e-05 0 243 11
-0.0034549801028710176 -0.0008536626194067392 0.00044785837771175253 0 191 63
-0.0034549801028710176 -0.0003071842294793804 0.0011985078725626763 0 84 170
-0.004001458492798376 -0.00741140277737264 0.0006631349323222852 0 160 94
-0.004001458492798376 -0.006864924387445281 0.00034485583999846974 0 205 49
-0.004001458492798376 -0.006318445997517922 0.00016394786134442412 0 231 23
-0.004001458492798376 -0.005771967607590564 0.00012840041602795178 0 236 18
-0.004001458492798376 -0.005225489217663205 9.285192838666958e-05 0 241 13
-0.004001458492798376 -0.004679010827735846 -0.00027146769311477625 43 211 0
-0.004001458492798376 -0.004132532437808487 -0.0003731730576021515 59 195 0
-0.004001458492798376 -0.0035860540478811283 -0.0006914516287635622 110 144 0
-0.004001458492798376 -0.0030395756579537697 -0.0006617099326381746 105 149 0
-0.004001458492798376 -0.0024930977891888155 -0.0004761052383907667 75 179 0
-0.004001458492798376 -0.001946619399261457 -9.03658420460912e-05 14 240 0
-0.004001458492798376 -0.001400141009334098 -6.0624145920703513e-05 9 245 0
-0.004001458492798376 -0.0008536626194067392 0.0004972338251186242 0 184 70
-0.004001458492798376 -0.0003071842294793804 0.000783395241912909 0 143 111
-0.004001458492798376 0.00023929416044797845 0.0015511130661069762 0 34 220
-0.004547936882725734 -0.006864924387445281 0.0007022518189502243 0 155 99
-0.004547936882725734 -0.006318445997517922 0.00017319953635700345 0 230 24
-0.004547936882725734 -0.005771967607590564 0.0005375181155336394 0 178 76
-0.004547936882725734 -0.005225489217663205 0.0004739472465408823 0 187 67
-0.004547936882725734 -0.004679010827735846 0.00023827395888802622 0 221 33
-0.004547936882725734 -0.004132532437808487 -0.00029077936603000444 46 208 0
-0.004547936882725734 -0.0035860540478811283 -0.0003205205409929872 51 203 0
-0.004547936882725734 -0.0030395756579537697 -4.840705682398847e-05 7 247 0
-0.004547936882725734 -0.0024930977891888155 1.980841152163638e-05 0 252 2
-0.004547936882725734 -0.001946619399261457 0.0002007169113380869 0 226 28
-0.004547936882725734 -0.001400141009334098 0.00010172107019401947 0 240 14
-0.004547936882725734 -0.0008536626194067392 0.0007113935286953603 0 153 101
-0.004547936882725734 -0.0003071842294793804 0.0004252321119010756 0 194 60
-0.005094415272653093 -0.006864924387445281 0.0008630048839178411 0 132 122
-0.005094415272653093 -0.006318445997517922 0.0004112477610891927 0 196 58
-0.005094415272653093 -0.005771967607590564 0.00044098789372736555 0 192 62
-0.005094415272653093 -0.005225489217663205 0.0005045598050449325 0 183 71
-0.005094415272653093 -0.004679010827735846 0.0004690113174036503 0 188 66
-0.005094415272653093 -0.004132532437808487 0.00028810333874960476 0 213 41
-0.005094415272653093 -0.0035860540478811283 0.0002850055494146131 0 214 40
-0.005094415272653093 -0.0030395756579537697 0.00028190932356683625 0 214 40
-0.005094415272653093 -0.0024930977891888155 0.00024636083592555403 0 219 35
-0.005094415272653093 -0.001946619399261457 0.00021081234828427184 0 224 30
-0.005094415272653093 -0.001400141009334098 0.00027438321727702895 0 215 39
-0.005094415272653093 -0.0008536626194067392 0.00023883472963574673 0 221 33
-0.005094415272653093 -0.0003071842294793804 0.0009500853889976564 0 119 135
-0.005094415272653093 0.00023929416044797845 0.001507943360036984 0 40 214
-0.005640893662580452 -0.006318445997517922 0.001012263712044401 0 110 144
-0.005640893662580452 -0.005771967607590564 0.0005140642438239102 0 181 73
-0.005640893662580452 -0.005225489217663205 0.0010856699579432757 0 100 154
-0.005640893662580452 -0.004679010827735846 0.0010887672261158624 0 100 154
-0.005640893662580452 -0.004132532437808487 0.0011904725906032377 0 85 169
-0.005640893662580452 -0.0035860540478811283 0.00015613198875746734 0 232 22
-0.005640893662580452 -0.0030395756579537697 0.000906782525933201 0 125 129
-0.005640893662580452 -0.0024930977891888155 0.0006711081959555351 0 159 95
-0.005640893662580452 -0.001946619399261457 0.0005721123548114677 0 173 81
-0.005640893662580452 -0.001400141009334098 0.0005085414858187105 0 182 72
-0.005640893662580452 -0.0008536626194067392 0.0006102478926308957 0 168 86
-0.005640893662580452 -0.0003071842294793804 0.0012199187876450216 0 81 173
-0.005640893662580452 0.00023929416044797845 0.0013216249338760045 0 66 188
-0.005640893662580452 0.0007857725503753373 0.0016399027232938076 0 21 233
-0.0061873720525078115 -0.005771967607590564 0.0009295177146865112 0 122 132
-0.0061873720525078115 -0.005225489217663205 0.0011651910023393673 0 89 165
-0.0061873720525078115 -0.004679010827735846 0.0011949326984647551 0 84 170
-0.0061873720525078115 -0.004132532437808487 0.0011918364726169783 0 85 169
-0.0061873720525078115 -0.0035860540478811283 0.0014275094996886318 0 51 203
-0.0061873720525078115 -0.0030395756579537697 0.0009757521162787809 0 116 138
-0.0061873720525078115 -0.0024930977891888155 0.0007948436164623303 0 141 113
-0.0061873720525078115 -0.001946619399261457 0.000568645582493775 0 174 80
-0.0061873720525078115 -0.001400141009334098 0.0005655493566459982 0 174 80
-0.0061873720525078115 -0.0008536626194067392 0.0005300008690047159 0 179 75
-0.0061873720525078115 -0.0003071842294793804 0.0007656741566575719 0 146 108
-0.0061873720525078115 0.00023929416044797845 0.0007954153316205547 0 141 113
-0.0061873720525078115 0.0007857725503753373 0.0007598668439792725 0 146 108
-0.0061873720525078115 0.001332250940302696 0.0007567706181314957 0 147 107
-0.0061873720525078115 0.0018787293302300549 0.0008203414871242528 0 138 116
-0.0061873720525078115 0.0024252077201574137 0.0014052962550838736 0 54 200
-0.0061873720525078115 0.0029716861100847728 0.001303590108852891 0 69 185
-0.0061873720525078115 0.005157599800084809 0.0015368498934084478 0 36 218
-0.0061873720525078115 0.0057040781706721565 0.001533753667560671 0 36 218
-0.0061873720525078115 0.006250556547366877 0.0014655368963090336 0 46 208
-0.0061873720525078115 0.006797034969866886 0.0012846283964925832 0 72 182
-0.0061873720525078115 0.007343513359794244 0.0015707895527056655 0 31 223
-0.0061873720525078115 0.007889991749721603 0.0017563955498590856 0 4 250
-0.0061873720525078115 0.00898294839928572 0.0017610920048712455 0 4 250
-0.0061873720525078115 0.009529426789213079 0.0017908334404154306 0 0 254
-0.0061873720525078115 0.011168861958995156 0.001142162399152073 0 92 162
-0.0061873720525078115 0.011715340348922515 0.0008238838279906623 0 137 117
-0.0061873720525078115 0.012261818738849874 0.000722178463503287 0 152 102
-0.0061873720525078115 0.012808297128777232 0.0011511566199366098 0 91 163
-0.0061873720525078115 0.01390125390863195 0.0010789068334143075 0 101 153
-0.00673385044243517 -0.004679010827735846 0.0017232855811105396 0 9 245
-0.00673385044243517 -0.004132532437808487 0.0017915013100373671 0 0 255
-0.00673385044243517 -0.0035860540478811283 0.00172793044104461 0 9 245
-0.00673385044243517 -0.0030395756579537697 0.0015423257467972022 0 35 219
-0.00673385044243517 -0.0024930977891888155 0.0011133468086202722 0 96 158
-0.00673385044243517 -0.001946619399261457 0.0012150529548512548 0 82 172
-0.00673385044243517 -0.001400141009334098 0.0007500981758609877 0 148 106
-0.00673385044243517 -0.0008536626194067392 0.00013941205648202934 0 235 19
-0.00673385044243517 -0.0003071842294793804 0.00045769062764344006 0 189 65
-0.00673385044243517 0.00023929416044797845 0.00035869530766177753 0 203 51
-0.00673385044243517 0.0007857725503753373 0.0001730900922519648 0 230 24
-0.00673385044243517 0.001332250940302696 0.0001761868392621466 0 229 25
-0.00673385044243517 0.0018787293302300549 0.0002778927249119268 0 215 39
-0.00673385044243517 0.0024252077201574137 0.0003461087144199566 0 205 49
-0.00673385044243517 0.0029716861100847728 9.704114814567063e-06 0 253 1
-0.00673385044243517 0.0035181645000121314 0.0009989521818973017 0 112 142
-0.00673385044243517 0.004064643020230092 0.0005699735043015741 0 173 81
-0.00673385044243517 0.004611121410157451 0.0008420869884705729 0 135 119
-0.00673385044243517 0.005157599800084809 0.00037713194889910345 0 201 53
-0.00673385044243517 0.0057040781706721565 0.0003802297382340951 0 200 54
-0.00673385044243517 0.006250556547366877 0.0002812338970900277 0 214 40
-0.00673385044243517 0.006797034969866886 0.00025149220096463997 0 219 35
-0.00673385044243517 0.007343513359794244 0.0002870406886059222 0 214 40
-0.00673385044243517 0.007889991749721603 0.0003887460530932975 0 199 55
-0.00673385044243517 0.008436470009358361 0.0006149440870618527 0 167 87
-0.00673385044243517 0.00898294839928572 0.0003287831914299729 0 208 46
-0.00673385044243517 0.009529426789213079 0.0001431769336953503 0 234 20
-0.00673385044243517 0.010075905179140438 0.0007528493921966911 0 147 107
-0.00673385044243517 0.010622383569067797 0.00016789410307466553 0 231 23
-0.00673385044243517 0.011168861958995156 6.889878309300303e-05 0 245 9
-0.00673385044243517 0.011715340348922515 0.00013711581492584273 0 235 19
-0.00673385044243517 0.012261818738849874 0.0004092287779324365 0 196 58
-0.00673385044243517 0.012808297128777232 0.0006813412197766253 0 158 96
-0.00673385044243517 0.01335477551870459 0.000953454703945624 0 119 135
-0.00673385044243517 0.01390125390863195 0.0009890031915869063 0 114 140
-0.00673385044243517 0.014447732298559309 0.001215201486136664 0 82 172
-0.00673385044243517 0.014994211209649073 0.0015334792755544674 0 36 218
-0.007280328832362529 -0.0035860540478811283 0.0016131723035441906 0 25 229
-0.007280328832362529 -0.0030395756579537697 0.0015776238159029084 0 30 224
-0.007280328832362529 -0.0024930977891888155 0.0012133052367262725 0 82 172
-0.007280328832362529 -0.001946619399261457 0.0010323967369098219 0 108 146
-0.007280328832362529 -0.001400141009334098 0.0008061987029412667 0 140 114
-0.007280328832362529 -0.0008536626194067392 0.0005800011901351163 0 172 82
-0.007280328832362529 -0.0003071842294793804 0.0002617226189737056 0 217 37
-0.007280328832362529 0.00023929416044797845 -0.00010259596020293034 16 238 0
-0.007280328832362529 0.0007857725503753373 -0.00028350446001938084 45 209 0
-0.007280328832362529 0.001332250940302696 -0.0005097030151503411 81 173 0
-0.007280328832362529 0.0018787293302300549 -0.0006114078584753114 97 157 0
-0.007280328832362529 0.0024252077201574137 -0.0005816672046747337 92 162 0
-0.007280328832362529 0.0029716861100847728 -0.0005180968568443814 82 172 0
-0.007280328832362529 0.0035181645000121314 -0.0005211930826921582 82 172 0
-0.007280328832362529 0.004064643020230092 -0.000589410114524998 93 161 0
-0.007280328832362529 0.004611121410157451 -0.0006576255828706228 104 150 0
-0.007280328832362529 0.005157599800084809 -0.0005940552350402706 94 160 0
-0.007280328832362529 0.0057040781706721565 -0.00030789381824598583 49 205 0
-0.007280328832362529 0.006250556547366877 -0.0003761098077540156 59 195 0
-0.007280328832362529 0.006797034969866886 -0.0004116582953952978 65 189 0
-0.007280328832362529 0.007343513359794244 -0.00038191659926991016 60 194 0
-0.007280328832362529 0.007889991749721603 -0.00031834573027715303 50 204 0
-0.007280328832362529 0.008436470009358361 -0.00035389421791843525 56 198 0
-0.007280328832362529 0.00898294839928572 -0.0002903233489256781 46 208 0
-0.007280328832362529 0.009529426789213079 -0.0002605816528002904 41 213 0
-0.007280328832362529 0.010075905179140438 -0.0004867802079312507 77 177 0
-0.007280328832362529 0.010622383569067797 -0.0002006187911369659 31 223 0
-0.007280328832362529 0.011168861958995156 -0.00017087761617398317 27 227 0
-0.007280328832362529 0.011715340348922515 1.472759923582956e-05 0 252 2
-0.007280328832362529 0.012261818738849874 0.0004004669955805051 0 197 57
-0.007280328832362529 0.012808297128777232 0.0005860716898279129 0 171 83
-0.007280328832362529 0.01335477551870459 0.0009718110861725884 0 116 138
-0.007280328832362529 0.01390125390863195 0.0011574157804199962 0 90 164
-0.007280328832362529 0.014447732298559309 0.0013930901103976622 0 56 198
-0.007280328832362529 0.014994211209649073 0.0015786950652262725 0 30 224
-0.007826807743452293 -0.0030395756579537697 0.0017305688257196429 0 8 246
-0.007826807743452293 -0.0024930977891888155 0.0014444076695065604 0 49 205
-0.007826807743452293 -0.001946619399261457 0.0012087346424349069 0 82 172
-0.007826807743452293 -0.001400141009334098 0.000973060312457241 0 116 138
-0.007826807743452293 -0.0008536626194067392 0.0007874556182098331 0 142 112
-0.007826807743452293 -0.0003071842294793804 0.00012803977164372956 0 236 18
-0.007826807743452293 0.00023929416044797845 6.446890265097242e-05 0 245 9
-0.007826807743452293 0.0007857725503753373 -0.0006467812355485323 102 152 0
-0.007826807743452293 0.001332250940302696 -0.00028246161404708647 44 210 0
-0.007826807743452293 0.0018787293302300549 -0.0011649203773822097 185 69 0
-0.007826807743452293 0.0024252077201574137 -0.0014510817941764944 231 23 0
-0.007826807743452293 0.0029716861100847728 -0.0009993246713478462 159 95 0
-0.007826807743452293 0.0035181645000121314 -0.001029065846310829 163 91 0
-0.007826807743452293 0.004064643020230092 -0.0009608493356403942 152 102 0
-0.007826807743452293 0.004611121410157451 -0.0009577525886302125 152 102 0
-0.007826807743452293 0.005157599800084809 -0.0009874932424307902 157 97 0
-0.007826807743452293 0.0057040781706721565 -0.00011229166558452276 17 237 0
-0.007826807743452293 0.006250556547366877 -0.0007476845310946976 119 135 0
-0.007826807743452293 0.006797034969866886 -0.0007445877840845157 118 136 0
-0.007826807743452293 0.007343513359794244 -0.000676371273414081 107 147 0
-0.007826807743452293 0.007889991749721603 -0.0005746659089267057 91 163 0
-0.007826807743452293 0.008436470009358361 -0.0005715686407541191 91 163 0
-0.007826807743452293 0.00898294839928572 -0.0006351395097468762 101 153 0
-0.007826807743452293 0.009529426789213079 -0.0005334341452595009 84 170 0
-0.007826807743452293 0.010075905179140438 -0.0004978856576182187 79 175 0
-0.007826807743452293 0.010622383569067797 -0.00017960812878161788 28 226 0
-0.007826807743452293 0.011168861958995156 -7.790172196943275e-05 12 242 0
-0.007826807743452293 0.011715340348922515 0.0001482952696743127 0 233 21
-0.007826807743452293 0.012261818738849874 0.0004665743619981283 0 188 66
-0.007826807743452293 0.012808297128777232 0.0007386878461671271 0 149 105
-0.007826807743452293 0.01335477551870459 0.0009648858801356823 0 117 137
-0.007826807743452293 0.01390125390863195 0.0013292047198935207 0 65 189
-0.008373286133379652 -0.0030395756579537697 0.0017737429616700765 0 2 252
-0.008373286133379652 -0.0024930977891888155 0.001592834461853626 0 28 226
-0.008373286133379652 -0.001946619399261457 0.0014911293579474533 0 42 212
-0.008373286133379652 -0.001400141009334098 0.0010393719745376024 0 107 147
-0.008373286133379652 -0.0008536626194067392 0.000858463995883557 0 132 122
-0.008373286133379652 -0.0003071842294793804 -4.606703762578696e-05 7 247 0
-0.008373286133379652 0.00023929416044797845 -0.0006557394961271278 104 150 0
-0.008373286133379652 0.0007857725503753373 -0.0009740180672885385 155 99 0
-0.008373286133379652 0.001332250940302696 -0.0012002166224194988 191 63 0
-0.008373286133379652 0.0018787293302300549 -0.0014264136140632443 227 27 0
-0.008373286133379652 0.0024252077201574137 -0.0013274182940815817 211 43 0
-0.008373286133379652 0.0029716861100847728 -0.0013305155622541686 211 43 0
-0.008373286133379652 0.0035181645000121314 -0.001231519721110101 196 58 0
-0.008373286133379652 0.004064643020230092 -0.0012017785461471183 191 63 0
-0.008373286133379652 0.004611121410157451 -0.0011720378923465405 186 68 0
-0.008373286133379652 0.005157599800084809 -0.0011084670233537834 176 78 0
-0.008373286133379652 0.0057040781706721565 -0.0007720613814235839 122 132 0
-0.008373286133379652 0.006250556547366877 -0.000873767788235769 139 115 0
-0.008373286133379652 0.006797034969866886 -0.0007747719470917016 123 131 0
-0.008373286133379652 0.007343513359794244 -0.0007112015992613494 113 141 0
-0.008373286133379652 0.007889991749721603 -0.0005255963838515366 83 171 0
-0.008373286133379652 0.00898294839928572 -0.0004209469729386285 67 187 0
-0.008373286133379652 0.009529426789213079 -0.00035737610394587135 56 198 0
-0.008373286133379652 0.010075905179140438 -0.00017177036737365368 27 227 0
-0.008373286133379652 0.010622383569067797 1.3834326873754103e-05 0 253 1
-0.008373286133379652 0.011168861958995156 0.0002495076145266101 0 219 35
-0.008373286133379652 0.011715340348922515 0.0004351123087740179 0 193 61
-0.008373286133379652 0.012808297128777232 0.0007999708122021766 0 141 113
-0.008373286133379652 0.01335477551870459 0.0013290243977014098 0 65 189
-0.008373286133379652 0.01390125390863195 0.0017147637940460852 0 10 244
-0.00891976452330701 -0.001400141009334098 0.0016478900583119906 0 20 234
-0.00891976452330701 -0.0008536626194067392 0.0013617289020989084 0 61 193
-0.00891976452330701 -0.0003071842294793804 0.0005656124172969962 0 174 80
-0.00891976452330701 0.00023929416044797845 -0.0002878327137924473 45 209 0
-0.00891976452330701 0.0007857725503753373 -0.0006242367922354319 99 155 0
-0.00891976452330701 0.001332250940302696 -0.0009606413918408214 152 102 0
-0.00891976452330701 0.0018787293302300549 -0.0012970459914462109 206 48 0
-0.00891976452330701 0.0024252077201574137 -0.0014826506856936187 236 18 0
-0.00891976452330701 0.0029716861100847728 -0.001164372114532208 185 69 0
-0.00891976452330701 0.0035181645000121314 -0.0012633674345138705 201 53 0
-0.00891976452330701 0.004064643020230092 -0.0011616625911889003 184 70 0
-0.00891976452330701 0.004611121410157451 -0.0009807540913724497 156 98 0
-0.00891976452330701 0.005157599800084809 -0.000977656823199863 155 99 0
-0.00891976452330701 0.0057040781706721565 -0.0006593777308760473 104 150 0
-0.00891976452330701 0.006250556547366877 -0.0006562815050282705 104 150 0
-0.00891976452330701 0.006797034969866886 -0.0003841680208592717 61 193 0
-0.00891976452330701 0.007343513359794244 -0.00031595098902643205 50 204 0
-0.00891976452330701 0.007889991749721603 2.3265398101687445e-06 0 254 0
-0.00891976452330701 0.008436470009358361 -2.74135928280041e-05 4 250 0
-0.00891976452330701 0.00898294839928572 0.0004652537364639982 0 188 66
-0.00891976452330701 0.009529426789213079 0.00036625841648233565 0 202 52
-0.00891976452330701 0.010075905179140438 0.0004018069041236179 0 197 57
-0.00891976452330701 0.010622383569067797 0.0007661254833002538 0 145 109
-0.00891976452330701 0.011168861958995156 0.0007692227514728405 0 145 109
-0.00891976452330701 0.011715340348922515 0.000950131251289291 0 119 135
-0.00891976452330701 0.012261818738849874 0.0011310397511057415 0 94 160
-0.00891976452330701 0.012808297128777232 0.001357236742749487 0 61 193
-0.00891976452330701 0.01335477551870459 0.0017215563642509328 0 9 245
-0.00946624291323437 -0.0003071842294793804 0.0011274765637431343 0 94 160
-0.00946624291323437 0.00023929416044797845 0.000634808713288727 0 164 90
-0.00946624291323437 0.0007857725503753373 0.0002704890917872812 0 216 38
-0.00946624291323437 0.001332250940302696 -1.6243923817175638e-06 0 254 0
-0.00946624291323437 0.0018787293302300549 -0.0002737368342259064 43 211 0
-0.00946624291323437 0.0024252077201574137 -0.0004546453340423569 72 182 0
-0.00946624291323437 0.0029716861100847728 -0.0005228618447127917 83 171 0
-0.00946624291323437 0.0035181645000121314 -0.000493120669749809 78 176 0
