ply
format ascii 1.0
element vertex 661
property float x
property float y
property float z
property uchar red
property uchar green
property uchar blue
end_header
0.00370573217503701 -0.011804800239502321 0.064621985457182 0 0 255
0.0029117191317539993 -0.009758905610017434 0.06382904364650965 0 90 164
0.0035270983189283588 -0.0104945694682342 0.06349659399807973 0 108 146
0.0038240710062828398 -0.010927904645651184 0.06369088567090372 0 87 167
0.004117252615380316 -0.011384411430156439 0.06401270913541644 0 55 199
0.0044227651411143445 -0.011765549906235854 0.06391972082733699 0 58 196
0.004717094515845254 -0.012215041384676613 0.06420293348042683 0 29 225
0.0050264656452272 -0.012572595528917551 0.06398014182794902 0 43 211
0.00533024503309556 -0.012964327189028159 0.06394545624069684 0 40 214
0.00593417704441959 -0.013769958342933918 0.06399809177182501 0 26 228
0.00623248994727907 -0.014195101933422289 0.06414729862365233 0 9 245
0.006535371317477455 -0.014592322279039447 0.06414282176255993 0 4 250
0.0068391507111418845 -0.014984053895347436 0.06410813594238804 0 2 252
0.003041118902015346 -0.008814401992941734 0.06252584148654158 0 208 46
0.0036107030358899775 -0.009829971701080473 0.06373393645414609 0 99 155
0.003914328281593715 -0.010222645499926339 0.06370443620602334 0 96 158
0.004229136678300576 -0.010546966296410863 0.06329873499673128 0 124 130
0.004533623346564396 -0.010934374958600092 0.06324025651206458 0 124 130
0.004825114289205766 -0.011401215335867717 0.06361895396009283 0 88 166
0.005137279373289056 -0.011741692433376014 0.0633021737310666 0 109 145
0.005432177366872077 -0.01218770843288152 0.06356625805810205 0 82 172
0.00573493542109789 -0.012585682628826731 0.06356593011279653 0 77 177
0.006036804608885464 -0.012989090238375717 0.06359550604367192 0 70 184
0.00633536901952953 -0.013412696577673536 0.06373625217899133 0 53 201
0.006639855715462021 -0.013800105070747932 0.06367777276355115 0 53 201
0.006947052443832763 -0.014170949336201024 0.06352812734560233 0 60 194
0.007243172561467189 -0.014609495532086715 0.06375109940768066 0 37 217
0.007546797825324648 -0.015002169353993983 0.06372159915590746 0 34 220
0.007868871005057943 -0.015282086767995157 0.0630715108005893 0 83 171
0.008154397232504329 -0.01578538432908278 0.06365086114052862 0 30 224
0.008452961570965837 -0.016208990573492565 0.06379160727590645 0 13 241
0.008757448266898326 -0.016596399066566958 0.06373312786046627 0 13 241
0.00905721490884607 -0.01701265719791191 0.06383343096037769 0 0 254
0.009368039777964765 -0.017361325879045795 0.063561735534169 0 17 237
0.002244303230165442 -0.006785639570396048 0.06182718975371477 56 198 0
0.00285548105426044 -0.007546980610315664 0.06163606415699975 65 189 0
0.003454221464943736 -0.008384343026341959 0.06186334259476598 21 233 0
0.0040485223959058755 -0.009248840171013043 0.062239965035642345 0 227 27
0.004339866514746033 -0.009716577956142568 0.06262360163321112 0 190 64
0.004641807540793947 -0.010119545943994692 0.06265075849838002 0 183 71
0.004941449521653813 -0.010536566021559612 0.06275525519462827 0 169 85
0.005247829197362761 -0.010912404354211935 0.06263309597989183 0 174 80
0.005541010806460237 -0.01136891113871719 0.06295491944440454 0 143 111
0.005837983493814718 -0.011802246316134173 0.06314921111722854 0 122 132
0.006133622468234144 -0.012243733335851574 0.06338836886473503 0 97 157
0.006435563580731274 -0.01264670133139189 0.06341552524991541 0 90 164
0.006740214656236554 -0.013033105113242778 0.06335151610915339 0 90 164
0.007039856637096419 -0.0134501251908077 0.06345601280540164 0 76 178
0.007350429967036675 -0.013800331189372513 0.06319277858268905 0 93 161
0.007648742840660553 -0.014225474950176798 0.06334198638006136 0 76 178
0.007954255384548303 -0.014606613449317615 0.06324899806833147 0 78 176
0.008257136785708215 -0.015003833731336819 0.0632445207347942 0 74 180
0.008562649297607913 -0.01538497229197365 0.06315153289210149 0 76 178
0.008859621926181846 -0.015818307292587607 0.06334582411414051 0 55 199
0.009166890582446921 -0.01618871205020951 0.06319375961246113 0 63 191
0.009471541699455206 -0.01657511557838815 0.06312974907553887 0 63 191
0.009771183666480734 -0.016992135740510488 0.06323424623717386 0 49 205
0.010073124706362985 -0.017395103643805195 0.06326140263695601 0 42 212
0.010377775781868267 -0.017781507425656082 0.06319739349619398 0 42 212
0.002041008232824693 -0.005626141186126962 0.061531398559552 118 136 0
0.0026346736420889026 -0.0064945227293997584 0.061929399936788795 52 202 0
0.0032578157590989875 -0.007182736316989664 0.06133579578165045 112 142 0
0.003550392683232057 -0.007642939021615127 0.06167796083546565 60 194 0
0.0038540179289357976 -0.008035612820460994 0.0616484605873429 56 198 0
0.004151363520800002 -0.008466668752714734 0.061830207760415166 25 229 0
0.004446261514383023 -0.008912684752220243 0.06209429208745061 0 244 10
0.00474813058805271 -0.00931609252319587 0.062123869429088034 0 237 17
0.005049999703225406 -0.009719500040499245 0.0621534453745652 0 229 25
0.005348564113869471 -0.01014310637979706 0.062294191509884606 0 213 41
0.005650433229042165 -0.010546513897100438 0.06232376745536179 0 205 49
0.005940863880552607 -0.01101983492388768 0.06273813307441481 0 166 88
0.006242732981890967 -0.011423242525748473 0.06276770948527872 0 159 95
0.0065331636334014075 -0.011896563552535717 0.06318207510433176 0 120 134
0.006837650360445772 -0.012283972391527974 0.06312359707045002 0 119 135
0.007139519475618467 -0.012687379908831349 0.06315317301592721 0 112 142
0.007436865067482672 -0.013118435841085092 0.06333492018899947 0 92 162
0.007747689919474172 -0.013467104501259517 0.0630632247698489 0 109 145
0.008050448000234047 -0.013865078526648554 0.06306289589399802 0 104 150
0.008355806401957178 -0.014247159164524629 0.06297509292139755 0 106 148
0.008658564456182991 -0.01464513336046984 0.06297476497609203 0 101 153
0.008960433571355685 -0.015048540877773214 0.0630043409215692 0 94 160
0.009263191580635289 -0.01544651481235798 0.06300401206009194 0 89 165
0.009567678248899106 -0.015833923474547207 0.06294553357542525 0 89 165
0.009874874980454626 -0.016204767846177782 0.06279588861944088 0 96 158
0.010176744095627323 -0.016608175363481158 0.06282546456491807 0 88 166
0.010483940827182842 -0.016979019735111733 0.0626758196089337 0 96 158
0.010788427495446663 -0.017366428397300963 0.062617341124267 0 95 159
0.01106529209437445 -0.017922667058300378 0.0634880684627892 0 19 235
0.011389489584290664 -0.018189600387680974 0.06276651835823664 0 73 181
0.011675015805252206 -0.018692897988404886 0.06334586891632599 0 20 234
0.01197236139700833 -0.01912395392131923 0.06352761609303408 0 0 254
0.0018211898373498119 -0.004567636150813337 0.061791454126119624 109 145 0
0.002431954429785982 -0.00533150506545365 0.06161423934623695 116 138 0
0.0027383341469979392 -0.005707343144433722 0.061492078735340266 124 130 0
0.0030412155066548464 -0.006104563680125175 0.06148760279796324 116 138 0
0.0033440968939804257 -0.006501784046701795 0.061483125929812706 109 145 0
0.0036460376710718227 -0.006904751411899222 0.06151028145722847 98 156 0
0.0039456796104286795 -0.007321771743136392 0.06161477954963695 77 177 0
0.004242652311617496 -0.00775510683599596 0.06180907075707421 44 210 0
0.0045422942924773614 -0.008172126913560882 0.06191356745332246 23 231 0
0.004840607194904518 -0.00859727050669167 0.062062774319693106 0 252 2
0.005140249161930045 -0.009014290668814009 0.062167271481328105 0 239 15
0.0054398911151212394 -0.009431310915493762 0.062271769108349834 0 225 29
0.005741832182672161 -0.009834278649673634 0.06229892457735851 0 218 36
0.00603880484235797 -0.010267613996205453 0.062493217180956004 0 197 57
0.006340745896074555 -0.01067058181494274 0.0625203731153514 0 190 64
0.00664362729723447 -0.011067802096961944 0.06251589578181413 0 185 69
0.006950895953499544 -0.011438206854583851 0.06236383128013475 0 192 62
0.00723993719848396 -0.011920020666863254 0.06282493893324359 0 149 105
0.007532163781908287 -0.01238236470350556 0.06317888944102702 0 115 139
0.007843955933813183 -0.012725121215291934 0.06287465464252605 0 135 119
0.008148607033802355 -0.013111524721850506 0.06281064410902606 0 135 119
0.008452386420536105 -0.013503256380519777 0.06277595852200203 0 133 121
0.008756165826558186 -0.013894988063691788 0.06274127293109939 0 131 123
0.00907487296031985 -0.01419547922727241 0.06220441829045742 0 170 84
0.00936391411885505 -0.014677293031863619 0.0626655264235548 0 127 127
0.009667693475611534 -0.015069024346056368 0.06263083945474414 0 125 129
0.009969634501659448 -0.015471992333908488 0.06265799631991303 0 118 136
0.010273413889527808 -0.0158637239940191 0.06262331073266085 0 115 139
0.01057892641526184 -0.016244862470098514 0.0625303224245814 0 118 136
0.010883577504601455 -0.016631266167391984 0.06246631281843262 0 118 136
0.011189957207979075 -0.017007104330929473 0.06234415267292269 0 123 131
0.011495469706044436 -0.01738824297612372 0.06225116529561673 0 126 128
0.011798351093370015 -0.01778546334270034 0.06224668842746621 0 121 133
0.01209799307422988 -0.018202483420265262 0.06235118512371445 0 108 146
0.01238933719307004 -0.018670221205394785 0.06273482172128322 0 71 183
0.012677695308965332 -0.019156209863313574 0.06321890739421523 0 26 228
0.0022112176281236587 -0.004278613458795454 0.06190519007735732 103 151 0
0.0028224790253770686 -0.005039445832049854 0.0617112627940213 112 142 0
0.003126965707475224 -0.005426854409681665 0.06165278384396786 112 142 0
0.003431452375739043 -0.005814263071870893 0.061594305359301174 111 143 0
0.0037342104576335274 -0.00621223709870127 0.06159397648322214 103 151 0
0.004036968235234152 -0.006610210841106615 0.061593648130936964 96 158 0
0.004339726317128634 -0.007008184867936991 0.06159331925485793 88 166 0
0.0046382907277726995 -0.007431791207234808 0.06173406539017733 62 192 0
0.004930867651905771 -0.007891993911860271 0.06207623044399255 11 243 0
0.005233625733800255 -0.008289967938690647 0.06207590156791352 3 251 0
0.005528523727383275 -0.008735983938196157 0.06233998589494897 0 230 24
0.005828290383273435 -0.009152241984323083 0.06244028852583781 0 217 37
0.006123188349187786 -0.009598258152943424 0.06270437378364675 0 190 64
0.006427675031285939 -0.009985666730575236 0.06264589483359333 0 190 64
0.00672257299720029 -0.010431682899195577 0.06290998009140226 0 163 91
0.007024442112372985 -0.010835090416498954 0.06293955603687944 0 155 99
0.007326311213711345 -0.011238498018359746 0.06296913244774337 0 148 106
0.00763350803171608 -0.011609342397678517 0.06281948701177048 0 155 99
0.0079379946999799 -0.011996751059867744 0.06276100852710378 0 155 99
0.008247490490557806 -0.012353543257228107 0.06253402327465334 0 169 85
0.008550248555433175 -0.012751517262438415 0.06253369440199659 0 164 90
0.008850015196354394 -0.01316777539168142 0.06263399749850034 0 150 104
0.009147360820206653 -0.013598831262439147 0.0628157442025354 0 130 124
0.009456856610784558 -0.013955623459799508 0.06258875895008495 0 144 110
0.009762214980519632 -0.014337704159171598 0.06250095644652168 0 146 108
0.010069411653294606 -0.014708548353999146 0.06235131103975233 0 153 101
0.010369178295350431 -0.015124806484683487 0.06245161413602792 0 140 114
0.01067280354105417 -0.015517480283529355 0.06242211388790517 0 137 117
0.010976428800592245 -0.015910153997817804 0.062392613174395664 0 135 119
0.01128178717032732 -0.016292234697189895 0.06230481067083239 0 137 117
0.011583656285500015 -0.016695642214493267 0.06233438661630957 0 130 124
0.011898464682206875 -0.017019963010977794 0.061928685407017514 0 158 96
0.012195810274071081 -0.017451018943231533 0.062110432580089775 0 138 116
0.01249943551977482 -0.0178436927420774 0.06208093233196702 0 135 119
0.012799202161830645 -0.018259950872761742 0.06218123542824261 0 122 132
0.013073244991693513 -0.018833436585822205 0.06314688701791038 0 37 217
0.013377731673791669 -0.019220845163454018 0.06308840806785694 0 37 217
0.01367960105175522 -0.01962425321885467 0.06311798488570051 0 30 224
0.013974499045662479 -0.02007026921637837 0.06338206920182847 0 3 251
0.0025972604247617107 -0.004013947615173694 0.06215298114630933 80 174 0
0.00321856435973619 -0.004713398575946889 0.061621223108278944 132 122 0
0.003516877262163347 -0.005138542169077678 0.0617704299746496 105 149 0
0.0038223897878973765 -0.0055196806451570934 0.061677441666570146 109 145 0
0.004124330813945292 -0.005922648633009215 0.06170459853173904 98 156 0
0.004423972476676962 -0.006339668510706524 0.06180909621716789 77 177 0
0.00472948500241099 -0.006720806986785938 0.06171610790908842 81 173 0
0.005027797904838147 -0.007145950579916727 0.06186531477545909 54 200 0
0.005332448980343426 -0.007532354361767614 0.06180130563469707 54 200 0
0.005641820109725372 -0.007889908506008552 0.06157851398221926 75 179 0
0.0059315805845277965 -0.008367325747725978 0.06201542433143269 11 243 0
0.0062157702906690485 -0.008878792316269575 0.06263973521956404 0 206 48
0.006510099665399959 -0.009328283794710332 0.06292294787265387 0 177 77
0.006814750768573907 -0.009714687407446387 0.06285893780111837 0 178 76
0.0071143927217651014 -0.01013170765412614 0.06296343542814009 0 164 90
0.007416333775481688 -0.01053467547286343 0.0629905913625355 0 157 97
0.007721846273547047 -0.010915814118057678 0.06289760398522955 0 159 95
0.008024727733487506 -0.011313034576879908 0.06289312710247724 0 155 99
0.008335301094281211 -0.011663240512507373 0.06262989241095564 0 171 83
0.008642569750546286 -0.012033645270129279 0.062477827909276244 0 179 75
0.008947220836701124 -0.012420048861245267 0.06241381784116302 0 179 75
0.009238564954406673 -0.012887786644933456 0.06279745443895995 0 142 112
0.009555125819865092 -0.013201396238294675 0.06233280082529208 0 175 79
0.00985706685974734 -0.01360436414158938 0.06235995722507424 0 168 86
0.010161717962921292 -0.013990767754325435 0.06229594715353872 0 168 86
0.010463658916354325 -0.014393735649931946 0.062323104033309394 0 161 93
0.010765599956236573 -0.01479670355322665 0.062350260433091546 0 154 100
0.01107286861250165 -0.015167108310848557 0.06219819593141217 0 161 93
0.011371181514928805 -0.015592251903979346 0.06234740279778282 0 144 110
0.011680552644310751 -0.015949806048220286 0.06212461114530502 0 157 97
0.01198433203217911 -0.016341537708330894 0.06208992555805283 0 155 99
0.012287213433339026 -0.016738757990350097 0.06208544822451555 0 150 104
0.012590094820664605 -0.017135978356926717 0.06208097135636503 0 146 108
0.012893874208532965 -0.01752771001703733 0.06204628576911284 0 144 110
0.013190846909721781 -0.017961045109896896 0.0622405769765501 0 123 131
0.013496359421621473 -0.018342183670533727 0.06214758913385739 0 125 129
0.013774306812794335 -0.018891804152017917 0.06298189136435496 0 51 203
0.01406137168836541 -0.019385699422221365 0.06350949132684969 0 3 251
0.01437793254226303 -0.019699308952224288 0.06304483749504639 0 36 218
0.014670159132928766 -0.02016165294460607 0.06339878775922893 0 2 252
0.002625371084711519 -0.0036885393797545032 0.06425715511754707 0 143 111
0.0032840768093893554 -0.004159385306114893 0.06246720167180661 40 214 0
0.003600987983568464 -0.004470853628955284 0.06199076307320773 93 161 0
0.003908184728958319 -0.004841697916028445 0.061841117651836607 104 150 0
0.00421444111307051 -0.005218289824377106 0.06172310596378493 112 142 0
0.004519799482805585 -0.005600370523749195 0.06163530346022165 115 139 0
0.00482255728807488 -0.005998344097039708 0.06163497417716298 107 147 0
0.005128813658352735 -0.006374936089945786 0.06151696295449804 114 140 0
0.005420304614828441 -0.006841776382655995 0.06189565993713953 58 196 0
0.005735112983866631 -0.007166097348255351 0.061489959658620974 102 152 0
0.006026603926508002 -0.007632937725522976 0.061868657106649204 46 208 0
0.006328473027846361 -0.00803634532738377 0.06189823351751313 35 219 0
0.006621049951979433 -0.008496548032009232 0.062240398571328334 0 244 10
0.006903182464783461 -0.009020588457509412 0.06293391339943682 0 182 72
0.00719575938891653 -0.009480791162134876 0.06327607845325203 0 149 105
0.0074918795215199 -0.009919337274904487 0.06349905004971547 0 125 129
0.007790443932163965 -0.010342943614202304 0.06363979618503486 0 109 145
0.008094069177867706 -0.010735617413048171 0.06361029593691211 0 106 148
0.008363623544503422 -0.011336537784955721 0.06472694176194797 0 9 245
0.008707194589242528 -0.01148505720414346 0.06335366568645896 0 117 137
0.00902200298594939 -0.011809378000627984 0.06294796447716691 0 145 109
0.009338914143109384 -0.012120846301848311 0.062471525881990314 0 180 74
0.009646110887364633 -0.012491690587480132 0.062321880460847356 0 187 67
0.009950597601450843 -0.01287909910361593 0.06226340104175672 0 187 67
0.010253355655676654 -0.013277073299561138 0.062263073096451196 0 182 72
0.010556113737571138 -0.013675047326391515 0.06226274422037217 0 177 77
0.010855880320846417 -0.01409130528027283 0.062363046865862776 0 163 91
0.011159505566550156 -0.014483979079118695 0.06233354661774002 0 161 93
0.01146399222097964 -0.01487138782586534 0.06227506859846008 0 160 94
0.011766750316708461 -0.0152693617681383 0.0622747392569943 0 155 99
0.012072108686443535 -0.01565144246751039 0.06218693675343103 0 158 96
0.01237573394598161 -0.016044116181798837 0.06215743603992153 0 155 99
0.012678492027876093 -0.016442090208629214 0.0621571071638425 0 150 104
0.012982117273579834 -0.01683476400747508 0.062127606915719745 0 147 107
0.013288373657692025 -0.017211355915823744 0.062009595227668066 0 152 102
0.013591998903395765 -0.01760402971466961 0.061980094979545305 0 149 105
0.013891765545451587 -0.018020287845353953 0.06208039807582089 0 136 118
0.014198021929563778 -0.018396879753702616 0.06196238638776921 0 141 113
0.014495367811887507 -0.0188279360549388 0.06214413350243437 0 121 133
0.014777500338525868 -0.019351976395881564 0.06283764786515611 0 59 195
0.0030312881353551056 -0.003302399281641216 0.06383637670574016 0 183 71
0.0033169768055673304 -0.0038047039695436485 0.06441026247450216 0 131 123
0.0036745207093022664 -0.0038678192961218638 0.06256693972048326 36 218 0
0.003986312861207162 -0.004210575807908237 0.06226270492198229 67 187 0
0.004298105040780728 -0.004553332150579778 0.06195846919270782 98 156 0
0.004604484757992683 -0.00492917022955985 0.06183630858181115 106 148 0
0.0049108644337016345 -0.0053050085622121735 0.0617141493670747 113 141 0
0.00521637666897614 -0.005686146669309142 0.061621161117402345 117 137 0
0.005521889194710169 -0.006067285145388556 0.061528172809322886 121 133 0
0.0058247705820357485 -0.006464505511965177 0.061523695941172366 114 140 0
0.006132039252135159 -0.006834910185029666 0.06137163097410624 126 128 0
0.006431681219160688 -0.007251930347152003 0.06147612813574122 105 149 0
0.006729994093919172 -0.007677074109397625 0.061625335932885376 78 176 0
0.0070156827641313976 -0.008179378797300057 0.06219922170164736 0 253 1
0.007287000050081297 -0.008769523420668295 0.06325656053040213 0 161 93
0.007579226633505622 -0.009231867457310602 0.06361051103818556 0 126 128
0.007881167673387871 -0.009634835360605307 0.06363766743796771 0 119 135
0.008178140360742353 -0.010068170538022291 0.06383195911079172 0 98 156
0.00847377933516178 -0.010509657557739692 0.06407111685829821 0 73 181
0.008793521681847563 -0.010803821889429601 0.0634994401051348 0 115 139
0.00909183455660605 -0.011228965651675225 0.06364864790227895 0 98 156
0.009394715943931629 -0.011626186018251845 0.06364417103412842 0 93 161
0.009712362783377584 -0.011933157725174602 0.06314298410254678 0 130 124
0.010026602560097726 -0.012260953999153036 0.06275641121953726 0 156 98
0.010335973707633391 -0.012618508166455378 0.06253361956340901 0 170 84
0.010647765887206954 -0.01296126450912692 0.06222938383413455 0 190 64
0.010943404861626382 -0.01340275152884432 0.06246854158164104 0 165 89
0.011256422414011567 -0.013738017683311794 0.062123081908963915 0 188 66
0.011562802117389186 -0.014113855846849281 0.06200092176345399 0 193 61
0.011861115033650678 -0.014538999355422655 0.06215012816443791 0 176 78
0.012163996393307586 -0.014936219891114108 0.062145652227060866 0 171 83
0.012480557240612285 -0.015249829461413927 0.061680998617043445 0 205 49
0.012768915398010589 -0.015735817865660463 0.06216508289381522 0 160 94
0.013074427923744619 -0.016116956341739878 0.06207209458573577 0 162 92
0.013376368949792534 -0.016519924329592 0.062099251450904676 0 155 99
0.01367830997584045 -0.01692289231744412 0.06212640831607358 0 148 106
0.013972639350571359 -0.01737238379588488 0.06240962096916342 0 119 135
0.014289200211710389 -0.01768599328162728 0.06194496689375925 0 153 101
0.01459471273744442 -0.018067131757706696 0.06185197858567979 0 155 99
0.014883071143799243 -0.01855312078460793 0.06233606420020472 0 110 144
0.015181384046226395 -0.018978264377738717 0.06248527106657538 0 93 161
0.01546175016342254 -0.019513101263299488 0.06323820740524969 0 26 228
0.003711851393377898 -0.0034860579666936738 0.06436095858741184 0 141 113
0.004038311468523634 -0.0037391620547903796 0.06356329516400697 0 201 53
0.004366305356431123 -0.003982891262113619 0.06271403431201833 18 236 0
0.004700887957230171 -0.004186349323343142 0.06164312929891799 146 108 0
0.004997008089833539 -0.004624895436112754 0.061866100895381436 110 144 0
0.005304204835223394 -0.004995739723185913 0.061716455474010314 121 133 0
0.005613700349176111 -0.005352531467006411 0.061489469814580214 143 111 0
0.0059181870312742645 -0.005739940044638223 0.06143099086452677 142 112 0
0.006223545414843674 -0.006122020659452895 0.06134318789557676 146 108 0
0.006527170660547414 -0.0065146944582987615 0.061313687647454006 142 112 0
0.006830795906251155 -0.006907368257144627 0.06128418739933124 137 117 0
0.007125693899834173 -0.007353384256650137 0.0615482717263667 96 158 0
0.007414078951180424 -0.00783920828127889 0.06203145129130328 27 227 0
0.007662066470506361 -0.008571947741530963 0.06387360297158273 0 115 139
0.007961128986395189 -0.008992509591045713 0.06399759285709462 0 100 154
0.008256026952309538 -0.009438525759666055 0.06426167811490356 0 73 181
0.00885204132104379 -0.010292550130067121 0.06458066054567968 0 37 217
0.009156528075756825 -0.010679958799944544 0.06452218158102446 0 37 217
0.009455092493750383 -0.011103565094321234 0.06466292746910715 0 20 234
0.00976725757048418 -0.011444042236750659 0.06434614748731765 0 41 213
0.010072615937034478 -0.011826122829945265 0.06425834452178991 0 43 211
0.0103885721120745 -0.012143428234366538 0.0638140320359164 0 75 179
0.010702070913412229 -0.012475753597193238 0.063452386193944 0 100 154
0.011023506399456942 -0.012759568685310523 0.06282374984070549 0 146 108
0.01132713164516068 -0.01315224248415639 0.06279424959258273 0 144 110
0.011644042746724908 -0.01346371071475117 0.06231781100858561 0 178 76
0.011948529442657398 -0.013851119207825564 0.06225933159314543 0 178 76
0.012244649575260766 -0.014289665320595175 0.062482303189608866 0 154 100
0.012550905945538622 -0.014666257313501255 0.06236429196694393 0 159 95
0.01285067258759445 -0.015082515444185597 0.06246459506321952 0 146 108
0.013150439243484609 -0.015498773490312522 0.06256489769410836 0 132 122
0.01345406448918835 -0.015891447289158388 0.0625353974459856 0 130 124
0.013756822571082832 -0.016289421315988765 0.06253506856990658 0 125 129
0.014059580666811653 -0.016687395258261725 0.0625347392284408 0 120 134
0.014362338721037466 -0.017085369454206932 0.06253441128313526 0 115 139
0.014671834511615368 -0.017442161651567294 0.062307426030684815 0 128 126
0.014973703626788064 -0.01784556916887067 0.06233700197616199 0 121 133
0.015280900648803108 -0.018216413909483694 0.06218735696177053 0 128 126
0.01555776521271273 -0.01877265278451907 0.06305808547830292 0 51 203
0.0038146610451590714 -0.0027040789165180272 0.06395226006703292 0 185 69
0.004103702203694272 -0.0031858927211092366 0.0644133682001303 0 142 112
0.004456274116471238 -0.0032793975604102853 0.06273730311586759 31 223 0
0.004784075388927462 -0.0035243040606442212 0.06189452184355038 131 123 0
0.005074600473611094 -0.0039970478985060605 0.062305710732671826 70 184 0
0.005387618126279831 -0.004332313976104314 0.06196025011461944 106 148 0
0.0056931306243451895 -0.004713452621298562 0.06186726273731347 111 143 0
0.006003703680845036 -0.005063658272500997 0.06160402856958571 136 118 0
0.006309216206579064 -0.005444796748580411 0.06151104026150625 140 114 0
0.006616484876678474 -0.005815201421644901 0.06135897529444012 152 102 0
0.006920264264546835 -0.00620693308175551 0.06132428970718794 149 105 0
0.007225776790280865 -0.006588071557834925 0.06123130139910847 153 101 0
0.007529556178149223 -0.006979803217945535 0.061196615811856286 149 105 0
0.007831497204197138 -0.0073827712057976565 0.06122377267702518 138 116 0
0.0081237238014558 -0.007845115157882545 0.061577722719421864 85 169 0
0.008356540145923375 -0.008670582986966314 0.06393023239828241 0 111 143
0.008637684029453654 -0.009200666054568355 0.06465700469406882 0 46 208
0.008926725202147434 -0.009682479772620333 0.06511811235087195 0 3 251
0.011696465027191304 -0.012989706948513088 0.0636041450124585 0 82 172
0.011993437655765238 -0.013423041949127044 0.06379843623449752 0 61 193
0.012320442900564645 -0.013672813883109562 0.06298243331557357 0 123 131
0.01262682259010793 -0.014048652131204467 0.0628602736354504 0 128 126
0.01293060197797629 -0.014440383791315077 0.0628255880481982 0 126 128
0.01323611450371032 -0.014821522267394494 0.06273259974011874 0 129 125
0.013538055529758236 -0.015224490255246614 0.06275975660528764 0 122 132
0.013843568055492268 -0.015605628731326029 0.06266676829720819 0 124 130
0.014145509095374518 -0.016008596634620734 0.06269392469699035 0 117 137
0.014441148069793944 -0.016450083654338137 0.06293308244449684 0 92 162
0.014747527787005901 -0.016825921733318205 0.06281092183360017 0 97 157
0.015044500474360378 -0.017259256910735193 0.06300521350642416 0 76 178
0.015347381834017286 -0.017656477446426646 0.06300073756904713 0 72 182
0.0156520332414851 -0.018042881343587728 0.06293672697371777 0 72 182
0.015943377346490917 -0.01851061921327467 0.0633203640366733 0 35 219
0.004496291200311308 -0.0028812155763348344 0.06444094524144259 0 145 109
0.004821993084707446 -0.003138953833645845 0.06366878733867933 0 203 51
0.005155715231349889 -0.003347671112512847 0.06262682798505068 45 209 0
0.005466540100360503 -0.00369633979430734 0.0623551325624778 72 182 0
0.005778705184443791 -0.0040368168918156365 0.06203835233345159 105 149 0
0.0060922039676278 -0.004369142231580936 0.06167670649512963 143 111 0
0.0064016994677461815 -0.00472593405995885 0.06144972130108628 164 90 0
0.006705324713449919 -0.005118607858804716 0.06142022105296351 160 94 0
0.007010683097019329 -0.005500688473619389 0.061332418084013504 164 90 0
0.007317879842409185 -0.005871532760692548 0.061182772662642396 175 79 0
0.00761522543427339 -0.0063025886929462885 0.06136451983571464 144 110 0
0.007919712144040214 -0.006689997101463268 0.06130603995488772 144 110 0
0.00822920793461812 -0.0070467892988236285 0.061079054702437255 165 89 0
0.00852897456283961 -0.007463047514065387 0.06117935826409959 144 110 0
0.00881192226385493 -0.007982105393795055 0.061845450178170926 51 203 0
0.013591658415127014 -0.01474326992860444 0.06400637265726951 0 29 225
0.013895283688499424 -0.015135943558335472 0.06397687147837326 0 27 227
0.014202480433889279 -0.015506787845408631 0.06382722605700215 0 34 220
0.014497378400235954 -0.015952804011386556 0.06409131130026777 0 7 247
0.014800136482022356 -0.016350778038877536 0.06409098242782457 0 2 252
0.004575044755193264 -0.002246270796527002 0.06484149330755276 0 122 132
0.004894787029264169 -0.002540435035971302 0.06426981656899114 0 164 90
0.0052277714184703426 -0.0027536615927483557 0.0632526753597795 0 243 11
0.005544332265775042 -0.003067271163048174 0.06278802174976209 33 221 0
0.00586089311307974 -0.0033808807333479923 0.06232336813974466 85 169 0
0.006170264242461684 -0.003738434877588931 0.06210057648726687 105 149 0
0.006479635371843629 -0.004095989021829871 0.06187778483478906 126 128 0
0.006789006196931714 -0.004453542881645779 0.06165499370610511 147 107 0
0.0070953858864749985 -0.004829381129740685 0.06153283402598192 154 100 0
0.007400898412209029 -0.005210519605820101 0.06143984571790247 158 96 0
0.007705549501548644 -0.005596923303113571 0.06137583611175371 159 95 0
0.008002522188903126 -0.006030258480530555 0.0615701277845777 126 128 0
0.008315539827737525 -0.006365524642686225 0.06122466763191206 162 92 0
0.008629779605592275 -0.0066933209181059975 0.06083809474867439 204 50 0
0.00891882077796181 -0.00717513463813979 0.06129920241638502 137 117 0
0.009224333303695839 -0.007556273114219205 0.061206214108305575 141 113 0
0.009527214691021418 -0.007953493480795824 0.06120173724015504 134 120 0
0.009812903333564972 -0.008455798337813089 0.061775623939690515 53 201 0
0.005268967177359323 -0.0023482748804256564 0.06491666372656041 0 117 137
0.005603549819661373 -0.0025517326879829286 0.06384575731729984 0 200 54
0.005946221591531168 -0.0027057485902765815 0.06250273276194984 78 176 0
0.0062459882335869936 -0.0031220067209609247 0.06260303585822542 57 197 0
0.006561944395927287 -0.003439312211380951 0.06215872383751051 106 148 0
0.0068714402003395274 -0.0037961043241838957 0.0619317381196733 127 127 0
0.007182264806559288 -0.0041447724678811085 0.061660041824734044 154 100 0
0.007488521176837142 -0.004521364460787186 0.0615420306020691 162 92 0
0.007793879532737882 -0.004903445244716692 0.06145422856389258 165 89 0
0.008098366214836037 -0.005290853822348503 0.061395749613839146 165 89 0
0.008400235302340062 -0.005694261508766712 0.061425326490089804 153 101 0
0.008702104417512756 -0.006097669026070088 0.06145490243556699 141 113 0
0.009005729663216496 -0.006490342824915954 0.061425402187444224 137 117 0
0.009309354936588906 -0.006883016454646987 0.061395901008547984 133 121 0
0.009621520006837858 -0.007223493636712701 0.061079121244908524 166 88 0
0.009924278061063671 -0.0076214678326579095 0.06107879329960298 158 96 0
0.010208920855522415 -0.00813016506125191 0.0616878623063999 73 181 0
0.00534690295700927 -0.0017183284586252312 0.06534472173402933 0 92 162
0.005658695108914166 -0.0020610849704116056 0.06504048693552837 0 112 142
0.005990250300602607 -0.0022830469847781375 0.06407142390032353 0 187 67
0.0063218055061253844 -0.002505008914587254 0.06310236039973195 10 244 0
0.00662907416239046 -0.00287541367220916 0.06295029589805257 22 232 0
0.006955264246647242 -0.0031301679828473574 0.062161714962392284 114 140 0
0.007262532916746652 -0.003500572655911847 0.06200964999532614 126 128 0
0.007571903755669073 -0.00385812643117034 0.061786858401255446 147 107 0
0.007877416281403102 -0.004239264907249754 0.06169387009317598 151 103 0
0.00820191125838213 -0.004504379953581036 0.06096231253017685 236 18 0
0.008487599900925683 -0.005006684810598301 0.06153619922971234 155 99 0
0.008793112426659713 -0.005387823286677715 0.06144321092163287 159 95 0
0.009104904606233278 -0.005730579629349256 0.06113897519235841 190 64 0
0.009400543566818369 -0.006172066733624072 0.06137813340525164 152 102 0
0.009706923256361655 -0.006547904981718977 0.06125597372512846 160 94 0
0.010010702644230013 -0.006939636641829588 0.06122128813787628 156 98 0
0.010309015560491505 -0.00736478015040296 0.06137049453886018 129 125 0
0.010619588907450874 -0.007714986170587841 0.061107260312725314 155 99 0
0.01092152993349879 -0.008117954158439963 0.061134417177894224 144 110 0
0.011218502707302486 -0.008551289343545142 0.0613287083707297 111 143 0
0.005726579026501009 -0.0014925769527911435 0.06580668936835879 0 59 195
0.006373514692332263 -0.0020353631453528115 0.06441268045112089 0 164 90
0.0066999747674780005 -0.0022884672334495186 0.06361501702771603 0 224 30
0.007027198484101468 -0.0025369038367097996 0.06279166472129145 50 204 0
0.0073366942746793725 -0.0028936960340701597 0.062564679468841 71 183 0
0.007652650478522673 -0.0032110012708179373 0.06212036605196584 120 134 0
0.007951214598707214 -0.0036346072411333075 0.06226111224569234 94 160 0
0.008271311197775447 -0.003926605796024797 0.0616775160217795 161 93 0
0.008578507943165302 -0.004297450083097957 0.06152787060040839 172 82 0
0.008882994597594788 -0.004684858829844601 0.06146939258112845 172 82 0
0.009185752707157942 -0.005082832687560143 0.06146906277427592 164 90 0
0.009490239361587424 -0.005470241434306788 0.06141058475499598 164 90 0
0.009815941273652236 -0.0057279795225029665 0.06063842592145921 255 0 0
0.010103339978390073 -0.0062198322372598504 0.061154786165260586 181 73 0
0.010406098032615885 -0.00661780643320506 0.06115445821995506 173 81 0
0.010705864688506046 -0.007034064479331985 0.061254760850843894 152 102 0
0.011013061433895901 -0.007404908766405144 0.06110511542947278 164 90 0
0.011318419789796641 -0.0077869895503346505 0.061017313391296256 167 87 0
0.011610996786544594 -0.008247192347205725 0.06135947843050969 116 138 0
0.011894780662457957 -0.008761139407563968 0.06199744143884944 27 227 0
0.006449409709499247 -0.0014178902776659985 0.06490939045380371 0 133 121
0.006754922207564605 -0.0017990289228602453 0.06481640307649773 0 136 118
0.007083502034912081 -0.002039176785362708 0.0639474312342481 0 203 51
0.007407113592737801 -0.0023096914146429515 0.06324559187271982 1 253 0
0.007725820712665129 -0.002610182662780989 0.0627087376974646 61 193 0
0.008042381559969827 -0.0029237922330808074 0.062244084087447166 113 141 0
0.008352954630304008 -0.0032739977997258253 0.06198084945433266 139 115 0
0.00866022328656908 -0.003644402557347731 0.06182878495265326 150 104 0
0.008967491942834156 -0.004014807314969638 0.06167672045097388 162 92 0
0.009273004468568187 -0.004395945791049052 0.06158373214289443 166 88 0
0.009579384158111473 -0.0047717840391439574 0.06146157246277124 174 80 0
0.009892401810780207 -0.0051070501167422115 0.06111611184471885 210 44 0
0.010186731185511118 -0.00555654159518297 0.06139932449780869 166 88 0
0.010474433470904173 -0.006046538781990967 0.061905472294845 93 161 0
0.010802234715691724 -0.006291445451339738 0.061062691953301294 193 61 0
0.011101876696551589 -0.006708465528904658 0.06116718864954953 172 82 0
0.01141245004351096 -0.0070586715490895385 0.06090395442341466 198 56 0
0.011704676654603957 -0.007521015416617012 0.0612579040004246 145 109 0
0.01200932778888978 -0.007907419375270926 0.06119389531044754 145 109 0
0.012312209190049694 -0.00830463965729013 0.06118941797691027 138 116 0
0.012609181877404176 -0.008737974834707115 0.061383709649734275 105 149 0
0.007140952226361422 -0.001534441132389067 0.06506462369594748 0 121 133
0.007466654138426233 -0.001792179220585245 0.06429246486241073 0 180 74
0.007790103253486114 -0.002063686723050679 0.06359609007205978 0 232 22
0.00811088289519425 -0.002351510424614591 0.0629895163083123 34 220 0
0.008431662536902387 -0.0026393341261785044 0.062382942544564814 103 151 0
0.008741158050855104 -0.002996125869999002 0.062155956885134714 125 129 0
0.009057114213195397 -0.0033134313604190283 0.06171164486441979 173 81 0
0.009358983328368093 -0.0037168388777224044 0.06174122080989697 162 92 0
0.009666180073757948 -0.004087683164795563 0.06159157538852586 173 81 0
0.009971538429658687 -0.004469763948725069 0.06150377335034933 177 77 0
0.010277794827605212 -0.004846355772516315 0.0613857611969109 184 70 0
0.010583153211174623 -0.005228436387330986 0.06129795822796088 187 67 0
0.010887639865604107 -0.0056158451340776305 0.06123948020868094 187 67 0
0.01119212652003359 -0.0060032538808242756 0.06118100218940099 186 68 0
0.011494884629596745 -0.006401227738539818 0.06118067238254847 179 75 0
0.011797642711491228 -0.006799201765370194 0.06118034350646944 171 83 0
0.012101267957194968 -0.0071918755642160605 0.06115084325834669 167 87 0
0.012401034658031338 -0.00760813387170343 0.06125114680540725 146 108 0
0.012714533468884019 -0.007940459042353897 0.0608895000363118 185 69 0
0.012992842600257966 -0.008487868516510002 0.061711633334162054 72 182 0
0.013287740576821874 -0.008933884494395446 0.06197571766461979 30 224 0
0.007546493577211053 -0.001150597286571587 0.06465648332417956 0 160 94
0.007852873252920004 -0.001526435619223909 0.06453432410944313 0 165 89
0.008182964993276353 -0.0017573424553433115 0.06361449154582939 0 236 18
0.008501672127038016 -0.0020578336189239323 0.06307763690518742 31 223 0
0.008827025994893751 -0.002317699002605805 0.06231718627141895 120 134 0
0.009130805133805594 -0.0027094300400617184 0.062282499346413625 117 137 0
0.009448451948767655 -0.003016402022276791 0.06178131380756992 173 81 0
0.009753103065775941 -0.0034028055504554287 0.06171730327064766 173 81 0
0.010057754127446885 -0.0037892094168637314 0.061653294595272384 174 80 0
0.010361533542983917 -0.004180940907859507 0.061618608077246693 170 84 0
0.01066880222691766 -0.004551345496366581 0.061466542644793815 182 72 0
0.010975181916460948 -0.004927183744461486 0.061344382964670624 190 64 0
0.011277122942508861 -0.005330151732313608 0.06137153982983953 178 76 0
0.01158649405805647 -0.005687705961111964 0.06114874864274849 199 55 0
0.011893762741990216 -0.006058110549619036 0.060996683210295596 211 43 0
0.012188092144389796 -0.006507601858944961 0.06127989493261195 167 87 0
0.012495360800654871 -0.006878006616566868 0.06112783043093256 178 76 0
0.012797301899317666 -0.007280974696664601 0.061154987281499686 167 87 0
0.013096943880177531 -0.007697994774229522 0.061259483977747935 146 108 0
0.013381884126680925 -0.008204873933810171 0.061858546704108494 62 192 0
0.013702636843587666 -0.008492862077929217 0.06125287812100523 131 123 0
0.013995818410047527 -0.008949369114665384 0.061574702981906336 82 172 0
0.014280758716207648 -0.009456248043635184 0.06217376430845621 0 253 1
0.0082398512782973 -0.0012560535251281884 0.06475065410355865 0 153 101
0.008559947877365534 -0.0015480520800196784 0.0641670578796458 0 196 58
0.008884145388465575 -0.0018149852799217285 0.06344550706246979 0 250 4
0.009204241987533808 -0.0021069838348132183 0.06286191083855694 59 195 0
0.009523619021378299 -0.0024033783299237956 0.06230251106077492 123 131 0
0.009833114825790539 -0.0027601704427267395 0.062075525342937705 144 110 0
0.010142610616368444 -0.0031169626400871005 0.06184854009048726 165 89 0
0.0104488669866463 -0.0034935546329931785 0.06173052886782233 172 82 0
0.010756063732036155 -0.003864398920066338 0.061580883446451205 183 71 0
0.011063260477426009 -0.004235243207139498 0.0614312380250801 195 59 0
0.011366018531651822 -0.0046332174030847065 0.06143091007977455 187 67 0
0.011680826928358683 -0.004957538199569229 0.06102520887048251 231 23 0
0.011975724921941702 -0.005403554199074739 0.06128929319751796 189 65 0
0.012281083305511113 -0.00578563481388941 0.06120149022856794 193 61 0
0.012587339675788968 -0.006162226806795489 0.061083479005902996 200 54 0
0.01288590410026737 -0.00658583306153589 0.06122422467583566 174 80 0
0.013189529418585989 -0.006978506952627367 0.06119472441311112 170 84 0
0.013486875038118865 -0.007409562715766276 0.061376470655409895 139 115 0
0.013791361706382683 -0.007796971377955504 0.0613179921707432 139 115 0
0.01409323079070193 -0.00820037895819623 0.06134756858502941 127 127 0
0.014395988843793136 -0.008598353152700102 0.06134724063995203 120 134 0
0.014686419513457297 -0.009071674202548747 0.06176160625535461 59 195 0
0.00828838339555361 -0.0008058264511630498 0.06616785068666665 0 46 208
0.008602623201077032 -0.001133622557467989 0.0657812768726555 0 73 181
0.008946173453242409 -0.0012822690638103918 0.06440870025890313 0 181 73
0.009278446646936217 -0.001499842548257713 0.06341548365155528 5 249 0
0.009600185713636149 -0.0017818021084261108 0.06277663485155169 78 176 0
0.009916746284315658 -0.002095411225186066 0.06231198083455463 130 124 0
0.010219627671641236 -0.0024926315917626852 0.062307503966404096 123 131 0
0.010533867435661651 -0.0028204279517398748 0.06192093154855319 164 90 0
0.0108481072135164 -0.0031482242271596472 0.06153435866531553 206 48 0
0.011146420129777892 -0.0035733677357330197 0.061683565066299434 179 75 0
0.011453688786042965 -0.003943772493354926 0.06153150056462005 190 64 0
0.011756570187202879 -0.00434099277537413 0.061527023231082764 183 71 0
0.012068362366776445 -0.00468374911804567 0.061222787501808304 214 40 0
0.012370303392824359 -0.0050867171058977916 0.06124994436697721 203 51 0
0.012674954509832645 -0.005473120634076428 0.06118593383005494 203 51 0
0.01297960557150359 -0.005859524500484731 0.06112192515467966 204 50 0
0.013279247552363455 -0.0062765445780496535 0.06122642185092791 182 72 0
0.0135788896058382 -0.006693564747860184 0.06133091853257437 161 93 0
0.01388440213157223 -0.0070747032239396 0.061237930224494926 165 89 0
0.014186343157620145 -0.007477671211791723 0.06126508708966383 154 100 0
0.014485985121460897 -0.007894691267736578 0.06136958378933436 133 121 0
0.014791497618391648 -0.008275829911489488 0.06127659641225656 137 117 0
0.015085827011276278 -0.008725321412991649 0.06155980906169595 93 161 0
0.015387768064992861 -0.009128289231728938 0.06158696499609136 82 172 0
0.01567911215616435 -0.009596027185973296 0.061970602524433635 25 229 0
0.009323970885653187 -0.0010680005532715763 0.0649338683598523 0 143 111
0.009663912506776331 -0.001238703523492719 0.0636826860173759 0 241 13
0.009990372581922069 -0.0014918076115894268 0.06288502259397102 73 181 0
0.010301197146638824 -0.0018404760089588891 0.062613327695192 100 154 0
0.010624646275533037 -0.0021119834268669055 0.061916952439454304 181 73 0
0.010919544255281723 -0.0025579995109298315 0.06218103723187651 139 115 0
0.011234352638154248 -0.0028823203919717713 0.061775336487971205 183 71 0
0.011540609063769445 -0.0032589120466481832 0.061657323403759276 190 64 0
0.011847805781490629 -0.0036297565028361764 0.06150767891316166 202 52 0
0.01215143105486304 -0.004022430132567209 0.0614781777342654 198 56 0
0.012458627772584224 -0.004393274588755202 0.061328533243667785 209 45 0
0.012763986128484962 -0.004775355372684708 0.06124073120549127 212 42 0
0.013066744210379446 -0.005173329399515083 0.06124040232941223 205 49 0
0.013364089829912322 -0.005604385162653991 0.061422148571711 174 80 0
0.013673585620490227 -0.0059611773600143515 0.061195163319260545 195 59 0
0.013970931312637982 -0.006392233215398871 0.061376909546957535 164 90 0
0.014278128002690495 -0.006763077840701697 0.06122726598713341 175 79 0
0.014577894658580656 -0.007179335886828624 0.06132756861802225 154 100 0
0.014883253025130954 -0.007561416480023229 0.061239765652494525 158 96 0
0.015179373142765379 -0.00799996267590892 0.06146273771457286 122 132 0
0.015481242276091794 -0.008403370216273697 0.06149231365639959 110 144 0
0.015784000357986275 -0.008801344243104074 0.06149198478032057 102 152 0
0.01607657728211935 -0.009261546947729538 0.06183414983413578 51 203 0
0.016358709694639824 -0.009785587450098939 0.06252766560761952 0 225 29
0.009739131790168637 -0.000625360711449645 0.0642021269009996 0 209 45
0.010045511507380592 -0.0010011987904297176 0.06407996629010294 0 214 40
0.010377784673405731 -0.0012187724439918727 0.06308675061352856 56 198 0
0.010690802035614943 -0.0015540381526076797 0.06274129005388328 92 162 0
0.011009509169376605 -0.0018545293161883 0.062204435413241284 153 101 0
0.011316777853310351 -0.0022249339046953734 0.06205236998078841 164 90 0
0.011621428942649966 -0.0026113376019888434 0.061988360374639645 164 90 0
0.011928697598915041 -0.002981742359610749 0.061836295872960245 176 78 0
0.012235966282848785 -0.0033521469481178224 0.06168423044050737 188 66 0
0.012548983907848851 -0.0036874131948309084 0.061338770753228467 224 30 0
0.012853634997188466 -0.004073816892124379 0.0612747611470797 224 30 0
0.013146816620120277 -0.004530323592072217 0.06159658414620567 175 79 0
0.013461056397975027 -0.00485811986749199 0.061210011262967996 217 37 0
0.01376299742402294 -0.005261087855344111 0.0612371681281369 206 48 0
0.014069377141234898 -0.005636925934324185 0.06111500751724023 213 41 0
0.014362558781444247 -0.0060934330647473 0.0614368323633114 165 89 0
0.014671929896991856 -0.006450987293545657 0.06121404117622035 185 69 0
0.014970242813253348 -0.00687613080211903 0.06136324757720426 158 96 0
0.01529385434022562 -0.007146645494336623 0.060661408684485024 240 14 0
0.01557653204921738 -0.007667353595166443 0.06133658308652908 146 108 0
0.015866292514504856 -0.008144771029060104 0.06177349436286555 83 171 0
0.016180532292359603 -0.008472567304479876 0.06138692147962789 124 130 0
0.016477504979714085 -0.008905902481896861 0.061581213152451894 91 163 0
0.016777146887959067 -0.009322922467216171 0.06168570986330191 70 184 0
0.017070328483222208 -0.00977942933627884 0.06200753379320136 21 233 0
0.010431121981038535 -0.0007391753660753054 0.06434230069488288 0 198 56
0.010756070060169388 -0.0010015209878995734 0.06359550078516257 0 254 0
0.011074682456464001 -0.0013025890559805698 0.06306182339824601 59 195 0
0.011398879953729705 -0.0015695223404400362 0.06234027304645672 144 110 0
0.011704238309630445 -0.0019516031243695421 0.06225247100828021 147 107 0
0.012015063192475393 -0.0023002717216066178 0.061980775120320596 174 80 0
0.012314829820696885 -0.0027165299368483763 0.06208107868198292 153 101 0
0.012628328631549562 -0.0030488551074988428 0.06171943191288748 192 62 0
0.012940493701798516 -0.003389332289564556 0.061402652149248005 224 30 0
0.013243251783693 -0.003787306316394931 0.06140232327316898 216 38 0
0.013545120898865694 -0.004190713833698307 0.06143189921864616 205 49 0
0.01385137726914355 -0.004567305826604385 0.06131388799598122 212 42 0
0.01414994169362195 -0.004990912081344785 0.061454633665913874 186 68 0
0.014457138439011806 -0.005361756368417946 0.061304988244542766 198 56 0
0.014756905167516847 -0.0057780145067904826 0.061405290860829825 177 77 0
0.015062263523417586 -0.006160095290719989 0.0613174888226533 180 74 0
0.01535838366985529 -0.006598641318932183 0.06154045995372999 144 110 0
0.015663742008736915 -0.006980722081241623 0.06145265791897576 147 107 0
0.01596736728097472 -0.007373395709531319 0.06142315674030766 143 111 0
0.01627012536718859 -0.007771369843980513 0.061422828325964934 136 118 0
0.01657199445469261 -0.008174777530398723 0.06145240520221561 124 130 0
0.016871761096748435 -0.008591035661083065 0.061552708298491195 103 151 0
0.01717363013930625 -0.00899444308614083 0.061582284258570145 92 162 0
0.017470975731170454 -0.00942549901839457 0.0617640314316424 61 193 0
0.017772844832508815 -0.009828906620255363 0.06179360784250633 49 205 0
0.018054977359147177 -0.010352946961198126 0.06248712220522806 0 224 30
0.010819715621602588 -0.000458918403202026 0.06450428142858261 0 190 64
0.01114421064008462 -0.0007240331958610585 0.06377272246942323 0 245 9
0.011460771196929795 -0.00103764239717843 0.06330806891781292 36 218 0
0.011784382754755513 -0.0013081570264586728 0.06260622955628463 118 136 0
0.012097400393589914 -0.001643423188614343 0.06226076940361899 154 100 0
0.012406771481468853 -0.0020009775865275315 0.062037979147301435 175 79 0
0.012712284007202883 -0.002382116062606946 0.061944990839221975 179 75 0
0.013019552718805298 -0.0027525204819991863 0.0617929244759956 191 63 0
0.013325932380679913 -0.003128358899208925 0.061670765726645906 198 56 0
0.013631444906413943 -0.0035094973752883398 0.06157777741856646 202 52 0
0.01393782459595723 -0.003885335623383246 0.06145561773844328 210 44 0
0.014245093252222304 -0.004255740381005152 0.06130355323676388 222 32 0
0.014547974653382218 -0.004652960663024354 0.061299075903226606 214 40 0
0.014852625770390504 -0.005039364191202992 0.061235065366304346 215 39 0
0.015150938731598205 -0.005464507961136809 0.06138427268345997 188 66 0
0.015454718119466564 -0.005856239621247419 0.06134958709620779 185 69 0
0.01575665917318315 -0.0062592074399847085 0.0613767430306032 173 81 0
0.016063927812429112 -0.006629612175986548 0.061224678532346095 185 69 0
0.016359566799548267 -0.007071099109705193 0.061463835814694 147 107 0
