ply
format ascii 1.0
element vertex 664
property float x
property float y
property float z
property uchar red
property uchar green
property uchar blue
end_header
-0.04158490395098463 -0.03753929603235341 0.08243778853983294 1 65 254
-0.04113222680059324 -0.03780049090496792 0.0840267135277173 14 74 249
-0.03940048205699598 -0.03782413339312633 0.08468540924355346 30 86 243
-0.05178339673575941 -0.03753864938332996 0.08269316970720662 0 254 0
-0.05118183753042072 -0.03749709413117649 0.08264549441166062 0 254 0
-0.05053312164676073 -0.03735964625952315 0.0820794448020738 0 254 0
-0.04994461827034274 -0.037344639900962595 0.0821752869594512 0 254 0
-0.0493152339224182 -0.03724650250804987 0.08182174111249033 142 147 174
-0.04872673065205894 -0.03723149636515864 0.08191758443572843 32 88 242
-0.04815233287381151 -0.03724517359514457 0.08216848373529839 165 155 156
-0.04758232995696795 -0.037267787730513965 0.08246769397080858 0 254 0
-0.046967507790020645 -0.03719926238258083 0.08227422429638012 0 254 0
-0.046303800611786225 -0.03703132986786927 0.08154338144184392 113 135 195
-0.04571214824579485 -0.03700992007145602 0.08160460802899591 0 254 0
-0.04511058914651488 -0.036968365034971876 0.08155693389931062 0 254 0
-0.04451893678052351 -0.03694695523855863 0.0816181604864626 24 82 245
-0.04392409788017046 -0.036919065657352534 0.0816443587886992 1 65 254
-0.0433324456202378 -0.03689765607660861 0.0817055865417119 1 64 254
-0.04274711233907928 -0.03688909607409593 0.08183627627559521 0 64 254
-0.04217271456083185 -0.03690277330408186 0.08208717557516519 0 64 254
-0.041590631131093216 -0.03690082184094753 0.08225358961280546 1 65 254
-0.04108069658768579 -0.03704558439480051 0.08321310721058023 1 64 254
-0.05304866493134503 -0.037098020481755575 0.08322455227176286 0 254 0
-0.05188347237794824 -0.03709203181746955 0.0835461053081545 0 254 0
-0.05116654164420526 -0.03681586975100633 0.08223019740960529 0 254 0
-0.05053075103117676 -0.03670470528400997 0.08180623007841263 236 192 0
-0.04993849763039664 -0.03668207328954643 0.08186084973294303 35 90 240
-0.0493399252508424 -0.03664659171685164 0.08184600740660278 7 70 252
-0.048738103125926996 -0.03660450182044783 0.0817954419423663 182 160 142
-0.048169019632161525 -0.03662898559317349 0.08210475902433785 185 161 138
-0.047573617241808024 -0.03659995016085725 0.08212476310864283 195 164 129
-0.04692619675940259 -0.03646513647430824 0.08157295332172056 184 161 139
-0.046324374634487187 -0.03642304657790443 0.08152238785748409 32 88 242
-0.04572255250957179 -0.036380956681500626 0.08147182239324763 4 68 253
-0.045123980023958815 -0.03634547489313651 0.08145697890104668 2 66 253
-0.04454163356858473 -0.036342988570082516 0.08162050160413577 2 66 253
-0.04394938016780462 -0.036320356575618974 0.08167512125866616 1 65 254
-0.04336031340744491 -0.0363042045816176 0.08176477036397264 1 65 254
-0.0427712466470852 -0.03628805258761623 0.08185441946927913 2 65 254
-0.04219730460317467 -0.0363026565486807 0.0821103284723033 1 64 254
-0.04164697918562414 -0.03636528467612052 0.08262584550806279 2 65 254
-0.04111208488817635 -0.03645929182729873 0.08331099061311995 0 64 254
-0.05246173505117008 -0.03643609345844493 0.08309053573341828 0 254 0
-0.051818443859123695 -0.03630967664129598 0.0825841175672281 235 193 0
-0.05113801546246817 -0.03610774170120781 0.08166946511376498 100 129 203
-0.05055268218130965 -0.03609918169869514 0.08180015484764831 18 78 248
-0.049937860014362345 -0.036030656350762004 0.08160668517321985 13 74 250
-0.049343021114009296 -0.03600276676955591 0.08163288347545646 143 147 174
-0.048751368854076646 -0.035981357188811985 0.08169411122846915 1 65 254
-0.048159716488085265 -0.03595994739239874 0.08175533781562112 25 83 245
-0.047589713571241705 -0.035982561527768124 0.0820545480511313 187 162 137
-0.046940997687581705 -0.03584511365611478 0.08148849844154449 0 64 254
-0.046342876057604336 -0.03581054867804038 0.08147861102320525 0 64 254
-0.045702578797276905 -0.03569021999019471 0.08100510393888814 1 65 254
-0.04514597883955759 -0.03574008890484939 0.08145164748941286 2 65 254
-0.044547857209580224 -0.03570552392677499 0.08144176007107362 0 64 254
-0.04401506595057004 -0.03580380758494795 0.08215002302807244 0 63 254
-0.043390468987386764 -0.035715405289581045 0.08184910296752512 0 64 254
-0.04279881662139539 -0.0356939954931678 0.0819103295546771 0 64 254
-0.042213483446295594 -0.03568543570632444 0.08204102045442113 1 64 254
-0.0417175256397091 -0.035858619810497136 0.08315417867363056 1 65 254
-0.05306906651157503 -0.03583926617865455 0.0829545075927369 0 254 0
-0.052486720056200954 -0.035836779855600555 0.08311803029582598 0 254 0
-0.0517961161734503 -0.03561415316937842 0.08209152283449628 0 254 0
-0.05124159486066208 -0.03566824898708368 0.08256091608900024 228 198 0
-0.050561867830348176 -0.03546774026822484 0.08165397347238669 0 254 0
-0.04996646543999466 -0.035438704835908594 0.08167397755669167 180 160 143
-0.04934810716913148 -0.035362988857095844 0.08144163692046047 46 97 235
-0.048765760713757406 -0.03536050253404185 0.08160515962354956 30 86 243
-0.0481703583234039 -0.035331467101725605 0.08162516370785454 23 81 246
-0.047581291563044185 -0.03531531510772423 0.08171481281316102 19 78 247
-0.04694550095001568 -0.035204150640727884 0.08129084548196837 13 74 250
-0.046356434189655966 -0.03518799864672651 0.08138049458727485 13 74 249
-0.045757861704043 -0.035152516858362404 0.08136565109507392 15 75 249
-0.045188778316336255 -0.035177000846757386 0.08167496934290616 14 74 249
-0.04458695608536213 -0.03513491073468425 0.08162440271280898 11 72 250
-0.04397744820289679 -0.03507719192949085 0.0814893508207821 4 67 253
-0.043418139505367284 -0.03512155264965029 0.0819061182888725 2 66 253
-0.042867814087816765 -0.0351841807770901 0.08242163532463198 2 66 253
-0.04224050827876459 -0.03509027007155864 0.08209093801578965 2 66 253
-0.04169989391615692 -0.03517264552916945 0.08271320475538363 1 65 254
-0.04121139734080172 -0.035361001970176116 0.0839083812752686 25 82 245
-0.05315558318225666 -0.03536507658393554 0.08365839489757154 0 254 0
-0.052494611788807044 -0.03520270725939644 0.08295762541994971 0 254 0
-0.05183867033640042 -0.035050566268143596 0.08231214805217632 0 254 0
-0.05124383143604737 -0.0350226766869375 0.08233834635441292 0 254 0
-0.05059261861184895 -0.03488015131242585 0.08174484888622192 89 123 210
-0.04998265499504671 -0.0348215057761539 0.08160478729074083 47 98 234
-0.04939100273511406 -0.034800096195409976 0.08166601504375352 76 116 218
-0.04878103911831183 -0.03474145065913803 0.08152595344827243 22 80 246
-0.0481662168453058 -0.03467292509553558 0.08133248260798327 179 160 144
-0.04756809521532843 -0.03463836011746118 0.08132259518964405 218 204 0
-0.04697325631497538 -0.034610470536255086 0.08134879349188064 2 66 253
-0.04637513468499801 -0.034575905558180686 0.08133890607354141 13 74 250
-0.04578980150989821 -0.03456734577133733 0.08146959697328546 11 72 250
-0.045191679879920836 -0.034532780793262934 0.08145970955494622 1 65 254
-0.04461728210167341 -0.03454645802324886 0.0817106088545162 0 64 254
-0.04402244320132036 -0.03451856844204277 0.0817368071567528 0 64 254
-0.04345244028447679 -0.034541182577412156 0.08203601739226297 0 64 254
-0.04287804250622936 -0.034554859807398086 0.08228691669183294 1 64 254
-0.04229595897043201 -0.034552908128594434 0.08245332956361251 3 67 253
-0.04176316771142181 -0.03465119178676739 0.08316159252061132 38 92 239
-0.04125323316801439 -0.034795954340620376 0.0841211101183861 150 150 168
-0.05371570101080554 -0.03467224087021914 0.08300336637565014 0 254 0
-0.053151516793735136 -0.034706687271625805 0.0833665392270802 0 254 0
-0.05248672219540385 -0.03453654349935122 0.08262374280272415 0 254 0
-0.051859416386351664 -0.03444263279381976 0.08229304549388182 0 254 0
-0.051236578407105444 -0.03435780737416559 0.08201146123314551 0 254 0
-0.05060927259805326 -0.03426389666863413 0.08168076392430318 0 254 0
-0.05001701930333187 -0.03424126488983991 0.08173538474469427 253 180 0
-0.04939866103246869 -0.03416554891102716 0.08150304410846307 96 127 206
-0.04880325864211519 -0.03413651347871092 0.08152304819276805 252 178 20
-0.048201436517199776 -0.034094423582307104 0.08147248272853158 65 110 224
-0.04760286403158681 -0.034058941793943 0.08145763923633063 149 149 169
-0.046975558328593355 -0.03396503130408085 0.081126943093349 90 124 209
-0.046416249631063854 -0.03400939202424029 0.0815437105614394 16 76 249
-0.04577261311181223 -0.03388227298777746 0.08103349635279011 170 157 152
-0.04522228758820298 -0.03394490089954796 0.08154901222268889 32 87 242
-0.044648345650351175 -0.03395950507628175 0.08180492239157376 34 89 241
-0.04405609224957106 -0.03393687308181821 0.08185954204610417 13 74 250
-0.043470308218835664 -0.033927396484685145 0.08198527687198648 0 64 254
-0.042906124001765265 -0.0339618428860918 0.08234844972341654 1 65 254
-0.04234193978469487 -0.03399628928749847 0.08271162257484659 1 65 254
-0.04181397557638872 -0.03410438870354385 0.08347294735016306 0 64 254
-0.041232641239417486 -0.034103960512833945 0.08364759586197064 215 170 105
-0.040712442756939145 -0.03422785145233803 0.08449428612404994 136 145 179
-0.05374043455060189 -0.034072415915411255 0.08302809668232364 0 254 0
-0.05317936697519406 -0.03411319997552727 0.08342552951646375 0 254 0
-0.05252575669354031 -0.03396579939598175 0.0828056777670109 0 254 0
-0.05186981524113368 -0.033813658404728913 0.08216020039923752 0 254 0
-0.05128448195997516 -0.03380509840221623 0.08229089013312084 0 254 0
-0.05063087167832141 -0.03365769782267072 0.08167103838366799 4 68 253
-0.05003275004834403 -0.033623132844596317 0.08166115096532875 55 104 230
-0.04943462841836666 -0.033588567866521916 0.08165126354698952 50 100 233
-0.04882466480156443 -0.03352992233024998 0.08151120195150843 2 65 254
-0.04822310559622574 -0.033488367078096506 0.08146352665596243 3 66 253
-0.04763460232586648 -0.03347336093520528 0.08155936997920053 7 70 252
-0.04702463870906424 -0.033414715398933335 0.08141930838371945 252 178 21
-0.046432986343072864 -0.03339330560252009 0.08148053497087143 66 110 224
-0.045850902913334234 -0.03339135413938575 0.08164694900851172 60 106 227
-0.0452765051350868 -0.03340503136937168 0.08189784830808168 201 214 0
-0.04469442159928944 -0.03340307969056803 0.08206426117986124 0 64 254
-0.04411233806349208 -0.03340112801176437 0.0822306740516408 1 65 254
-0.04349751589654478 -0.03333260266383124 0.08203720437721235 1 65 254
-0.04300421411858266 -0.03351118777484591 0.08317955924608514 7 70 252
-0.04241256175259129 -0.03348977797843267 0.08324078583323712 59 106 228
-0.041879770493581096 -0.033588061636605625 0.08394904879023593 0 254 0
-0.054386335114448306 -0.03355401851008241 0.08331604311430853 0 254 0
-0.053776827231982974 -0.033496299704889015 0.08318099122228163 0 254 0
-0.05313706662879882 -0.03337706230381492 0.0827133833931375 0 254 0
-0.05253849424924458 -0.03334158073112013 0.08269854106679725 0 254 0
-0.0518837741691032 -0.03319192338778456 0.08206648975091554 0 254 0
-0.05127426628663786 -0.033134204582591156 0.08193143785888866 0 254 0
-0.050664758404172526 -0.03307648577739776 0.08179638596686177 0 254 0
-0.05006935601381902 -0.03304745034508151 0.08181639005116675 0 254 0
-0.049459848131353686 -0.032989731539888115 0.08168133815913987 0 254 0
-0.04885802600643828 -0.03294764164348431 0.0816307726949034 0 254 0
-0.04821826540325413 -0.03282840424241021 0.08116316486575925 0 254 0
-0.04767765104064647 -0.032910779700021014 0.08178543160535322 0 254 0
-0.04707907866109222 -0.03287529812732622 0.08177058927901298 181 160 143
-0.04646072039022904 -0.03279958214851347 0.08153824864278177 0 254 0
-0.04588677834631852 -0.03281418610957795 0.08179415764580596 0 254 0
-0.045291375955965 -0.03278515067726171 0.08181416173011094 210 209 0
-0.04470230919560529 -0.03276899868326034 0.08190381083541742 146 148 171
-0.044110055900883904 -0.03274636690446612 0.08195843165580853 24 82 245
-0.04355553458809568 -0.03280046272217138 0.08242782491031249 25 82 245
-0.04304083546257263 -0.03293553654738286 0.08333496738172552 9 71 251
-0.042476651245502234 -0.03296998294878953 0.08369814023315558 22 80 246
-0.04182193116536085 -0.032820325605453955 0.08306608891727388 95 126 207
-0.04127509677676852 -0.032890052704311355 0.08361998142403602 50 100 233
-0.053792738807119496 -0.03287853537584019 0.08310874523542006 0 254 0
-0.05316814184393623 -0.03279013308047328 0.08280782517487273 0 254 0
-0.05258280866883643 -0.03278157329362992 0.08293851607461677 0 254 0
-0.05192183727538681 -0.03261920396909082 0.08223774659699494 104 131 201
-0.05131187365858458 -0.03256055843281888 0.08209768500151385 123 139 188
-0.05068727669540131 -0.03247215613745197 0.08179676494096653 13 74 250
-0.050085717490062624 -0.0324306008852985 0.08174908964542053 31 87 242
-0.04947575387326039 -0.03237195534902655 0.08160902804993944 156 152 164
-0.04891020648341081 -0.03240362975263184 0.08195721609371373 0 64 254
-0.048285609520227535 -0.03231522745726493 0.08165629603316642 5 68 252
-0.047690770619874485 -0.032287337876058836 0.08168249433540302 40 94 238
-0.047080807003072246 -0.03222869233978689 0.08154243273992194 9 71 251
-0.0464859681027192 -0.032200802758580796 0.08156863104215853 9 71 251
-0.045937853055034936 -0.03226792565036968 0.0821084457808943 192 163 131
-0.04532788943823269 -0.03220928011409774 0.0819683841854132 109 133 198
-0.044745805902435334 -0.03220732843529408 0.08213479705719276 43 95 237
-0.044171408124187905 -0.03222100566528001 0.08238569635676274 3 67 253
-0.04362726296060056 -0.03229620127547731 0.08296915042758926 56 104 229
-0.04306619538519274 -0.03233698533559333 0.08336658326172937 39 93 238
-0.0425648056749994 -0.03249912371974771 0.08442003075901412 206 211 0
-0.04203562009442802 -0.03260473948787582 0.08516792948243891 0 254 0
-0.05441142342969054 -0.03230479463434021 0.08309751781988602 0 254 0
-0.053822356563272104 -0.03228864242466952 0.08318716575933179 0 254 0
-0.05320399839846764 -0.03221292666152609 0.0829548262889613 0 254 0
-0.05256820778543914 -0.03210176219452974 0.08253085895776864 0 254 0
-0.05194536970013419 -0.03201693655920625 0.08224927353117162 0 254 0
-0.05132701142927101 -0.031941220580393496 0.08201693289494041 0 254 0
-0.05072518930435561 -0.03189913068398969 0.08196636743070393 0 254 0
-0.050123367073381477 -0.03185704057191655 0.08191580080060676 193 164 130
-0.04952154494846607 -0.03181495067551274 0.08186523533637029 60 107 227
-0.04892297256891183 -0.03177946910281795 0.08185039301003004 24 82 245
-0.04832440008329886 -0.031743987314453846 0.08183554951782909 57 105 229
-0.04772257795838345 -0.03170189741805003 0.08178498405359261 52 102 231
-0.04713679392764805 -0.03169242082091696 0.08191071887947493 5 68 252
-0.04659318552726272 -0.03176870793355516 0.08250007337133514 19 78 247
-0.045942071125560154 -0.03162638270017473 0.08190765782187942 11 72 250
-0.045353004365200435 -0.03161023070617336 0.0819973069271859 26 83 244
-0.04476722033446504 -0.03160075410904029 0.08212304175306823 3 67 253
-0.04418143630372965 -0.03159127751190722 0.08224877657895054 7 70 251
-0.04359236954336993 -0.031575125517905846 0.08233842568425703 6 69 252
-0.04311013478113663 -0.03177621529137896 0.08360243578609204 7 69 252
-0.04262790012496206 -0.031977305280521395 0.08486644705378778 64 109 225
-0.04202932774540781 -0.03194182370782661 0.08485160472744753 105 245 0
-0.05385533160833198 -0.031705576485900826 0.08330249160389577 0 254 0
-0.053225947260407434 -0.03160743909298809 0.08294894575693489 0 254 0
-0.052601350297224174 -0.031519036797621185 0.08264802569638757 0 254 0
-0.0520032286672468 -0.03148447181954679 0.08263813827804833 0 254 0
-0.05137384431932225 -0.031386334426634056 0.08228459243108746 192 163 131
-0.05074924735613899 -0.03129793213126715 0.08198367237054015 125 140 186
-0.050174849577891555 -0.03131160936125308 0.08223457167011013 75 116 218
-0.04956488596108932 -0.031252963824981134 0.08209451007462903 63 108 226
-0.04895492234428709 -0.03119431828870919 0.08195444847914796 0 64 254
-0.04834495872748485 -0.031135672752437248 0.08181438688366686 1 64 254
-0.04774683709750748 -0.03110110777436285 0.08180449946532763 7 69 252
-0.047172439319260046 -0.03111478500434878 0.0820553987648976 2 66 253
-0.04656247570245781 -0.031056139468076838 0.08191533716941651 36 91 240
-0.04597714242129929 -0.031047579465564155 0.08204602690329986 0 64 254
-0.04536717880449705 -0.030988933929292212 0.08190596530781878 0 64 254
-0.04483438754548687 -0.031087217587465174 0.08261422826481758 0 64 254
-0.04426884004957856 -0.031118891775401135 0.08296241514273117 3 67 253
-0.04370329265972897 -0.03115056617900642 0.08331060318650546 10 72 251
-0.04319037818435416 -0.03128926907190668 0.08423736359602038 127 141 185
-0.04252667100611974 -0.03112133655719512 0.08350652074148418 0 254 0
-0.053884661521107734 -0.03111509820818904 0.0833777479818511 0 254 0
-0.05324490102398231 -0.030995861022784267 0.08291014131856765 0 254 0
-0.052626542753119135 -0.030920145043971514 0.08267780068233645 0 254 0
-0.05200370477387291 -0.03083531962431735 0.08239621642160014 0 254 0
-0.05140188254289878 -0.030793229512244218 0.08234564979150295 0 254 0
-0.05080331016334454 -0.03075774793954943 0.08233080746516272 171 227 0
-0.05018940741947533 -0.03069109222897257 0.08214744463719562 73 114 220
-0.04959083503992109 -0.030655610656277782 0.08213260231085537 0 254 0
-0.048976932296051885 -0.03058895494570093 0.08194923948288828 65 109 225
-0.048387865535692166 -0.030572802951699556 0.08203888858819476 159 153 161
-0.0477892930500792 -0.030537321163335445 0.08202404509599381 58 106 228
-0.04719703975535781 -0.030514689384541223 0.08207866591638491 210 168 111
-0.046595217524383684 -0.03047259927246809 0.08202809928628774 47 98 234
-0.04602127558653188 -0.03048720344920189 0.08228400945517263 22 80 246
-0.04541945335555774 -0.03044511333712876 0.08223344282507544 37 91 239
-0.04484551141770594 -0.030459717513862554 0.08248935299396032 19 78 247
-0.04427642792394047 -0.030484201286588217 0.08279867007593186 32 88 242
-0.04372610240033122 -0.03054682919835871 0.08331418594583065 48 99 234
-0.04323146703997391 -0.030722702483312964 0.08444188128218467 52 101 232
-0.053992331286108995 -0.03068392321282363 0.0843141627069393 0 254 0
-0.05329066038762953 -0.03043879186414304 0.08316600001264736 0 254 0
-0.05266127603970498 -0.03034065447123031 0.08281245416568649 232 195 0
-0.05204645376669896 -0.03027212890762786 0.08261898332539733 0 254 0
-0.05143649014989672 -0.030213483371355918 0.08247892172991624 98 246 0
-0.05082652653309449 -0.03015483783508397 0.08233886013443516 2 66 253
-0.05021656291629225 -0.030096192298812025 0.08219879853895407 1 65 254
-0.04961500371095357 -0.030054637046658554 0.08215112324340806 7 70 252
-0.049013444505614887 -0.030013081794505084 0.08210344794786206 58 105 228
-0.04841860560526183 -0.02998519221329899 0.08212964625009866 145 235 0
-0.04780378343831453 -0.02991666686536586 0.0819361765756702 0 64 254
-0.047215280167955266 -0.029901660722474632 0.08203201989890832 1 65 254
-0.04663319663215791 -0.029899709043670977 0.08219843277068788 4 67 253
-0.04604469336179865 -0.029884702900779752 0.08229427609392599 0 64 254
-0.04547914586589034 -0.029916377088715716 0.08264246297183958 1 65 254
-0.044913598476040754 -0.029948051492321 0.08299065101561387 2 65 254
-0.0444094198456419 -0.030104518635972372 0.0840134410397705 15 75 249
-0.04384835227023408 -0.03014530269608839 0.0844108738739106 75 115 219
-0.04337589569811592 -0.030366276318413602 0.08578237166940708 0 254 0
-0.05459381254729977 -0.03007519961320721 0.08411382568970832 0 254 0
-0.053984304664834434 -0.03001748080801381 0.08397877379768144 0 254 0
-0.05332273955464803 -0.029853904166607662 0.08327147783182674 0 254 0
-0.052679103035396406 -0.02972678513014483 0.08276126362317743 0 254 0
-0.05206959515293107 -0.029669066324951435 0.08262621173115055 73 250 0
-0.051467772921956936 -0.0296269762128783 0.08257564510105336 0 254 0
-0.050858265039491604 -0.0295692574076849 0.08244059320902647 0 254 0
-0.05023095933649814 -0.029475346917822758 0.08210989706604485 97 127 205
-0.049648612881124064 -0.029472860594768762 0.08227341976913394 18 78 248
-0.04906282885038867 -0.029463383997635692 0.08239915459501626 94 126 207
-0.04844892610651946 -0.029396728287058835 0.08221579176704916 53 102 231
-0.047853523822224686 -0.029367693070411916 0.08223579701721485 23 81 246
-0.04725170159125055 -0.02932560295833878 0.08218523038711767 2 66 253
-0.04667775954734002 -0.029340206919403256 0.08244113939014183 40 93 238
-0.04608235726304524 -0.029311171702756336 0.08246114464030754 2 65 254
-0.04549657323230984 -0.02930169510562327 0.08258687946618987 0 64 254
-0.044922631188399315 -0.029316299066687746 0.08284278846921403 0 64 254
-0.04436810987561109 -0.02937039488439301 0.08331218172371799 0 64 254
-0.04386463261155385 -0.029528288249273706 0.08434268158472419 0 64 254
-0.043388771130161354 -0.02974233802367116 0.08567675058811139 21 79 247
-0.0540253250065185 -0.029450774897037797 0.08418253833782957 0 254 0
-0.05337411218232008 -0.029308249522526135 0.08358904086963856 0 254 0
-0.05273381492199265 -0.029187920834680473 0.08311553378532145 119 242 0
-0.05210921795880938 -0.029099518539313567 0.08281461372477414 0 254 0
-0.051499254342007146 -0.029040873003041624 0.08267455212929305 0 254 0
-0.050913921060848626 -0.029032313000528946 0.08280524186317638 0 254 0
-0.0502803409237451 -0.02892564351355098 0.08240557340082068 42 95 237
-0.049670377200884144 -0.028866997761609715 0.08226551063947889 180 223 0
-0.049100374284040585 -0.028889611896979105 0.08256472087498908 1 65 254
-0.04846007702371315 -0.028769283209133443 0.08209121379067195 0 64 254
-0.0478652381233601 -0.028741393627927346 0.08211741209290856 0 64 254
-0.047321093065831474 -0.02881658945379397 0.08270086732959579 25 82 245
-0.04671112934297052 -0.028757943701852706 0.08256080456825399 1 64 254
-0.046145581953120934 -0.02878961810545799 0.0829089926120283 0 64 254
-0.04555392969318828 -0.028768208524714064 0.08297022036504098 1 65 254
-0.04498392677634471 -0.028790822660083454 0.08326943060055117 5 68 252
-0.04447399223293729 -0.028935585213936438 0.08422894819832595 54 103 230
-0.043980690454975165 -0.029114170324951106 0.08537130306719873 241 175 61
-0.054651113230303604 -0.02889147925541651 0.08424939794067006 74 250 0
-0.054077171186393075 -0.028906083216480985 0.08450530694369422 0 254 0
-0.05337876127549951 -0.028667583052457604 0.08339299096853336 0 254 0
-0.052735124756247885 -0.028540464015994773 0.08288277675988406 0 254 0
-0.05214287135546777 -0.02851783202153123 0.08293739641441446 0 254 0
-0.051533363473002435 -0.028460113216337832 0.08280234452238756 0 254 0
-0.0509238555905371 -0.028402394411144432 0.08266729263036068 151 234 0
-0.05033160229581571 -0.02837976263235021 0.08272191345075179 157 152 163
-0.049670037185629304 -0.028216185990944068 0.08201461748489709 39 93 238
-0.049126428785243974 -0.028292473103582263 0.08260397197675728 162 230 0
-0.048534175384463855 -0.02826984110911872 0.08265859163128769 0 254 0
-0.04791133729915891 -0.028185015473795233 0.08237700620469067 242 188 0
-0.047337395255248375 -0.02819961943485971 0.08263291520771485 33 88 241
-0.04671008955225492 -0.028105708944997566 0.08230221906473321 4 67 253
-0.046155568239466704 -0.02815980476270283 0.08277161231923719 14 75 249
-0.045566501479106986 -0.02814365276870146 0.08286126142454367 2 66 253
-0.045025887116499325 -0.028226028226312264 0.08348352816413765 0 64 254
-0.044516751195283394 -0.028372414770163258 0.08445182469302952 8 70 251
-0.04401043060289524 -0.028524526256178535 0.08545106899436535 3 67 253
-0.043424646572159845 -0.028515049659045468 0.08557680382024765 55 103 230
-0.0540787061833193 -0.028259084263766835 0.08427502504053593 0 254 0
-0.05343840892299187 -0.02813875557592117 0.0838015179562188 0 254 0
-0.05276920238780216 -0.027959640175502218 0.08301022289234886 0 254 0
-0.05217755002181078 -0.02793823037908897 0.08307144947950085 0 254 0
-0.05158271112145772 -0.027910340797882873 0.08309764778173744 0 254 0
-0.050981151916119044 -0.027868785545729403 0.08304997248619143 0 254 0
-0.05034757177901552 -0.02776211605875144 0.08265030402383575 0 64 254
-0.04972785033537316 -0.02768362808213731 0.08240297857994877 0 64 254
-0.0491393470650139 -0.027668621939246085 0.08249882190318687 3 66 253
-0.04855084379465463 -0.02765361579635486 0.08259466522642497 19 78 247
-0.0479764460164072 -0.027667293026340793 0.08284556452599495 138 145 177
-0.04736162374340118 -0.027598767462738337 0.0826520936857058 0 64 254
-0.0467960763535516 -0.027630441866343624 0.08300028172948008 0 64 254
-0.04620757308319234 -0.0276154357234524 0.0830961250527182 1 64 254
-0.04565945803550807 -0.02768255861524128 0.08363593979145394 2 66 253
-0.04514034697312659 -0.027808660812308397 0.08449458362335308 20 79 247
-0.04463895715687453 -0.027970798980793448 0.08554802995477713 166 155 155
-0.04408235730521394 -0.02802066811111744 0.08599457467116256 0 254 0
-0.05468679628177682 -0.027663799666639906 0.08414733630148542 100 246 0
-0.054084974156861414 -0.027621709770236095 0.08409677083724895 0 254 0
-0.05343385975515883 -0.027479384536855663 0.08350435528779322 0 254 0
-0.05281102166985389 -0.027394558901532175 0.0832227698611962 0 254 0
-0.05221244929029964 -0.02735907732883739 0.08320792753485595 0 254 0
-0.05161062716538423 -0.02731698743243358 0.08315736207061948 0 254 0
-0.0510011192829189 -0.02725926862724018 0.0830223101785926 215 206 0
-0.050382761012055716 -0.027183552648427423 0.08278996954236138 250 177 35
-0.049768858268186514 -0.02711689693785057 0.08260660671439429 200 166 123
-0.04917979150782681 -0.027100744943849196 0.08269625581970078 0 254 0
-0.04859072474746709 -0.027084592949847823 0.08278590492500726 0 254 0
-0.04799532235711358 -0.02705555751753158 0.08280590900931224 0 254 0
-0.04740625559675387 -0.027039405523530204 0.08289555811461873 247 177 45
-0.04681718883639416 -0.027023253529528835 0.08298520721992522 0 254 0
-0.0461461976510562 -0.026840509061421106 0.0821742942179534 110 133 197
-0.045663962994881624 -0.027041599050563546 0.08343830548564912 126 140 186
-0.045166308142652885 -0.027211332229907802 0.0845328087676999 36 91 240
-0.04466283087859565 -0.0273692255947885 0.08556330862870612 25 82 245
-0.0440399927932907 -0.027284399959465012 0.0852817232021091 37 91 239
-0.05411474134975609 -0.027032120697140744 0.08417683405889562 0 254 0
-0.053490144386572826 -0.026943718401773835 0.08387591399834829 163 154 158
-0.052826437208338406 -0.026775785887062278 0.08314507114381209 222 202 0
-0.05228616806687726 -0.026858863348317642 0.08377113276000449 0 254 0
-0.05164909679475683 -0.026745094674252772 0.08333308766078543 0 254 0
-0.05107909387791326 -0.026767708809622162 0.08363229789629562 64 251 0
-0.05042788105371484 -0.026625183435110503 0.0830388004281046 3 67 253
-0.04981305888676754 -0.026556658087177377 0.08284533075367614 10 72 251
-0.049224555510349564 -0.02654165172861683 0.08294117291105355 42 95 237
-0.04863922233524976 -0.026533091941773473 0.08307186381079758 95 126 206
-0.04805388905409124 -0.02652453193926079 0.08320255354468091 89 123 210
-0.0474590502597969 -0.026496642573724017 0.08322875301277821 0 64 254
-0.0469024503020776 -0.026546511488378693 0.08367529656330293 2 66 253
-0.04632036676628024 -0.026544559809575034 0.0838417094350825 16 76 248
-0.04578757550727005 -0.026642843467747996 0.08454997239208131 235 174 75
-0.04528618579707671 -0.02680498185190237 0.08560341988936608 132 239 0
-0.04473807074939244 -0.026872104743691252 0.08614323462810182 0 254 0
-0.05474956789799792 -0.026491204395178183 0.08434304831111165 0 254 0
-0.054126729812692974 -0.026406378759854694 0.08406146288451463 0 254 0
-0.05349942410969951 -0.02631246826999255 0.08373076674153301 0 254 0
-0.052876586024394566 -0.026227642634669066 0.08344918131493599 165 229 0
-0.05228118363404106 -0.026198607202352824 0.08346918539924097 0 254 0
-0.05168261125448682 -0.026163125629658036 0.08345434307290073 0 254 0
-0.05106425298362364 -0.026087409650845283 0.08322200243666952 0 254 0
-0.0504624307526495 -0.02604531953877215 0.08317143580657234 0 254 0
-0.049888488814797696 -0.02605992371550595 0.08342734597545721 216 205 0
-0.049261183005745515 -0.025966013009974483 0.08309664866661488 44 96 236
-0.0486721162453858 -0.025949861015973113 0.08318629777192138 243 187 0
-0.0481128075478563 -0.025994221736132552 0.08360306524001178 47 98 234
-0.04748550184486284 -0.02590031124627041 0.08327236909703015 8 70 251
-0.04692131762779244 -0.025934757647677074 0.08363554194846021 2 66 253
-0.04638612785073967 -0.02602816394412295 0.08431743896559012 1 65 254
-0.045706400820425756 -0.02582765522526411 0.08341049634897657 5 68 252
-0.04497777976383319 -0.025527721007734434 0.08196608145409526 5 68 252
-0.044766268379231096 -0.02627932398029305 0.08620604427715861 5 68 252
-0.05417139496848499 -0.02584708454081381 0.0843052933936893 0 254 0
-0.05354201062056044 -0.025748947147901075 0.08395174754672842 0 254 0
-0.05291741365737718 -0.02566054485253417 0.0836508274861811 0 254 0
-0.05230744993451621 -0.025601899100592903 0.08351076472483931 0 254 0
-0.051733052156268784 -0.025615576330578836 0.0837616640244093 220 203 0
-0.05109598088414835 -0.02550180765651397 0.08332361892519023 19 78 248
-0.05049442167880966 -0.025460252404360496 0.08327594362964423 80 118 216
-0.04990908850370986 -0.02545169261751714 0.08340663452938826 0 254 0
-0.04931424960335681 -0.025423803036311043 0.08343283283162486 0 254 0
-0.04871612797337944 -0.025389238058236646 0.08342294541328563 0 254 0
-0.04815952801566013 -0.02543910697289132 0.08386948896381034 0 254 0
-0.0475646892213658 -0.025411217607354545 0.08389568843190764 117 137 192
-0.04697935594020728 -0.025402657604841866 0.08402637816579098 59 106 228
-0.04642275598248797 -0.02545252651949654 0.08447292171631571 104 131 201
-0.04573945254594307 -0.02524474521541555 0.08352666511083108 0 254 0
-0.045395841838874684 -0.025727725576789807 0.08631451344860053 0 254 0
-0.054808573368930844 -0.025310950706076456 0.08449736060706356 0 254 0
-0.054199065592524236 -0.02525323211655238 0.08436230988089738 0 254 0
-0.053563274873437004 -0.025142067433886705 0.08393834138384403 0 254 0
-0.052953767097030396 -0.025084348844362628 0.08380329065767783 0 254 0
-0.052317976377943165 -0.024973184161696957 0.08337932216062448 0 254 0
-0.051748892990236425 -0.02499766815009194 0.08368864040845672 0 254 0
-0.051139385107771086 -0.02493994934489854 0.08355358851642983 168 156 154
-0.05053756298285568 -0.024897859448494725 0.08350302305219336 47 98 234
-0.049948496116437244 -0.024881707238824033 0.08359267099163914 179 223 0
-0.04937455417858544 -0.024896311415557832 0.08384858116052402 24 82 245
-0.04875171609328049 -0.024811485780234344 0.083566995733927 6 69 252
-0.04816936963790641 -0.024808999457180347 0.08373051843701608 2 65 254
-0.047605185420836006 -0.02484344585858701 0.08409369128844614 52 101 232
-0.04701611855441757 -0.024827293648916313 0.08418333922789192 3 67 253
-0.04646579313686705 -0.02488992177635613 0.08469885626365142 1 65 254
-0.0459538656439775 -0.02503063168797106 0.0856364661728975 0 64 254
-0.04536808161324211 -0.02502115509083799 0.08576220099877982 3 66 253
-0.05423826946644287 -0.02468283243709086 0.0845461067247318 0 254 0
-0.053613672503259595 -0.024594430141723946 0.08424518666418448 0 254 0
-0.052989075540076334 -0.02450602784635704 0.08394426660363717 164 155 157
-0.05242352804416802 -0.024537702034293 0.08429245348155075 23 81 246
-0.05180380660052566 -0.02445921405767887 0.08404512803766379 18 77 248
-0.05120568497054829 -0.024424649079604472 0.08403524061932455 28 85 243
-0.05057630062262374 -0.024326511686691737 0.08368169477236367 163 154 158
-0.04997817899264637 -0.02429194670861734 0.08367180735402444 241 189 0
-0.04939284581754658 -0.02428338692177398 0.08380249825376847 0 64 254
-0.0487731243739042 -0.024204898945159852 0.0835551728098815 0 64 254
-0.04822500932621994 -0.024272021836948734 0.08409498754861724 1 65 254
-0.04763017042586688 -0.024244132255742637 0.08412118585085385 1 65 254
-0.04708205537818262 -0.02431125514753152 0.08466100058958959 36 90 240
-0.046562944315801144 -0.024437357344598634 0.08551964442148874 245 186 0
-0.054887677180173525 -0.024171566784916616 0.08487260583854667 0 254 0
-0.05426483909486858 -0.024086741149593128 0.08459102041194964 0 254 0
-0.05363753339187512 -0.023992830659730985 0.08426032426896801 0 254 0
-0.053035711160900986 -0.02395074054765785 0.08420975763887084 0 254 0
-0.05242620327843565 -0.02389302174246445 0.08407470574684395 0 254 0
-0.051816695395970315 -0.02383530293727105 0.08393965385481707 0 254 0
-0.05121487327105491 -0.02379321304086724 0.08388908839058058 0 254 0
-0.05060536538858957 -0.023735494235673837 0.0837540364985537 0 254 0
-0.04999585750612424 -0.02367777543048044 0.08361898460652681 0 254 0
-0.04937749923526106 -0.023602059451667688 0.0833866439702956 0 254 0
-0.04881331501819065 -0.023636505853074353 0.08374981682172566 0 254 0
-0.04822753098745526 -0.023627029255941283 0.08387555164760799 67 111 223
-0.04766334687644358 -0.023661475873017267 0.08423872566489875 13 74 249
-0.047108825457596634 -0.02371557147505321 0.08470811775354199 5 68 252
-0.04656821109498897 -0.023797946932664016 0.08533038449313599 1 65 254
-0.04605351207552464 -0.023933020973544824 0.08623752813040972 3 67 253
-0.053649699078939746 -0.02336744910588274 0.08414690124782698 69 112 222
-0.05306761554314239 -0.023365497427079083 0.08431331411960653 114 135 194
-0.05245765192634015 -0.02330685189080714 0.08417325252412544 0 254 0
-0.05185953029636278 -0.02327228691273274 0.0841633651057862 0 254 0
-0.0512579710910241 -0.02323073166057927 0.0841156898102402 51 101 232
-0.05063824964738173 -0.023152243683965137 0.08386836436635324 0 64 254
-0.05002342748043443 -0.02308371833603201 0.08367489469192478 0 63 254
-0.04942858858008138 -0.023055828754825914 0.08370109299416138 0 64 254
-0.048840085309722114 -0.02304082261193469 0.08379693631739948 0 64 254
-0.04830360013141478 -0.02313159472327623 0.08446459351186483 0 64 254
-0.04772920235316734 -0.02314527195326216 0.08471549281143481 1 65 254
-0.047172602395448036 -0.02319514086791683 0.08516203636195953 40 93 238
-0.04665349133306656 -0.023321243064983947 0.08602068019385868 64 109 225
-0.0543289882017966 -0.022916946991291317 0.08480187462042697 0 254 0
-0.05370615011649165 -0.02283212135596783 0.08452028919382995 0 254 0
-0.05309664223402631 -0.022774402550774425 0.08438523730180306 0 254 0
-0.05250123994973153 -0.022745367334127506 0.08440524255196875 116 136 193
-0.051905837559378026 -0.022716331901811264 0.08442524663627374 0 254 0
-0.051278531750325845 -0.0226224211962798 0.0840945493274314 218 204 0
-0.05067670962541043 -0.022580331299875987 0.08404398386319492 41 94 237
-0.05005387154010549 -0.022495505664552502 0.08376239843659791 9 71 251
-0.04946480477974578 -0.02247935367055113 0.0838520475419044 3 66 253
-0.04889086273583525 -0.022493957631615605 0.08410795654492856 3 66 253
-0.048336341423047026 -0.02254805344932087 0.08457734979943253 1 65 254
-0.04774727466268731 -0.022531901455319494 0.08466699890473901 2 65 254
-0.04720945547774988 -0.022619960877923326 0.08531999190324278 2 66 253
-0.04664527126067948 -0.02265440727932999 0.08568316475467286 1 65 254
-0.04612781651739024 -0.022783877584205723 0.08656001583321947 1 65 254
-0.05377289298655887 -0.02231772194143361 0.08500681109689413 107 132 199
-0.053129601794512496 -0.02219130512428466 0.08450039293070394 102 130 202
-0.05257300183679318 -0.022241174038939333 0.08494693648122865 0 254 0
-0.05197488020681581 -0.022206609060864937 0.08493704906288942 114 135 194
-0.05136005803986851 -0.022138083712931807 0.08474357938846097 4 68 253
-0.050716766741763404 -0.022011666680113534 0.08423716005641008 1 64 254
-0.050121927841410355 -0.021983777098907437 0.08426335835864668 1 64 254
-0.04955638045156077 -0.022015451502512724 0.08461154640242097 0 64 254
-0.048971047170402245 -0.022006891500000042 0.0847422361363043 4 67 253
-0.048396649392154815 -0.022020568729985975 0.08499313543587428 2 66 253
-0.04779509018681613 -0.0219790134778325 0.08494546014032828 18 77 248
-0.04726229892780594 -0.022077297136005463 0.08565372309732708 127 141 186
-0.046642577484163575 -0.02199880915939133 0.08540639765344013 0 254 0
-0.04619312483715704 -0.022266561026416123 0.08703076830437266 0 254 0
-0.053820553983126865 -0.021764519733743815 0.08528357367343457 163 230 0
-0.053184763370098365 -0.021653355266747467 0.08485960634224192 50 100 233
-0.05259569650367993 -0.02163720305707677 0.08494925428168769 137 145 178
-0.05200991257900326 -0.021627726675613024 0.08507499027343071 0 254 0
-0.05141451018864975 -0.021598691243296782 0.0850949943577357 87 122 211
-0.05080500230618441 -0.02154097243810338 0.08495994246570882 39 93 238
-0.0502127489054043 -0.021518340443639837 0.08501456212023921 14 74 249
-0.049620495610682915 -0.02149570866484562 0.08506918294063032 37 91 239
-0.049025093220329406 -0.021466673232529376 0.0850891870249353 73 114 220
-0.0484296908299759 -0.021437637800213134 0.08510919110924028 16 76 249
-0.0478439067992405 -0.021428161203080064 0.0852349259351226 3 67 253
-0.047248504408887 -0.021399125770763822 0.08525493001942758 1 64 254
-0.04672557014162385 -0.021517453520095455 0.08607154690459251 2 66 253
-0.04618775095668641 -0.021605512942699287 0.08672453990309628 2 66 253
-0.05327514672973849 -0.021187028544186137 0.08560599859670029 23 81 246
-0.052634849469411056 -0.021066699856340475 0.08513249151238317 82 119 214
-0.05209836429110372 -0.021157471967682015 0.08580014870684852 22 80 246
-0.05150671203117107 -0.02113606238693809 0.08586137645986121 103 130 201
-0.0509246284953737 -0.02113411070813443 0.08602778933164076 126 141 186
-0.0502323049764726 -0.020907987159518176 0.08498237860482204 211 208 0
-0.04971319402014985 -0.02103408957225461 0.08584102360258188 188 220 0
-0.04909837174714383 -0.02096556400865216 0.08564755276229272 3 66 253
-0.04849681254180514 -0.02092400875649869 0.08559987746674672 4 68 253
-0.04789869091182777 -0.02088944377842429 0.08558999004840749 3 67 253
-0.047316607482089136 -0.020887492315289954 0.08575640408604775 4 67 253
-0.04678381611702022 -0.020985775757793593 0.08646466587718588 29 86 243
-0.04620173268728158 -0.02098382429465926 0.08663107991482613 191 163 133
-0.04564066500581504 -0.021024608139105956 0.08702851158310554 55 103 230
-0.05270722617889556 -0.020563756796214513 0.08568094393615645 0 254 0
-0.05213814268513009 -0.020588240568940173 0.085990261018128 0 254 0
-0.051549075924770385 -0.020572088574938804 0.08607991012343448 180 160 144
-0.05095682263004899 -0.02054945679614458 0.08613453094382559 53 102 231
-0.05038773913628352 -0.02057394056887024 0.08644384802579712 21 80 247
-0.04975194852325503 -0.020462776101873893 0.08601988069460446 0 254 0
-0.04914244064078968 -0.020405057296680493 0.08588482880257757 0 254 0
-0.048528537896920486 -0.020338401586103637 0.08570146597461048 0 254 0
-0.047936284602199085 -0.020315769807309415 0.08575608679500159 212 169 110
-0.047340882211845584 -0.020286734374993173 0.08577609087930657 49 99 233
-0.04677179871808012 -0.020311218147718836 0.08608540796127812 26 84 244
-0.0461827319577204 -0.020295066153717463 0.0861750570665846 82 120 214
-0.0455873295673669 -0.02026603072140122 0.08619506115088958 75 115 219
-0.04499507627264551 -0.020243398942607002 0.08624968197128069 235 193 0
-0.04440929224191011 -0.02023392234547393 0.08637541679716301 245 176 52
-0.043874102464857345 -0.020327328641919808 0.08705731381429291 27 84 244
-0.043272280233883215 -0.020285238529846674 0.08700674718419574 222 202 0
-0.04092710407138607 -0.020243183741897174 0.08748726115704278 176 158 147
-0.04033485077666468 -0.020220551963102955 0.08754188197743389 0 254 0
-0.03973627829105172 -0.020185070174738848 0.08752703848523294 0 254 0
-0.03912677040858638 -0.020127351369545445 0.08739198659320604 0 254 0
-0.03856258619151598 -0.02016179777095211 0.0877551594446361 189 162 135
-0.037988644253664175 -0.020176401947685906 0.08801106961352098 0 254 0
-0.03680519432728831 -0.020133287103556982 0.08813192672451826 0 254 0
-0.036216127566928595 -0.020117135109555612 0.08822157582982475 0 254 0
-0.03437732311712456 -0.01992307278820425 0.08770340744619633 0 254 0
-0.0337544850318196 -0.01983824715288076 0.0874218220195993 0 254 0
-0.033152662906904204 -0.019796157256476953 0.08737125655536285 161 230 0
-0.03260233738329496 -0.019858785168247448 0.08788677242526163 157 152 163
-0.03141142071063416 -0.01980048677247978 0.08792555061082664 133 143 181
-0.05163240818226481 -0.02009142350881339 0.08674879246056787 39 253 0
-0.051047074901106285 -0.02008286350630071 0.08687948219445119 0 254 0
-0.050448953271128916 -0.020048298528226313 0.08686959477611196 0 254 0
-0.04983898965432668 -0.01998965299195437 0.08672953318063087 0 254 0
-0.049205409411164434 -0.019882983289307085 0.08632986355241447 0 254 0
-0.048623325981425804 -0.019881031826172756 0.08649627759005474 163 154 158
-0.047986254709305357 -0.019767263152107882 0.08605823249083568 173 226 0
-0.04733504188510694 -0.019624737777596227 0.08546473502264466 95 126 206
-0.04677397430969912 -0.019665521837712245 0.08586216785678479 41 94 237
-0.04617241510436044 -0.019623966585558775 0.08581449256123878 34 89 241
-0.0455624514875582 -0.019565321049286835 0.08567443096575769 38 92 239
-0.04497079912156683 -0.019543911252873587 0.08573565755290968 235 193 0
-0.04438871569182819 -0.01954195978973925 0.08590207159054994 124 140 187
-0.04380338241066967 -0.01953339978722657 0.08603276132443327 0 254 0
-0.043178785447486406 -0.019444997491859663 0.08573184126388596 0 254 0
-0.0426828276408999 -0.019618181596032354 0.08684499948309538 0 254 0
-0.04204924739773767 -0.019511511893385073 0.08644532985487897 0 254 0
-0.04148370000788808 -0.019543186296990353 0.08679351789865326 1 65 254
-0.04084662873576764 -0.019429417622925486 0.0863554727994342 1 65 254
-0.04025497647583499 -0.01940800804218156 0.08641670055244689 3 66 253
-0.03965341727049631 -0.01936645279002809 0.08636902525690089 22 81 246
-0.039058578370143246 -0.019338563208821997 0.0863952235591375 47 98 234
-0.03847007509978399 -0.01932355706593077 0.0864910668823756 246 185 0
-0.03788799156398663 -0.019321605387127114 0.08665747975415515 21 80 246
-0.037317988647143065 -0.019344219522496504 0.08695668998966534 2 66 253
-0.0366982672035007 -0.019265731545882372 0.08670936454577836 24 82 245
-0.036088303480639745 -0.019207085793941106 0.08656930178443657 33 88 241
-0.035555512221629545 -0.019305369452114064 0.08727756474143539 95 126 206
-0.03490679633796956 -0.01916792158046072 0.08671151513184856 150 150 168
-0.034305237132630874 -0.019126366328307248 0.08666383983630256 45 97 235
-0.03371990395753107 -0.019117806541463892 0.0867945307360466 90 124 209
-0.03315435656768149 -0.019149480945069176 0.08714271877982091 0 254 0
-0.03258880907177318 -0.01918115513300514 0.08749090565773449 141 146 175
-0.03202326168192359 -0.01921282953661042 0.08783909370150879 59 106 228
-0.03143475841156433 -0.019197823393719195 0.08793493702474689 41 94 237
-0.030864755494720765 -0.019220437529088585 0.08823414726025706 51 101 232
-0.030303687813254224 -0.019261221373535285 0.08863157892853646 215 206 0
-0.050469879090617294 -0.01944073061340402 0.08685246835171433 0 254 0
-0.049874476700263785 -0.019411695181087776 0.08687247243601931 0 254 0
-0.04924717099727033 -0.019317784691225637 0.08654177629303768 0 254 0
-0.04863766311480499 -0.01926006588603224 0.08640672440101078 0 254 0
-0.04802376037093578 -0.01919341017545538 0.0862233615730437 0 254 0
-0.04740985773312531 -0.019126754680547843 0.0860399999109373 0 254 0
-0.04678701964782036 -0.019041929045224358 0.0857584144843403 0 254 0
-0.0461597139448269 -0.01894801855536222 0.08542771834135868 0 254 0
-0.04555020606236156 -0.018890299750168815 0.08529266644933178 0 254 0
-0.04493630331849237 -0.018823644039591962 0.0851093036213647 231 173 82
-0.044334481193576955 -0.018781554143188148 0.08505873815712822 32 87 242
-0.04374541432715852 -0.018765401933517452 0.08514838609657399 11 73 250
-0.04315963029642313 -0.018755925336384385 0.08527412092245631 12 73 250
-0.04256737700170173 -0.018733293557590167 0.08532874174284742 6 69 252
-0.04196880451608877 -0.018697811769226053 0.08531389825064646 6 69 252
-0.04137023213653453 -0.018662330196531265 0.08529905592430623 3 66 253
-0.04078444810579913 -0.018652853599398195 0.08542479075018854 6 69 252
-0.04022026388872873 -0.01868730000080486 0.0857879636016186 2 66 253
-0.03962169150917449 -0.018651818428110076 0.08577312127527835 4 67 253
-0.03902628911882098 -0.018622782995793834 0.08579312535958333 37 91 239
-0.03843722235846127 -0.018606631001792454 0.08588277446488982 6 69 252
-0.037851438327725875 -0.018597154404659387 0.08600850929077214 3 66 253
-0.03725603593737237 -0.018568118972343145 0.08602851337507712 2 66 253
-0.036670251906636975 -0.01855864237521008 0.08615424820095943 2 65 254
-0.03608118514627726 -0.018542490381208705 0.08624389730626593 2 66 253
-0.035467282402408054 -0.018475834670631845 0.08606053447829883 7 70 252
-0.034903098185337655 -0.01851028107203851 0.08642370732972889 242 176 60
-0.03431403142497795 -0.018494129078037137 0.08651335643503537 42 94 237
-0.033740089381067415 -0.018508733039101614 0.08676926543805955 63 108 226
-0.03318556806827919 -0.01856282885680688 0.08723865869256352 242 188 0
-0.032611626024368665 -0.018577432817871355 0.08749456769558768 0 254 0
-0.032057104711580436 -0.018631528635576617 0.08796396095009165 9 254 0
-0.03148316266766991 -0.018646132596641093 0.08821986995311581 94 125 207
-0.03091407927996316 -0.018670616585036076 0.08852918820094806 132 143 182
-0.030340137236052635 -0.018685220546100556 0.08878509720397224 128 240 0
-0.049921380013307745 -0.018856952231758442 0.08714090610367523 0 254 0
-0.04930165856966537 -0.01877846425514431 0.08689358065978825 0 254 0
-0.04868683640271808 -0.018709938907211184 0.0867001109853598 243 187 0
-0.04807201412971205 -0.018641413343608727 0.08650664014507065 247 184 0
-0.04746205051290982 -0.018582767807336784 0.08636657854958955 0 254 0
-0.0468061090605032 -0.01843062681608394 0.0857211011818162 0 254 0
-0.04620798743052582 -0.018396061838009542 0.08571121376347696 0 254 0
-0.045547016037076206 -0.018233692513470443 0.08501044428585512 7 70 252
-0.044990416185415626 -0.018283561643794438 0.08545698900224054 3 67 253
-0.04431283101103228 -0.018087408366902362 0.0845735909425871 2 66 253
-0.04369310956738992 -0.01800892039028823 0.08432626549870012 4 67 253
-0.04314499451970565 -0.018076043282077115 0.08486608023743587 8 71 251
-0.042550155619352596 -0.01804815370087102 0.08489227853967246 6 69 252
-0.0419648224442528 -0.018039593914027662 0.08502296943941651 15 75 249
-0.041373170078261426 -0.01801818411761441 0.08508419602656848 72 114 221
-0.040778331283967094 -0.01799029475207764 0.08511039549466579 15 75 249
-0.04027130656771051 -0.018140974409461212 0.08610189964677369 13 74 250
-0.03961769628605675 -0.017993573829915697 0.08548204789732082 56 104 229
-0.03902604392006537 -0.01797216403350245 0.08554327448447281 44 96 236
-0.03844071074496557 -0.01796360424665909 0.08567396538421684 8 70 251
-0.037858627209168216 -0.01796165256785543 0.0858403782559964 39 93 238
-0.03726697494923556 -0.017940242987111506 0.08590160600900909 171 157 151
-0.03666885331925819 -0.017905678009037113 0.08589171859066985 1 64 254
-0.036086769783460836 -0.017903726330233453 0.08605813146244941 4 67 253
-0.03549826651310157 -0.017888720187342225 0.08615397478568751 7 70 251
-0.03493719883163503 -0.017929504031788925 0.08655140645396692 27 84 244
-0.0343551154018964 -0.017927552568654588 0.08671782049160717 6 69 252
-0.033785112378994106 -0.01795016648835466 0.08701702956125665 1 64 254
