ply
format ascii 1.0
element vertex 767
property float x
property float y
property float z
end_header
0.015554280662405646 0.00013506022613483937 0.08098959309623138
0.015030038011055846 0.0002980292714330531 0.08034541952518512
0.014481668278189981 0.00038501068057300407 0.08066106080816729
0.01393677402114795 0.0004829376431662591 0.08083844635306643
0.018719017030236217 -0.0009691711798165328 0.079603075588967
0.01763789169062033 -0.0007460326493240778 0.07961320955643093
0.017097652604492544 -0.0006334442596184556 0.07960540378217179
0.016561911953845952 -0.0005066880799128089 0.07941864191451509
0.016019986216462497 -0.00039941178613332046 0.07947793425045462
0.015469909933307976 -0.0003178055772872987 0.07986147038989982
0.01491479369787136 -0.00025207266168764814 0.08044550516383349
0.01435902634922576 -0.00018838998992122893 0.08105543730103189
0.013823285691986723 -6.163383097844942e-05 0.08086867569563494
0.02292333502615458 -0.0024273810051029625 0.07985908938365097
0.020192531445936773 -0.001957691439476163 0.08099794803288451
0.019108288221585275 -0.0017443726643993577 0.08113211722865864
0.018569579044687666 -0.00162696583664281 0.08106344883222127
0.018076143980435395 -0.0013669685186862707 0.0791936923986384
0.01753124971680092 -0.0012690415768558793 0.07937107820579731
0.01699254053990331 -0.0011516347490993315 0.07930240980935994
0.016454727566652817 -0.0010314053344405785 0.07919808877229952
0.01591351076786028 -0.000921896243698447 0.07922917821831876
0.015373945746277531 -0.000807184892585357 0.07919455690826234
0.014827905702128457 -0.0007128665781955101 0.07941752398598538
0.014254217247141727 -0.0007056263011840317 0.08074039091875385
0.024407319540186365 -0.0033829257658237882 0.08083744192799953
0.02335245048735243 -0.003077093250086446 0.07980305218732867
0.022792710520382436 -0.003025922743496584 0.08057102756363185
0.02227453479933768 -0.002843845945099321 0.07968550027064271
0.021720104072934506 -0.0027759540237587838 0.08024226422583813
0.02116371181659569 -0.002714239926758094 0.08087706147412684
0.020636869428161717 -0.002559460464625877 0.08033633076187613
0.020096630315664145 -0.0024468721579717165 0.08032852603665602
0.019556391216351464 -0.002334283809791825 0.0803207207869164
0.019047374856908585 -0.0021233596683011367 0.07907081712860212
0.018493672899177617 -0.0020531724953004194 0.0795985893165234
0.01796971958374458 -0.001889292188625824 0.07894290542693196
0.0174234397986593 -0.0017957289365799246 0.07917540984303624
0.01688884492852731 -0.0016653641294337336 0.07894306670481538
0.016348605842399524 -0.0015527757397281131 0.07893526093055625
0.015806680105016065 -0.001445499445948623 0.07899455326649579
0.015267261963157747 -0.001330325498206178 0.07895408880901775
0.014717185680003228 -0.0012487192893601562 0.07933762494846296
0.014140557323171378 -0.0012507382119385027 0.08077744662057892
0.023764081909213693 -0.003781871171985012 0.08044256672859558
0.023226268949148098 -0.00366164171580053 0.08033824516701563
0.022700750270303643 -0.0035026915098641427 0.07974483433258416
0.02215953349788089 -0.0033931823360705497 0.07977592272956438
0.021628974866754348 -0.0032501054233805334 0.07938301052962135
0.02108775806796181 -0.0031405963326384 0.07941409997564061
0.020542864332799105 -0.0030426694564195406 0.07959148526275087
0.019996824275465137 -0.002948351183555426 0.07981445286499342
0.01946246911989956 -0.0028172313971167456 0.07957257343743036
0.01894085883932374 -0.0026459717191121383 0.07882367928251549
0.018400463050725145 -0.0025338768627045337 0.07882210742271827
0.017862650064289755 -0.002413647489571508 0.07871778691017735
0.017322254262506265 -0.0023015526746896324 0.07871621557489965
0.016782689240923517 -0.002186841323576544 0.07868159426484321
0.01624229342595513 -0.0020747465502203976 0.07868002345408502
0.015700250171607234 -0.0019678403752701225 0.07874399083248136
0.015155355907972758 -0.0018699134334397311 0.07892137663964027
0.01461246539230603 -0.00176567570188285 0.07901904964221185
0.01405076468952129 -0.0017206800860474387 0.07986502159412438
0.024720277424236825 -0.004585616083699919 0.08091782597869875
0.023634763789155723 -0.004376298458024069 0.08110253446577333
0.023127029502481612 -0.004161336437624468 0.07980162757864563
0.02259814106786243 -0.004012999253119041 0.07934227186886139
0.02205790196854975 -0.0039004109049391496 0.07933446661912177
0.021519310308616577 -0.0037826339583533868 0.0792611231802276
0.020981565883632453 -0.0036621886514256914 0.07915407516619725
0.02043528664020384 -0.003568625423465593 0.07938657853773336
0.01989586852471531 -0.00345345139267169 0.07934611303121629
0.01937001212798383 -0.0032955648267769845 0.07876613723969836
0.018832267702999703 -0.0031751195198492874 0.07865908922566799
0.018294523291200473 -0.0030546741713958613 0.07855204068711812
0.017755931657637086 -0.0029368971417586386 0.07847869619918493
0.017213109703421617 -0.0028324434764070844 0.07857364170026707
0.016672870604108936 -0.002719855128227193 0.07856583645052745
0.01613180072459551 -0.002609883316278514 0.07859108117556657
0.01559073083189719 -0.002499911545855568 0.07861632642512517
0.015045717759178618 -0.0024023587923759065 0.07879843867765357
0.014494547551699464 -0.002324197890275343 0.07922549315240177
0.01393935414810272 -0.002258707582730274 0.07981259269275671
0.02407542317923025 -0.004989653182535421 0.08058725840232331
0.023548490222680154 -0.004835157234000098 0.08005011015390422
0.023031239356058213 -0.004650167613289894 0.0791277904393811
0.022489196114895207 -0.004543261396813888 0.07919175729325795
0.021954840946144735 -0.004412141651900938 0.0789498783902144
0.021415275924561987 -0.004297430300787849 0.07891525708015795
0.020874880109593603 -0.004185335527431703 0.07891368626939978
0.02033448483628188 -0.004073240778161358 0.0789121144140734
0.019788444778947912 -0.003978922505297243 0.07913508201631597
0.019262926100103463 -0.003819972299360855 0.07854167118188449
0.01872421692320585 -0.0037025654716043074 0.07847300278544711
0.018196503407718057 -0.003550527887795602 0.07796690661696573
0.017646969050096165 -0.0034672148884056135 0.078328883955215
0.017108259873198556 -0.0033498080606490658 0.07826021555877766
0.01655251831777177 -0.0032860445858340177 0.07886912671985354
0.016020711564979723 -0.0031468986232988227 0.07852586711096717
0.01548031576319623 -0.003034803808416948 0.07852429577568945
0.01493827249566344 -0.002927897674992402 0.07858826367860532
0.01437292802559981 -0.00289437851034512 0.07957919656608442
0.024508503997440857 -0.005626876564298184 0.08037347196120333
0.023965682043225384 -0.0055224228989466315 0.08046841746228545
0.023451084056480775 -0.005329078052257413 0.07944056127378475
0.022901007773326258 -0.005247471843411393 0.07982409741322995
0.02238357405858776 -0.0050630581015212875 0.07890905173537137
0.021844155943099228 -0.004947884070727383 0.0788685862288543
0.021310722675355203 -0.004813860805264953 0.07859003239664866
0.020767900734324628 -0.00470940709838767 0.07868497737321128
0.020228483134122975 -0.004594233174731025 0.07864451187116507
0.01968741324142466 -0.004484261404308079 0.07866975712072369
0.019158524793620586 -0.004335924261328382 0.07821040193545897
0.018617454914107157 -0.004225952449379703 0.07823564666049808
0.018078863267358882 -0.0041081754612682115 0.07816230269708441
0.0175325834822736 -0.004014612209222313 0.07839480711318868
0.01699483909684416 -0.003894166777717427 0.07828775752559979
0.01645909844619757 -0.0037674105980117795 0.07810099565794307
0.015910270284708546 -0.0036818734390109357 0.07843487920633163
0.015359100090414284 -0.003603712495384645 0.07886193315656029
0.014827999560124896 -0.003462342290187135 0.07849057870877418
0.014274297562839246 -0.003392155241763609 0.07901835247025402
0.013707007743732713 -0.0033647625073441635 0.0800866698190659
0.024382720853070257 -0.00621017046998685 0.0808928118196638
0.02386039733562792 -0.006041157126332784 0.08017229154803182
0.023336762435396407 -0.005876273973284851 0.0795039405121
0.02279719741381366 -0.005761562622171763 0.07946931920204357
0.022272329725948916 -0.005600562124854962 0.0788500107409699
0.02173670788438642 -0.0054734317567985856 0.07865852242794369
0.021196312056233138 -0.005361337024968169 0.07865695214170501
0.020660690227855542 -0.0052342066153860615 0.0784654633041593
0.02012633561394663 -0.005103086853033184 0.07822358283202806
0.019587626423864125 -0.004985680066802368 0.07815491496011022
0.01904806140228138 -0.0048709687156892785 0.07812029365005378
0.018509352225383767 -0.004753561887932731 0.07805162525361642
0.017967308944666083 -0.004646655796033914 0.0781155936810518
0.01742859976776847 -0.004529248968277367 0.07804692528461443
0.016883705504133997 -0.004431322026446975 0.07822431109177334
0.01634414048255125 -0.004316610675333886 0.0781896897817169
0.015798100425217277 -0.004222292402469769 0.07841265738395947
0.015253206161582801 -0.004124365460639381 0.07859004319111837
0.014710315672285859 -0.0040201276460310395 0.07868771514465091
0.014154574116859072 -0.003956364171215991 0.0792966263057268
0.013592873414074332 -0.0039113685553805785 0.08014259825763934
0.024828110811878076 -0.0068086263025002895 0.08018934497219639
0.024280553753325617 -0.006719085813997678 0.08047266169200984
0.023759226987535652 -0.006546933208226372 0.07971248879391661
0.023228126457246263 -0.006405563003028861 0.07934113434613049
0.02269586110745466 -0.006267861388425649 0.07901611857509136
0.02216476057716527 -0.00612649118322814 0.07864476412730524
0.02162452146466769 -0.006013902876573977 0.07863695940208514
0.021091088210108563 -0.005879879569585818 0.07835840504535997
0.02055167008143514 -0.005764705580317643 0.07831794006336243
0.020013926184922787 -0.005644260339001477 0.07821089152928341
0.019475334551359403 -0.005526483309364258 0.07813754704135023
0.018944233994700226 -0.0053851131872182075 0.07776619364260315
0.018395405833211205 -0.005299576028217364 0.0781000771909917
0.01786856290312057 -0.005144796541999346 0.07755934752330916
0.017317392735196092 -0.005066635515321593 0.07798640042449881
0.01677237962292284 -0.00496908288641912 0.07816851425058574
0.016232140536795052 -0.004856494496713499 0.07816070847632661
0.015690214799411593 -0.0047492182029340085 0.07822000081226615
0.015142657740859138 -0.004659677714431399 0.07850331753207959
0.014595100695491576 -0.004570137184403059 0.07878663372737352
0.01403810066825713 -0.004510337257440681 0.07944560922732705
0.01349501471592685 -0.004406714619734192 0.07955105193638919
0.012935990082221599 -0.004353291176202763 0.08029057003080625
0.02471843524435342 -0.00734118951145748 0.0800678955965995
0.024170065640309275 -0.007254208129101845 0.0803835368806994
0.02364582299555192 -0.007091239063040769 0.07973936304739335
0.0231221881085053 -0.006926355868467107 0.07907101148694202
0.022580144854157408 -0.0068194496935168325 0.07913497886533837
0.022055902196215157 -0.006656480668981482 0.07849080555655186
0.021517193019317545 -0.0065390738412249355 0.0784221371601145
0.020978483842419935 -0.006421667013468388 0.07835346876367713
0.02044286200085744 -0.006294536645412011 0.07816198045065093
0.019905049556078722 -0.006174307296364788 0.07805765889354184
0.019363832757286186 -0.006064798205622657 0.0780887483395611
0.018828210915723693 -0.00593766783756628 0.0778972600265349
0.018287815127125094 -0.0058255729811586745 0.07789568816673767
0.01774492459827347 -0.005721335291127522 0.07799336169382876
0.017200030347823886 -0.005623408307771402 0.07817074697646814
0.01665713984534205 -0.00551917053468879 0.0782684194545202
0.01611424935604511 -0.005414932720080449 0.07836609140805276
0.015579894187294637 -0.005283812975167499 0.07812421250500921
0.015013857272943073 -0.005252474658794951 0.07914269210849258
0.014473461484344474 -0.005140379802387345 0.07914112024869537
0.01391771992891769 -0.005076616327572296 0.07975003140977124
0.02514146065553376 -0.00801008232490712 0.08025413186719349
0.024605719991702274 -0.007883326186727203 0.0800673705240563
0.024077866571299227 -0.007731729232436818 0.07956684003217192
0.02353927491136605 -0.0076139522858510575 0.07949349659327776
0.023015321595933013 -0.0074500719791764595 0.0788378127036863
0.022479580945286425 -0.007323315799470814 0.07865105083602959
0.021943840294639833 -0.007196559619765165 0.07846428896837288
0.0214044221791513 -0.007081385588971261 0.07842382346185581
0.020868681515319818 -0.006954629450791344 0.07823706211871859
0.020330937103520588 -0.006834184102337917 0.07813001358016873
0.019803084198404416 -0.006682587255184793 0.0776294830927552
0.01924938221430366 -0.006612400165235538 0.07815725632971553
0.018710790541185594 -0.006494623260175506 0.07808391341534089
0.01817735728662646 -0.006360599953187347 0.07780535905861573
0.01763234421390789 -0.006263047199707686 0.07798747131114411
0.017092926098419357 -0.006147873168913781 0.07794700580462705
0.01655185620572104 -0.006037901398490832 0.07797225105418568
0.01601161708003857 -0.0059253131333624 0.0779644468534851
0.01546154079688405 -0.005843706924516379 0.07834798299293029
0.014901082411384015 -0.005794799071888849 0.07914453838868664
0.014353525366016452 -0.005705258541860507 0.07942785458398056
0.013829572050583416 -0.005541378235185911 0.07877217069438912
0.013277491561017067 -0.005466083827425308 0.07923543275029186
0.024498344410354388 -0.008408645605861999 0.07985442343935964
0.023966537657562337 -0.008269499643326805 0.07951116383047328
0.023424494376844653 -0.00816259355142799 0.07957513225790865
0.02290217085940232 -0.00799358020777392 0.07885461198627668
0.022366549017839826 -0.007866449839717545 0.07866312367325047
0.02183474226504778 -0.00772730387718235 0.0783198640643641
0.021296929291797287 -0.007607074462523596 0.07821554302730367
0.020761307463419688 -0.007479944052941489 0.07802405418975794
0.02021410580369775 -0.00738928423839361 0.07829323248598528
0.01968229955300769 -0.0072501384245214065 0.07794997340608928
0.01914273453142494 -0.007135427073408318 0.07791535209603286
0.01860711268986245 -0.007008296705351942 0.07772386378300665
0.0180675476682797 -0.0068935853542388525 0.07768924247295021
0.017515801201802707 -0.00681723937568251 0.07813922159771712
0.01698017936024021 -0.006690109007626134 0.07794773328469091
0.01643728887094327 -0.006585871193017793 0.07804540523822345
0.015892394607308794 -0.006487944251187402 0.07822279104538236
0.015339613139800562 -0.00641485800089029 0.0787139444277299
0.014791243535756417 -0.006327876618534657 0.07902958571182978
0.014227315242023239 -0.006289897216781226 0.07996418048248602
0.013670633636582764 -0.0062290944226826486 0.08061048857383943
0.024928465338419848 -0.009055191140220879 0.07975838690917524
0.024387395472091317 -0.008945219286746471 0.07978363110969483
0.023853962191162398 -0.008811196062809772 0.07950507780200872
0.02332507374335832 -0.008662858919830077 0.079045722616744
0.022792808433121398 -0.008525157180649673 0.07872070527214631
0.02225937517856227 -0.008391133873661517 0.07844215091542116
0.021721630753578143 -0.00827068856673382 0.07833510290139081
0.021183886368148698 -0.008150243135228934 0.0782280533138019
0.02064614194316457 -0.008029797828301237 0.07812100529977155
0.020107550283231402 -0.007912020881715474 0.07804766186087739
0.019568959164954894 -0.007794243959215514 0.07797431737741504
0.01903121473997077 -0.007673798652287819 0.0778672693633847
0.018489289002587315 -0.007566522358508328 0.07792656169932426
0.01793636760379404 -0.007493876820780996 0.07842328180730782
0.017411474244939763 -0.007332957174060008 0.07780499458573412
0.01687040435224144 -0.007222985403637059 0.07783023983529275
0.01632847862804288 -0.007115709068331839 0.07788953164671278
0.015786552890659424 -0.007008432774552349 0.07794882398265233
0.015245482997961102 -0.0068984610041294 0.07797406923221097
0.014676560780412433 -0.0068762099292998015 0.07910733153972112
0.014107638536493973 -0.006853958937521661 0.08024059489627033
0.013569046876560801 -0.0067361819909359 0.08016725145737617
0.02427557125460866 -0.009484549653200048 0.0797476590081793
0.02374501262348211 -0.009341472740510032 0.07935474680823629
0.023213205857505165 -0.009202326819500568 0.07901148772386943
0.02267449668060756 -0.009084919991744019 0.07894281932743206
0.02214393804948101 -0.008941843079054004 0.07854990712748906
0.02161213129668896 -0.00880269711651881 0.07820664751860269
0.021067237033054485 -0.008704770174688419 0.07838403332576159
0.020531615191491992 -0.008577639806632042 0.07819254501273538
0.019995993363114393 -0.008450509397049936 0.07800105617518967
0.019460372036838775 -0.00832337913613082 0.07780956786663433
0.018921662859941166 -0.008205972308374275 0.07774089947019697
0.01837676859630669 -0.008108045366543883 0.07791828527735588
0.017841146754744193 -0.007980914998487507 0.07772679696432966
0.0172991035003963 -0.007874008823537232 0.07779076434272601
0.016763481672018698 -0.007746878413955124 0.0775992755051803
0.016207740103407017 -0.007683114980665805 0.0782081871907757
0.015660538483239766 -0.007592455041540736 0.0784773639134445
0.015113336823517828 -0.007501795226992856 0.07874654220967182
0.014552413156276736 -0.007454352775842286 0.07956160737467062
0.014030802875700918 -0.007283093097837679 0.07881271321975575
0.024164697351580035 -0.010020887011156544 0.0796738816379421
0.023636843904807196 -0.009869290139917618 0.07917335219509676
0.023103410650248065 -0.009735266832929461 0.07889479783837161
0.02257114530045646 -0.009597565218326247 0.07856978206733246
0.022033400915027018 -0.009477119786821362 0.07846273247974356
0.021494809241908948 -0.00935934288176133 0.07838938956536892
0.02096021438496185 -0.009228978033089408 0.07815704590262855
0.020421622725028676 -0.009111201086503647 0.07808370246373439
0.019887027854896686 -0.008980836279357456 0.07785135932551353
0.01934595849067014 -0.008870864574546038 0.0778766040550235
0.018807366843921862 -0.008753087586434548 0.07780326009160982
0.01826712773142429 -0.008640499279780386 0.07779545536638972
0.01772938333280995 -0.008520053889801229 0.07768840630332033
0.017184370233721588 -0.008422501219373029 0.07787051960488775
0.01664662583510725 -0.008302055829393872 0.07776347054181837
0.01610161273601889 -0.008204503158965669 0.07794558384338579
0.0155553329773034 -0.008110939823868311 0.07817808721045104
0.015004162809378926 -0.00803277879719056 0.07860514011164067
0.014438473567509722 -0.008000345488850372 0.07960978865997502
0.02403339935480576 -0.01062154990458839 0.0804126125371213
0.023521686664665812 -0.010419117837119086 0.07926997390685356
0.02299112803353926 -0.010276040924429072 0.07887706170691054
0.02245677290434347 -0.010144921054938931 0.07863518123030845
0.02192115106278098 -0.010017790686882556 0.07844369291728226
0.021385529221218485 -0.00989066031882618 0.07825220460425605
0.020849907379655988 -0.009763529950769803 0.07806071629122986
0.020312094419590393 -0.00964330049458532 0.0779563947296499
0.019774281459524798 -0.009523071038400836 0.07785207316806995
0.01923471694004403 -0.009408359835950736 0.07781745238700388
0.018700361784478453 -0.009277240049512058 0.07757557295944084
0.018159144985685917 -0.009167730958769925 0.0776066624054601
0.017616254496388976 -0.009063493144161584 0.07770433435899263
0.01707503769759644 -0.008953984053419451 0.07773542380501189
0.016527836064244288 -0.008863324155820113 0.0780046010522002
0.015980634404522354 -0.008772664341272232 0.07827377934842752
0.015417433204979783 -0.0087323949616263 0.07917944896578831
0.014869063614120532 -0.008645413537744936 0.07949508972536867
0.024468005388424106 -0.011253969631460017 0.08013815020277121
0.02393226473118507 -0.011127213472517234 0.07995138859737425
0.023410096004403847 -0.010957712616795965 0.07922471046661035
0.022883253074313208 -0.010802933130577947 0.07868398079892781
0.02234751242366662 -0.010676176950872298 0.0784972189312711
0.021809768025052283 -0.010555731560893143 0.07839016986820171
0.021274027374405688 -0.010428975381187497 0.078203408000545
0.02074292681774651 -0.010287605259041446 0.07783205460179791
0.020200104863531042 -0.010183151593689892 0.07792700010288003
0.01965817913933248 -0.010075875258384673 0.07798629191430008
0.019123584784487366 -0.009945510558375743 0.07775394878055007
0.018584166642629046 -0.009830336610633298 0.07771348432307204
0.01804642225719961 -0.009709891179128412 0.07760643473548315
0.017501409171296136 -0.009612338467174481 0.07778854751253103
0.01696199102943782 -0.009497164519432034 0.077748083055053
0.01642006529205436 -0.009389888225652544 0.07780737539099256
0.01587505221933579 -0.009292335472172883 0.07798948764352094
0.015324975936181269 -0.009210729263326861 0.07837302378296615
0.014761591888522147 -0.009171035762501029 0.07928596743699144
0.014191008077609752 -0.009154017863948182 0.08048533100535786
0.023818342994647964 -0.011673149982365315 0.07999885915331552
0.023293475293598327 -0.011512149526574242 0.07937955121676135
0.022765761791295424 -0.01136011190123981 0.07887345452376045
0.022233955038503377 -0.011220965938704613 0.07853019491487408
0.021698333196940884 -0.011093835570648239 0.07833870660184789
0.021156289942592988 -0.010986929395697962 0.07840267398024423
0.020626825209421287 -0.010840407259313947 0.07796624449403726
0.020091203394228582 -0.01071327680820611 0.07777475513197202
0.019545163350079508 -0.010618958493816263 0.07799772220969506
0.01901745034987859 -0.010466921017144819 0.07749162604568453
0.018477885328295845 -0.010352209666031731 0.0774570047356281
0.017925103834417828 -0.010279123498786078 0.07794815916701467
0.01738948201922512 -0.010151993047678241 0.07775666980494943
0.016842280359503185 -0.010061333233130363 0.07802584810117677
0.016301884544534795 -0.009949238459774216 0.07802427729041858
0.015755844487200826 -0.009854920186910098 0.07824724489266115
0.015194143926422701 -0.009809924556333274 0.07909321632117187
0.01462810700547869 -0.009778586260723587 0.08011169618691502
0.02424661192634722 -0.012325528354725156 0.07997649873530366
0.023701598853628648 -0.012227975601245495 0.08015861098783206
0.023189035981715733 -0.012028221175118725 0.0790497941628126
0.022662193051625094 -0.011873441688900708 0.07850906449513005
0.02212195396549731 -0.011760853299195085 0.07850125872087092
0.021586213314850722 -0.011634097119489439 0.0783144968532142
0.021050472651019232 -0.011507340981309521 0.07812773551007701
0.020510233538521657 -0.01139475267465536 0.0781199307848569
0.01998806479855554 -0.011225251860459818 0.07739325317861251
0.019435143386577376 -0.011152606364258216 0.0778899738111156
0.01889490481573647 -0.011040018081689855 0.07788216804132732
0.01836263949231465 -0.010902316384035184 0.07755715122124915
0.01781762641959608 -0.010804763630555523 0.07773926347377753
0.0172865258629369 -0.010663393508409473 0.07736791007503044
0.016736449579782382 -0.010581787299563451 0.07775144621447563
0.01619537968708406 -0.010471815529140503 0.07777669146403426
0.015641677702983303 -0.010401628439191245 0.07830446470099459
0.01507976892635166 -0.010357288582938549 0.07915871934172093
0.0145171261598296 -0.01031526042253501 0.08004217345945025
0.01397520042903859 -0.010207984107992656 0.08010146553313002
0.02359797140732569 -0.012741490297569854 0.07979655611704499
0.02307025790502279 -0.012589452672235418 0.07929045942404409
0.022550081376241753 -0.012413677403326915 0.07848452796778992
0.022009685587643157 -0.012301582546919307 0.07848295610799269
0.021470120552875515 -0.01218687123733195 0.07844833532245578
0.020932307592809916 -0.012066641781147466 0.07834401376087582
0.020402842846453318 -0.01192011968628918 0.07790758479918838
0.01986976499072471 -0.011784977053255753 0.07761489201887711
0.019328548191932172 -0.011675467962513621 0.07764598146489637
0.018787331908426512 -0.011565958978908749 0.07767707091538649
0.018242437657976934 -0.011468031995552628 0.07785445619802588
0.01770808251559625 -0.01133691216758822 0.07761257624594331
0.017160880855874312 -0.01124625235304034 0.07788175454217064
0.01661966407026667 -0.011136743220772478 0.07791284346367038
0.01606791759060478 -0.011060397283741865 0.07836282311295681
0.015508609455298573 -0.011007866726451406 0.07911361942603269
0.014944681174750288 -0.010969887283172244 0.08004821367216942
0.014395146790758609 -0.010886574366833716 0.08041019205945774
0.024030854446299526 -0.01337933659336795 0.0795906374663129
0.023493110021315402 -0.013258891286440255 0.07948358945228255
0.02296821666246112 -0.013097971639719265 0.07886530223070885
0.022435951352224193 -0.012960269900538864 0.07854028488611114
0.021897359679106127 -0.01284249299547883 0.07846694197173651
0.021359615267306897 -0.012722047647025406 0.07835989343318664
0.020823874616660305 -0.012595291467319759 0.07817313156552992
0.02029044136210117 -0.0124612681603316 0.07789457720880479
0.01975584649196918 -0.012330903353185409 0.07766223407058391
0.019214776599270865 -0.01222093158276246 0.07768747932014254
0.01867370723504432 -0.012110959877951043 0.0777127240496525
0.01813428911955579 -0.01199578584715714 0.07767225854313543
0.01759321922685747 -0.011885814076734192 0.07769750379269406
0.01705214933415915 -0.011775842306311242 0.07772274904225268
0.016532438087119176 -0.011598601635925776 0.07689830781675608
0.015963515843200715 -0.011576350644147635 0.07803157117330528
0.015398613818640916 -0.01154143800058731 0.07900490275934574
0.014835229764389347 -0.011501744520524342 0.07991784667563079
0.014302964447559977 -0.011364042802106804 0.07959282959329285
0.023382122134991266 -0.013795587611652326 0.0794143470832084
0.02285031538219922 -0.013656441649117132 0.07907108747432202
0.022328705101623398 -0.013485181971112526 0.07832219331940714
0.02177491311743297 -0.013415278335794504 0.07885354692659186
0.02124635855071164 -0.013265889636760484 0.07838090933359311
0.02070031850656256 -0.013171571322370639 0.07860387641131615
0.020175450805512925 -0.013010570866579566 0.077984568474762
0.019641095649947347 -0.012879451080140887 0.07774268904719893
0.0190998788775246 -0.012769941906347294 0.07777377744417915
0.018557836112093794 -0.012663035921585738 0.0778377458760854
0.018015792870930795 -0.012556129705109734 0.07790171272996223
0.017476227809793365 -0.012441418478573834 0.07786709299346434
0.01692669345217147 -0.012358105479183847 0.0782290703317136
0.016383802962874533 -0.012253867664575506 0.07832674228524615
0.015828061407447743 -0.012190104189760456 0.07893565344632203
0.01526413310052967 -0.012152124829532754 0.0798702487414978
0.014712386627460229 -0.012075778871739277 0.08032022812852446
0.023808034668884148 -0.01445538745300831 0.07948572826608222
0.023275769345462334 -0.014317685755353636 0.07916071144600403
0.022744668788803154 -0.014176315633207585 0.07878935804725695
0.02221240347856623 -0.014038613894027184 0.07846434070265924
0.021672985363077702 -0.013923439863233278 0.07842387519614218
0.021134393689959636 -0.013805662958173247 0.07835053228176754
0.020600960435400502 -0.01367163965118509 0.07807197792504239
0.020063216049971057 -0.013551194219680204 0.0779649283374535
0.019518202950882697 -0.013453641549252 0.0781470416390209
0.01898710242059331 -0.013312271344054492 0.07777568719123479
0.01844603304318187 -0.013202299680768803 0.07780093244526427
0.017897204881692847 -0.013116762521767963 0.07813481599365284
0.017366104325033674 -0.012975392399621912 0.07776346259490576
0.01681854727966611 -0.012885851869593571 0.07804677879019967
0.0162634310310446 -0.01282011899551965 0.07863081408865286
0.0157459973163061 -0.012635705253629543 0.07771576841079428
0.015241310836653477 -0.012411144187067886 0.0762936141165903
0.01460180792762641 -0.012611186489369656 0.08023470702855694
0.023160897373697763 -0.014866615001866347 0.07924598465348671
0.02263033875575611 -0.0147235380476506 0.07885307192902419
0.022098531989779166 -0.014584392126641138 0.07850981284465731
0.02156291018777136 -0.014457261634007571 0.07831832295807256
0.021018015924136883 -0.014359334692177182 0.07849570876523147
0.020489461357415546 -0.01420994599314316 0.07802307117223273
0.019951648397349947 -0.014089716536958676 0.07791874961065277
0.019409605116632266 -0.01398281044505986 0.07798271803808815
0.018870040095049518 -0.01386809909394677 0.07794809672803171
0.018331331433438784 -0.013750692373327484 0.0778794283360652
0.017781797075816896 -0.013667379373937498 0.07824140567431448
0.017242232014679466 -0.013552668147401598 0.0782067859378166
0.016700188773516464 -0.01344576193092559 0.07827075279169342
0.016150654415894576 -0.013362448931535603 0.0786327301299427
0.015634153110523418 -0.013175098573089412 0.07768059148086681
0.015029090002877993 -0.013266672970125598 0.08025160532014024
0.023586196757258072 -0.015528345955758378 0.07934175809198837
0.023050456080241696 -0.01540158985910419 0.07915499727337069
0.02252156765880741 -0.015253252633073035 0.07869564103906694
0.021985826981791027 -0.01512649653641885 0.07850888022044925
0.021456938560356745 -0.014978159310387693 0.0780495239861455
0.02091065878845636 -0.014884596016816064 0.07828202787773027
0.020374918124624875 -0.014757839878636147 0.07809526653459306
0.019837173712825642 -0.01463739453018272 0.07798821799604319
0.01929610384649711 -0.014527422676708313 0.07801346219656277
0.01875109074740875 -0.014429870006280111 0.07819557549813021
0.018218825939273812 -0.014292168415762698 0.07787055868252288
0.017676003998243237 -0.014187714708885416 0.0779655036590855
0.017128446939690782 -0.014098174220382804 0.07824882037889895
0.016587377086547145 -0.013988202325382667 0.078274064054899
0.01603620687906799 -0.013910041423282104 0.0787011185296472
0.01547502589542636 -0.01386340938827323 0.07952642021754366
0.014933100158042905 -0.01375613309449374 0.07958571255348322
0.022937007932046373 -0.0159460347835875 0.07918362814271053
0.022405201166069432 -0.01580688886257804 0.07884036905834367
0.021873394413277382 -0.015667742900042844 0.07849710944945729
0.021326192779925236 -0.015577083002443504 0.0787662866966456
0.020793114924196627 -0.01544194036941008 0.07847359391633434
0.020254405747299014 -0.015324533541653532 0.07840492551989699
0.019723847116172467 -0.015181456628963516 0.07801201331995397
0.019185137926089963 -0.015064049842732697 0.07794334544803612
0.018643094658557173 -0.014957143709308151 0.07800731335095198
0.018110017304930545 -0.014822001224937716 0.0777146210996311
0.017558270838453554 -0.014745655246381375 0.07816460022439801
0.017018705816870806 -0.014630943895268285 0.07812997891434158
0.016466959337208917 -0.014554597958237674 0.07857995856362798
0.015907651201902708 -0.014502067400947213 0.07933075487670387
0.023359118983979903 -0.016617807364869206 0.07940623931730277
0.02282685366055809 -0.016480105667214532 0.07908122249722459
0.02229575310389891 -0.016338735545068483 0.0787098690984775
0.021758008718469463 -0.0162182901135636 0.0786028195108886
0.021222268067822875 -0.01609153393385795 0.07841605764323188
0.020686527417176286 -0.015964777754152306 0.07822929577557516
0.02014878299219216 -0.015844332447224607 0.07812224776154482
0.019613042341545563 -0.015717576267518962 0.0779354858938881
0.019077301690898975 -0.015590820087813312 0.07774872402623137
0.018543868436339844 -0.015456796780825155 0.07747016966950623
0.017996311893074268 -0.015367256399459805 0.07775348639379052
0.01745438615569081 -0.015259980105680316 0.07781277872973008
0.01690682908395346 -0.015170439658703435 0.07809609597406304
0.016356752827168728 -0.015088833366805953 0.0784796310644692
0.015803050829883078 -0.015018646318382426 0.07900740482594903
0.0152425924246057 -0.014969738528043489 0.07980396100848466
0.022189354127684635 -0.01686097915340109 0.07845807085314191
0.021646463625202797 -0.01675674138031848 0.07855574333119394
0.021110841783640304 -0.0166296110122621 0.07836425501816775
0.020572132606742694 -0.016512204184505556 0.07829558662173039
0.020034319646677096 -0.016391974728321074 0.07819126506015045
0.01950124177776359 -0.016256832136813375 0.07789857280435872
0.018966886622198014 -0.016125712350374695 0.07765669337679565
0.018427321600615266 -0.016011000999261605 0.07762207206673921
0.017886105317109605 -0.015901492015656733 0.07765316151722933
0.017331326812744918 -0.015834695418489673 0.07822376072372994
0.01678643254911044 -0.015736768476659283 0.07840114653088885
0.01623689819148855 -0.015653455477269294 0.07876312386913811
0.015677590042997448 -0.015600924961504564 0.0795139207067335
0.022603674752869847 -0.017557287627359745 0.07899059962966654
0.022071409442632924 -0.017419585888179344 0.07866558228506884
0.021535668778801434 -0.017292829749999426 0.07847882094193163
0.020996250636943117 -0.01717765580225698 0.0784383564844536
0.02045683252145459 -0.01706248177146308 0.07839789097793652
0.0199257319911652 -0.016921111566265568 0.07802653653015042
0.019387987579365964 -0.016800666217812142 0.07791948799160055
0.01885572225594415 -0.016662964520157468 0.07759447117152235
0.01831465236324583 -0.016552992749734517 0.07761971642108098
0.017769639805814134 -0.016455440103392116 0.07780182867808022
0.017219563522659617 -0.016373833894546098 0.07818536481752543
0.0166784936299613 -0.01626386212412315 0.07821061006708406
0.016124062916743016 -0.016195970161256883 0.07876737349775997
0.015576505858190561 -0.01610642967275427 0.07905069021757341
0.015016765897813018 -0.016055259145401544 0.07981866533161686
0.021950781552446584 -0.01798664335811502 0.07897983658586294
0.021423848595896484 -0.017832147409579703 0.07844268833744383
0.020874314238274596 -0.01774883441018971 0.07880466567569311
0.020335605061376986 -0.017631427582433166 0.07873599727925575
0.019801249905811405 -0.017500307795994485 0.07849411785169269
0.019274316975631093 -0.017345811764407706 0.07795696855423456
0.018734751940863454 -0.017231100454820347 0.07792234776869764
0.018187550281141517 -0.017140440640272467 0.07819152606492498
0.017645507555265394 -0.01703353453093372 0.07825549292327266
0.01710061329163092 -0.01693560758910333 0.07843287873043157
0.016562800331565323 -0.01681537813291885 0.07832855716885162
0.01600705876295364 -0.016751614699629526 0.07893746885444701
0.015473980907225031 -0.0166164720665961 0.07864477607413575
0.021835128533903226 -0.018538032505806348 0.07909618128050547
0.02130624008609915 -0.018389695362826655 0.07863682609524074
0.020765170232955515 -0.018279723467826515 0.07866206977124081
0.02022324446920227 -0.018172447257098483 0.0787213631562194
0.019683826353713737 -0.018057273226304578 0.07868089764970233
0.01914808568988225 -0.017930517088124664 0.07849413630656513
0.018607846603754467 -0.01781792869841904 0.07848633053230598
0.018067607478071998 -0.017705340433290608 0.0784785263316054
0.017528189877870345 -0.017590166509633964 0.07843806082955919
0.016988771762381817 -0.01747499247884006 0.07839759532304212
0.016446846024998362 -0.01736771618506057 0.07845688765898166
0.01590742790950983 -0.017252542154266665 0.07841642215246458
0.0153491165126711 -0.017196872376384696 0.07912756636359876
0.014794685799452815 -0.01712898041351843 0.07968432979427469
0.021179448851066932 -0.01897616424276014 0.07919626966694725
0.020651735348764032 -0.018824126617425704 0.07869017297394634
0.020096956831214447 -0.018757330061784372 0.07926077270496648
0.01955656101624606 -0.018645235288428225 0.07925920189420829
0.019013670513764222 -0.018540997515345613 0.07935687437226034
0.01849952085298638 -0.01834624066926789 0.07831118294661629
0.01794021267812549 -0.018293710236554617 0.07906198083325074
0.017405858064216576 -0.01816259047420174 0.0788201003611195
0.01686804510415098 -0.018042361018017258 0.07871577879953956
0.01632933592725337 -0.01792495419026071 0.0786471104031022
0.015786445398401745 -0.01782071650022956 0.07874478393019328
0.015230703869344749 -0.017756952942363048 0.07935369404223012
0.01468781334708557 -0.017652715231569034 0.07945136730706147
0.014139443776003662 -0.017565733745399072 0.07976700727986256
0.0205296386613334 -0.01939581005365494 0.07906285874895645
0.019983358902617914 -0.019302246718557584 0.0792953621160217
0.01944228900991959 -0.019192274948134636 0.07932060736558032
0.01890204988423712 -0.019079686683006202 0.07931280316487974
0.01835577013211408 -0.018986123327145978 0.07954530626968521
0.017826881690902456 -0.018837786163403418 0.07908595082216074
0.01729114155554274 -0.01871103009083503 0.07889918895897488
0.01675654668541075 -0.01858066528368884 0.07866684582075402
0.016216307559728284 -0.01846807701856041 0.07865904162005344
0.015676889444239752 -0.018352902987766505 0.07861857611353636
0.015130609685524262 -0.018259339652669147 0.0788510794806016
0.014589539806010837 -0.01814936784072047 0.07887632420564071
0.014050121690522308 -0.018034193809926564 0.07883585869912364
0.013509882564839837 -0.01792160554479813 0.07882805449842306
0.01296795682745638 -0.01781432925101864 0.07888734683436262
0.012412840592019764 -0.01774859633541899 0.07947138160829627
0.011875096199997874 -0.01762815092467697 0.07936433228296713
0.009707925000285368 -0.017197370574836793 0.0795803425082838
0.009167685893724874 -0.017084782313684155 0.07957253830774913
0.008629094266652497 -0.01696700530753008 0.0794991940821892
0.008093353583800476 -0.016840249121128355 0.07931243221425306
0.007545796531840466 -0.01675070861186288 0.07959574867180674
0.007000783426159657 -0.016653155962197543 0.07977786223563393
0.005920029825023766 -0.016428847076559415 0.07977321288388306
0.005378959938917894 -0.016318875285373603 0.07979845787118194
0.003774418304620856 -0.01593016510523405 0.07913154426911888
0.0032421529811990394 -0.01579246340757938 0.07880652744904071
0.0027044085693998074 -0.01567201805912595 0.07869947891049084
0.0021532383882904398 -0.015593857073973929 0.0791265323362
0.001074431322299954 -0.015363417157471923 0.0790444410859938
0.019317336078799274 -0.019772954103198466 0.07980691980360131
0.018775292831043823 -0.019666047907485325 0.0798708869197379
0.018236583654146214 -0.019548641079728778 0.07980221852330054
0.017700961812583724 -0.0194215107116724 0.07961073021027433
0.01717149761447624 -0.019274988620137053 0.07917429994175894
0.016628607092217064 -0.01917075090934304 0.07927197320659028
0.01610005253208818 -0.01902136218954615 0.07879933535133177
0.015575184831038542 -0.01886036173375508 0.0781800274147776
0.015026815240179294 -0.018773380309873716 0.07849566817435796
0.0144890022669288 -0.01865315089521496 0.07839134713729753
0.013953380438551202 -0.018526020485632854 0.07819985829975182
0.013412984636767709 -0.01841392567075098 0.07819828696447412
0.012870094121100979 -0.018309687939194096 0.07829595996704569
0.012328050866753084 -0.018202781764243822 0.07835992734544203
0.011796244113961038 -0.018063635801708628 0.07801666773655566
0.011230899657082303 -0.018030116595535616 0.07900760009951525
0.010701434808273777 -0.017883594390841556 0.07857117008767105
0.01015423314855184 -0.017792934576293676 0.07884034838389839
0.0096256785950154 -0.017643545835733927 0.07836771026638012
0.009085282785984094 -0.017531451107879306 0.07836613998030735
0.008547469839001953 -0.017411221654415103 0.07826181841884092
0.008007904785213772 -0.017296510296605935 0.07822719710850505
0.007466687986421235 -0.017187001205863802 0.07825828655452431
0.0069237974839394 -0.01708276343278119 0.07835595903257637
0.006377757568612044 -0.01698844514517566 0.07857892611141712
0.005844679699698538 -0.016853302553667963 0.07828623385562539
0.005309057897690727 -0.016726172061034397 0.07809474396904063
0.004753316329079046 -0.016662408627745078 0.07870365565463604
0.004227797663419489 -0.01650345838028296 0.07811024429568504
0.003689984690168997 -0.01638322896562421 0.0780059232586246
0.0031479414094513136 -0.016276322873725393 0.07806989168605999
0.002600739762914271 -0.016185663017651782 0.07833906945776781
0.0020535381295621233 -0.016095003120052444 0.07860824670495611
0.0015063364698401866 -0.016004343305504563 0.07887742500118344
0.0009651196710476486 -0.01589483421476243 0.07890851444720269
0.0004190796203061254 -0.01580051592113545 0.0791314817871855
-0.00012929046606266416 -0.01571353432782823 0.07944712175551574
0.018127900797103774 -0.020078077754204893 0.07964127728647444
0.017588482681615246 -0.019962903723410988 0.07960081177995736
0.017057382640242945 -0.0198215337084022 0.07922945838568113
0.016521641989596356 -0.019694777528696555 0.07904269651802442
0.015987047119464366 -0.019564412721550364 0.07881035337980356
0.015452452236147479 -0.0194340479559299 0.07857801076610221
0.014920186912725663 -0.01929634625827523 0.07825299394602404
0.014389086356066484 -0.01915497613612918 0.07788164054727696
0.013853345705419894 -0.01902821995642353 0.07769487867962024
0.013318750848472796 -0.01889785510775161 0.07746253501687987
0.01278100642348867 -0.018777409800823916 0.07735548700284953
0.012239936557160139 -0.018667437947349506 0.07738073120336911
0.011698010832961576 -0.01856016161204429 0.07744002301478914
0.011157771707279109 -0.018447573346915856 0.07743221881408856
0.010619179944894004 -0.01832979629049432 0.07735887432503764
0.010080588271775937 -0.018212019385434288 0.07728553141066301
0.009538662547577374 -0.018104743050129067 0.07734482322208304
0.008991105508146892 -0.018015202565602254 0.0776281399420624
0.008452513861297176 -0.017897425621736775 0.07755479650328174
0.007913095713603215 -0.01778225158424679 0.07751433099648525
0.007372025820904894 -0.01767227981382384 0.07753957624604388
0.006830100083521438 -0.01756500352004435 0.07759886858198344
0.006290682096854628 -0.017449829516034764 0.07755840307658407
0.0057487563594711705 -0.017342553222255273 0.07761769541252361
0.005207686466772851 -0.017232581451832322 0.07764294066208224
0.004673091609825755 -0.0171022166031604 0.07741059699934187
0.004125534551273298 -0.01701267611465779 0.07769391371915532
0.0035844646717598724 -0.016902704302709112 0.07771915844419441
0.003039451585856406 -0.01680515159075518 0.07790127122124232
0.0024893753027018855 -0.01672354538190916 0.07828480736068753
0.0019443622299833124 -0.0166259926284295 0.07846691961321592
0.0013942859468287921 -0.016544386419583477 0.07885045575266113
0.000849272874110219 -0.016446833666103815 0.0790325680051895
0.0003029930890249403 -0.016353270414057916 0.07926507242129378
-0.00024202050557296123 -0.01625571757420386 0.07944718493161107
0.01747302709274406 -0.020513671246249667 0.07970929807985455
0.01693994974570988 -0.020378528741116366 0.0794166055662739
0.016405594583551855 -0.020247408975440553 0.07917472640097062
0.01587123945435607 -0.020116289105950414 0.07893284592436853
0.015335617612793572 -0.019989158737894037 0.07874135761134232
0.014811982725746953 -0.019824275543320377 0.07807300605089099
0.01427327354884934 -0.01970686871556383 0.07800433765445362
0.013750950018222113 -0.01953785541343549 0.07728381790734117
0.013201415634230433 -0.019454542497096963 0.07764579629462948
0.012683423512841215 -0.019271887452913004 0.07675296506736333
0.012150345657112604 -0.019136744819879578 0.07646027228705206
0.011598599190635609 -0.01906039884132324 0.07691025141181897
0.011059034155867968 -0.01894568753173588 0.07687563062628205
0.01051699075951346 -0.018838781371527016 0.0769395985280802
0.009976594957729967 -0.01872668655664514 0.07693802719280249
0.009437029909777428 -0.01861197528858351 0.0769034069317851
0.00887457073566309 -0.018569368969420533 0.07777955816444235
0.008350328103989193 -0.018406399906079736 0.07713538433124983
0.007809932270000269 -0.018294305084501784 0.07713381299569269
0.00726788900246748 -0.018187398951077238 0.07719778089860856
0.006724998499985643 -0.018083161177994626 0.07729545337666062
0.006184602813838977 -0.017971066431422794 0.07729388256702013
0.005645893636941366 -0.017853659603666246 0.07722521417058278
0.00510300313445953 -0.017749421830583634 0.07732288664863483
0.004561786335666993 -0.0176399127398415 0.0773539760946541
0.004013416771177531 -0.01755293123290868 0.07766961580519544
0.0034705262423259066 -0.01744869354287753 0.07776728933228652
0.0029244862245466205 -0.017354375145436224 0.07799025536097053
0.0023761166205024755 -0.017267393763080587 0.07830589664507041
0.0018289149607805385 -0.017176733948532707 0.07857507494129776
0.0012828749166314626 -0.01708241563414286 0.0787980420190208
0.0007333405524171249 -0.016999102655515737 0.07916001961952981
0.01736034870505786 -0.021055691815579022 0.07970730645074126
0.016824608569698148 -0.02092893574301064 0.07952054458755539
0.01628686415130647 -0.020808490415320076 0.07941349631126529
0.015757975710094844 -0.020660153251577516 0.07895414086374082
0.015222235046263358 -0.0205333971133976 0.0787673795206036
0.014704801331524863 -0.020348983371507492 0.07785233384274502
0.014179907985855476 -0.020188063683260773 0.07723404609665181
0.01364764266243366 -0.020050361985606103 0.07690902927657364
0.013113047805486562 -0.01991999713693418 0.07667668561383327
0.01257845290898478 -0.01978963241283945 0.07644434352465145
0.012035630967954205 -0.01968517870596217 0.07653928850121405
0.011495391868641524 -0.019572590357782277 0.07653148325147444
0.010952569914426055 -0.01946813669243072 0.07662642875255658
0.010411499906090908 -0.019358164853697728 0.07665167347647797
0.009870430039762377 -0.019248193000223318 0.07667691767699757
0.00932850430237892 -0.019140916706443828 0.07673621001293712
0.008779676133642085 -0.019055379634470244 0.07707009461053062
0.008241931761296098 -0.01893493420568564 0.07696304502305523
0.007699109774875196 -0.018830480533638005 0.07705799052385794
0.0071571840506766335 -0.018723204198332788 0.07711728233527798
0.0066121709647731656 -0.018625651486378854 0.07729939511232588
0.006096178316418661 -0.018436699548846455 0.07632702627110885
0.005528888652503638 -0.01840930675815987 0.0773953425719994
0.004986962915120181 -0.01830203046438038 0.07745463490793895
0.00444194981603182 -0.018204477793952175 0.07763674820950638
0.003896936743313246 -0.018106925040472514 0.07781886046203478
0.0033506569845977567 -0.018013361705375156 0.0780513638291
0.002805643911879184 -0.017915808951895495 0.0782334760816284
0.0022889372649615067 -0.017729105315164348 0.07728950629951337
0.0017157784375660858 -0.0177201974123935 0.07859130879184859
0.0011620764468728802 -0.01765001034320711 0.07911908229106866
0.0006120001637183602 -0.01756840413436109 0.07950261843051386
0.015630994678506687 -0.021247219894390677 0.07952113489389741
0.015097916816185629 -0.021112077282120115 0.07922844237584589
0.014577740320366833 -0.020936301909397284 0.07842250960829295
0.014059014182717405 -0.020755958644113944 0.07755887890706879
0.013527207416740466 -0.02061681272310448 0.07721561982270193
0.01299540066394842 -0.020477666760569287 0.07687236021381556
0.012463593911156375 -0.020338520798034092 0.07652910060492919
0.01192797206959388 -0.020211390429977716 0.07633761229190299
0.01137960247873463 -0.020124409006096352 0.07665325305148335
0.010841789505484138 -0.020004179591437597 0.07654893201442292
0.010298898887365477 -0.01989994175004494 0.07664660396683776
0.009754004623731 -0.01980201480821455 0.07682398977399665
0.009213608808762612 -0.019689920034858407 0.07682241896323848
0.008665239223840443 -0.019602938656478566 0.07713806024750428
0.0081248434483253 -0.019490843802791244 0.07713648838782056
0.0075776417563979325 -0.019400183981547286 0.07740566668376847
0.007035598475680248 -0.01929327788964847 0.07746963511120385
0.006487228911190787 -0.019206296382715645 0.07778527482174519
0.005947663978875076 -0.019091585182964062 0.077750655086365
0.00539488252455174 -0.019018498891141218 0.07824180794419303
0.004857069551301248 -0.018898269476482467 0.0781374869071326
0.004315852752508712 -0.01878876038574033 0.07816857635315186
0.0037663183948868206 -0.018705447386350344 0.07853055369140113
0.0032259225799184336 -0.018593352612994198 0.07852898288064293
0.0026810283162839576 -0.018495425671163808 0.07870636868780184
0.0021361340526494803 -0.01839749872933342 0.07888375449496074
0.0015900940348701933 -0.018303180331892113 0.07910672052364476
0.0010405596508785142 -0.018219867415553582 0.07946869891093307
