ply
format ascii 1.0
element vertex 790
property float x
property float y
property float z
end_header
0.04052700474858284 0.020801052451133728 0.09039999544620514
0.040718190371990204 0.020778043195605278 0.09030000120401382
0.040908850729465485 0.02075503207743168 0.09019999951124191
0.04114460200071335 0.02075503207743168 0.09019999951124191
0.04138035699725151 0.02075503207743168 0.09019999951124191
0.041569966822862625 0.02073202282190323 0.09009999781847
0.0418054573237896 0.02073202282190323 0.09009999781847
0.04199428856372833 0.02070901170372963 0.08999999612569809
0.04222951829433441 0.02070901170372963 0.08999999612569809
0.04246474802494049 0.02070901170372963 0.08999999612569809
0.04269997775554657 0.02070901170372963 0.08999999612569809
0.04293520748615265 0.02070901170372963 0.08999999612569809
0.04317043349146843 0.02070901170372963 0.08999999612569809
0.04340566322207451 0.02070901170372963 0.08999999612569809
0.04364089295268059 0.02070901170372963 0.08999999612569809
0.043827369809150696 0.02068600058555603 0.08989999443292618
0.044111352413892746 0.02070901170372963 0.08999999612569809
0.044691503047943115 0.020870082080364227 0.09070000052452087
0.04517623409628868 0.020985132083296776 0.09119999408721924
0.046253666281700134 0.021261252462863922 0.09239999949932098
0.046746764332056046 0.02137630246579647 0.09290000051259995
0.04744480177760124 0.021583393216133118 0.09380000084638596
0.03414195775985718 0.021944910287857056 0.09429999440908432
0.034377798438072205 0.021782010793685913 0.09359999746084213
0.034511469304561615 0.021712196990847588 0.093299999833107
0.034643568098545074 0.021642383188009262 0.09299999475479126
0.03473658859729767 0.021549297496676445 0.09259999543428421
0.03494083881378174 0.021526027470827103 0.0925000011920929
0.03518260270357132 0.021526027470827103 0.0925000011920929
0.035907894372940063 0.021526027470827103 0.0925000011920929
0.036149658262729645 0.021526027470827103 0.0925000011920929
0.036430761218070984 0.021549297496676445 0.09259999543428421
0.03667278587818146 0.021549297496676445 0.09259999543428421
0.03691481053829193 0.021549297496676445 0.09259999543428421
0.037156835198402405 0.021549297496676445 0.09259999543428421
0.03735847771167755 0.021526027470827103 0.0925000011920929
0.03760024160146713 0.021526027470827103 0.0925000011920929
0.037842005491256714 0.021526027470827103 0.0925000011920929
0.038042593747377396 0.02150275558233261 0.09239999949932098
0.03824266046285629 0.02147948369383812 0.09229999780654907
0.03840051218867302 0.021432939916849136 0.09209999442100525
0.03855732083320618 0.021386398002505302 0.09189999848604202
0.038670867681503296 0.021316584199666977 0.09160000085830688
0.03882531821727753 0.021270040422677994 0.09139999747276306
0.03902146592736244 0.021246768534183502 0.09129999577999115
0.03921709209680557 0.02122349664568901 0.09119999408721924
0.03936893492937088 0.021176956593990326 0.09099999815225601
0.03960677608847618 0.021176956593990326 0.09099999815225601
0.03975704684853554 0.021130412817001343 0.09079999476671219
0.039906278252601624 0.02108387090265751 0.09059999883174896
0.04005445912480354 0.021037327125668526 0.09039999544620514
0.04024616256356239 0.021014057099819183 0.09030000120401382
0.04043734446167946 0.020990785211324692 0.09019999951124191
0.04062800481915474 0.0209675133228302 0.09009999781847
0.04086349532008171 0.0209675133228302 0.09009999781847
0.041053373366594315 0.02094424143433571 0.08999999612569809
0.041288603097200394 0.02094424143433571 0.08999999612569809
0.041523829102516174 0.02094424143433571 0.08999999612569809
0.04175905883312225 0.02094424143433571 0.08999999612569809
0.04199428856372833 0.02094424143433571 0.08999999612569809
0.04222951829433441 0.02094424143433571 0.08999999612569809
0.04241756349802017 0.020920969545841217 0.08989999443292618
0.04269997775554657 0.02094424143433571 0.08999999612569809
0.042887501418590546 0.020920969545841217 0.08989999443292618
0.04317043349146843 0.02094424143433571 0.08999999612569809
0.04340566322207451 0.02094424143433571 0.08999999612569809
0.04359240084886551 0.020920969545841217 0.08989999443292618
0.043827369809150696 0.020920969545841217 0.08989999443292618
0.044111352413892746 0.02094424143433571 0.08999999612569809
0.04474077373743057 0.021130412817001343 0.09079999476671219
0.04522576928138733 0.021246768534183502 0.09129999577999115
0.046353779733181 0.021549297496676445 0.09259999543428421
0.04699835926294327 0.02173546701669693 0.09339999407529831
0.04774828255176544 0.021968182176351547 0.09439999610185623
0.033931437879800797 0.02221491187810898 0.09439999610185623
0.03403334319591522 0.022120781242847443 0.09399999678134918
0.03440049663186073 0.021885452792048454 0.09299999475479126
0.034494563937187195 0.02179132215678692 0.09259999543428421
0.034699078649282455 0.021767791360616684 0.0925000011920929
0.034903064370155334 0.0217442587018013 0.09239999949932098
0.03514456748962402 0.0217442587018013 0.09239999949932098
0.03538607060909271 0.0217442587018013 0.09239999949932098
0.0356275737285614 0.0217442587018013 0.09239999949932098
0.03586907684803009 0.0217442587018013 0.09239999949932098
0.036149658262729645 0.021767791360616684 0.0925000011920929
0.036391422152519226 0.021767791360616684 0.0925000011920929
0.03663318604230881 0.021767791360616684 0.0925000011920929
0.03687494993209839 0.021767791360616684 0.0925000011920929
0.03711671382188797 0.021767791360616684 0.0925000011920929
0.03735847771167755 0.021767791360616684 0.0925000011920929
0.03760024160146713 0.021767791360616684 0.0925000011920929
0.037842005491256714 0.021767791360616684 0.0925000011920929
0.038042593747377396 0.0217442587018013 0.09239999949932098
0.03824266046285629 0.021720724180340767 0.09229999780654907
0.038442205637693405 0.021697191521525383 0.09219999611377716
0.03855732083320618 0.02162659354507923 0.09189999848604202
0.038670867681503296 0.02155599556863308 0.09160000085830688
0.03886779770255089 0.021532462909817696 0.09149999916553497
0.03902146592736244 0.021485397592186928 0.09129999577999115
0.03921709209680557 0.021461863070726395 0.09119999408721924
0.03936893492937088 0.021414799615740776 0.09099999815225601
0.03956325352191925 0.021391265094280243 0.0908999964594841
0.03971326723694801 0.021344201639294624 0.09070000052452087
0.039906278252601624 0.02132066898047924 0.09059999883174896
0.04001015052199364 0.02125007100403309 0.09030000120401382
0.040157023817300797 0.02120300382375717 0.09009999781847
0.04039251431822777 0.02120300382375717 0.09009999781847
0.040582913905382156 0.021179471164941788 0.08999999612569809
0.040818143635988235 0.021179471164941788 0.08999999612569809
0.041053373366594315 0.021179471164941788 0.08999999612569809
0.041288603097200394 0.021179471164941788 0.08999999612569809
0.041477691382169724 0.021155938506126404 0.08989999443292618
0.04171266034245491 0.021155938506126404 0.08989999443292618
0.0419476255774498 0.021155938506126404 0.08989999443292618
0.042182594537734985 0.021155938506126404 0.08989999443292618
0.04241756349802017 0.021155938506126404 0.08989999443292618
0.04265253245830536 0.021155938506126404 0.08989999443292618
0.042887501418590546 0.021155938506126404 0.08989999443292618
0.043122466653585434 0.021155938506126404 0.08989999443292618
0.04335743561387062 0.021155938506126404 0.08989999443292618
0.04359240084886551 0.021155938506126404 0.08989999443292618
0.043827369809150696 0.021155938506126404 0.08989999443292618
0.044111352413892746 0.021179471164941788 0.08999999612569809
0.044691503047943115 0.021344201639294624 0.09070000052452087
0.04517623409628868 0.021461863070726395 0.09119999408721924
0.0337560772895813 0.02250923030078411 0.09459999948740005
0.03389549255371094 0.022437846288084984 0.09429999440908432
0.03396093472838402 0.022318877279758453 0.09380000084638596
0.03413315862417221 0.02227128855884075 0.09359999746084213
0.0342676155269146 0.022199906408786774 0.093299999833107
0.034326519817113876 0.022080935537815094 0.09279999881982803
0.034457314759492874 0.022009553387761116 0.0925000011920929
0.034661564975976944 0.02198575809597969 0.09239999949932098
0.03486528992652893 0.021961964666843414 0.09229999780654907
0.03510653227567673 0.021961964666843414 0.09229999780654907
0.035347774624824524 0.021961964666843414 0.09229999780654907
0.03558901324868202 0.021961964666843414 0.09229999780654907
0.03583025559782982 0.021961964666843414 0.09229999780654907
0.03611057624220848 0.02198575809597969 0.09239999949932098
0.03635207936167717 0.02198575809597969 0.09239999949932098
0.03659357875585556 0.02198575809597969 0.09239999949932098
0.03683508187532425 0.02198575809597969 0.09239999949932098
0.03707658499479294 0.02198575809597969 0.09239999949932098
0.03731808811426163 0.02198575809597969 0.09239999949932098
0.037559591233730316 0.02198575809597969 0.09239999949932098
0.037801094353199005 0.02198575809597969 0.09239999949932098
0.038001421838998795 0.021961964666843414 0.09229999780654907
0.03824266046285629 0.021961964666843414 0.09229999780654907
0.03840051218867302 0.021914375945925713 0.09209999442100525
0.03855732083320618 0.02186678908765316 0.09189999848604202
0.038670867681503296 0.021795406937599182 0.09160000085830688
0.03882531821727753 0.02174781821668148 0.09139999747276306
0.03902146592736244 0.021724022924900055 0.09129999577999115
0.03921709209680557 0.02170022763311863 0.09119999408721924
0.03936893492937088 0.021652640774846077 0.09099999815225601
0.03956325352191925 0.0216288473457098 0.0908999964594841
0.03971326723694801 0.0215812586247921 0.09070000052452087
0.039818182587623596 0.02150987647473812 0.09039999544620514
0.03996584191918373 0.02146228775382042 0.09019999951124191
0.04011245444417 0.021414699032902718 0.08999999612569809
0.04034768417477608 0.021414699032902718 0.08999999612569809
0.040537819266319275 0.02139090560376644 0.08989999443292618
0.04077278822660446 0.02139090560376644 0.08989999443292618
0.04100775718688965 0.02139090560376644 0.08989999443292618
0.041242726147174835 0.02139090560376644 0.08989999443292618
0.041477691382169724 0.02139090560376644 0.08989999443292618
0.04166626185178757 0.021367112174630165 0.08980000019073486
0.04190097004175186 0.021367112174630165 0.08980000019073486
0.04213567450642586 0.021367112174630165 0.08980000019073486
0.04241756349802017 0.02139090560376644 0.08989999443292618
0.04265253245830536 0.02139090560376644 0.08989999443292618
0.042887501418590546 0.02139090560376644 0.08989999443292618
0.043122466653585434 0.02139090560376644 0.08989999443292618
0.04335743561387062 0.02139090560376644 0.08989999443292618
0.04359240084886551 0.02139090560376644 0.08989999443292618
0.043827369809150696 0.02139090560376644 0.08989999443292618
0.044111352413892746 0.021414699032902718 0.08999999612569809
0.044691503047943115 0.0215812586247921 0.09070000052452087
0.04517623409628868 0.02170022763311863 0.09119999408721924
0.046012163162231445 0.02198575809597969 0.09239999949932098
0.047098997980356216 0.02227128855884075 0.09359999746084213
0.0337560772895813 0.022756481543183327 0.09459999948740005
0.03385955095291138 0.022660261020064354 0.094200000166893
0.034194156527519226 0.022395649924874306 0.09309999644756317
0.03425253927707672 0.022275371477007866 0.09259999543428421
0.034420061856508255 0.02222726121544838 0.09239999949932098
0.03462405130267143 0.02220320515334606 0.09229999780654907
0.03486528992652893 0.02220320515334606 0.09229999780654907
0.03510653227567673 0.02220320515334606 0.09229999780654907
0.035347774624824524 0.02220320515334606 0.09229999780654907
0.03558901324868202 0.02220320515334606 0.09229999780654907
0.03583025559782982 0.02220320515334606 0.09229999780654907
0.036071497946977615 0.02220320515334606 0.09229999780654907
0.036312736570835114 0.02220320515334606 0.09229999780654907
0.03659357875585556 0.02222726121544838 0.09239999949932098
0.03683508187532425 0.02222726121544838 0.09239999949932098
0.03707658499479294 0.02222726121544838 0.09239999949932098
0.03731808811426163 0.02222726121544838 0.09239999949932098
0.037559591233730316 0.02222726121544838 0.09239999949932098
0.037760183215141296 0.02220320515334606 0.09229999780654907
0.038001421838998795 0.02220320515334606 0.09229999780654907
0.03824266046285629 0.02220320515334606 0.09229999780654907
0.03840051218867302 0.022155093029141426 0.09209999442100525
0.0385153628885746 0.02208292856812477 0.09179999679327011
0.038670867681503296 0.022034818306565285 0.09160000085830688
0.03882531821727753 0.02198670618236065 0.09139999747276306
0.03897872567176819 0.021938594058156013 0.09119999408721924
0.03917409107089043 0.021914539858698845 0.09109999984502792
0.03936893492937088 0.021890483796596527 0.09099999815225601
0.03956325352191925 0.02186642773449421 0.0908999964594841
0.03966948017477989 0.021794263273477554 0.09059999883174896
0.03977413848042488 0.02172209694981575 0.09030000120401382
0.039921533316373825 0.021673984825611115 0.09009999781847
0.04011245444417 0.021649928763508797 0.08999999612569809
0.04030285030603409 0.02162587270140648 0.08989999443292618
0.040537819266319275 0.02162587270140648 0.08989999443292618
0.040727436542510986 0.02160181850194931 0.08980000019073486
0.04096214473247528 0.02160181850194931 0.08980000019073486
0.04119684919714928 0.02160181850194931 0.08980000019073486
0.04143155366182327 0.02160181850194931 0.08980000019073486
0.04166626185178757 0.02160181850194931 0.08980000019073486
0.04190097004175186 0.02160181850194931 0.08980000019073486
0.04213567450642586 0.02160181850194931 0.08980000019073486
0.04237038269639015 0.02160181850194931 0.08980000019073486
0.042605090886354446 0.02160181850194931 0.08980000019073486
0.04283979535102844 0.02160181850194931 0.08980000019073486
0.04307449981570244 0.02160181850194931 0.08980000019073486
0.04335743561387062 0.02162587270140648 0.08989999443292618
0.04359240084886551 0.02162587270140648 0.08989999443292618
0.043827369809150696 0.02162587270140648 0.08989999443292618
0.044111352413892746 0.021649928763508797 0.08999999612569809
0.044691503047943115 0.021818319335579872 0.09070000052452087
0.04517623409628868 0.021938594058156013 0.09119999408721924
0.04735059663653374 0.022636204957962036 0.0940999984741211
0.03379175812005997 0.023028051480650902 0.09470000118017197
0.03385955095291138 0.02290646731853485 0.094200000166893
0.03421555086970329 0.02249308116734028 0.0925000011920929
0.034382812678813934 0.02244444750249386 0.09229999780654907
0.03462405130267143 0.02244444750249386 0.09229999780654907
0.03486528992652893 0.02244444750249386 0.09229999780654907
0.03510653227567673 0.02244444750249386 0.09229999780654907
0.035347774624824524 0.02244444750249386 0.09229999780654907
0.03558901324868202 0.02244444750249386 0.09229999780654907
0.03583025559782982 0.02244444750249386 0.09229999780654907
0.036071497946977615 0.02244444750249386 0.09229999780654907
0.036312736570835114 0.02244444750249386 0.09229999780654907
0.03655397519469261 0.02244444750249386 0.09229999780654907
0.03679521754384041 0.02244444750249386 0.09229999780654907
0.037036459892988205 0.02244444750249386 0.09229999780654907
0.0372776985168457 0.02244444750249386 0.09229999780654907
0.0375189408659935 0.02244444750249386 0.09229999780654907
0.037760183215141296 0.02244444750249386 0.09229999780654907
0.038001421838998795 0.02244444750249386 0.09229999780654907
0.038159795105457306 0.02239581197500229 0.09209999442100525
0.038358818739652634 0.022371497005224228 0.09200000017881393
0.03847340866923332 0.022298544645309448 0.0916999951004982
0.03862864896655083 0.022249912843108177 0.09149999916553497
0.038782838732004166 0.022201277315616608 0.09129999577999115
0.03897872567176819 0.022176960483193398 0.09119999408721924
0.03917409107089043 0.022152645513415337 0.09109999984502792
0.03936893492937088 0.022128328680992126 0.09099999815225601
0.03956325352191925 0.022104009985923767 0.0908999964594841
0.03966948017477989 0.022031061351299286 0.09059999883174896
0.03977413848042488 0.021958110854029655 0.09030000120401382
0.039921533316373825 0.021909475326538086 0.09009999781847
0.04011245444417 0.021885158494114876 0.08999999612569809
0.04030285030603409 0.021860841661691666 0.08989999443292618
0.04049272835254669 0.021836526691913605 0.08980000019073486
0.040727436542510986 0.021836526691913605 0.08980000019073486
0.040916528552770615 0.021812209859490395 0.08969999849796295
0.04115097224712372 0.021812209859490395 0.08969999849796295
0.04138541594147682 0.021812209859490395 0.08969999849796295
0.041619863361120224 0.021812209859490395 0.08969999849796295
0.04185430705547333 0.021812209859490395 0.08969999849796295
0.04208875447511673 0.021812209859490395 0.08969999849796295
0.04232319816946983 0.021812209859490395 0.08969999849796295
0.042557645589113235 0.021812209859490395 0.08969999849796295
0.04279208928346634 0.021812209859490395 0.08969999849796295
0.04307449981570244 0.021836526691913605 0.08980000019073486
0.04330920800566673 0.021836526691913605 0.08980000019073486
0.04354391619563103 0.021836526691913605 0.08980000019073486
0.04377862066030502 0.021836526691913605 0.08980000019073486
0.04406233876943588 0.021860841661691666 0.08989999443292618
0.04464222863316536 0.022031061351299286 0.09059999883174896
0.04760219529271126 0.02300373464822769 0.09459999948740005
0.03361508622765541 0.023324720561504364 0.09489999711513519
0.03379175812005997 0.02327556349337101 0.09470000118017197
0.03385955095291138 0.023152673617005348 0.094200000166893
0.03392472490668297 0.023029781877994537 0.09369999915361404
0.03406022489070892 0.02295604534447193 0.09339999407529831
0.034120701253414154 0.02283315733075142 0.09290000051259995
0.03421555086970329 0.02273484319448471 0.0925000011920929
0.034382812678813934 0.022685686126351357 0.09229999780654907
0.03462405130267143 0.022685686126351357 0.09229999780654907
0.03482751548290253 0.022661108523607254 0.09219999611377716
0.03510653227567673 0.022685686126351357 0.09229999780654907
0.035347774624824524 0.022685686126351357 0.09229999780654907
0.03558901324868202 0.022685686126351357 0.09229999780654907
0.03583025559782982 0.022685686126351357 0.09229999780654907
0.036071497946977615 0.022685686126351357 0.09229999780654907
0.036312736570835114 0.022685686126351357 0.09229999780654907
0.03655397519469261 0.022685686126351357 0.09229999780654907
0.03679521754384041 0.022685686126351357 0.09229999780654907
0.037036459892988205 0.022685686126351357 0.09229999780654907
0.0372776985168457 0.022685686126351357 0.09229999780654907
0.03747829049825668 0.022661108523607254 0.09219999611377716
0.03771927207708359 0.022661108523607254 0.09219999611377716
0.037919074296951294 0.022636529058218002 0.09209999442100525
0.03811836242675781 0.02261195331811905 0.09200000017881393
0.03827543184161186 0.022562794387340546 0.09179999679327011
0.03838949650526047 0.022489061579108238 0.09149999916553497
0.03854421153664589 0.022439904510974884 0.09129999577999115
0.0387403629720211 0.022415325045585632 0.09119999408721924
0.03897872567176819 0.022415325045585632 0.09119999408721924
0.03917409107089043 0.02239074930548668 0.09109999984502792
0.03936893492937088 0.022366169840097427 0.09099999815225601
0.03947620466351509 0.02229243516921997 0.09070000052452087
0.03962569311261177 0.022243278101086617 0.09049999713897705
0.03973009064793587 0.02216954529285431 0.09019999951124191
0.03987722471356392 0.022120388224720955 0.08999999612569809
0.0400678813457489 0.022095808759331703 0.08989999443292618
0.040258023887872696 0.0220712311565876 0.08980000019073486
0.04049272835254669 0.0220712311565876 0.08980000019073486
0.04068208113312721 0.022046653553843498 0.08969999849796295
0.040916528552770615 0.022046653553843498 0.08969999849796295
0.04115097224712372 0.022046653553843498 0.08969999849796295
0.04133927822113037 0.022022074088454247 0.08959999680519104
0.04157346114516258 0.022022074088454247 0.08959999680519104
0.04180764779448509 0.022022074088454247 0.08959999680519104
0.0420418307185173 0.022022074088454247 0.08959999680519104
0.04232319816946983 0.022046653553843498 0.08969999849796295
0.042557645589113235 0.022046653553843498 0.08969999849796295
0.04279208928346634 0.022046653553843498 0.08969999849796295
0.04302653297781944 0.022046653553843498 0.08969999849796295
0.04330920800566673 0.0220712311565876 0.08980000019073486
0.04354391619563103 0.0220712311565876 0.08980000019073486
0.04377862066030502 0.0220712311565876 0.08980000019073486
0.04406233876943588 0.022095808759331703 0.08989999443292618
0.04454367980360985 0.022218700498342514 0.09039999544620514
0.03361508622765541 0.023572755977511406 0.09489999711513519
0.0337560772895813 0.023498238995671272 0.09459999948740005
0.03378766030073166 0.023349199444055557 0.09399999678134918
0.03401051461696625 0.023001445457339287 0.09259999543428421
0.034178558737039566 0.022951766848564148 0.09239999949932098
0.034382812678813934 0.022926928475499153 0.09229999780654907
0.03462405130267143 0.022926928475499153 0.09229999780654907
0.03486528992652893 0.022926928475499153 0.09229999780654907
0.03510653227567673 0.022926928475499153 0.09229999780654907
0.035347774624824524 0.022926928475499153 0.09229999780654907
0.03555045649409294 0.02290208823978901 0.09219999611377716
0.03579143434762955 0.02290208823978901 0.09219999611377716
0.03603241592645645 0.02290208823978901 0.09219999611377716
0.03627339377999306 0.02290208823978901 0.09219999611377716
0.03651437163352966 0.02290208823978901 0.09219999611377716
0.03675535321235657 0.02290208823978901 0.09219999611377716
0.03695620596408844 0.022877248004078865 0.09209999442100525
0.03719692304730415 0.022877248004078865 0.09209999442100525
0.03743764013051987 0.022877248004078865 0.09209999442100525
0.03763745352625847 0.02285240963101387 0.09200000017881393
0.03779556229710579 0.022802729159593582 0.09179999679327011
0.037994060665369034 0.022777888923883438 0.0916999951004982
0.038150347769260406 0.02272821217775345 0.09149999916553497
0.03830558434128761 0.02267853170633316 0.09129999577999115
0.03850199654698372 0.022653691470623016 0.09119999408721924
0.03869788348674774 0.02262885309755802 0.09109999984502792
0.038935985416173935 0.02262885309755802 0.09109999984502792
0.03913109004497528 0.022604012861847878 0.09099999815225601
0.039282407611608505 0.02255433425307274 0.09079999476671219
0.03943268209695816 0.0225046556442976 0.09059999883174896
0.039538122713565826 0.022430136799812317 0.09030000120401382
0.039686042815446854 0.02238045632839203 0.09009999781847
0.03987722471356392 0.022355617955327034 0.08999999612569809
0.0400678813457489 0.02233077771961689 0.08989999443292618
0.040258023887872696 0.022305939346551895 0.08980000019073486
0.04049272835254669 0.022305939346551895 0.08980000019073486
0.04068208113312721 0.02228109911084175 0.08969999849796295
0.040916528552770615 0.02228109911084175 0.08969999849796295
0.04110509529709816 0.022256258875131607 0.08959999680519104
0.04133927822113037 0.022256258875131607 0.08959999680519104
0.04157346114516258 0.022256258875131607 0.08959999680519104
0.04180764779448509 0.022256258875131607 0.08959999680519104
0.0420418307185173 0.022256258875131607 0.08959999680519104
0.04232319816946983 0.02228109911084175 0.08969999849796295
0.042557645589113235 0.02228109911084175 0.08969999849796295
0.04279208928346634 0.02228109911084175 0.08969999849796295
0.04302653297781944 0.02228109911084175 0.08969999849796295
0.043260980397462845 0.02228109911084175 0.08969999849796295
0.04354391619563103 0.022305939346551895 0.08980000019073486
0.04377862066030502 0.022305939346551895 0.08980000019073486
0.04401332885026932 0.022305939346551895 0.08980000019073486
0.044346582144498825 0.022355617955327034 0.08999999612569809
0.03361508622765541 0.023820791393518448 0.09489999711513519
0.03379175812005997 0.023770591244101524 0.09470000118017197
0.03401051461696625 0.02324347011744976 0.09259999543428421
0.03414157032966614 0.02316816709935665 0.09229999780654907
0.03486528992652893 0.02316816709935665 0.09229999780654907
0.03510653227567673 0.02316816709935665 0.09229999780654907
0.035347774624824524 0.02316816709935665 0.09229999780654907
0.03555045649409294 0.023143066093325615 0.09219999611377716
0.03579143434762955 0.023143066093325615 0.09219999611377716
0.03603241592645645 0.023143066093325615 0.09219999611377716
0.036234050989151 0.02311796508729458 0.09209999442100525
0.036474768072366714 0.02311796508729458 0.09209999442100525
0.03671548515558243 0.02311796508729458 0.09209999442100525
0.03695620596408844 0.02311796508729458 0.09209999442100525
0.03715653717517853 0.02309286594390869 0.09200000017881393
0.03735634684562683 0.023067763075232506 0.09189999848604202
0.03755563125014305 0.02304266206920147 0.09179999679327011
0.03771321848034859 0.022992461919784546 0.09160000085830688
0.037869762629270554 0.022942258045077324 0.09139999747276306
0.03806695714592934 0.022917157039046288 0.09129999577999115
0.038263630121946335 0.02289205603301525 0.09119999408721924
0.03845978155732155 0.022866956889629364 0.09109999984502792
0.03865540772676468 0.022841855883598328 0.09099999815225601
0.03885050490498543 0.02281675487756729 0.0908999964594841
0.03900208696722984 0.02276655286550522 0.09070000052452087
0.03915261849761009 0.022716350853443146 0.09049999713897705
0.039345633238554 0.02269124984741211 0.09039999544620514
0.03945055231451988 0.022615946829319 0.09009999781847
0.03964199498295784 0.022590845823287964 0.08999999612569809
0.03983291611075401 0.022565744817256927 0.08989999443292618
0.0400233156979084 0.02254064381122589 0.08980000019073486
0.040258023887872696 0.02254064381122589 0.08980000019073486
0.04049272835254669 0.02254064381122589 0.08980000019073486
0.040727436542510986 0.02254064381122589 0.08980000019073486
0.040916528552770615 0.022515542805194855 0.08969999849796295
0.04115097224712372 0.022515542805194855 0.08969999849796295
0.04138541594147682 0.022515542805194855 0.08969999849796295
0.041619863361120224 0.022515542805194855 0.08969999849796295
0.04185430705547333 0.022515542805194855 0.08969999849796295
0.04208875447511673 0.022515542805194855 0.08969999849796295
0.04232319816946983 0.022515542805194855 0.08969999849796295
0.042557645589113235 0.022515542805194855 0.08969999849796295
0.04283979535102844 0.02254064381122589 0.08980000019073486
0.04307449981570244 0.02254064381122589 0.08980000019073486
0.04330920800566673 0.02254064381122589 0.08980000019073486
0.04354391619563103 0.02254064381122589 0.08980000019073486
0.04377862066030502 0.02254064381122589 0.08980000019073486
0.04406233876943588 0.022565744817256927 0.08989999443292618
0.03379175812005997 0.02401810511946678 0.09470000118017197
0.03397378697991371 0.023460134863853455 0.0925000011920929
0.03414157032966614 0.023409409448504448 0.09229999780654907
0.034382812678813934 0.023409409448504448 0.09229999780654907
0.03462405130267143 0.023409409448504448 0.09229999780654907
0.03486528992652893 0.023409409448504448 0.09229999780654907
0.03510653227567673 0.023409409448504448 0.09229999780654907
0.03530947491526604 0.02338404580950737 0.09219999611377716
0.03555045649409294 0.02338404580950737 0.09219999611377716
0.03579143434762955 0.02338404580950737 0.09219999611377716
0.03603241592645645 0.02338404580950737 0.09219999611377716
0.036234050989151 0.02335868403315544 0.09209999442100525
0.036474768072366714 0.02335868403315544 0.09209999442100525
0.03671548515558243 0.02335868403315544 0.09209999442100525
0.03691608086228371 0.023333322256803513 0.09200000017881393
0.03707576170563698 0.023282596841454506 0.09179999679327011
0.03723439946770668 0.02323187328875065 0.09160000085830688
0.03743290156126022 0.02320650964975357 0.09149999916553497
0.037630874663591385 0.023181147873401642 0.09139999747276306
0.03778689727187157 0.023130422458052635 0.09119999408721924
0.03802526369690895 0.023130422458052635 0.09119999408721924
0.03822167590260506 0.023105060681700706 0.09109999984502792
0.03841756284236908 0.023079698905348778 0.09099999815225601
0.03865540772676468 0.023079698905348778 0.09099999815225601
0.03885050490498543 0.0230543352663517 0.0908999964594841
0.03900208696722984 0.023003611713647842 0.09070000052452087
0.039109356701374054 0.022927524521946907 0.09039999544620514
0.03930211067199707 0.02290216274559498 0.09030000120401382
0.03945055231451988 0.02285143733024597 0.09009999781847
0.03964199498295784 0.022826075553894043 0.08999999612569809
0.03983291611075401 0.022800711914896965 0.08989999443292618
0.0400678813457489 0.022800711914896965 0.08989999443292618
0.040258023887872696 0.022775352001190186 0.08980000019073486
0.04049272835254669 0.022775352001190186 0.08980000019073486
0.04068208113312721 0.022749988362193108 0.08969999849796295
0.04096214473247528 0.022775352001190186 0.08980000019073486
0.04115097224712372 0.022749988362193108 0.08969999849796295
0.04138541594147682 0.022749988362193108 0.08969999849796295
0.04166626185178757 0.022775352001190186 0.08980000019073486
0.04190097004175186 0.022775352001190186 0.08980000019073486
0.04213567450642586 0.022775352001190186 0.08980000019073486
0.04237038269639015 0.022775352001190186 0.08980000019073486
0.042605090886354446 0.022775352001190186 0.08980000019073486
0.04283979535102844 0.022775352001190186 0.08980000019073486
0.04307449981570244 0.022775352001190186 0.08980000019073486
0.04330920800566673 0.022775352001190186 0.08980000019073486
0.04354391619563103 0.022775352001190186 0.08980000019073486
0.04377862066030502 0.022775352001190186 0.08980000019073486
0.04406233876943588 0.022800711914896965 0.08989999443292618
0.0337560772895813 0.02423999458551407 0.09459999948740005
0.03397378697991371 0.023701898753643036 0.0925000011920929
0.03414157032966614 0.023650649935007095 0.09229999780654907
0.034382812678813934 0.023650649935007095 0.09229999780654907
0.03462405130267143 0.023650649935007095 0.09229999780654907
0.03486528992652893 0.023650649935007095 0.09229999780654907
0.03510653227567673 0.023650649935007095 0.09229999780654907
0.035347774624824524 0.023650649935007095 0.09229999780654907
0.03558901324868202 0.023650649935007095 0.09229999780654907
0.03579143434762955 0.023625025525689125 0.09219999611377716
0.03603241592645645 0.023625025525689125 0.09219999611377716
0.036234050989151 0.023599401116371155 0.09209999442100525
0.036474768072366714 0.023599401116371155 0.09209999442100525
0.03671548515558243 0.023599401116371155 0.09209999442100525
0.03687595576047897 0.023548156023025513 0.09189999848604202
0.037035372108221054 0.023496907204389572 0.0916999951004982
0.037193749099969864 0.02344566024839878 0.09149999916553497
0.037351079285144806 0.02339441329240799 0.09129999577999115
0.03754853084683418 0.02336878888309002 0.09119999408721924
0.03778689727187157 0.02336878888309002 0.09119999408721924
0.037983570247888565 0.023343166336417198 0.09109999984502792
0.03817971795797348 0.023317541927099228 0.09099999815225601
0.03841756284236908 0.023317541927099228 0.09099999815225601
0.03861292824149132 0.023291917517781258 0.0908999964594841
0.03876502811908722 0.023240672424435616 0.09070000052452087
0.0389590859413147 0.023215048015117645 0.09059999883174896
0.039109356701374054 0.023163799196481705 0.09039999544620514
0.03925858438014984 0.023112552240490913 0.09019999951124191
0.03945055231451988 0.023086929693818092 0.09009999781847
0.03964199498295784 0.023061305284500122 0.08999999612569809
0.03983291611075401 0.023035680875182152 0.08989999443292618
0.0400233156979084 0.02301005832850933 0.08980000019073486
0.040258023887872696 0.02301005832850933 0.08980000019073486
0.04049272835254669 0.02301005832850933 0.08980000019073486
0.040727436542510986 0.02301005832850933 0.08980000019073486
0.04096214473247528 0.02301005832850933 0.08980000019073486
0.04119684919714928 0.02301005832850933 0.08980000019073486
0.04143155366182327 0.02301005832850933 0.08980000019073486
0.04166626185178757 0.02301005832850933 0.08980000019073486
0.04190097004175186 0.02301005832850933 0.08980000019073486
0.04213567450642586 0.02301005832850933 0.08980000019073486
0.04241756349802017 0.023035680875182152 0.08989999443292618
0.04265253245830536 0.023035680875182152 0.08989999443292618
0.042887501418590546 0.023035680875182152 0.08989999443292618
0.04307449981570244 0.02301005832850933 0.08980000019073486
0.04335743561387062 0.023035680875182152 0.08989999443292618
0.04359240084886551 0.023035680875182152 0.08989999443292618
0.043827369809150696 0.023035680875182152 0.08989999443292618
0.04785463958978653 0.024624349549412727 0.09609999507665634
0.033650510013103485 0.024590786546468735 0.0949999988079071
0.0337560772895813 0.024487247690558434 0.09459999948740005
0.03397378697991371 0.023943662643432617 0.0925000011920929
0.03414157032966614 0.023891890421509743 0.09229999780654907
0.034345559775829315 0.02386600524187088 0.09219999611377716
0.03462405130267143 0.023891890421509743 0.09229999780654907
0.03486528992652893 0.023891890421509743 0.09229999780654907
0.03510653227567673 0.023891890421509743 0.09229999780654907
0.035347774624824524 0.023891890421509743 0.09229999780654907
0.03558901324868202 0.023891890421509743 0.09229999780654907
0.03579143434762955 0.02386600524187088 0.09219999611377716
0.03603241592645645 0.02386600524187088 0.09219999611377716
0.03627339377999306 0.02386600524187088 0.09219999611377716
0.036474768072366714 0.023840120062232018 0.09209999442100525
0.03671548515558243 0.023840120062232018 0.09209999442100525
0.03683582693338394 0.02376246638596058 0.09179999679327011
0.03699498623609543 0.023710696026682854 0.09160000085830688
0.03715309873223305 0.02365892566740513 0.09139999747276306
0.0373101681470871 0.023607155308127403 0.09119999408721924
0.03754853084683418 0.023607155308127403 0.09119999408721924
0.03774546459317207 0.02358127012848854 0.09109999984502792
0.03794187679886818 0.023555384948849678 0.09099999815225601
0.0381377637386322 0.023529499769210815 0.0908999964594841
0.03829091414809227 0.02347773127257824 0.09070000052452087
0.038527972996234894 0.02347773127257824 0.09070000052452087
0.038722287863492966 0.023451846092939377 0.09059999883174896
0.03883008286356926 0.02337419055402279 0.09030000120401382
0.03897957131266594 0.023322420194745064 0.09009999781847
0.03917153552174568 0.0232965350151062 0.08999999612569809
0.03940676525235176 0.0232965350151062 0.08999999612569809
0.039597947150468826 0.02327064983546734 0.08989999443292618
0.03983291611075401 0.02327064983546734 0.08989999443292618
0.0400233156979084 0.023244764655828476 0.08980000019073486
0.040258023887872696 0.023244764655828476 0.08980000019073486
0.04049272835254669 0.023244764655828476 0.08980000019073486
0.040727436542510986 0.023244764655828476 0.08980000019073486
0.04100775718688965 0.02327064983546734 0.08989999443292618
0.041242726147174835 0.02327064983546734 0.08989999443292618
0.041477691382169724 0.02327064983546734 0.08989999443292618
0.04171266034245491 0.02327064983546734 0.08989999443292618
0.0419476255774498 0.02327064983546734 0.08989999443292618
0.042182594537734985 0.02327064983546734 0.08989999443292618
0.04241756349802017 0.02327064983546734 0.08989999443292618
0.04269997775554657 0.0232965350151062 0.08999999612569809
0.04293520748615265 0.0232965350151062 0.08999999612569809
0.04317043349146843 0.0232965350151062 0.08999999612569809
0.04335743561387062 0.02327064983546734 0.08989999443292618
0.04359240084886551 0.02327064983546734 0.08989999443292618
0.03361508622765541 0.024812938645482063 0.09489999711513519
0.0337560772895813 0.0247345007956028 0.09459999948740005
0.03397378697991371 0.0241854265332222 0.0925000011920929
0.03414157032966614 0.02413313277065754 0.09229999780654907
0.034382812678813934 0.02413313277065754 0.09229999780654907
0.03462405130267143 0.02413313277065754 0.09229999780654907
0.03486528992652893 0.02413313277065754 0.09229999780654907
0.03510653227567673 0.02413313277065754 0.09229999780654907
0.035347774624824524 0.02413313277065754 0.09229999780654907
0.03558901324868202 0.02413313277065754 0.09229999780654907
0.03583025559782982 0.02413313277065754 0.09229999780654907
0.03603241592645645 0.024106984958052635 0.09219999611377716
0.03627339377999306 0.024106984958052635 0.09219999611377716
0.03651437163352966 0.024106984958052635 0.09219999611377716
0.03671548515558243 0.02408083900809288 0.09209999442100525
0.03683582693338394 0.024002399295568466 0.09179999679327011
0.0369546003639698 0.0239239614456892 0.09149999916553497
0.03711245208978653 0.023871667683124542 0.09129999577999115
0.0373101681470871 0.023845519870519638 0.09119999408721924
0.03750736266374588 0.023819375783205032 0.09109999984502792
0.03766259923577309 0.023767082020640373 0.0908999964594841
0.03785848617553711 0.02374093607068062 0.09079999476671219
0.03801189735531807 0.02368864417076111 0.09059999883174896
0.03820647671818733 0.023662496358156204 0.09049999713897705
0.03840053454041481 0.02363635040819645 0.09039999544620514
0.03874408081173897 0.023557910695672035 0.09009999781847
0.03917153552174568 0.02353176474571228 0.08999999612569809
0.03940676525235176 0.02353176474571228 0.08999999612569809
0.039597947150468826 0.023505616933107376 0.08989999443292618
0.03983291611075401 0.023505616933107376 0.08989999443292618
0.0400678813457489 0.023505616933107376 0.08989999443292618
0.04030285030603409 0.023505616933107376 0.08989999443292618
0.040537819266319275 0.023505616933107376 0.08989999443292618
0.04077278822660446 0.023505616933107376 0.08989999443292618
0.041053373366594315 0.02353176474571228 0.08999999612569809
0.041288603097200394 0.02353176474571228 0.08999999612569809
0.041523829102516174 0.02353176474571228 0.08999999612569809
0.04175905883312225 0.02353176474571228 0.08999999612569809
0.04199428856372833 0.02353176474571228 0.08999999612569809
0.04227643832564354 0.023557910695672035 0.09009999781847
0.04251193255186081 0.023557910695672035 0.09009999781847
0.04274742305278778 0.023557910695672035 0.09009999781847
0.04298291355371475 0.023557910695672035 0.09009999781847
0.04317043349146843 0.02353176474571228 0.08999999612569809
0.043453894555568695 0.023557910695672035 0.09009999781847
0.043689385056495667 0.023557910695672035 0.09009999781847
0.04392487555742264 0.023557910695672035 0.09009999781847
0.03361508622765541 0.025060975924134254 0.09489999711513519
0.0337560772895813 0.024981752038002014 0.09459999948740005
0.03397378697991371 0.02442719042301178 0.0925000011920929
0.03414157032966614 0.024374373257160187 0.09229999780654907
0.034382812678813934 0.024374373257160187 0.09229999780654907
0.03462405130267143 0.024374373257160187 0.09229999780654907
0.03486528992652893 0.024374373257160187 0.09229999780654907
0.03510653227567673 0.024374373257160187 0.09229999780654907
0.035347774624824524 0.024374373257160187 0.09229999780654907
0.03558901324868202 0.024374373257160187 0.09229999780654907
0.03583025559782982 0.024374373257160187 0.09229999780654907
0.036071497946977615 0.024374373257160187 0.09229999780654907
0.036312736570835114 0.024374373257160187 0.09229999780654907
0.03651437163352966 0.02434796467423439 0.09219999611377716
0.03671548515558243 0.024321556091308594 0.09209999442100525
0.036755576729774475 0.02418951876461506 0.09160000085830688
0.03691421076655388 0.024136703461408615 0.09139999747276306
0.03707180172204971 0.024083886295557022 0.09119999408721924
0.03726926073431969 0.024057481437921524 0.09109999984502792
0.03746619075536728 0.024031072854995728 0.09099999815225601
0.03762116655707359 0.023978255689144135 0.09079999476671219
0.03777509927749634 0.02392544224858284 0.09059999883174896
0.03796993941068649 0.023899033665657043 0.09049999713897705
0.04034768417477608 0.02376699447631836 0.08999999612569809
0.040582913905382156 0.02376699447631836 0.08999999612569809
0.04086349532008171 0.023793403059244156 0.09009999781847
0.04109898582100868 0.023793403059244156 0.09009999781847
0.04133448004722595 0.023793403059244156 0.09009999781847
0.041616104543209076 0.023819809779524803 0.09019999951124191
0.04189825803041458 0.0238462183624506 0.09030000120401382
0.04213427007198334 0.0238462183624506 0.09030000120401382
0.04237028583884239 0.0238462183624506 0.09030000120401382
0.04260629788041115 0.0238462183624506 0.09030000120401382
0.0428423136472702 0.0238462183624506 0.09030000120401382
0.043030619621276855 0.023819809779524803 0.09019999951124191
0.04326637089252472 0.023819809779524803 0.09019999951124191
0.04359857738018036 0.023872625082731247 0.09039999544620514
0.043931834399700165 0.02392544224858284 0.09059999883174896
0.0337560772895813 0.02522900141775608 0.09459999948740005
0.0337517149746418 0.025042317807674408 0.09389999508857727
0.03397378697991371 0.024668950587511063 0.0925000011920929
0.034178558737039566 0.024642281234264374 0.09239999949932098
0.034382812678813934 0.024615611881017685 0.09229999780654907
0.034661564975976944 0.024642281234264374 0.09239999949932098
0.03486528992652893 0.024615611881017685 0.09229999780654907
0.03514456748962402 0.024642281234264374 0.09239999949932098
0.035347774624824524 0.024615611881017685 0.09229999780654907
0.03558901324868202 0.024615611881017685 0.09229999780654907
0.03583025559782982 0.024615611881017685 0.09229999780654907
0.036071497946977615 0.024615611881017685 0.09229999780654907
0.036312736570835114 0.024615611881017685 0.09229999780654907
0.03651437163352966 0.024588942527770996 0.09219999611377716
0.036675624549388885 0.024535605683922768 0.09200000017881393
0.03679570183157921 0.024455595761537552 0.0916999951004982
0.03707180172204971 0.024322250857949257 0.09119999408721924
0.03726926073431969 0.024295583367347717 0.09109999984502792
0.03742501512169838 0.02424224279820919 0.0908999964594841
0.037538301199674606 0.024162236601114273 0.09059999883174896
0.03769170865416527 0.024108897894620895 0.09039999544620514
0.03784407302737236 0.024055561050772667 0.09019999951124191
0.04039251431822777 0.02402888983488083 0.09009999781847
0.04067309945821762 0.024055561050772667 0.09019999951124191
0.04095420613884926 0.024082230404019356 0.09030000120401382
0.04123583063483238 0.024108897894620895 0.09039999544620514
0.04147210717201233 0.024108897894620895 0.09039999544620514
0.04180065542459488 0.024162236601114273 0.09059999883174896
0.04203745350241661 0.024162236601114273 0.09059999883174896
0.04227425158023834 0.024162236601114273 0.09059999883174896
0.042511049658060074 0.024162236601114273 0.09059999883174896
0.042747847735881805 0.024162236601114273 0.09059999883174896
0.042937200516462326 0.024135567247867584 0.09049999713897705
0.043126028031110764 0.024108897894620895 0.09039999544620514
0.043410271406173706 0.024135567247867584 0.09049999713897705
0.04374326393008232 0.024188905954360962 0.09070000052452087
0.04417428374290466 0.024295583367347717 0.09109999984502792
0.03371577337384224 0.025260811671614647 0.09380000084638596
0.03395082429051399 0.02507229708135128 0.09309999644756317
0.03397378697991371 0.024910714477300644 0.0925000011920929
0.03421555086970329 0.024910714477300644 0.0925000011920929
0.034420061856508255 0.024883784353733063 0.09239999949932098
0.034661564975976944 0.024883784353733063 0.09239999949932098
0.034903064370155334 0.024883784353733063 0.09239999949932098
0.03514456748962402 0.024883784353733063 0.09239999949932098
0.03538607060909271 0.024883784353733063 0.09239999949932098
0.03558901324868202 0.024856852367520332 0.09229999780654907
0.03583025559782982 0.024856852367520332 0.09229999780654907
0.036071497946977615 0.024856852367520332 0.09229999780654907
0.036312736570835114 0.024856852367520332 0.09229999780654907
0.036474768072366714 0.02480299025774002 0.09209999442100525
0.036635756492614746 0.024749131873250008 0.09189999848604202
0.036755576729774475 0.024668339639902115 0.09160000085830688
0.03683343529701233 0.02456061542034149 0.09119999408721924
0.037031155079603195 0.02453368715941906 0.09109999984502792
0.03722834959626198 0.02450675703585148 0.09099999815225601
0.037342675030231476 0.024425964802503586 0.09070000052452087
0.03745543211698532 0.024345172569155693 0.09039999544620514
0.037608321756124496 0.02429131232202053 0.09019999951124191
0.037760160863399506 0.02423745021224022 0.08999999612569809
0.037995390594005585 0.02423745021224022 0.08999999612569809
0.0381881408393383 0.024210520088672638 0.08989999443292618
0.04048217833042145 0.02431824430823326 0.09030000120401382
0.04076328128576279 0.024345172569155693 0.09039999544620514
0.04109026491641998 0.024399034678936005 0.09059999883174896
0.04137267917394638 0.024425964802503586 0.09070000052452087
0.041655611246824265 0.024452894926071167 0.09079999476671219
0.04193906858563423 0.024479825049638748 0.0908999964594841
0.04217664897441864 0.024479825049638748 0.0908999964594841
0.04241422936320305 0.024479825049638748 0.0908999964594841
0.042651813477277756 0.024479825049638748 0.0908999964594841
0.042842209339141846 0.024452894926071167 0.09079999476671219
0.04303209111094475 0.024425964802503586 0.09070000052452087
0.04326914995908737 0.024425964802503586 0.09070000052452087
0.0435062050819397 0.024425964802503586 0.09070000052452087
0.04388795047998428 0.02450675703585148 0.09099999815225601
0.04422277212142944 0.02456061542034149 0.09119999408721924
0.03371577337384224 0.025505973026156425 0.09380000084638596
0.033987291157245636 0.025342820212244987 0.09319999814033508
0.03401051461696625 0.0251796692609787 0.09259999543428421
0.03421555086970329 0.025152478367090225 0.0925000011920929
0.034420061856508255 0.025125285610556602 0.09239999949932098
0.034661564975976944 0.025125285610556602 0.09239999949932098
0.034903064370155334 0.025125285610556602 0.09239999949932098
0.03514456748962402 0.025125285610556602 0.09239999949932098
0.03538607060909271 0.025125285610556602 0.09239999949932098
0.03558901324868202 0.02509809471666813 0.09229999780654907
0.03583025559782982 0.02509809471666813 0.09229999780654907
0.036071497946977615 0.02509809471666813 0.09229999780654907
0.036312736570835114 0.02509809471666813 0.09229999780654907
0.03651437163352966 0.025070901960134506 0.09219999611377716
0.036635756492614746 0.024989327415823936 0.09189999848604202
0.03671544790267944 0.024880560114979744 0.09149999916553497
0.03683343529701233 0.024798981845378876 0.09119999408721924
0.037031155079603195 0.02477179281413555 0.09109999984502792
0.03718743845820427 0.024717407301068306 0.0908999964594841
0.037301503121852875 0.024635832756757736 0.09059999883174896
0.037414003163576126 0.024554258212447166 0.09030000120401382
0.03756662458181381 0.02449987269937992 0.09009999781847
0.037760160863399506 0.024472679942846298 0.08999999612569809
0.037995390594005585 0.024472679942846298 0.08999999612569809
0.0381881408393383 0.024445489048957825 0.08989999443292618
0.038380369544029236 0.02441829815506935 0.08980000019073486
0.04061666876077652 0.024635832756757736 0.09059999883174896
0.040898557752370834 0.02466302551329136 0.09070000052452087
0.04122632369399071 0.024717407301068306 0.0908999964594841
0.041463904082775116 0.024717407301068306 0.0908999964594841
0.04174736514687538 0.02474460005760193 0.09099999815225601
0.04198520630598068 0.02474460005760193 0.09099999815225601
0.04222304746508598 0.02474460005760193 0.09099999815225601
0.04269873723387718 0.02474460005760193 0.09099999815225601
0.04293657839298248 0.02474460005760193 0.09099999815225601
0.04312697798013687 0.024717407301068306 0.0908999964594841
0.04336455836892128 0.024717407301068306 0.0908999964594841
0.04360213875770569 0.024717407301068306 0.0908999964594841
0.04393617808818817 0.02477179281413555 0.09109999984502792
0.044271260499954224 0.0248261746019125 0.09129999577999115
0.046169720590114594 0.025478780269622803 0.09369999915361404
0.03371577337384224 0.025751134380698204 0.09380000084638596
0.033987291157245636 0.025586415082216263 0.09319999814033508
