ply
format ascii 1.0
element vertex 769
property float x
property float y
property float z
end_header
0.008860880509018898 -0.018407946452498436 0.06709999591112137
0.009022791869938374 -0.01838051527738571 0.06700000166893005
0.009197907522320747 -0.01838051527738571 0.06700000166893005
0.009373021312057972 -0.01838051527738571 0.06700000166893005
0.00953388586640358 -0.01835308037698269 0.06689999997615814
0.009708739817142487 -0.01835308037698269 0.06689999997615814
0.009883592836558819 -0.01835308037698269 0.06689999997615814
0.010058446787297726 -0.01835308037698269 0.06689999997615814
0.010218004696071148 -0.018325647339224815 0.06679999828338623
0.010392596013844013 -0.018325647339224815 0.06679999828338623
0.010567189194262028 -0.018325647339224815 0.06679999828338623
0.010725701227784157 -0.018298212438821793 0.06669999659061432
0.01090003177523613 -0.018298212438821793 0.06669999659061432
0.011057759635150433 -0.01827077940106392 0.06659999489784241
0.01124869380146265 -0.018298212438821793 0.06669999659061432
0.01180698536336422 -0.01835308037698269 0.06689999997615814
0.011981839314103127 -0.01835308037698269 0.06689999997615814
0.012543788179755211 -0.018407946452498436 0.06709999591112137
0.012738119810819626 -0.01843538135290146 0.06719999760389328
0.012913757935166359 -0.01843538135290146 0.06719999760389328
0.013089396059513092 -0.01843538135290146 0.06719999760389328
0.013245293870568275 -0.018407946452498436 0.06709999591112137
0.013420670293271542 -0.018407946452498436 0.06709999591112137
0.013730376027524471 -0.01835308037698269 0.06689999997615814
0.01388444472104311 -0.018325647339224815 0.06679999828338623
0.018465425819158554 -0.01785927638411522 0.06509999930858612
0.018635574728250504 -0.01785927638411522 0.06509999930858612
0.01877683587372303 -0.017831841483712196 0.06499999761581421
0.018946724012494087 -0.017831841483712196 0.06499999761581421
0.019116610288619995 -0.017831841483712196 0.06499999761581421
0.019256826490163803 -0.017804408445954323 0.0648999959230423
0.019426453858613968 -0.017804408445954323 0.0648999959230423
0.019596081227064133 -0.017804408445954323 0.0648999959230423
0.020475713536143303 -0.017831841483712196 0.06499999761581421
0.02064560167491436 -0.017831841483712196 0.06499999761581421
0.020847514271736145 -0.01785927638411522 0.06509999930858612
0.021017663180828094 -0.01785927638411522 0.06509999930858612
0.021187813952565193 -0.01785927638411522 0.06509999930858612
0.021357960999011993 -0.01785927638411522 0.06509999930858612
0.02156118117272854 -0.017886709421873093 0.06520000100135803
0.02173159085214138 -0.017886709421873093 0.06520000100135803
0.02190200239419937 -0.017886709421873093 0.06520000100135803
0.022106263786554337 -0.017914142459630966 0.06529999524354935
0.022722193971276283 -0.017996443435549736 0.06560000032186508
0.022893650457262993 -0.017996443435549736 0.06560000032186508
0.023065106943249702 -0.017996443435549736 0.06560000032186508
0.023236563429236412 -0.017996443435549736 0.06560000032186508
0.023507585749030113 -0.01794157549738884 0.06539999693632126
0.02367851696908474 -0.01794157549738884 0.06539999693632126
0.02381298318505287 -0.017914142459630966 0.06529999524354935
0.023983655497431755 -0.017914142459630966 0.06529999524354935
0.02415432780981064 -0.017914142459630966 0.06529999524354935
0.0242877509444952 -0.017886709421873093 0.06520000100135803
0.024458160623908043 -0.017886709421873093 0.06520000100135803
0.024628570303320885 -0.017886709421873093 0.06520000100135803
0.024798981845378876 -0.017886709421873093 0.06520000100135803
0.024969391524791718 -0.017886709421873093 0.06520000100135803
0.02513980306684971 -0.017886709421873093 0.06520000100135803
0.0253102146089077 -0.017886709421873093 0.06520000100135803
0.02548062428832054 -0.017886709421873093 0.06520000100135803
0.025651033967733383 -0.017886709421873093 0.06520000100135803
0.025861045345664024 -0.017914142459630966 0.06529999524354935
0.0038368471432477236 -0.018531467765569687 0.0681999996304512
0.004009210970252752 -0.018504295498132706 0.06809999793767929
0.0041933502070605755 -0.018531467765569687 0.0681999996304512
0.004365191329270601 -0.018504295498132706 0.06809999793767929
0.004543181974440813 -0.018504295498132706 0.06809999793767929
0.00472117168828845 -0.018504295498132706 0.06809999793767929
0.004891968332231045 -0.018477123230695724 0.06799999624490738
0.0050771525129675865 -0.018504295498132706 0.06809999793767929
0.00524742528796196 -0.018477123230695724 0.06799999624490738
0.005425154697149992 -0.018477123230695724 0.06799999624490738
0.005594644229859114 -0.018449952825903893 0.06790000200271606
0.005772111471742392 -0.018449952825903893 0.06790000200271606
0.005940816830843687 -0.018422778695821762 0.06780000030994415
0.006118022371083498 -0.018422778695821762 0.06780000030994415
0.0062952288426458836 -0.018422778695821762 0.06780000030994415
0.006472434848546982 -0.018422778695821762 0.06780000030994415
0.0066398330964148045 -0.01839560642838478 0.06769999861717224
0.007808621972799301 -0.018232572823762894 0.06709999591112137
0.007983998395502567 -0.018232572823762894 0.06709999591112137
0.008159374818205833 -0.018232572823762894 0.06709999591112137
0.008322331123054028 -0.01820540241897106 0.06700000166893005
0.00851012859493494 -0.018232572823762894 0.06709999591112137
0.008672560565173626 -0.01820540241897106 0.06700000166893005
0.008847676217556 -0.01820540241897106 0.06700000166893005
0.009022791869938374 -0.01820540241897106 0.06700000166893005
0.009197907522320747 -0.01820540241897106 0.06700000166893005
0.009373021312057972 -0.01820540241897106 0.06700000166893005
0.00953388586640358 -0.01817822828888893 0.06689999997615814
0.009708739817142487 -0.01817822828888893 0.06689999997615814
0.009883592836558819 -0.01817822828888893 0.06689999997615814
0.010058446787297726 -0.01817822828888893 0.06689999997615814
0.010218004696071148 -0.01815105602145195 0.06679999828338623
0.010392596013844013 -0.01815105602145195 0.06679999828338623
0.010567189194262028 -0.01815105602145195 0.06679999828338623
0.010741781443357468 -0.01815105602145195 0.06679999828338623
0.01090003177523613 -0.01812388375401497 0.06669999659061432
0.011074362322688103 -0.01812388375401497 0.06669999659061432
0.011265559121966362 -0.01815105602145195 0.06679999828338623
0.011440150439739227 -0.01815105602145195 0.06679999828338623
0.011632131412625313 -0.01817822828888893 0.06689999997615814
0.01180698536336422 -0.01817822828888893 0.06689999997615814
0.011999749578535557 -0.01820540241897106 0.06700000166893005
0.012174864299595356 -0.01820540241897106 0.06700000166893005
0.012368411757051945 -0.018232572823762894 0.06709999591112137
0.012543788179755211 -0.018232572823762894 0.06709999591112137
0.012719163671135902 -0.018232572823762894 0.06709999591112137
0.012894541025161743 -0.018232572823762894 0.06709999591112137
0.01306991744786501 -0.018232572823762894 0.06709999591112137
0.013225555419921875 -0.01820540241897106 0.06700000166893005
0.01635335385799408 -0.017797816544771194 0.06549999862909317
0.01654977723956108 -0.017824990674853325 0.06560000032186508
0.01672123372554779 -0.017824990674853325 0.06560000032186508
0.017288146540522575 -0.017879333347082138 0.06579999625682831
0.01746012642979622 -0.017879333347082138 0.06579999625682831
0.017632104456424713 -0.017879333347082138 0.06579999625682831
0.017777027562260628 -0.017852162942290306 0.065700002014637
0.01792142540216446 -0.017824990674853325 0.06560000032186508
0.018037719652056694 -0.017770644277334213 0.06539999693632126
0.018180809915065765 -0.017743472009897232 0.06529999524354935
0.0183233805000782 -0.0177163016051054 0.06520000100135803
0.018493790179491043 -0.0177163016051054 0.06520000100135803
0.018635574728250504 -0.01768912933766842 0.06509999930858612
0.018805723637342453 -0.01768912933766842 0.06509999930858612
0.01897587440907955 -0.01768912933766842 0.06509999930858612
0.019116610288619995 -0.01766195520758629 0.06499999761581421
0.019286498427391052 -0.01766195520758629 0.06499999761581421
0.01945638656616211 -0.01766195520758629 0.06499999761581421
0.019626274704933167 -0.01766195520758629 0.06499999761581421
0.02013593725860119 -0.01766195520758629 0.06499999761581421
0.020305825397372246 -0.01766195520758629 0.06499999761581421
0.020847514271736145 -0.01768912933766842 0.06509999930858612
0.021017663180828094 -0.01768912933766842 0.06509999930858612
0.021187813952565193 -0.01768912933766842 0.06509999930858612
0.021357960999011993 -0.01768912933766842 0.06509999930858612
0.021528109908103943 -0.01768912933766842 0.06509999930858612
0.02173159085214138 -0.0177163016051054 0.06520000100135803
0.02190200239419937 -0.0177163016051054 0.06520000100135803
0.022072413936257362 -0.0177163016051054 0.06520000100135803
0.02227693609893322 -0.017743472009897232 0.06529999524354935
0.022994784638285637 -0.017770644277334213 0.06539999693632126
0.023165717720985413 -0.017770644277334213 0.06539999693632126
0.02364231087267399 -0.017743472009897232 0.06529999524354935
0.02381298318505287 -0.017743472009897232 0.06529999524354935
0.02394692972302437 -0.0177163016051054 0.06520000100135803
0.02411733940243721 -0.0177163016051054 0.06520000100135803
0.0242877509444952 -0.0177163016051054 0.06520000100135803
0.024458160623908043 -0.0177163016051054 0.06520000100135803
0.024628570303320885 -0.0177163016051054 0.06520000100135803
0.024798981845378876 -0.0177163016051054 0.06520000100135803
0.024969391524791718 -0.0177163016051054 0.06520000100135803
0.02513980306684971 -0.0177163016051054 0.06520000100135803
0.0253102146089077 -0.0177163016051054 0.06520000100135803
0.025519702583551407 -0.017743472009897232 0.06529999524354935
0.02569037303328514 -0.017743472009897232 0.06529999524354935
0.025861045345664024 -0.017743472009897232 0.06529999524354935
0.0036532310768961906 -0.018326304852962494 0.06809999793767929
0.003831221256405115 -0.018326304852962494 0.06809999793767929
0.004003324080258608 -0.018299393355846405 0.06799999624490738
0.004181052558124065 -0.018299393355846405 0.06799999624490738
0.00435878150165081 -0.018299393355846405 0.06799999624490738
0.004536510445177555 -0.018299393355846405 0.06799999624490738
0.004707306623458862 -0.018272483721375465 0.06790000200271606
0.004891968332231045 -0.018299393355846405 0.06799999624490738
0.005062241572886705 -0.018272483721375465 0.06790000200271606
0.005239709280431271 -0.018272483721375465 0.06790000200271606
0.005417176987975836 -0.018272483721375465 0.06790000200271606
0.005586404353380203 -0.018245572224259377 0.06780000030994415
0.0057636103592813015 -0.018245572224259377 0.06780000030994415
0.005940816830843687 -0.018245572224259377 0.06780000030994415
0.006118022371083498 -0.018245572224259377 0.06780000030994415
0.0062952288426458836 -0.018245572224259377 0.06780000030994415
0.006472434848546982 -0.018245572224259377 0.06780000030994415
0.0066398330964148045 -0.018218660727143288 0.06769999861717224
0.006816777866333723 -0.018218660727143288 0.06769999861717224
0.007808621972799301 -0.018057195469737053 0.06709999591112137
0.007983998395502567 -0.018057195469737053 0.06709999591112137
0.008147215470671654 -0.018030285835266113 0.06700000166893005
0.008322331123054028 -0.018030285835266113 0.06700000166893005
0.008497445844113827 -0.018030285835266113 0.06700000166893005
0.008672560565173626 -0.018030285835266113 0.06700000166893005
0.008834470063447952 -0.018003374338150024 0.06689999997615814
0.009009324945509434 -0.018003374338150024 0.06689999997615814
0.00918417889624834 -0.018003374338150024 0.06689999997615814
0.009359031915664673 -0.018003374338150024 0.06689999997615814
0.00953388586640358 -0.018003374338150024 0.06689999997615814
0.009708739817142487 -0.018003374338150024 0.06689999997615814
0.009883592836558819 -0.018003374338150024 0.06689999997615814
0.010058446787297726 -0.018003374338150024 0.06689999997615814
0.010218004696071148 -0.017976462841033936 0.06679999828338623
0.010392596013844013 -0.017976462841033936 0.06679999828338623
0.010583008639514446 -0.018003374338150024 0.06689999997615814
0.010741781443357468 -0.017976462841033936 0.06679999828338623
0.010916373692452908 -0.017976462841033936 0.06679999828338623
0.011090965941548347 -0.017976462841033936 0.06679999828338623
0.011265559121966362 -0.017976462841033936 0.06679999828338623
0.011457277461886406 -0.018003374338150024 0.06689999997615814
0.011632131412625313 -0.018003374338150024 0.06689999997615814
0.011824633926153183 -0.018030285835266113 0.06700000166893005
0.012719163671135902 -0.018057195469737053 0.06709999591112137
0.013205815106630325 -0.018003374338150024 0.06689999997615814
0.01336066797375679 -0.017976462841033936 0.06679999828338623
0.013668804429471493 -0.017922641709446907 0.06659999489784241
0.01382208988070488 -0.017895732074975967 0.06650000065565109
0.013974851928651333 -0.01786882057785988 0.06639999896287918
0.014730819500982761 -0.017734264954924583 0.06589999794960022
0.015568360686302185 -0.017707353457808495 0.06579999625682831
0.01574033871293068 -0.017707353457808495 0.06579999625682831
0.015888135880231857 -0.017680445685982704 0.065700002014637
0.01623157039284706 -0.017680445685982704 0.065700002014637
0.016403287649154663 -0.017680445685982704 0.065700002014637
0.016575004905462265 -0.017680445685982704 0.065700002014637
0.016772212460637093 -0.017707353457808495 0.06579999625682831
0.017632104456424713 -0.017707353457808495 0.06579999625682831
0.017804084345698357 -0.017707353457808495 0.06579999625682831
0.01794874481856823 -0.017680445685982704 0.065700002014637
0.018180809915065765 -0.01757279969751835 0.06529999524354935
0.01835148222744465 -0.01757279969751835 0.06529999524354935
0.018493790179491043 -0.01754589006304741 0.06520000100135803
0.018664201721549034 -0.01754589006304741 0.06520000100135803
0.018805723637342453 -0.01751897856593132 0.06509999930858612
0.01897587440907955 -0.01751897856593132 0.06509999930858612
0.019146021455526352 -0.01751897856593132 0.06509999930858612
0.0193161703646183 -0.01751897856593132 0.06509999930858612
0.01945638656616211 -0.01749206706881523 0.06499999761581421
0.01965647004544735 -0.01751897856593132 0.06509999930858612
0.021187813952565193 -0.01751897856593132 0.06509999930858612
0.021357960999011993 -0.01751897856593132 0.06509999930858612
0.02190200239419937 -0.01754589006304741 0.06520000100135803
0.022072413936257362 -0.01754589006304741 0.06520000100135803
0.022242823615670204 -0.01754589006304741 0.06520000100135803
0.022447606548666954 -0.01757279969751835 0.06529999524354935
0.023130295798182487 -0.01757279969751835 0.06529999524354935
0.02364231087267399 -0.01757279969751835 0.06529999524354935
0.02381298318505287 -0.01757279969751835 0.06529999524354935
0.02394692972302437 -0.01754589006304741 0.06520000100135803
0.02411733940243721 -0.01754589006304741 0.06520000100135803
0.0242877509444952 -0.01754589006304741 0.06520000100135803
0.024458160623908043 -0.01754589006304741 0.06520000100135803
0.024628570303320885 -0.01754589006304741 0.06520000100135803
0.024798981845378876 -0.01754589006304741 0.06520000100135803
0.024969391524791718 -0.01754589006304741 0.06520000100135803
0.02513980306684971 -0.01754589006304741 0.06520000100135803
0.0253102146089077 -0.01754589006304741 0.06520000100135803
0.025519702583551407 -0.01757279969751835 0.06529999524354935
0.02569037303328514 -0.01757279969751835 0.06529999524354935
0.025900648906826973 -0.017599711194634438 0.06539999693632126
0.0033214595168828964 -0.018281562253832817 0.06859999895095825
0.004352371674031019 -0.018095016479492188 0.06790000200271606
0.004529839381575584 -0.018095016479492188 0.06790000200271606
0.004707306623458862 -0.018095016479492188 0.06790000200271606
0.00487758032977581 -0.01806836575269699 0.06780000030994415
0.0050547863356769085 -0.01806836575269699 0.06780000030994415
0.005231992341578007 -0.01806836575269699 0.06780000030994415
0.005409198347479105 -0.01806836575269699 0.06780000030994415
0.005586404353380203 -0.01806836575269699 0.06780000030994415
0.0057636103592813015 -0.01806836575269699 0.06780000030994415
0.005940816830843687 -0.01806836575269699 0.06780000030994415
0.006118022371083498 -0.01806836575269699 0.06780000030994415
0.0062859440222382545 -0.018041716888546944 0.06769999861717224
0.006462888326495886 -0.018041716888546944 0.06769999861717224
0.0066398330964148045 -0.018041716888546944 0.06769999861717224
0.006806708872318268 -0.018015066161751747 0.06759999692440033
0.007633245550096035 -0.017881818115711212 0.06709999591112137
0.007796985562890768 -0.017855171114206314 0.06700000166893005
0.007972100749611855 -0.017855171114206314 0.06700000166893005
0.008147215470671654 -0.017855171114206314 0.06700000166893005
0.008309909142553806 -0.017828520387411118 0.06689999997615814
0.008484763093292713 -0.017828520387411118 0.06689999997615814
0.008659616112709045 -0.017828520387411118 0.06689999997615814
0.008834470063447952 -0.017828520387411118 0.06689999997615814
0.009009324945509434 -0.017828520387411118 0.06689999997615814
0.009519634768366814 -0.01780187152326107 0.06679999828338623
0.009694227017462254 -0.01780187152326107 0.06679999828338623
0.009868819266557693 -0.01780187152326107 0.06679999828338623
0.010043411515653133 -0.01780187152326107 0.06679999828338623
0.010218004696071148 -0.01780187152326107 0.06679999828338623
0.01040815468877554 -0.017828520387411118 0.06689999997615814
0.010583008639514446 -0.017828520387411118 0.06689999997615814
0.010757862590253353 -0.017828520387411118 0.06689999997615814
0.010932715609669685 -0.017828520387411118 0.06689999997615814
0.011090965941548347 -0.01780187152326107 0.06679999828338623
0.011282423511147499 -0.017828520387411118 0.06689999997615814
0.011457277461886406 -0.017828520387411118 0.06689999997615814
0.01164951827377081 -0.017855171114206314 0.06700000166893005
0.011824633926153183 -0.017855171114206314 0.06700000166893005
0.011999749578535557 -0.017855171114206314 0.06700000166893005
0.012174864299595356 -0.017855171114206314 0.06700000166893005
0.01234997995197773 -0.017855171114206314 0.06700000166893005
0.012525094673037529 -0.017855171114206314 0.06700000166893005
0.012700209394097328 -0.017855171114206314 0.06700000166893005
0.012856108136475086 -0.017828520387411118 0.06689999997615814
0.013320664875209332 -0.017748570069670677 0.06659999489784241
0.013474473729729652 -0.01772192306816578 0.06650000065565109
0.013648281805217266 -0.01772192306816578 0.06650000065565109
0.013801304623484612 -0.017695272341370583 0.06639999896287918
0.013974851928651333 -0.017695272341370583 0.06639999896287918
0.01410578191280365 -0.01764197275042534 0.06619999557733536
0.014278806746006012 -0.01764197275042534 0.06619999557733536
0.014430001378059387 -0.01761532574892044 0.06610000133514404
0.014580672606825829 -0.017588675022125244 0.06599999964237213
0.014903060160577297 -0.017562024295330048 0.06589999794960022
0.015568360686302185 -0.01753537543118 0.06579999625682831
0.01574033871293068 -0.01753537543118 0.06579999625682831
0.01660023257136345 -0.01753537543118 0.06579999625682831
0.016772212460637093 -0.01753537543118 0.06579999625682831
0.016944190487265587 -0.01753537543118 0.06579999625682831
0.017288146540522575 -0.01753537543118 0.06579999625682831
0.01746012642979622 -0.01753537543118 0.06579999625682831
0.0176589023321867 -0.017562024295330048 0.06589999794960022
0.017804084345698357 -0.01753537543118 0.06579999625682831
0.018522154539823532 -0.017402127385139465 0.06529999524354935
0.018664201721549034 -0.017375478520989418 0.06520000100135803
0.018834611400961876 -0.017375478520989418 0.06520000100135803
0.01897587440907955 -0.01734882965683937 0.06509999930858612
0.019146021455526352 -0.01734882965683937 0.06509999930858612
0.0193161703646183 -0.01734882965683937 0.06509999930858612
0.0194863211363554 -0.01734882965683937 0.06509999930858612
0.01965647004544735 -0.01734882965683937 0.06509999930858612
0.0198266189545393 -0.01734882965683937 0.06509999930858612
0.019996769726276398 -0.01734882965683937 0.06509999930858612
0.020166916772723198 -0.01734882965683937 0.06509999930858612
0.020337065681815147 -0.01734882965683937 0.06509999930858612
0.020507216453552246 -0.01734882965683937 0.06509999930858612
0.020677365362644196 -0.01734882965683937 0.06509999930858612
0.020847514271736145 -0.01734882965683937 0.06509999930858612
0.021017663180828094 -0.01734882965683937 0.06509999930858612
0.021187813952565193 -0.01734882965683937 0.06509999930858612
0.021390769630670547 -0.017375478520989418 0.06520000100135803
0.02190200239419937 -0.017375478520989418 0.06520000100135803
0.022072413936257362 -0.017375478520989418 0.06520000100135803
0.022242823615670204 -0.017375478520989418 0.06520000100135803
0.022447606548666954 -0.017402127385139465 0.06529999524354935
0.022618278861045837 -0.017402127385139465 0.06529999524354935
0.02278895117342472 -0.017402127385139465 0.06529999524354935
0.022959623485803604 -0.017402127385139465 0.06529999524354935
0.023130295798182487 -0.017402127385139465 0.06529999524354935
0.02330096811056137 -0.017402127385139465 0.06529999524354935
0.023471640422940254 -0.017402127385139465 0.06529999524354935
0.02364231087267399 -0.017402127385139465 0.06529999524354935
0.02381298318505287 -0.017402127385139465 0.06529999524354935
0.023983655497431755 -0.017402127385139465 0.06529999524354935
0.02411733940243721 -0.017375478520989418 0.06520000100135803
0.024325000122189522 -0.017402127385139465 0.06529999524354935
0.024495672434568405 -0.017402127385139465 0.06529999524354935
0.02466634288430214 -0.017402127385139465 0.06529999524354935
0.024837015196681023 -0.017402127385139465 0.06529999524354935
0.025007685646414757 -0.017402127385139465 0.06529999524354935
0.02517835795879364 -0.017402127385139465 0.06529999524354935
0.025349030271172523 -0.017402127385139465 0.06529999524354935
0.025519702583551407 -0.017402127385139465 0.06529999524354935
0.025729715824127197 -0.017428778111934662 0.06539999693632126
0.02594025433063507 -0.01745542697608471 0.06549999862909317
0.0034752406645566225 -0.01797032356262207 0.06809999793767929
0.004345961846411228 -0.017891159281134605 0.06780000030994415
0.004523167852312326 -0.017891159281134605 0.06780000030994415
0.004700373858213425 -0.017891159281134605 0.06780000030994415
0.00487758032977581 -0.017891159281134605 0.06780000030994415
0.0050547863356769085 -0.017891159281134605 0.06780000030994415
0.005224275402724743 -0.01786477118730545 0.06769999861717224
0.0054012201726436615 -0.01786477118730545 0.06769999861717224
0.00557816494256258 -0.01786477118730545 0.06769999861717224
0.005755109246820211 -0.01786477118730545 0.06769999861717224
0.005932054482400417 -0.01786477118730545 0.06769999861717224
0.006108998786658049 -0.01786477118730545 0.06769999861717224
0.0062859440222382545 -0.01786477118730545 0.06769999861717224
0.006462888326495886 -0.01786477118730545 0.06769999861717224
0.0066300248727202415 -0.017838383093476295 0.06759999692440033
0.006796639412641525 -0.01781199499964714 0.06749999523162842
0.006973061244934797 -0.01781199499964714 0.06749999523162842
0.0074578686617314816 -0.01770644262433052 0.06709999591112137
0.0076218703761696815 -0.017680054530501366 0.06700000166893005
0.007796985562890768 -0.017680054530501366 0.06700000166893005
0.007960201241075993 -0.01765366643667221 0.06689999997615814
0.0081350551918149 -0.01765366643667221 0.06689999997615814
0.008297487162053585 -0.017627278342843056 0.06679999828338623
0.0084720803424716 -0.017627278342843056 0.06679999828338623
0.008646671660244465 -0.017627278342843056 0.06679999828338623
0.008808058686554432 -0.0176008902490139 0.06669999659061432
0.00899585708975792 -0.017627278342843056 0.06679999828338623
0.009156721644103527 -0.0176008902490139 0.06669999659061432
0.0093450415879488 -0.017627278342843056 0.06679999828338623
0.009505383670330048 -0.0176008902490139 0.06669999659061432
0.009679715149104595 -0.0176008902490139 0.06669999659061432
0.009854044765233994 -0.0176008902490139 0.06669999659061432
0.010043411515653133 -0.017627278342843056 0.06679999828338623
0.010218004696071148 -0.017627278342843056 0.06679999828338623
0.010392596013844013 -0.017627278342843056 0.06679999828338623
0.010567189194262028 -0.017627278342843056 0.06679999828338623
0.010741781443357468 -0.017627278342843056 0.06679999828338623
0.010916373692452908 -0.017627278342843056 0.06679999828338623
0.011090965941548347 -0.017627278342843056 0.06679999828338623
0.011265559121966362 -0.017627278342843056 0.06679999828338623
0.011457277461886406 -0.01765366643667221 0.06689999997615814
0.011632131412625313 -0.01765366643667221 0.06689999997615814
0.01180698536336422 -0.01765366643667221 0.06689999997615814
0.011981839314103127 -0.01765366643667221 0.06689999997615814
0.012138520367443562 -0.017627278342843056 0.06679999828338623
0.012313113547861576 -0.017627278342843056 0.06679999828338623
0.012506400234997272 -0.01765366643667221 0.06689999997615814
0.012662298046052456 -0.017627278342843056 0.06679999828338623
0.01281767338514328 -0.0176008902490139 0.06669999659061432
0.012972526252269745 -0.017574500292539597 0.06659999489784241
0.01312685664743185 -0.01754811406135559 0.06650000065565109
0.013300665654242039 -0.01754811406135559 0.06650000065565109
0.013454210944473743 -0.017521725967526436 0.06639999896287918
0.01362775731831789 -0.017521725967526436 0.06639999896287918
0.013780519366264343 -0.01749533787369728 0.06629999727010727
0.013932758010923862 -0.017468947917222977 0.06619999557733536
0.014084475114941597 -0.01744256168603897 0.06610000133514404
0.014257238246500492 -0.01744256168603897 0.06610000133514404
0.014408170245587826 -0.017416173592209816 0.06599999964237213
0.014580672606825829 -0.017416173592209816 0.06599999964237213
0.014730819500982761 -0.01738978549838066 0.06589999794960022
0.014903060160577297 -0.01738978549838066 0.06589999794960022
0.015075300820171833 -0.01738978549838066 0.06589999794960022
0.015568360686302185 -0.017363395541906357 0.06579999625682831
0.016428254544734955 -0.017363395541906357 0.06579999625682831
0.016772212460637093 -0.017363395541906357 0.06579999625682831
0.016944190487265587 -0.017363395541906357 0.06579999625682831
0.017314421012997627 -0.01738978549838066 0.06589999794960022
0.017486661672592163 -0.01738978549838066 0.06589999794960022
0.0176589023321867 -0.01738978549838066 0.06589999794960022
0.017831142991781235 -0.01738978549838066 0.06589999794960022
0.01797606237232685 -0.017363395541906357 0.06579999625682831
0.018407689407467842 -0.01728423312306404 0.06549999862909317
0.01917543262243271 -0.017205068841576576 0.06520000100135803
0.01934584230184555 -0.017205068841576576 0.06520000100135803
0.01951625384390354 -0.017205068841576576 0.06520000100135803
0.019686665385961533 -0.017205068841576576 0.06520000100135803
0.0198266189545393 -0.01717868074774742 0.06509999930858612
0.020027486607432365 -0.017205068841576576 0.06520000100135803
0.020197896286845207 -0.017205068841576576 0.06520000100135803
0.02036830596625805 -0.017205068841576576 0.06520000100135803
0.02053871750831604 -0.017205068841576576 0.06520000100135803
0.020709127187728882 -0.017205068841576576 0.06520000100135803
0.020879538729786873 -0.017205068841576576 0.06520000100135803
0.021252905949950218 -0.017231455072760582 0.06529999524354935
0.021423576399683952 -0.017231455072760582 0.06529999524354935
0.021594248712062836 -0.017231455072760582 0.06529999524354935
0.02176491916179657 -0.017231455072760582 0.06529999524354935
0.022687556222081184 -0.01728423312306404 0.06549999862909317
0.022858750075101852 -0.01728423312306404 0.06549999862909317
0.022994784638285637 -0.017257843166589737 0.06539999693632126
0.023165717720985413 -0.017257843166589737 0.06539999693632126
0.02333665080368519 -0.017257843166589737 0.06539999693632126
0.023507585749030113 -0.017257843166589737 0.06539999693632126
0.02364231087267399 -0.017231455072760582 0.06529999524354935
0.023849450051784515 -0.017257843166589737 0.06539999693632126
0.023983655497431755 -0.017231455072760582 0.06529999524354935
0.024191318079829216 -0.017257843166589737 0.06539999693632126
0.02436225116252899 -0.017257843166589737 0.06539999693632126
0.024533184245228767 -0.017257843166589737 0.06539999693632126
0.024704117327928543 -0.017257843166589737 0.06539999693632126
0.02487505041062832 -0.017257843166589737 0.06539999693632126
0.025045983493328094 -0.017257843166589737 0.06539999693632126
0.02521691657602787 -0.017257843166589737 0.06539999693632126
0.025387851521372795 -0.017257843166589737 0.06539999693632126
0.025597866624593735 -0.01728423312306404 0.06549999862909317
0.02580840140581131 -0.017310621216893196 0.06560000032186508
0.02597985789179802 -0.017310621216893196 0.06560000032186508
0.004345961846411228 -0.01771395280957222 0.06780000030994415
0.004516496788710356 -0.017687825486063957 0.06769999861717224
0.004693441092967987 -0.017687825486063957 0.06769999861717224
0.004870386328548193 -0.017687825486063957 0.06769999861717224
0.005047330632805824 -0.017687825486063957 0.06769999861717224
0.005216558463871479 -0.017661700025200844 0.06759999692440033
0.005393241997808218 -0.017661700025200844 0.06759999692440033
0.00556992506608367 -0.017661700025200844 0.06759999692440033
0.005746608134359121 -0.017661700025200844 0.06759999692440033
0.00592329166829586 -0.017661700025200844 0.06759999692440033
0.006099975202232599 -0.017661700025200844 0.06759999692440033
0.006276658736169338 -0.017661700025200844 0.06759999692440033
0.006443795282393694 -0.01763557270169258 0.06749999523162842
0.006620217114686966 -0.01763557270169258 0.06749999523162842
0.006786570884287357 -0.017609447240829468 0.0674000009894371
0.0069524007849395275 -0.017583319917321205 0.06729999929666519
0.007117707747966051 -0.017557192593812943 0.06719999760389328
0.007282492704689503 -0.01753106527030468 0.06709999591112137
0.007446754723787308 -0.017504939809441566 0.06700000166893005
0.0076104942709207535 -0.017478812485933304 0.06689999997615814
0.007773710414767265 -0.01745268516242504 0.06679999828338623
0.007948302663862705 -0.01745268516242504 0.06679999828338623
0.008122894912958145 -0.01745268516242504 0.06679999828338623
0.008285066112875938 -0.01742655783891678 0.06669999659061432
0.008459397591650486 -0.01742655783891678 0.06669999659061432
0.008633728139102459 -0.01742655783891678 0.06669999659061432
0.008794853463768959 -0.017400430515408516 0.06659999489784241
0.00896892324090004 -0.017400430515408516 0.06659999489784241
0.00914299301803112 -0.017400430515408516 0.06659999489784241
0.009317061863839626 -0.017400430515408516 0.06659999489784241
0.009491132572293282 -0.017400430515408516 0.06659999489784241
0.009665202349424362 -0.017400430515408516 0.06659999489784241
0.009839271195232868 -0.017400430515408516 0.06659999489784241
0.010028376244008541 -0.01742655783891678 0.06669999659061432
0.010202707722783089 -0.01742655783891678 0.06669999659061432
0.010377038270235062 -0.01742655783891678 0.06669999659061432
0.010567189194262028 -0.01745268516242504 0.06679999828338623
0.010725701227784157 -0.01742655783891678 0.06669999659061432
0.010916373692452908 -0.01745268516242504 0.06679999828338623
0.011074362322688103 -0.01742655783891678 0.06669999659061432
0.011265559121966362 -0.01745268516242504 0.06679999828338623
0.011440150439739227 -0.01745268516242504 0.06679999828338623
0.011614743620157242 -0.01745268516242504 0.06679999828338623
0.01180698536336422 -0.017478812485933304 0.06689999997615814
0.011963929049670696 -0.01745268516242504 0.06679999828338623
0.012120349332690239 -0.01742655783891678 0.06669999659061432
0.012294679880142212 -0.01742655783891678 0.06669999659061432
0.01246901135891676 -0.01742655783891678 0.06669999659061432
0.012624385766685009 -0.017400430515408516 0.06659999489784241
0.012779240496456623 -0.017374305054545403 0.06650000065565109
0.012953048571944237 -0.017374305054545403 0.06650000065565109
0.0131071163341403 -0.01734817773103714 0.06639999896287918
0.013280663639307022 -0.01734817773103714 0.06639999896287918
0.013433948159217834 -0.017322050407528877 0.06629999727010727
0.013607233762741089 -0.017322050407528877 0.06629999727010727
0.013759734109044075 -0.017295923084020615 0.06619999557733536
0.013911712914705276 -0.01726979948580265 0.06610000133514404
0.014084475114941597 -0.01726979948580265 0.06610000133514404
0.014235668815672398 -0.017243672162294388 0.06599999964237213
0.014408170245587826 -0.017243672162294388 0.06599999964237213
0.014580672606825829 -0.017243672162294388 0.06599999964237213
0.014730819500982761 -0.017217544838786125 0.06589999794960022
0.014903060160577297 -0.017217544838786125 0.06589999794960022
0.015075300820171833 -0.017217544838786125 0.06589999794960022
0.01524753961712122 -0.017217544838786125 0.06589999794960022
0.015419780276715755 -0.017217544838786125 0.06589999794960022
0.015592020936310291 -0.017217544838786125 0.06589999794960022
0.01574033871293068 -0.017191417515277863 0.06579999625682831
0.01625627465546131 -0.017191417515277863 0.06579999625682831
0.016428254544734955 -0.017191417515277863 0.06579999625682831
0.01660023257136345 -0.017191417515277863 0.06579999625682831
0.016772212460637093 -0.017191417515277863 0.06579999625682831
0.016944190487265587 -0.017191417515277863 0.06579999625682831
0.017314421012997627 -0.017217544838786125 0.06589999794960022
0.017486661672592163 -0.017217544838786125 0.06589999794960022
0.0176589023321867 -0.017217544838786125 0.06589999794960022
0.017831142991781235 -0.017217544838786125 0.06589999794960022
0.01800338365137577 -0.017217544838786125 0.06589999794960022
0.01860724948346615 -0.017139164730906487 0.06560000032186508
0.018721451982855797 -0.01708691008388996 0.06539999693632126
0.01886349730193615 -0.0170607827603817 0.06529999524354935
0.019034169614315033 -0.0170607827603817 0.06529999524354935
0.01917543262243271 -0.017034657299518585 0.06520000100135803
0.01934584230184555 -0.017034657299518585 0.06520000100135803
0.01951625384390354 -0.017034657299518585 0.06520000100135803
0.019686665385961533 -0.017034657299518585 0.06520000100135803
0.019857075065374374 -0.017034657299518585 0.06520000100135803
0.020027486607432365 -0.017034657299518585 0.06520000100135803
0.020228872075676918 -0.0170607827603817 0.06529999524354935
0.020430784672498703 -0.01708691008388996 0.06539999693632126
0.02060171775519848 -0.01708691008388996 0.06539999693632126
0.020772650837898254 -0.01708691008388996 0.06539999693632126
0.02094358578324318 -0.01708691008388996 0.06539999693632126
0.021146804094314575 -0.017113037407398224 0.06549999862909317
0.021350545808672905 -0.017139164730906487 0.06560000032186508
0.02155480906367302 -0.01716529205441475 0.065700002014637
0.02172652818262577 -0.01716529205441475 0.065700002014637
0.021898245438933372 -0.01716529205441475 0.065700002014637
0.02344370260834694 -0.01716529205441475 0.065700002014637
0.02361541986465454 -0.01716529205441475 0.065700002014637
0.023750929161906242 -0.017139164730906487 0.06560000032186508
0.023922385647892952 -0.017139164730906487 0.06560000032186508
0.02409384213387966 -0.017139164730906487 0.06560000032186508
0.02426529861986637 -0.017139164730906487 0.06560000032186508
0.02443675510585308 -0.017139164730906487 0.06560000032186508
0.02460821159183979 -0.017139164730906487 0.06560000032186508
0.02477966621518135 -0.017139164730906487 0.06560000032186508
0.02495112270116806 -0.017139164730906487 0.06560000032186508
0.02512257918715477 -0.017139164730906487 0.06560000032186508
0.02529403381049633 -0.017139164730906487 0.06560000032186508
0.02546549029648304 -0.017139164730906487 0.06560000032186508
0.025676028802990913 -0.01716529205441475 0.065700002014637
0.025847744196653366 -0.01716529205441475 0.065700002014637
0.026059063151478767 -0.017191417515277863 0.06579999625682831
0.0034599313512444496 -0.017536746338009834 0.06780000030994415
0.0043331412598490715 -0.017485015094280243 0.06759999692440033
0.004509825259447098 -0.017485015094280243 0.06759999692440033
0.0046865083277225494 -0.017485015094280243 0.06759999692440033
0.004855997860431671 -0.017459150403738022 0.06749999523162842
0.005032419692724943 -0.017459150403738022 0.06749999523162842
0.005208841525018215 -0.017459150403738022 0.06749999523162842
0.005738107021898031 -0.017459150403738022 0.06749999523162842
0.0059145293198525906 -0.017459150403738022 0.06749999523162842
0.006090951152145863 -0.017459150403738022 0.06749999523162842
0.006248803809285164 -0.01740741916000843 0.06729999929666519
0.006434249691665173 -0.0174332857131958 0.0674000009894371
0.006600602064281702 -0.01740741916000843 0.06729999929666519
0.0067664324305951595 -0.01738155446946621 0.06719999760389328
0.006942070089280605 -0.01738155446946621 0.06719999760389328
0.007107115816324949 -0.01735568791627884 0.06709999591112137
0.007282492704689503 -0.01735568791627884 0.06709999591112137
0.007446754723787308 -0.017329825088381767 0.06700000166893005
0.0076104942709207535 -0.017303958535194397 0.06689999997615814
0.007773710414767265 -0.017278091982007027 0.06679999828338623
0.007936404086649418 -0.017252227291464806 0.06669999659061432
0.008110735565423965 -0.017252227291464806 0.06669999659061432
0.008272644132375717 -0.017226360738277435 0.06659999489784241
0.008446714840829372 -0.017226360738277435 0.06659999489784241
0.008620783686637878 -0.017226360738277435 0.06659999489784241
0.008794853463768959 -0.017226360738277435 0.06659999489784241
0.00896892324090004 -0.017226360738277435 0.06659999489784241
0.00914299301803112 -0.017226360738277435 0.06659999489784241
0.009317061863839626 -0.017226360738277435 0.06659999489784241
0.009491132572293282 -0.017226360738277435 0.06659999489784241
0.009665202349424362 -0.017226360738277435 0.06659999489784241
0.010187411680817604 -0.017226360738277435 0.06659999489784241
0.01036148052662611 -0.017226360738277435 0.06659999489784241
0.01055136974900961 -0.017252227291464806 0.06669999659061432
0.010725701227784157 -0.017252227291464806 0.06669999659061432
0.01090003177523613 -0.017252227291464806 0.06669999659061432
0.011074362322688103 -0.017252227291464806 0.06669999659061432
0.01124869380146265 -0.017252227291464806 0.06669999659061432
0.011423024348914623 -0.017252227291464806 0.06669999659061432
0.011614743620157242 -0.017278091982007027 0.06679999828338623
0.011789335869252682 -0.017278091982007027 0.06679999828338623
0.011946018785238266 -0.017252227291464806 0.06669999659061432
0.012102177366614342 -0.017226360738277435 0.06659999489784241
0.012276247143745422 -0.017226360738277435 0.06659999489784241
0.012450316920876503 -0.017226360738277435 0.06659999489784241
0.012605431489646435 -0.017200497910380363 0.06650000065565109
0.012779240496456623 -0.017200497910380363 0.06650000065565109
0.012933569960296154 -0.017174631357192993 0.06639999896287918
0.0131071163341403 -0.017174631357192993 0.06639999896287918
0.013280663639307022 -0.017174631357192993 0.06639999896287918
0.013433948159217834 -0.017148764804005623 0.06629999727010727
0.013586709275841713 -0.017122900113463402 0.06619999557733536
0.013759734109044075 -0.017122900113463402 0.06619999557733536
0.013911712914705276 -0.01709703542292118 0.06610000133514404
0.014084475114941597 -0.01709703542292118 0.06610000133514404
0.014235668815672398 -0.01707116886973381 0.06599999964237213
0.014408170245587826 -0.01707116886973381 0.06599999964237213
0.014580672606825829 -0.01707116886973381 0.06599999964237213
0.014730819500982761 -0.01704530417919159 0.06589999794960022
0.014903060160577297 -0.01704530417919159 0.06589999794960022
0.015075300820171833 -0.01704530417919159 0.06589999794960022
0.01524753961712122 -0.01704530417919159 0.06589999794960022
0.015419780276715755 -0.01704530417919159 0.06589999794960022
0.015592020936310291 -0.01704530417919159 0.06589999794960022
0.015764260664582253 -0.01704530417919159 0.06589999794960022
0.01593650132417679 -0.01704530417919159 0.06589999794960022
0.016108741983771324 -0.01704530417919159 0.06589999794960022
0.01628098078072071 -0.01704530417919159 0.06589999794960022
0.016453221440315247 -0.01704530417919159 0.06589999794960022
0.016625462099909782 -0.01704530417919159 0.06589999794960022
0.016797702759504318 -0.01704530417919159 0.06589999794960022
0.016969941556453705 -0.01704530417919159 0.06589999794960022
0.01714218035340309 -0.01704530417919159 0.06589999794960022
0.017314421012997627 -0.01704530417919159 0.06589999794960022
0.017513196915388107 -0.01707116886973381 0.06599999964237213
0.017685698345303535 -0.01707116886973381 0.06599999964237213
0.017858201637864113 -0.01707116886973381 0.06599999964237213
0.01800338365137577 -0.01704530417919159 0.06589999794960022
0.018175622448325157 -0.01704530417919159 0.06589999794960022
0.01832001842558384 -0.01701943762600422 0.06579999625682831
0.018750078976154327 -0.016941841691732407 0.06549999862909317
0.018892386928200722 -0.016915977001190186 0.06539999693632126
0.019034169614315033 -0.016890110448002815 0.06529999524354935
0.019234251230955124 -0.016915977001190186 0.06539999693632126
0.01937551237642765 -0.016890110448002815 0.06529999524354935
0.019546184688806534 -0.016890110448002815 0.06529999524354935
0.0197470523416996 -0.016915977001190186 0.06539999693632126
0.019917985424399376 -0.016915977001190186 0.06539999693632126
0.02011963725090027 -0.016941841691732407 0.06549999862909317
0.020321808755397797 -0.016967708244919777 0.06560000032186508
0.02055574394762516 -0.01701943762600422 0.06579999625682831
0.020727721974253654 -0.01701943762600422 0.06579999625682831
0.020899701863527298 -0.01701943762600422 0.06579999625682831
0.021071679890155792 -0.01701943762600422 0.06579999625682831
0.021243659779429436 -0.01701943762600422 0.06579999625682831
0.02141563780605793 -0.01701943762600422 0.06579999625682831
0.02162042446434498 -0.01704530417919159 0.06589999794960022
0.022447511553764343 -0.01701943762600422 0.06579999625682831
0.022653864696621895 -0.01704530417919159 0.06589999794960022
0.022791467607021332 -0.01701943762600422 0.06579999625682831
0.022963445633649826 -0.01701943762600422 0.06579999625682831
0.02313542552292347 -0.01701943762600422 0.06579999625682831
0.023307403549551964 -0.01701943762600422 0.06579999625682831
0.023479383438825607 -0.01701943762600422 0.06579999625682831
0.0236513614654541 -0.01701943762600422 0.06579999625682831
0.023823339492082596 -0.01701943762600422 0.06579999625682831
0.02399531938135624 -0.01701943762600422 0.06579999625682831
0.024167297407984734 -0.01701943762600422 0.06579999625682831
0.024339277297258377 -0.01701943762600422 0.06579999625682831
0.02451125532388687 -0.01701943762600422 0.06579999625682831
0.024683235213160515 -0.01701943762600422 0.06579999625682831
0.02485521137714386 -0.01701943762600422 0.06579999625682831
0.025027191266417503 -0.01701943762600422 0.06579999625682831
0.025199169293045998 -0.01701943762600422 0.06579999625682831
0.02537114918231964 -0.01701943762600422 0.06579999625682831
0.025543127208948135 -0.01701943762600422 0.06579999625682831
0.02571510709822178 -0.01701943762600422 0.06579999625682831
0.025887085124850273 -0.01701943762600422 0.06579999625682831
0.026059063151478767 -0.01701943762600422 0.06579999625682831
0.0036317729391157627 -0.01733393594622612 0.06769999861717224
0.003803091822192073 -0.01730833202600479 0.06759999692440033
0.0043267314322292805 -0.017282728105783463 0.06749999523162842
0.00450315373018384 -0.017282728105783463 0.06749999523162842
0.004679575562477112 -0.017282728105783463 0.06749999523162842
0.004848804324865341 -0.017257124185562134 0.0674000009894371
0.005024964455515146 -0.017257124185562134 0.0674000009894371
0.005193408112972975 -0.017231520265340805 0.06729999929666519
0.0053693074733018875 -0.017231520265340805 0.06729999929666519
0.0055452068336308 -0.017231520265340805 0.06729999929666519
0.005721105728298426 -0.017231520265340805 0.06729999929666519
0.005897005088627338 -0.017231520265340805 0.06729999929666519
0.006072904448956251 -0.017231520265340805 0.06729999929666519
0.006248803809285164 -0.017231520265340805 0.06729999929666519
0.006415156647562981 -0.017205916345119476 0.06719999760389328
0.0065907943062484264 -0.017205916345119476 0.06719999760389328
0.006756362970918417 -0.017180310562253 0.06709999591112137
0.006931739393621683 -0.017180310562253 0.06709999591112137
0.007107115816324949 -0.017180310562253 0.06709999591112137
0.0072716400027275085 -0.01715470850467682 0.06700000166893005
0.007435640320181847 -0.01712910458445549 0.06689999997615814
0.007587742060422897 -0.017077894881367683 0.06669999659061432
0.007762073073536158 -0.017077894881367683 0.06669999659061432
0.007924504578113556 -0.017052290961146355 0.06659999489784241
0.009129266254603863 -0.017026688903570175 0.06650000065565109
0.009317061863839626 -0.017052290961146355 0.06659999489784241
0.009491132572293282 -0.017052290961146355 0.06659999489784241
0.009665202349424362 -0.017052290961146355 0.06659999489784241
0.009839271195232868 -0.017052290961146355 0.06659999489784241
0.010013340972363949 -0.017052290961146355 0.06659999489784241
0.010187411680817604 -0.017052290961146355 0.06659999489784241
0.01036148052662611 -0.017052290961146355 0.06659999489784241
0.01055136974900961 -0.017077894881367683 0.06669999659061432
0.010725701227784157 -0.017077894881367683 0.06669999659061432
0.01090003177523613 -0.017077894881367683 0.06669999659061432
0.011074362322688103 -0.017077894881367683 0.06669999659061432
0.011265559121966362 -0.01710350066423416 0.06679999828338623
0.011440150439739227 -0.01710350066423416 0.06679999828338623
0.01159735582768917 -0.017077894881367683 0.06669999659061432
0.011789335869252682 -0.01710350066423416 0.06679999828338623
0.011946018785238266 -0.017077894881367683 0.06669999659061432
0.012102177366614342 -0.017052290961146355 0.06659999489784241
0.012276247143745422 -0.017052290961146355 0.06659999489784241
0.012450316920876503 -0.017052290961146355 0.06659999489784241
0.012605431489646435 -0.017026688903570175 0.06650000065565109
0.012779240496456623 -0.017026688903570175 0.06650000065565109
0.012933569960296154 -0.017001083120703697 0.06639999896287918
0.0131071163341403 -0.017001083120703697 0.06639999896287918
0.013280663639307022 -0.017001083120703697 0.06639999896287918
0.013433948159217834 -0.01697547920048237 0.06629999727010727
0.013586709275841713 -0.01694987528026104 0.06619999557733536
0.013759734109044075 -0.01694987528026104 0.06619999557733536
0.013932758010923862 -0.01694987528026104 0.06619999557733536
0.014084475114941597 -0.01692427322268486 0.06610000133514404
0.014235668815672398 -0.016898667439818382 0.06599999964237213
0.014408170245587826 -0.016898667439818382 0.06599999964237213
0.014580672606825829 -0.016898667439818382 0.06599999964237213
0.014730819500982761 -0.016873063519597054 0.06589999794960022
0.014903060160577297 -0.016873063519597054 0.06589999794960022
0.015075300820171833 -0.016873063519597054 0.06589999794960022
0.01524753961712122 -0.016873063519597054 0.06589999794960022
0.015419780276715755 -0.016873063519597054 0.06589999794960022
0.015592020936310291 -0.016873063519597054 0.06589999794960022
0.015764260664582253 -0.016873063519597054 0.06589999794960022
0.01593650132417679 -0.016873063519597054 0.06589999794960022
0.016108741983771324 -0.016873063519597054 0.06589999794960022
0.01628098078072071 -0.016873063519597054 0.06589999794960022
0.01647818833589554 -0.016898667439818382 0.06599999964237213
0.016650689765810966 -0.016898667439818382 0.06599999964237213
0.016823191195726395 -0.016898667439818382 0.06599999964237213
0.016995694488286972 -0.016898667439818382 0.06599999964237213
0.01719420589506626 -0.01692427322268486 0.06610000133514404
0.01736696995794773 -0.01692427322268486 0.06610000133514404
0.01753973215818405 -0.01692427322268486 0.06610000133514404
