ply
format ascii 1.0
element vertex 735
property float x
property float y
property float z
end_header
0.01838739180347258 -0.014887793090247235 -0.0025370224715713222
0.018123734144923485 -0.013392516204714777 -0.0023474884911103226
0.017860076234930612 -0.011897237893173797 -0.0021579559586563245
0.01759641832493774 -0.010401959581632817 -0.0015294818237709881
0.017332760414944866 -0.008906681270091837 -0.00027431170659828586
0.017069102504951996 -0.007411402958550857 -8.477917414428774e-05
0.016805444594959123 -0.005916124647009875 0.0009274501203272412
0.01654178668496625 -0.004420846335468896 0.0014300881027521537
0.016278128774973376 -0.002925568023927916 0.002442320293237686
0.016014470864980503 -0.0014302897123869352 0.0024509243508412186
0.015750812954987634 6.498859915404496e-05 0.003463156541326751
0.01548715504499476 0.0015602669106950253 0.0037457351076898423
0.015223497135001887 0.0030555452222360054 0.004028315122059935
0.01495983916214807 0.004550823890279116 0.003753263296091183
0.014696181252155199 0.0060461022018200965 0.003761868801701718
0.014432523342162325 0.007541380513361077 0.003246181380178347
0.014168865446902486 0.009036658741346869 0.003435713912632345
0.013905207537891817 0.010531937047317504 0.003938353343064259
0.013641549612183708 0.012027215447984017 0.004694396894790939
0.013377891702190836 0.013522493759524997 0.004178709473267568
0.013114233792197963 0.015017772071065978 0.0040960760577070125
0.012850575945066035 0.016513050026104828 0.003821024231738261
0.012586918035073162 0.018008328337645808 0.004323663662170175
0.01232326012508029 0.019503606649186787 0.004422432219749609
0.012059602215087417 0.020998884960727767 0.00452119932932204
0.011795944305094544 0.02249416327226875 0.004438565913761484
0.011532286395101673 0.023989441583809726 0.0047211444801245755
0.0112686284851088 0.02548471989535071 0.003649399201873104
0.011004970575115928 0.02697999820689169 0.004405444201606786
0.010741312665123055 0.028475276518432673 0.00450421275918622
0.010477654755130182 0.029970554829973652 0.005006852189618134
0.010213996845137309 0.03146583314151463 0.008201941902959227
0.009950338935144435 0.032961111453055615 0.00821054596056276
0.009686680773707785 0.03445639119060512 0.008493127422939855
0.009423022863714913 0.035951669502146094 0.009505356683473718
0.018210403041895962 -0.022627842557945005 -0.0019550380494794957
0.017683087221910216 -0.01963728593486305 -0.0032284414708164
0.017419429311917346 -0.018142007623322066 -0.0025736425686418967
0.017155771401924473 -0.01664672931178109 -0.0026724111262213302
0.0168921134919316 -0.015151451000240108 -0.0023973593002525784
0.016628455833382506 -0.013656174114707648 -0.0018816689827152043
0.016364797923389632 -0.012160895803166668 -0.001980437540294638
0.01610114001339676 -0.010665617491625689 -0.0013256386381201343
0.015837482103403886 -0.009170339180084709 -0.0013342412477166659
0.015573824193411015 -0.007675060868543729 -0.00183688067814858
0.015310166283418143 -0.006179782557002748 -0.0002869195035612552
0.01504650837342527 -0.004684504245461768 0.0018461207864111091
0.014782850463432397 -0.0031892259339207883 0.0029178660646625803
0.014519192553439525 -0.0016939476223798075 0.002909260559052046
0.014255534643446652 -0.00019866931083882737 0.00342495087658942
0.01399187673345378 0.001296609000702153 0.0036999998065441685
0.013728218823460907 0.002791887312243133 0.0036012341449787382
0.01346456085060709 0.004287165980286244 0.0037778605910274363
0.013200902940614219 0.005782444291827224 0.0031493864561421003
0.012937245030621346 0.007277722603368205 0.002866807889779009
0.012673587135361507 0.008773000831353997 0.002858202384168474
0.012409929226350837 0.01026827913732463 0.004242407301268144
0.012146271300642728 0.011763557537991144 0.0029872371840954422
0.011882613390649856 0.013258835849532125 0.0032622875620571925
0.011618955480656983 0.014754114161073107 0.0032536820564466576
0.011355297633525056 0.016249392116111955 0.0035287338824154094
0.011091639723532182 0.017744670427652934 0.0038037842603771592
0.010827981813539311 0.019239948739193914 0.0035212056940140683
0.010564323903546438 0.020735227050734894 0.004176004596188572
0.010300665993553565 0.022230505362275877 0.0036733651657566576
0.010037008083560693 0.023725783673816853 0.0037560000293242156
0.00977335017356782 0.025221061985357836 0.003932625027365912
0.009509692263574948 0.02671634029689882 0.004109251473414611
0.009246034353582075 0.0282116186084398 0.0041918863369821684
0.008982376443589202 0.029706896919980783 0.0049869609174370945
0.00871871853359633 0.03120217523152176 0.004888193807864662
0.008455060623603456 0.03269745354306274 0.0076746023690939455
0.008191402462166805 0.034192733280612245 0.009506735910142746
0.007927744552173934 0.03568801159215322 0.008251565102904208
0.0076640866421810614 0.0371832899036942 0.009543403791444374
0.016978782640347856 -0.024386778779478858 0.004196818248829633
0.01645146682036211 -0.021396222156396902 -0.0009913416056807403
0.016187808910369236 -0.019900943844855922 -0.00228317960415507
0.015924151000376367 -0.01840566553331494 -0.0025582314301238213
0.015660493090383493 -0.016910387221773963 -0.0027348578761725198
0.01539683518039062 -0.01541510891023298 -0.002817491291733076
0.015133177521841524 -0.013919832024700521 -0.0026279602072860797
0.014869519611848653 -0.012424553713159541 -0.0028045852053277765
0.01460586170185578 -0.010929275401618562 -0.001435749434543135
0.014342203791862908 -0.009433997090077582 -0.002507491816780603
0.014078545881870035 -0.007938718778536602 -0.0011386545979889602
0.013814887971877163 -0.00644344046699562 -0.0008560745836188674
0.01355123006188429 -0.00494816215545464 0.000399095533553835
0.013287572151891417 -0.0034528838439136606 0.002747457360678771
0.013023914241898546 -0.00195760553237268 0.004002627477851474
0.012760256331905672 -0.00046232722083169967 0.004886938385794272
0.012496598421912801 0.0010329510907092806 0.005515412520679608
0.012232940511919928 0.0025282294022502608 0.005614181078259041
0.011969282539066109 0.004023508070293371 0.009279075170013449
0.01170562462907324 0.005518786381834352 0.005196811884137605
0.011441966719080366 0.007014064693375332 0.004125066605886133
0.011178308823820527 0.008509342921361124 0.0028332286074118037
0.010914650914809858 0.01000462122733176 0.0025581767814430523
0.010650992989101748 0.011499899627998272 0.002566779391039584
0.010387335079108877 0.012995177939539252 0.002756314819507585
0.010123677169116004 0.014490456251080234 0.0029458473519615833
0.009860019321984076 0.01598573420611908 0.0034484853343864958
0.009596361411991203 0.017481012517660065 0.003547253891965929
0.009332703501998331 0.01897629082920104 0.0035558608455834653
0.009069045592005458 0.020471569140742024 0.0037453919300304618
0.008805387682012585 0.021966847452283004 0.003662758514469906
0.008541729772019713 0.023462125763823984 0.0037615256240423377
0.00827807186202684 0.024957404075364963 0.003951058156496336
0.008014413952033969 0.026452682386905946 0.004049826714075769
0.007750756042041096 0.027947960698446926 0.003873200268027071
0.007487098132048222 0.02944323900998791 0.003971968825606504
0.00722344022205535 0.030938517321528886 0.0044746082560384185
0.006959782312062478 0.03243379563306987 0.00429798180998972
0.006696124150625828 0.03392907537061937 0.005054026809723402
0.006432466240632954 0.03542435368216035 0.0074023871888413365
0.015483504328806873 -0.02465043668947173 0.0026830789693874407
0.015219846418814001 -0.02315515837793075 0.004659226252728971
0.01495618850882113 -0.021659880066389775 -0.0008855429741085179
0.014692530598828257 -0.020164601754848795 -0.0016415850778281969
0.014428872688835383 -0.018669323443307812 -0.0023976300775618788
0.014165214778842512 -0.017174045131766832 -0.00258716550602988
0.013901556868849639 -0.015678766820225853 -0.002776696590476877
0.013637899210300543 -0.014183489934693394 -0.00287546514805631
0.013374241300307671 -0.012688211623152413 -0.0029742337056357436
0.013110583390314798 -0.011192933311611433 -0.002797607259587045
0.012846925480321927 -0.009697655000070454 -0.003080187273957138
0.012583267570329053 -0.008202376688529474 -0.0025644984044267656
0.012319609660336182 -0.006707098376988493 -0.0019096966062382588
0.012055951750343309 -0.0052118200654475135 6.645067710327123e-05
0.011792293840350436 -0.0037165417539065334 0.003546816593851444
0.011528635930357564 -0.002221263442365553 0.0048386560403327755
0.011264978020364691 -0.0007259851308245725 0.005113706418294526
0.01100132011037182 0.0007692931807164078 0.0059087824467564535
0.010737662200378946 0.002264571492257388 0.006843455038215051
0.01047400422752513 0.0037598501603004985 0.005255292542911401
0.010210346317532258 0.005255128471841479 0.005910094341099907
0.009946688407539385 0.006750406783382459 0.006086720787148605
0.009683030512279546 0.008245685011368253 0.004717880672342959
0.009419372603268876 0.009740963317338886 0.00370565137787143
0.009155714677560767 0.0112362417180054 0.0032030119474395157
0.008892056767567895 0.012731520029546379 0.0024469669477058336
0.008628398857575022 0.01422679834108736 0.0033816395391644315
0.008364741010443094 0.01572207629612621 0.002497330079228635
0.008101083100450221 0.01721735460766719 0.002307796098767635
0.00783742519045735 0.018712632919208168 0.0029625935529351373
0.007573767280464477 0.02020791123074915 0.003139222894997839
0.007310109370471604 0.02170318954229013 0.0018840527778251365
0.007046451460478732 0.02319846785383111 0.0035807911821300873
0.006782793550485859 0.02469374616537209 0.003482022624550654
0.0065191356404929865 0.026189024476913073 0.0037570744505194056
0.006255477730500114 0.027684302788454053 0.0040321262764881575
0.005991819820507241 0.029179581099995036 0.005103871554739629
0.005728161910514369 0.030674859411536012 0.0038486999895599246
0.005464504000521496 0.032170137723076996 0.003749931431980491
0.005200845839084847 0.0336654174606265 0.005446674180306447
0.004937187929091974 0.035160695772167475 0.0061014730824809505
0.0046735300190991 0.03665597408370846 0.008634719339584734
0.01372456739426876 -0.023418816413645512 0.00430129485000939
0.013460909484275889 -0.021923538102104536 0.002009996082803679
0.013197251574283015 -0.020428259790563556 -0.00044184322066990805
0.012933593664290142 -0.018932981479022573 -0.003583307442713585
0.01266993575429727 -0.017437703167481597 -0.0026989965347707866
0.012406277844304398 -0.015942424855940614 -0.0029740483607395385
0.012142620185755302 -0.014447147970408155 -0.003489737230269911
0.01187896227576243 -0.012951869658867176 -0.0034811331726663777
0.011615304365769557 -0.011456591347326196 -0.0035637680362339357
0.011351646455776685 -0.009961313035785216 -0.003464999478654502
0.011087988545783812 -0.008466034724244235 -0.0033662309210750687
0.01082433063579094 -0.006970756412703254 -0.0023540016266035396
0.010560672725798068 -0.0054754781011622745 -0.0006600781479097077
0.010297014815805194 -0.003980199789621295 0.0052621589921130075
0.010033356905812323 -0.002484921478080314 0.005838497634905578
0.00976969899581945 -0.0009896431665393337 0.00685072982539111
0.009242383175833703 0.0020009134565426266 0.008224325195190027
0.008978725202979886 0.003496192124585737 0.00823292925279356
0.008715067292987015 0.004991470436126718 0.008861402618425177
0.008451409382994142 0.006486748747667698 0.008066327359216969
0.008187751487734303 0.00798202697565349 0.007983692495649411
0.007924093578723635 0.009477305281624125 0.0067918118685028304
0.007660435653015526 0.010972583682290638 0.005857140725051235
0.007396777743022654 0.012467861993831618 0.004091753756807223
0.007133119833029781 0.0139631403053726 0.004190522314386656
0.006869461985897853 0.015458418260411447 0.002898684315912327
0.00660580407590498 0.01695369657195243 0.0029072869255088586
0.006342146165912109 0.018448974883493407 0.0037915978334516565
0.006078488255919235 0.01994425319503439 0.0036149728354099597
0.005814830345926363 0.02143953150657537 0.004117612265841873
0.005551172435933491 0.02293480981811635 0.004620250248266786
0.0052875145259406175 0.02443008812965733 0.004719018805846219
0.005023856615947745 0.025925366441198312 0.004908551338300217
0.004760198705954873 0.027420644752739292 0.005098082422747214
0.004496540795962 0.028915923064280275 0.005287617851215215
0.004232882885969127 0.03041120137582125 0.004771930429691844
0.003969224975976255 0.03190647968736223 0.005054508996054936
0.003705566814539605 0.03340175942491174 0.0047794586180931855
0.0034419089045467314 0.03489703773645272 0.007679204135345043
0.012492946992720654 -0.025177752635179365 0.0026345852149037103
0.01222928908272778 -0.023682474323638382 0.004259835513539454
0.011965631172734909 -0.02218719601209741 -0.0007645272369564354
0.011701973262742036 -0.020691917700556426 -0.003196205938946685
0.011438315352749164 -0.019196639389015446 -0.0017262746633310317
0.011174657442756291 -0.017701361077474467 -0.0026105870192808314
0.01091099953276342 -0.016206082765933487 -0.0027093526808462617
0.010647341874214324 -0.014710805880401027 -0.003337825367724596
0.01038368396422145 -0.013215527568860047 -0.0034365939253040295
0.010120026054228579 -0.011720249257319067 -0.0037191739396741225
0.009856368144235706 -0.010224970945778088 -0.003636539076106565
0.009592710234242834 -0.008729692634237108 -0.0037353076336859984
0.009329052324249961 -0.0072344143226961265 -0.0036526727701184404
0.00906539441425709 -0.005739136011155147 -0.003377620944149689
0.008801736504264216 -0.004243857699614167 -0.002085782945675359
0.008538078594271343 -0.002748579388073186 0.00542438500853075
0.00827442068427847 -0.0012533010765322062 0.007876224312004338
0.008010762774285597 0.00024197723500877404 0.009501473128695415
0.005637841521488802 0.013699482395379728 0.006505908678064056
0.005374183674356873 0.015194760350418576 0.007300983258518982
0.005110525764364001 0.016690038661959557 0.004952622879401048
0.00484686785437113 0.018185316973500534 0.004763090346947049
0.0045832099443782566 0.019680595285041517 0.004845725210514607
0.004319552034385384 0.021175873596582497 0.004746956652935174
0.004055894124392512 0.022671151908123476 0.005022008478903926
0.003792236214399639 0.02416643021966446 0.004923239921324492
0.0035285783044067664 0.02566170853120544 0.005198290299286242
0.0032649203944138936 0.027156986842746422 0.0061329628907448395
0.003001262484421021 0.028652265154287402 0.005943427462276839
0.002737604574428149 0.03014754346582838 0.006738503490738766
0.002473946664435276 0.031642821777369365 0.006915132832801468
0.002210288502998626 0.03313810151491887 0.0069065258791839316
0.0019466305930057523 0.034633379826459844 0.008290732244290604
0.010734010771186799 -0.023946132233631255 0.004141111971470911
0.01047035286119393 -0.022450853922090282 0.0019291712279881263
0.010206694951201056 -0.0209555756105493 -0.0011222313025767642
0.009943037041208183 -0.01946029729900832 -0.0017770302047512676
0.009679379131215311 -0.01796501898746734 -0.0025721062332131955
0.009415721221222438 -0.01646974067592636 -0.0035067773766647914
0.009152063562673344 -0.0149744637903939 -0.004022464798188162
0.00888840565268047 -0.01347918547885292 -0.003923696240608729
0.0086247477426876 -0.01198390716731194 -0.004006331104176287
0.008361089832694726 -0.010488628855770961 -0.0042813829301450385
0.008097431922701853 -0.00899335054422998 -0.0035253379304113564
0.007833774012708981 -0.007498072232688999 -0.0035167367688218264
0.007570116102716109 -0.006002793921148019 -0.004032424190345197
0.007306458192723236 -0.0045075156096070395 -0.0035297833119062815
0.0070428002827303635 -0.0030122372980660585 -0.0012667452973508825
0.0028242737228444024 0.020912215686589627 0.00850565413151073
0.0025606158128515305 0.022407493998130603 0.008604419793076162
0.0022969579028586577 0.023902772309671586 0.00832936796710741
0.002033299992865785 0.025398050621212566 0.009341600112342724
0.0017696420828729122 0.02689332893275355 0.009531132656109276
0.009502390369638692 -0.02570506845516511 0.004992296823238006
0.009238732459645821 -0.02420979014362413 0.0034041343279343542
0.00897507454965295 -0.022714511832083152 0.0004299511147510214
0.008711416639660076 -0.021219233520542172 -0.0008252190024216809
0.008447758729667203 -0.01972395520900119 -0.0020803891195943836
0.008184100819674332 -0.018228676897460213 -0.0025830285500262973
0.007920442909681458 -0.01673339858591923 -0.0030856679804582114
0.007656785251132364 -0.015238121700386771 -0.003588305962883124
0.007393127341139492 -0.013742843388845792 -0.003777838495337122
0.0071294694311466195 -0.012247565077304812 -0.0038766070529165555
0.006865811521153747 -0.010752286765763832 -0.0038852111105200887
0.006602153611160874 -0.009257008454222853 -0.003090135082058161
0.006338495701168002 -0.007761730142681871 -0.003974445990000959
0.006074837791175129 -0.0062664518311408915 -0.0049866752844724875
0.005811179881182256 -0.004771173519599912 -0.003361426433843746
0.005547521971189384 -0.003275895208058931 -0.0034601949914231794
0.005283864061196511 -0.0017806168965179506 -0.003283568545374481
0.005020206151203638 -0.0002853385849769705 -0.0013074183660189477
0.00774345450460697 -0.024473447990756056 0.005212211438599666
0.007479796594614099 -0.022978169679215083 0.0020707428725349844
0.007216138684621227 -0.0214828913676741 -0.00191739565946579
0.006952480774628354 -0.01998761305613312 -0.0014147562290338762
0.006688822864635483 -0.01849233474459214 -0.0026066354081734533
0.0064251649546426095 -0.016997056433051157 -0.0031223242777038258
0.006161507296093514 -0.0155017795475187 -0.003777126075892333
0.005897849386100642 -0.01400650123597772 -0.00395375107393403
0.00563419147610777 -0.01251122292443674 -0.004036383041487584
0.005370533566114897 -0.01101594461289576 -0.004027778983884052
0.005106875656122025 -0.00952066630135478 -0.0037451975215069566
0.004843217746129152 -0.008025387989813799 -0.0034626189551438652
0.0045795598361362795 -0.00653010967827282 -0.0033638503975644317
0.004315901926143407 -0.005034831366731839 -0.0032650847359990015
0.004052244016150535 -0.0035395530551908592 -0.004060159316453928
0.003788586106157662 -0.0020442747436498787 -0.0038706238879859262
0.00352492819616479 -0.0005489964321088986 -0.0017850072753231065
0.006511834103058863 -0.02623238421228991 0.006148990880245598
0.0062481761930659905 -0.02473710590074893 0.005392948776525919
0.005984518283073119 -0.023241827589207953 0.0025683562706643294
0.005720860373080247 -0.021746549277666973 -0.00025623768320426186
0.005457202463087374 -0.02025127096612599 -0.000538816249567353
0.005193544553094502 -0.018755992654585014 -0.0028018557121297534
0.00492988664310163 -0.01726071434304403 -0.0030844357264998463
0.004666228984552534 -0.015765437457511574 -0.00358707515693176
0.0044025710745596615 -0.014270159145970593 -0.0036858437145111935
0.004138913164566789 -0.012774880834429613 -0.0057714603271740135
0.003875255254573917 -0.011279602522888633 -0.00379531014781848
0.0036115973445810445 -0.009784324211347653 -0.0038940787053979137
0.003347939434588172 -0.008289045899806672 -0.004650123705131596
0.0030842815245952994 -0.006793767588265692 -0.0037154496656659963
0.002820623614602427 -0.0052984892767247126 -0.003904982198119995
0.0025569657046095543 -0.0038032109651837316 -0.0038223473345524368
0.002293307794616682 -0.0023079326536427514 -0.003167549880384935
0.0020296498846238097 -0.0008126543421017711 -0.0037960225672632694
0.0017659919746309371 0.0006826239694392091 -0.003520970741294518
0.0015023340017771203 0.0021779026374823198 -0.002725896160839592
0.005016555791517882 -0.026496042122282782 0.0073818327294535606
0.0044892399715321385 -0.023505485499200826 0.003425616959810156
0.004225582061539266 -0.022010207187659846 0.0011343181926044448
0.003961924151546394 -0.020514928876118863 -0.0012369091130828257
0.003698266241553522 -0.019019650564577887 -0.0017525965346061965
0.003434608331560649 -0.017524372253036904 -0.0029444800577667785
0.0031709506730115537 -0.016029095367504444 -0.0023160059228814426
0.0029072927630186813 -0.014533817055963466 -0.003941254773510185
0.002643634853025809 -0.013038538744422486 -0.004216306599478936
0.0023799769430329367 -0.011543260432881506 -0.0042076996458614
0.0021163190330400644 -0.010047982121340527 -0.004018170009421404
0.0018526611230471916 -0.008552703809799543 -0.004009563055803868
0.0015890032130543195 -0.007057425498258565 -0.0062215066953006555
0.001325345303061447 -0.005562147186717585 -0.004424344661413438
0.0010616873930685744 -0.004066868875176604 -0.004234809232945436
0.0007980294830757017 -0.0025715905636356238 -0.003732171250520524
0.0005343715730828293 -0.0010763122520946436 -0.004007223076489276
0.0002707136630899568 0.0004189660594463366 -0.00408985504404283
7.055690236139899e-06 0.0019142447274894472 -0.002834684926870128
-0.0002566022197567328 0.003409523039030427 -0.0006591673515056998
0.003257619480858497 -0.02526442173644991 0.0045760006023047575
0.0029939615708656254 -0.023769143424908934 0.004477234940739327
0.002730303660872753 -0.022273865113367954 0.001964066748719789
0.002466645750879881 -0.02077858680182697 -2.908448084158123e-05
0.002202987840887009 -0.019283308490285995 -0.001508899852250186
0.0019393299308941364 -0.01778803017874501 -0.002764069969422888
0.001675672272345041 -0.016292753293212555 -0.0033925441043082243
0.0014120143623521685 -0.014797474981671574 -0.0036751226706713156
0.0011483564523592962 -0.013302196670130594 -0.003957701237034407
0.0008846985423664238 -0.011806918358589614 -0.00405646979461384
0.0006210406323735513 -0.010311640047048634 -0.0042460023270678385
0.0003573827223806789 -0.008816361735507653 -0.005130314683017638
9.372481238780624e-05 -0.007321083423966673 -0.0040585694047661665
-0.0001699330976050664 -0.005825805112425694 -0.0022931824365221543
-0.0004335910075979385 -0.004330526800884712 -0.004724858242498401
-0.0006972489175908112 -0.0028352484893437325 -0.00420917082097503
-0.0009609068275836835 -0.0013399701778027521 -0.004837643507853364
-0.001224564737576556 0.00015530813373822798 -0.003545806957386036
-0.001488222710430373 0.0016505868017813387 -0.003554408118975566
-0.0017518806204232455 0.003145865113322319 -0.0033777831209338693
-0.002015538530416118 0.004641143424863299 -0.0025827070924719416
0.0014986832927467203 -0.024032801329008594 0.005045023102187424
0.0012350253827538476 -0.022537523017467614 0.0028330794626906363
0.0009713674727609752 -0.02104224470592663 0.000856930731342105
0.0007077095627681031 -0.01954696639438565 -0.000839810568976849
0.0004440516527752309 -0.018051688082844672 -0.002536551869295803
0.0001803939942261354 -0.016556411197312212 -0.0030522407388261755
-8.326391576673701e-05 -0.015061132885771232 -0.004244119917965752
-0.00034692182575960943 -0.013565854574230252 -0.003961541351602662
-0.0006105797357524818 -0.012070576262689273 -0.004236593177571413
-0.0008742376457453543 -0.010575297951148293 -0.004319225145124968
-0.001137895555738227 -0.009080019639607311 -0.004495853039180668
-0.0014015534657310993 -0.007584741328066332 -0.004578487902748225
-0.0016652113757239717 -0.006089463016525352 -0.004569880949130689
-0.0019288692857168442 -0.0045941847049843715 -0.004561273995513153
-0.0021925271957097168 -0.0030989063934433914 -0.004371744359073158
-0.002456185105702589 -0.001603628081902411 -0.004182211826619159
-0.002719843015695462 -0.00010834977036143095 -0.004083443269039726
-0.0029835009885492785 0.0013869288976816798 -0.003580802390600811
-0.003247158898542151 0.00288220720922266 -0.00451547643006641
-0.003510816808535024 0.00437748552076364 -0.0017669303559150785
-0.0037744747037948626 0.005872763748749434 -0.0007547010614435495
3.405036909198005e-06 -0.024296459229179446 0.0035706059008808006
-0.0002602528730836738 -0.022801180917638462 0.0033810748164338038
-0.0005239107830765466 -0.021305902606097483 0.00070965828322993
-0.0007875686930694187 -0.019810624294556503 -0.0007701585361856762
-0.0010512266030622915 -0.01831534598301552 -0.002945673215536101
-0.0013148842616113867 -0.016820069097483063 -0.002863042695989548
-0.0015785421716042584 -0.015324790785942082 -0.00423187846677419
-0.0018422000815971307 -0.013829512474401102 -0.004240485420391726
-0.0021058579915900033 -0.012334234162860122 -0.004249086581981257
-0.0023695159015828756 -0.010838955851319143 -0.004166454614427702
-0.0026331738115757484 -0.009343677539778161 -0.004449036076804796
-0.0028968317215686207 -0.007848399228237182 -0.0046385686092587945
-0.003160489631561493 -0.006353120916696202 -0.004363516783290043
-0.003424147541554366 -0.004857842605155221 -0.004866154765714955
-0.003687805451547238 -0.003362564293614241 -0.00514873622809205
-0.003951463361540111 -0.001867285982073261 -0.004076993845854581
-0.004215121271532983 -0.00037200767053228084 -0.004359572412217672
-0.004478779244386799 0.0011232709975108298 -0.00408452058624892
-0.004742437154379673 0.0026185493090518097 -0.003568833164725549
-0.005006095064372546 0.00411382762059279 -0.0015143501506042249
-0.005269752959632384 0.005609105848578583 -0.0032082750773050586
-0.005533410868643054 0.007104384154549217 -0.002016391554144476
-0.005797068794351163 0.00859966255521573 3.808711595584313e-05
-0.0017555311846246553 -0.023064838827631336 0.003849638298096962
-0.002019189094617527 -0.021569560516090353 0.0022243894474682203
-0.002282847004610399 -0.020074282204549376 0.0001699078813538976
-0.002546504914603272 -0.018579003893008393 -0.0014553409692748443
-0.0028101625731523673 -0.017083727007475936 -0.0030053050398761725
-0.0030738204831452396 -0.015588448695934955 -0.003520993909406545
-0.0033374783931381115 -0.014093170384393975 -0.004036681330929916
-0.003601136303130984 -0.012597892072852996 -0.004213306328971613
-0.003864794213123856 -0.011102613761312016 -0.004488358154940364
-0.004128452123116729 -0.009607335449771034 -0.004763409980909116
-0.004392110033109601 -0.008112057138230055 -0.004573874552441115
-0.004655767943102474 -0.006616778826689074 -0.005645619830692586
-0.004919425853095346 -0.005121500515148094 -0.004633390536221057
-0.005183083763088219 -0.0036262222036071135 -0.004716025399788615
-0.0054467416730810915 -0.0021309438920661334 -0.004892650397830311
-0.005710399583073964 -0.0006356655805251533 -0.004264177710951977
-0.00597405755592778 0.0008596130875179574 -0.004165409153372543
-0.006237715465920654 0.0023548913990589374 -0.0034093670496528647
-0.006501373375913526 0.003850169710599918 -0.00340076154404233
-0.0067650312711733645 0.005345447938585711 -0.0031181815296722373
-0.007028689180184035 0.006840726244556345 -0.002928646101204236
-0.007292347105892143 0.008336004645222859 -0.001448830729795631
-0.002987151586172764 -0.02482377504916519 0.007864029197036822
-0.0032508094961656367 -0.02332849673762421 0.006851797006551291
-0.0035144674061585086 -0.021833218426083226 0.00277171002994864
-0.0037781253161513805 -0.02033794011454225 -0.00012803403929621604
-0.004041783226144254 -0.018842661803001266 -0.001925196073183434
-0.004305440884693349 -0.017347384917468806 -0.003180367638363138
-0.004569098794686221 -0.015852106605927826 -0.0030037411923144394
-0.0048327567046790925 -0.014356828294386849 -0.004015969038778967
-0.005096414614671965 -0.012861549982845869 -0.005028198333250496
-0.005360072524664837 -0.011366271671304887 -0.004373400879082994
-0.00562373043465771 -0.009870993359763906 -0.004655979445446086
-0.005887388344650583 -0.008375715048222926 -0.004479354447404388
-0.006151046254643455 -0.006880436736681947 -0.0052353994471380704
-0.006414704164636327 -0.005385158425140967 -0.004960347621169319
-0.006678362074629201 -0.0038898801135999863 -0.0049689545747868555
-0.006942019984622073 -0.002394601802059006 -0.004977555736376385
-0.007205677894614945 -0.0008993234905180259 -0.004461868314853014
-0.0074693358674687614 0.0005959551775250848 -0.003946180893329643
-0.007732993777461635 0.002091233489066065 -0.0040449494509090765
-0.007996651687454507 0.0035865118006070456 -0.003769897624940325
-0.008260309582714346 0.005081790028592838 -0.003254210203416954
-0.008523967491725017 0.006577068334563472 -0.0033529758649823846
-0.008787625417433125 0.008072346735229986 -0.002281230586730913
-0.009051283327425998 0.009567625046770965 -0.0020061816567761644
-0.00931494123741887 0.011062903358311947 -0.000621973843662491
-0.005009746074201619 -0.022096876398937045 0.0042011941259884784
-0.005273403984194491 -0.020601598087396065 0.0004988139837263184
-0.005537061894187364 -0.019106319775855085 -0.001792484783479393
-0.005800719552736459 -0.017611042890322625 -0.0024472822376468946
-0.0060643774627293315 -0.016115764578781645 -0.004423432417002428
-0.006328035372722204 -0.014620486267240666 -0.0034112016745238972
-0.006591693282715076 -0.013125207955699686 -0.004482945504768367
-0.0068553511927079485 -0.011629929644158704 -0.00465957629483807
-0.007119009102700822 -0.010134651332617723 -0.004934625224792819
-0.007382667012693694 -0.008639373021076743 -0.004835859563227389
-0.007646324922686566 -0.0071440947095357645 -0.0051109084931821374
-0.007909982832679439 -0.005648816397994784 -0.005193540460735692
-0.008173640742672312 -0.004153538086453803 -0.005004007928281693
-0.008437298652665183 -0.002658259774912823 -0.004247965824562014
-0.008700956562658057 -0.0011629814633718428 -0.004763653246085385
-0.008964614535511874 0.0003322972046712678 -0.004007611142365706
-0.009228272445504745 0.0018275755162122478 -0.004282657176306452
-0.009491930355497618 0.0033228538277532286 -0.0037800191938815396
-0.009755588250757457 0.004818132055739021 -0.003862654057449097
-0.010019246159768127 0.0063134103617096555 -0.0029783417014992977
-0.010282904085476236 0.0078086887623761685 -0.0026957631351362064
-0.010546561995469108 0.009303967073917148 -0.0025062306026822083
-0.01081021990546198 0.01079924538545813 -0.001251060485509506
-0.011073877752593908 0.012294523340496978 0.001097304237629433
-0.006505024385742598 -0.022360534308929914 0.001719922632200281
-0.006768682295735471 -0.020865255997388938 0.0015303872037322798
-0.007032340205728344 -0.019369977685847955 -0.001369353969498573
-0.007295997864277439 -0.017874700800315498 -0.0022536663254483728
-0.007559655774270311 -0.01637942248877452 -0.003733483144863979
-0.007823313684263184 -0.014884144177233537 -0.004016064607241073
-0.008086971594256056 -0.013388865865692557 -0.004024668664844606
-0.008350629504248929 -0.011893587554151578 -0.004307247231207697
-0.0086142874142418 -0.010398309242610596 -0.004589828693584792
-0.008877945324234674 -0.008903030931069617 -0.005474138153520588
-0.009141603234227547 -0.007407752619528637 -0.005482742211124121
-0.009405261144220418 -0.005912474307987656 -0.004290864479991546
-0.009668919054213292 -0.004417195996446676 -0.0053030937744630744
-0.009932576964206163 -0.0029219176849056955 -0.005028041948494323
-0.010196234874199036 -0.0014266393733647152 -0.005217577376962324
-0.010459892847052853 6.863929467839543e-05 -0.004025693853801742
-0.010723550757045725 0.0015639176062193754 -0.004528331836226654
-0.010987208667038598 0.0030591959177603562 -0.0038735343820591526
-0.011250866562298437 0.004554474145746149 -0.005866684163613521
-0.011514524471309106 0.006049752451716783 -0.0035753868444148114
-0.011778182397017216 0.007545030852383296 -0.0020254227738134836
-0.012041840307010087 0.009040309163924277 -0.0030376520682850127
-0.01230549821700296 0.010535587475465258 -0.002242576039823085
-0.012569156064134888 0.012030865430504106 -0.001726888618299714
-0.012832813974127761 0.013526143742045088 -0.0005350079911531351
-0.00826396060727645 -0.02112891390738181 0.0021420890735180326
-0.008527618517269324 -0.019633635595840828 9.047335538666726e-06
-0.00879127617581842 -0.018138358710308368 -0.0014608839400769866
-0.009054934085811291 -0.016643080398767388 -0.0035153640581843076
-0.009318591995804164 -0.01514780208722641 -0.003597996025737862
-0.009582249905797036 -0.01365252377568543 -0.004252796375919367
-0.009845907815789909 -0.01215724546414445 -0.0037501554974804516
-0.01010956572578278 -0.01066196715260347 -0.004684829536946052
-0.010373223635775653 -0.00916668884106249 -0.005479904117400978
-0.010636881545768527 -0.007671410529521509 -0.005290371584946979
-0.010900539455761398 -0.006176132217980529 -0.005007793018583888
-0.011164197365754271 -0.004680853906439548 -0.005184418016625585
-0.011427855275747143 -0.003185575594898568 -0.00455594532974725
-0.011691513185740016 -0.0016902972833575877 -0.004830997155716002
-0.011955171158593833 -0.00019501861531447711 -0.004328359173291089
-0.012218829068586705 0.0013002596962265029 -0.0044109911408446445
-0.012482486978579578 0.0027955380077674835 -0.0035266816809088474
-0.012746144873839417 0.0042908162357532765 -0.0036093136484624017
-0.013009802782850086 0.00578609454172391 -0.0035105479868969714
-0.013273460708558196 0.007281372942390424 -0.0033210140064359717
-0.013537118618551067 0.008776651253931404 -0.003038432544058877
-0.01380077652854394 0.010271929565472385 -0.0025357931136269635
-0.014064434375675868 0.011767207520511233 -0.002253214547263872
-0.014328092285668741 0.013262485832052215 -0.0014971695475301903
-0.014591750195661612 0.014757764143593192 -0.0012145895331600975
-0.014855408105654486 0.016253042455134176 0.0011337708459578369
-0.00975923891881743 -0.02139257181737468 0.0024415499535128285
-0.010022896828810303 -0.0198972935058337 0.0003559289968290042
-0.0102865544873594 -0.01840201662030124 -0.0008992411203436982
-0.01055021239735227 -0.01690673830876026 -0.002892392349905068
-0.010813870307345144 -0.015411459997219282 -0.0037767032578478665
-0.011077528217338015 -0.013916181685678302 -0.004279338344258776
-0.011341186127330889 -0.012420903374137322 -0.004378106901838209
-0.01160484403732376 -0.010925625062596341 -0.004660691260229307
-0.011868501947316633 -0.009430346751055361 -0.004850220896669302
-0.012132159857309506 -0.007935068439514381 -0.004948989454248735
-0.012395817767302378 -0.006439790127973401 -0.0051385219867027335
-0.012659475677295251 -0.00494451181643242 -0.005421100553065824
-0.012923133587288122 -0.00344923350489144 -0.0052444755550241275
-0.013186791497280996 -0.00195395519335046 -0.005253082508641664
-0.013450449470134813 -0.0004586765253073494 -0.004598282158460159
-0.013714107380127684 0.0010366017862336306 -0.004515647294892601
-0.013977765290120557 0.002531880097774611 -0.0042405983649378524
-0.014241423185380396 0.004027158325760404 -0.004523176931300944
-0.014505081094391066 0.005522436631731038 -0.0035885057878493475
-0.014768739020099175 0.0070177150323975515 -0.003072816918318975
-0.015032396930092047 0.008512993343938532 -0.003355395484682066
-0.01529605484008492 0.010008271655479514 -0.003080345106720316
-0.015559712687216848 0.011503549610518362 -0.0028052961767655676
-0.01582337059720972 0.012998827922059343 -0.0020102215963106415
-0.016087028507202592 0.014494106233600321 -0.0019275867327430837
-0.016350686417195465 0.015989384545141302 -0.00016219976449907168
-0.01661434432718834 0.017484662856682282 -0.0002609683220785052
-0.011518174427347025 -0.020160951290104683 0.0016541295380683833
-0.01178183208589612 -0.018665674404572227 -0.00011125598216862721
-0.012045489995888992 -0.017170396093031247 -0.0015811843617702772
-0.012309147905881865 -0.015675117781490267 -0.002965390726876949
-0.012572805815874737 -0.014179839469949286 -0.0040371360051284205
-0.01283646372586761 -0.012684561158408306 -0.004213761003170117
-0.013100121635860482 -0.011189282846867325 -0.004488812829138869
-0.013363779545853355 -0.009694004535326345 -0.004390047167573439
-0.013627437455846228 -0.008198726223785365 -0.0045666750616291385
-0.0138910953658391 -0.006703447912244385 -0.005082362483152509
-0.014154753275831973 -0.005208169600703405 -0.004579721604713594
-0.014418411185824844 -0.0037128912891624243 -0.004854773430682345
-0.014682069095817717 -0.002217612977621444 -0.004352135448257433
-0.014945727068671534 -0.0007223343095783336 -0.004253366890678
-0.015209384978664406 0.0007729440019626464 -0.003624894203799665
-0.015473042888657279 0.002268222313503627 -0.002996422964928332
-0.015736700783917118 0.00376350054148942 -0.0037914989933902597
-0.016000358692927787 0.005258778847460054 -0.0037828920397727232
-0.016264016618635895 0.006754057248126567 -0.003593359507318725
-0.01652767452862877 0.008249335559667547 -0.003310778044941631
-0.01679133243862164 0.009744613871208528 -0.003028198030571538
-0.01705499028575357 0.011239891826247376 -0.0028386669461245417
-0.017318648195746442 0.012735170137788358 -0.0023360275156926276
-0.017582306105739316 0.014230448449329337 -0.0021464920872246262
-0.017845964015732185 0.015725726760870317 -0.0018639135208615351
-0.01810962192572506 0.0172210050724113 -0.0013612740904296212
-0.01837327983571793 0.018716283383952276 -0.00010610397325691889
-0.013013452738888005 -0.020424609200097556 0.0005820135700245008
-0.0132771103974371 -0.0189293323145651 0.0004832450124450673
-0.013540768307429972 -0.017434054003024117 -0.0019484307935311788
-0.013804426217422845 -0.015938775691483137 -0.002832741701473977
-0.014068084127415717 -0.014443497379942159 -0.004087911818646679
-0.01433174203740859 -0.01294821906840118 -0.0042774472471146805
-0.014595399947401461 -0.011452940756860198 -0.004466979779568678
-0.014859057857394335 -0.009957662445319218 -0.004749558345931769
-0.015122715767387208 -0.008462384133778238 -0.004848326903511203
-0.01538637367738008 -0.006967105822237257 -0.005037859435965201
-0.01565003158737295 -0.005471827510696277 -0.004955227468411647
-0.015913689497365824 -0.003976549199155297 -0.004872592604844089
-0.016177347407358697 -0.0024812708876143165 -0.005375233483283005
-0.016441005380212512 -0.0009859922195712058 -0.0045801560068140755
-0.016704663290205386 0.0005092860919697741 -0.004305107076859327
-0.01696832120019826 0.0020045644035107547 -0.004128479182803626
-0.017231979095458098 0.0034998426314965477 -0.004318011715257625
-0.017495637004468767 0.004995120937467182 -0.004042959889288873
-0.017759294930176875 0.006490399338133695 -0.004051566842906409
-0.018022952840169748 0.007985677649674675 -0.003776515016937658
-0.01828661075016262 0.009480955961215657 -0.0035998900188959613
-0.01855026859729455 0.010976233916254505 -0.002945091116721458
-0.018813926507287422 0.012471512227795486 0.0010430474152793169
-0.019077584417280295 0.013966790539336464 -0.0024703765013154837
-0.019341242327273165 0.015462068850877446 -0.002387741637747926
-0.019604900237266038 0.016957347162418427 -0.002112691259786176
-0.01986855814725891 0.018452625473959407 -0.0010409459815347046
-0.020132216057251785 0.019947903785500386 0.0011709947619480798
-0.01477238870897808 -0.01919299022455797 0.001428740008233656
-0.015036046618970952 -0.01769771191301699 -0.0006257415578806669
-0.015299704528963825 -0.01620243360147601 -0.0023224843062066227
-0.015563362438956696 -0.014707155289935032 -0.003872445480793947
-0.015827020348949568 -0.013211876978394052 -0.004147494410748696
-0.01609067825894244 -0.011716598666853071 -0.0038649158443856044
-0.016354336168935314 -0.010221320355312091 -0.004936661122637076
-0.016617994078928187 -0.00872604204377111 -0.004837892565057643
-0.01688165198892106 -0.00723076373223013 -0.004648357136589641
-0.01714530989891393 -0.0057354854206891496 -0.004639755975000112
-0.017408967808906804 -0.00424020710914817 -0.0049148078009688635
-0.017672625718899677 -0.0027449287976071893 -0.0032208828742680295
-0.017936283691753492 -0.0012496501295640786 -0.004412763501414609
-0.018199941601746365 0.00024562818197690134 -0.004313997839849178
-0.01846359951173924 0.001740906493517882 -0.004305390886231642
-0.018727257406999077 0.003236184721503675 -0.004115858353777644
-0.018990915316009747 0.004731463027474308 -0.003613220371352731
-0.019254573241717855 0.006226741428140822 -0.003789845369394428
-0.019518231151710728 0.007722019739681802 -0.0013581710114251835
-0.0197818890617036 0.009217298051222783 -0.0033343182947667134
-0.02004554690883553 0.010712576006261632 -0.0030517397284036225
-0.020309204818828402 0.012207854317802613 -0.003043132774786086
-0.020572862728821275 0.013703132629343591 -0.0017879626576133836
-0.020836520638814145 0.015198410940884572 -0.0025830372380683097
-0.021100178548807018 0.016693689252425554 -0.0018269936863416292
-0.02136383645879989 0.018188967563966534 -0.00023883408705198148
-0.021627494368792764 0.019684245875507513 0.0032285359668567924
-0.016267667020519058 -0.019456648134550843 0.00222990490613733
-0.01653132493051193 -0.017961369823009863 -0.0008917679562084188
-0.016794982840504805 -0.016466091511468883 -0.002479927555498066
-0.017058640750497678 -0.014970813199927904 -0.0038487647742897093
-0.017322298660490548 -0.013475534888386924 -0.004131343340652801
-0.01758595657048342 -0.011980256576845942 -0.004413924803029896
-0.017849614480476294 -0.010484978265304963 -0.004603457335483893
-0.018113272390469167 -0.008989699953763983 -0.0043284055095151415
-0.01837693030046204 -0.0074944216422230025 -0.004245770645947584
-0.01864058821045491 -0.005999143330682022 -0.0047484115243865
-0.018904246120447783 -0.004503865019141042 -0.004665779556832945
-0.019167904030440656 -0.0030085867076000616 -0.004674383614436478
-0.019431562003294472 -0.001513308039556951 -0.004682987672040012
-0.019695219913287345 -1.8029728015970984e-05 -0.0046915917296435445
-0.019958877823280218 0.0014772485835250096 -0.004416539903674793
-0.020222535718540057 0.0029725268115108026 -0.004333907936121238
-0.020486193627550726 0.004467805117481436 -0.0003457708521274654
-0.020749851553258834 0.00596308351814795 -0.003924156706835243
-0.021013509463251707 0.00745836182968893 -0.004022925264414676
-0.02127716737324458 0.008953640141229912 -0.0037478734384459238
-0.021540825220376508 0.01044891809626876 -0.0032321845689155513
-0.02180448313036938 0.011944196407809742 -0.0029571341909538015
-0.022068141040362255 0.01343947471935072 -0.0028744993273862435
-0.022331798950355124 0.014934753030891701 -0.002791864463818686
-0.022595456860347998 0.01643003134243268 -0.001241904737238363
-0.02285911477034087 0.01792530965397366 -0.00030723214577976527
-0.023122772680333744 0.01942058796551464 0.001668918033575768
-0.023386430590326617 0.020915866277055623 0.0015701494759963344
-0.02365008850031949 0.022411144588596606 0.0069379621111887585
-0.01802660324205291 -0.018225027733002736 0.0025209137692637613
-0.018290261152045784 -0.016729749421461756 -0.0009903902650806905
-0.018553919062038658 -0.015234471109920777 -0.002615640563716434
-0.018817576972031527 -0.013739192798379797 -0.003907481458204767
-0.0190812348820244 -0.012243914486838816 -0.003990113425758321
-0.019344892792017274 -0.010748636175297836 -0.003891347764192891
-0.019608550702010147 -0.009253357863756854 -0.004963093042444362
-0.01987220861200302 -0.007758079552215875 -0.002531414340454113
-0.02013586652199589 -0.006262801240674894 -0.0030471046579914874
-0.020399524431988763 -0.0047675229291339145 -0.004238985285138066
-0.020663182341981636 -0.003272244617592934 -0.004514037111106818
-0.02092684031483545 -0.0017769659495498232 -0.0045054301574892815
-0.021190498224828325 -0.0002816876380088433 -0.004588065021056839
-0.021454156134821198 0.0012135906735321372 -0.004085424142617923
-0.021717814030081037 0.0027088689015179303 -0.0038958945061779286
-0.021981471939091706 0.004204147207488564 -0.004550691960345431
-0.022245129864799814 0.005699425608155078 -0.004361159427891432
-0.022508787774792687 0.007194703919696057 -0.00385852144546652
-0.02277244568478556 0.008689982231237039 -0.0024896813306608738
-0.023036103531917488 0.010185260186275887 -0.001605368974711074
-0.02329976144191036 0.011680538497816868 -0.002400447899187005
-0.023563419351903234 0.013175816809357846 -0.001897808468755091
-0.023827077261896104 0.014671095120898828 -0.001395169038323177
-0.024090735171888977 0.01616637343243981 -0.00013999892115047454
-0.02435439308188185 0.017661651743980787 0.002035520102220955
-0.024618050991874724 0.01915693005552177 0.005948627255419597
-0.024881708901867597 0.02065220836706275 0.009186534490547913
-0.019785539463586767 -0.01699340733145463 -0.0002053691972379036
-0.02004919737357964 -0.015498129019913648 -0.0014605407624176075
-0.02031285528357251 -0.014002850708372669 -0.003723575880959003
-0.020576513193565384 -0.012507572396831687 -0.004226216759397919
-0.020840171103558257 -0.011012294085290707 -0.003951167829443171
-0.02110382901355113 -0.009517015773749728 -0.0036761160034744188
-0.021367486923544003 -0.008021737462208748 -0.003401064177505667
-0.021631144833536873 -0.006526459150667767 -0.003590596709959665
-0.021894802743529746 -0.005031180839126787 -0.0036893652675390985
-0.02215846065352262 -0.0035359025275858067 -0.003606730403971541
-0.022422118626376435 -0.0020406238595426962 -0.003615337357589077
-0.022685776536369308 -0.0005453455480017161 -0.003804869890043075
-0.02294943444636218 0.0009499327635392646 -0.0038134739476466083
-0.02321309234162202 0.0024452109915250575 -0.0040960525140097
-0.02347675025063269 0.003940489297495691 -0.0034412550598421974
-0.023740408176340797 0.0054357676981622045 -0.0029255676383188266
-0.02400406608633367 0.006931046009703185 -0.0019908950468602287
-0.024267723996326544 0.008426324321244166 -0.0013360932486717223
-0.02453138184345847 0.009921602276283014 -0.0013447002022892588
-0.024795039753451344 0.011416880587823995 -0.00162727876865235
-0.025058697663444218 0.012912158899364975 0.00034887141070318343
-0.025322355573437087 0.014407437210905956 0.001143947439165111
-0.02558601348342996 0.015902715522446938 0.0023358266183046887
-0.025849671393422834 0.017397993833987914 -0.0009327146981997872
-0.026113329303415707 0.018893272145528897 0.007116817040012926
-0.021544475685120617 -0.01576178692990652 -0.00032834987989116386
-0.021808133595113487 -0.014266508618365542 -0.0008440373014145348
-0.02207179150510636 -0.01277123030682456 -0.0022282436665212067
-0.022335449415099233 -0.01127595199528358 -0.0035200845610095393
-0.022599107325092106 -0.009780673683742601 -0.0021512444462038934
-0.02286276523508498 -0.00828539537220162 -0.00205247588862446
-0.02312642314507785 -0.00679011706066064 -0.003522407164240113
-0.023390081055070722 -0.005294838749119659 -0.0019342490129574668
-0.023653738965063596 -0.003799560437578679 -0.0014316095825255527
-0.02391739693791741 -0.0023042817695355686 -0.0016082360285742511
-0.024181054847910284 -0.0008090034579945884 -0.0008521910288405689
-0.024444712757903157 0.0006862748535463923 -0.00022372123797623748
-0.024708370653162996 0.0021815530815321852 -0.0015155592364505671
-0.024972028562173666 0.003676831387502819 -0.0007001951818891607
-0.025235686487881773 0.005172109788169332 -0.002170123561490811
-0.025499344397874647 0.006667388099710313 -0.0005618134967668366
-0.02576300230786752 0.008162666411251294 -1.2588785079307132e-05
-0.026026660154999447 0.009657944366290142 -0.00030931872386907774
-0.02629031806499232 0.011153222677831124 0.0006152902189283697
-0.026553975974985194 0.012648500989372102 0.007193548379034943
-0.026817633884978063 0.014143779300913083 0.008419484682852254
-0.02356706981664734 -0.013034888216817432 -0.0006630871064590459
-0.023830727726640213 -0.011539609905276452 -0.0015473994624088455
-0.024094385636633086 -0.010044331593735472 -0.0018299780287719366
-0.02435804354662596 -0.008549053282194493 -0.002458452163657273
-0.02462170145661883 -0.007053774970653512 -0.0025572207212367064
-0.024885359366611702 -0.0055584966591125315 -0.0010072566506353785
-0.025149017276604575 -0.004063218347571552 6.448862761609285e-05
-0.02541267524945839 -0.002567939679528441 0.0005801760491394637
-0.025676333159451264 -0.0010726613679874607 0.0022769187974654194
-0.025939991069444137 0.00042261694355351994 0.0010794387272436365
-0.026203648964703976 0.001917895171539313 0.002516228018606569
-0.026467306873714645 0.0034131734775099468 0.0005826246289791767
-0.026730964799422753 0.00490845187817646 0.008710484857936676
