ply
format ascii 1.0
element vertex 664
property float x
property float y
property float z
property uchar red
property uchar green
property uchar blue
end_header
0.008478328348694334 -0.01565018351173436 0.06829096123946678 121 133 0
0.008970290971565768 -0.015900817717724204 0.06825880047249684 122 132 0
0.009462444810288908 -0.01615490229617289 0.06825969316010132 117 137 0
0.00995459865204674 -0.016408986929380705 0.06826058637228057 112 142 0
0.010447660072638703 -0.016679448264548855 0.06841836310378474 83 171 0
0.010942138645163604 -0.0169754812348911 0.06882110784720742 14 240 0
0.01143754330101002 -0.017288222752564787 0.06938391450140016 0 184 70
0.0023467552552359633 -0.012106828182127261 0.07071648400032904 0 81 173
0.0028356552805406483 -0.012302199698322257 0.07015492450073424 0 156 98
0.0033223268354625893 -0.012457359836824087 0.069208152980753 35 219 0
0.0038147047071810727 -0.012715486952908096 0.06924777187420582 24 230 0
0.004305313059942507 -0.012941684187550533 0.06898151280857301 61 193 0
0.004797120534259446 -0.013189518833280761 0.0689225331578526 66 188 0
0.005289119227462785 -0.01344080390622896 0.06889660748628135 66 188 0
0.005781117445407426 -0.013692088630325144 0.06887068079325841 65 189 0
0.006274415241081208 -0.01396681520848951 0.06906931717609184 29 225 0
0.006762989750303788 -0.014156312987153991 0.06845148916665851 122 132 0
0.007254600239822278 -0.014400593163328979 0.06835845884477668 132 122 0
0.007743679921842359 -0.014599206474476139 0.06782795469455913 212 42 0
0.00823778198031042 -0.014888445480194221 0.06816561544958234 154 100 0
0.00872939246982891 -0.015132725656369209 0.06807258512770052 164 90 0
0.00922492320294993 -0.015447744217658568 0.06865720570494249 67 187 0
0.00971494500161732 -0.015663357444366352 0.0682895552592032 120 134 0
0.010206943691785968 -0.015914642462555424 0.06826362906305723 120 134 0
0.010699321569573834 -0.01617276968815768 0.06830324900565952 109 145 0
0.011197062549760831 -0.016527670798595285 0.06926993153195449 0 211 43
0.002106388076225097 -0.011348323512634054 0.0706221127753114 0 105 149
0.0025989451798022964 -0.01160968475739274 0.0706927135776774 0 91 163
0.003085006136776946 -0.01175382703141348 0.06964039447189865 0 236 18
0.003579232927096091 -0.01204531674668248 0.0699996162980204 0 181 73
0.0040659465671066125 -0.012201236284728181 0.06906011958057906 61 193 0
0.004557720228901417 -0.01244846080428897 0.06899529511806896 67 187 0
0.005048116393064735 -0.012670829226160502 0.06869235726181089 110 144 0
0.005540673493607245 -0.012932190416160064 0.06876295753960214 95 159 0
0.006032446686212733 -0.013179414696387092 0.06869813310478982 100 154 0
0.006524600527970563 -0.013433499329594905 0.06869902631696904 95 159 0
0.007013950637335151 -0.013636992335878588 0.06821526807127516 167 87 0
0.007506104476058291 -0.013891076914327274 0.06821616075887965 163 91 0
0.007997687914345198 -0.01413486896766306 0.06811845437773618 173 81 0
0.008491040886762608 -0.014410591176236038 0.06832662857855204 136 118 0
0.008982429315834614 -0.014650864408206878 0.06819521302440504 152 102 0
0.00947335655691399 -0.014882815786451085 0.06798407679737142 181 73 0
0.009967296074321369 -0.01516912183868134 0.06829364080456952 127 127 0
0.010461774643811579 -0.015465154754264462 0.06869638502341746 59 195 0
0.010951633895348908 -0.01567783491796617 0.06830063678070357 117 137 0
0.011446695195223067 -0.01598438284498659 0.06880411141548144 33 221 0
0.011944884012743354 -0.016347362847988038 0.06984818654502786 0 133 121
0.002362270296647805 -0.010917805296107488 0.0712365903445164 0 25 229
0.0028501093941353623 -0.011094033022243585 0.07049163951466894 0 127 127
0.0033382503249799545 -0.011275707145699615 0.06979886341336342 0 220 34
0.003830057799296894 -0.011523541791429844 0.06973988376264299 0 225 29
0.004318482473708137 -0.011710335893062382 0.06909615539983467 63 191 0
0.004809382369190944 -0.011941793836832273 0.06888029222978931 93 161 0
0.005301381065428972 -0.012193078964539595 0.06885436708279283 92 162 0
0.005792280957877089 -0.012424536853550362 0.06863850338817272 122 132 0
0.006282888832345135 -0.01265073368458166 0.06837224277651346 160 94 0
0.006774499324898316 -0.012895013915515771 0.06827921297920637 170 84 0
0.007266306799215257 -0.013142848561246003 0.06822023332848597 174 80 0
0.007757917288733747 -0.01338712873742099 0.06812720300660415 185 69 0
0.0082502951695563 -0.01364525601778237 0.0681668234737812 174 80 0
0.008741905659074794 -0.013889536193957358 0.06807379315189936 184 70 0
0.00923493973407019 -0.014159504094651191 0.0682268429403918 155 99 0
0.00972674720838713 -0.014407338740381422 0.06816786328967138 160 94 0
0.010220045004060912 -0.014682065318545788 0.06836649967250481 124 130 0
0.01071307907905631 -0.014952033219239623 0.06851954946099725 95 159 0
0.011205651956955 -0.015213679101929448 0.06859287700287885 79 175 0
0.011701182690076022 -0.015528697663218807 0.06917749758012083 0 239 15
0.012198085093167065 -0.01586846510890522 0.06999920390226425 0 118 136
0.0021190699942656944 -0.010108178657565666 0.07065248715523692 0 119 135
0.002612716949295678 -0.010389205601602506 0.07091147900973384 0 78 176
0.0031003266302468526 -0.010561293647415742 0.07012687137844345 0 185 69
0.003590185881784183 -0.01077397381111745 0.06973112313572957 0 237 17
0.004080313233058368 -0.010991491669706897 0.06938171844871124 31 223 0
0.004570172484595698 -0.011204171833408605 0.06898597020599737 89 165 0
0.005062135110501821 -0.011454806094157576 0.06895380996360218 89 165 0
0.0055525312716304485 -0.011677174461269983 0.06865087158276936 133 121 0
0.006044304936459944 -0.011924399035589896 0.06858604764483399 138 116 0
0.006535692902412016 -0.012164672137745223 0.06845463316753425 154 100 0
0.007027276337664231 -0.012408464136321882 0.06835692626181604 165 89 0
0.007517135595270943 -0.01262114440954184 0.06796117906825164 223 31 0
0.008011075112678323 -0.012907450461772097 0.06827074307544974 170 84 0
0.008499954417115917 -0.013102448082662395 0.06770560177950778 255 0 0
0.008994432980536746 -0.013398480888727266 0.06810834494920621 186 68 0
0.00948749441023278 -0.01366894238817279 0.06826612325443464 157 97 0
0.009979457030069524 -0.013919576539403511 0.06823396196288994 157 97 0
0.010471807856625801 -0.014177215642166563 0.06826890584623059 147 107 0
0.010965454811655787 -0.014458242586203405 0.06852789770072751 101 153 0
0.01145910176365108 -0.014739269475481119 0.06878688903064967 56 198 0
0.011954922151915948 -0.015059514685722256 0.06942157921798878 0 211 43
0.012447540106052504 -0.015321971884680657 0.06950267832776771 0 195 59
0.012943826486225149 -0.015650625632343113 0.07021791958981204 0 90 164
0.0023712448273159104 -0.009610762915703105 0.07062610802238692 0 130 124
0.0028650788012205683 -0.009895164500329075 0.0709174278445883 0 85 169
0.0033533596130914836 -0.010079362690887435 0.07024883149149977 0 175 79
0.003841500540901385 -0.010261036759584341 0.0695560548656195 16 238 0
0.004333878415654559 -0.010519163930427471 0.06959567428364705 5 249 0
0.004822159230560165 -0.010703362175744958 0.06892707845513327 106 148 0
0.005313769720078656 -0.010947642351919943 0.06883404813325145 116 138 0
0.005805380209597146 -0.011191922528094929 0.06874101781136963 126 128 0
0.006296280105079953 -0.011423380471864822 0.06852515464132426 156 98 0
0.006787683848388208 -0.011663938266710413 0.06839646742811487 171 83 0
0.007279871502668173 -0.011918633026087663 0.06840320545208378 166 88 0
0.00777077139815098 -0.012150090969857554 0.06818734228203843 195 59 0
0.008262770085284936 -0.012401375933287502 0.0681614155613177 195 59 0
0.008755342972287701 -0.012663021980254704 0.06823474467692354 179 75 0
0.009248377044248407 -0.012932989826189413 0.06838779394084123 150 104 0
0.009740949925181788 -0.013194635763638364 0.06846112200729758 134 120 0
0.01023352280308048 -0.013456281646328191 0.06853444954917917 117 137 0
0.010724131155841914 -0.013682478880970628 0.06826819048354636 155 99 0
0.011222031511907347 -0.014040255831128806 0.0692624226262092 0 249 5
0.011714030199041303 -0.014291540794558754 0.06923649590548847 0 248 6
0.012209560932162324 -0.014606559355848113 0.06982111648273046 0 162 92
0.0021331920429160886 -0.008894020073764984 0.07093180162703709 0 98 156
0.0026241192870301543 -0.009125971506768315 0.07072066592457822 0 124 130
0.003113231170151686 -0.009325165866989605 0.07019572803696167 0 194 60
0.003604814611473283 -0.009568957975084513 0.07009802218039293 0 203 51
0.004093028830094716 -0.009751954531406454 0.06941791455913776 45 209 0
0.004583956071174091 -0.00998390590965066 0.06920677833210415 74 180 0
0.005074883312253465 -0.010215857287894868 0.06899564210507055 103 151 0
0.005566656974048269 -0.010463081807455657 0.06893081764256044 109 145 0
0.006057584218162333 -0.01069503324045899 0.06871968194010157 137 117 0
0.006548972653303722 -0.010935306581948079 0.06858826743510404 154 100 0
0.007038084067235937 -0.011134500702835604 0.06806332957518528 232 22 0
0.007533145364075403 -0.0114410485750969 0.0685668036853884 148 106 0
0.008024728808431691 -0.011684840737950933 0.06846909835339442 159 95 0
0.008515124969560318 -0.011907209105063342 0.06816615997256159 202 52 0
0.009008186390152283 -0.012177670440231492 0.06832393670406577 172 82 0
0.009499960051947089 -0.012424894959792281 0.06825911224155566 178 76 0
0.00999211389370492 -0.012678979593000093 0.06826000545373491 173 81 0
0.010484076522645734 -0.012929613908508187 0.06822784573591445 174 80 0
0.010978303312964878 -0.013221103623777186 0.0685870675620362 112 142 0
0.011474919691457579 -0.01355571198819761 0.0693593521308149 0 242 12
0.01196856664345287 -0.013836738877475325 0.06961834346073706 0 201 53
0.012456780862074303 -0.014019735433797264 0.06893823583948189 43 211 0
0.012951469036585365 -0.014319548486363586 0.06937719197050912 0 227 27
0.0028757647456257142 -0.00861900352840214 0.07060277944893474 0 147 107
0.0033657865442931045 -0.008834616755109926 0.07023512900319547 0 195 59
0.003858164425115659 -0.009092744035471306 0.0702747494703725 0 185 69
0.004346003522603217 -0.009268971761607406 0.06952979864052504 35 219 0
0.0048369034180860224 -0.009500429705377296 0.06931393547047968 65 189 0
0.005326925216753413 -0.009716042932085084 0.0689462850247404 119 135 0
0.005818329432285674 -0.00995660102102356 0.06881759830840796 134 120 0
0.006309229324733789 -0.010188058910034329 0.06860173461378787 164 90 0
0.006802794479679932 -0.010467609821859961 0.06884658655607952 121 133 0
0.007292815812192696 -0.010683222863993109 0.06847893666261276 174 80 0
0.007784623286509635 -0.01093105750972334 0.06841995701189234 179 75 0
0.008275523181992442 -0.01116251545349323 0.06820409384184699 208 46 0
0.00876733065630938 -0.011410350099223462 0.06814511419112658 213 41 0
0.009261941863019565 -0.01170877637187782 0.0685707859982793 141 113 0
0.009752841758502372 -0.01194023431564771 0.06835492282823394 171 83 0
0.010245414636401063 -0.012201880198337537 0.06842825037011555 155 99 0
0.01073844871139646 -0.01247184809903137 0.06858130015860797 126 128 0
0.011233298138280317 -0.012774572908229875 0.06904815055853386 47 207 0
0.011727132112184976 -0.013058974492855844 0.06933947038073524 0 252 2
0.012224547139294429 -0.013407993980448951 0.07024980885842863 0 119 135
0.012720294238265113 -0.013726916730444615 0.07087183030343001 0 27 227
0.0026360788273316516 -0.007872791789612914 0.07062617053261204 0 155 99
0.0031282326630201027 -0.008126876313302476 0.07062706269564177 0 151 103
0.0036186288302181117 -0.008349244789933132 0.07032412536395845 0 190 64
0.0041079789395827 -0.008552737796216816 0.06984036711826455 0 254 0
0.004598106281752812 -0.008770255490528888 0.06949096085752202 49 205 0
0.00508850244288144 -0.008992623857641293 0.06918802247668918 93 161 0
0.005579890881057519 -0.00923289725388951 0.06905660849626641 109 145 0
0.006071279310129527 -0.009473170485860348 0.06892519294211939 125 129 0
0.006562667748305605 -0.009713443882108564 0.06879377896169662 141 113 0
0.007054251189627204 -0.009957235990203473 0.06869607310512789 152 102 0
0.007545834155690103 -0.010201027749446371 0.06859836622710747 163 91 0
0.008037222593866182 -0.010441301145694585 0.06846695224668467 179 75 0
0.008529573420422463 -0.010698940248457639 0.06850189613002533 169 85 0
0.009024455054477153 -0.01100224621624852 0.0689743138417017 90 164 0
0.009512885637430902 -0.011189146933897203 0.06833160682591857 187 67 0
0.010005039479188734 -0.011443231567105014 0.0683325000380978 182 72 0
0.010497390302710323 -0.011700870615108943 0.06836744339686371 172 82 0
0.010989741129266603 -0.011958509717871997 0.06840238728020435 162 92 0
0.011481894971024434 -0.012212594351079808 0.06840328049238359 157 97 0
0.011980459420562216 -0.012582354459572509 0.06951230742441859 0 234 20
0.012479023876169375 -0.012952114677583459 0.07062133540560307 0 74 180
0.012970607317490975 -0.01319590678567837 0.07052362954903435 0 83 171
0.003380902038346814 -0.00763838428270813 0.07068616983668184 0 149 105
0.0038706365641024395 -0.007848813846377171 0.07026886157201892 0 204 50
0.00436065836580452 -0.008064427127844082 0.06990121165085438 0 252 2
0.004852268855323011 -0.008308707304019069 0.06980818132897255 7 247 0
0.005342003381078637 -0.008519136867688107 0.06939087306430962 69 185 0
0.0058320251797460265 -0.008734750094395893 0.06902322261857034 122 132 0
0.006325059254741423 -0.009004717995089728 0.06917627240706278 93 161 0
0.006815959150224229 -0.00923617593885962 0.06896040923701743 123 131 0
0.0073068590426723454 -0.009467633827870386 0.06874454554239733 152 102 0
0.007797758468965835 -0.009699091532306515 0.06852868240004975 182 72 0
0.008289368958484325 -0.009943371708481502 0.06843565207816792 192 62 0
0.008782403033479722 -0.010213339609175335 0.06858870186666036 163 91 0
0.009273302928962527 -0.010444797552945228 0.068372838696615 193 61 0
0.009765680803715702 -0.01070292472378836 0.06841245811464255 182 72 0
0.010256580696163819 -0.010934382612799127 0.06819659442002245 211 43 0
0.010752111432319529 -0.01124940122884761 0.06878121552183918 114 140 0
0.011245676578161602 -0.011528951976395868 0.0690260658904066 71 183 0
0.011739241733107744 -0.011808502888221502 0.06927091783269823 28 226 0
0.012235965202795348 -0.012145043647399902 0.07006171411959274 0 164 90
0.012723640138697472 -0.012318309178675484 0.06928838641900723 16 238 0
0.0036333526853172685 -0.00714594543342876 0.07070746772852483 0 153 101
0.004122464574508181 -0.007345139903168298 0.07018253089005778 0 224 30
0.004612860735636808 -0.007567508270280704 0.06987959250922494 8 246 0
0.005102988086910993 -0.007785026128870151 0.06953018782220664 59 195 0
0.005594376515983001 -0.00802529936084099 0.06939877226805963 75 179 0
0.006085959960339289 -0.008269091523695026 0.06930106693606565 86 168 0
0.006576623480740276 -0.0084962842244687 0.06904434411469103 122 132 0
0.007068206922061872 -0.008740076332563608 0.0689466382581223 133 121 0
0.007558870445497551 -0.008967269088096409 0.06868991596132243 169 85 0
0.008051023815031375 -0.00922135342721133 0.06869080867662469 164 90 0
0.00854260725331828 -0.009465145480547115 0.06859310229548121 175 79 0
0.009034569879224404 -0.009715779741296084 0.06856094205308604 175 79 0
0.0095259583113311 -0.00995605302802605 0.06842952702351376 192 62 0
0.010019019737992449 -0.01022651447271245 0.06858730480416744 162 92 0
0.010510408170099147 -0.010466787759442413 0.06845588977459517 178 76 0
0.011003469596760492 -0.010737249204128814 0.06861366755524885 149 105 0
0.011496822563108518 -0.011012971303183544 0.06882184070691522 111 143 0
0.011991301126529345 -0.011309004109248413 0.06922458387661365 43 211 0
0.0124891214608396 -0.01166533711604257 0.07020498350787079 0 151 103
0.0038905042272746855 -0.006738331343446329 0.07154135943789129 0 43 211
0.00437590109229433 -0.006870490486512107 0.07037424580502775 0 203 51
0.004865635618049956 -0.007080920050181147 0.06995693754036482 4 250 0
0.005356243961707319 -0.0073071171205462086 0.06969067690100779 41 213 0
0.005847143857190125 -0.0075385750643161 0.06947481373096243 71 183 0
0.006338043752672932 -0.007770033008085993 0.06925895056091708 100 154 0
0.006828943648155738 -0.008001490951855884 0.06904308739087171 130 124 0
0.007320347860653308 -0.008242048986035238 0.06891440014996454 146 108 0
0.007811752073150879 -0.00848260702021459 0.06878571290905737 162 92 0
0.008303559081313193 -0.008730441481370182 0.06872673381060948 166 88 0
0.008794167431039937 -0.008956638661253494 0.06846047422040193 204 50 0
0.009286355085319904 -0.009211333420630744 0.06846721224437086 198 56 0
0.009778927963218595 -0.009472979303320573 0.06854053978625245 182 72 0
0.010271115617498562 -0.009727674062697823 0.06854727781022138 176 78 0
0.010764680766375325 -0.010007224865005208 0.06879212870336354 133 121 0
0.011258245921321465 -0.01028677577683084 0.0690369806456552 90 164 0
0.011755493597385716 -0.01063277551772318 0.06991839092455535 0 206 48
0.012249327568255683 -0.010917177047590026 0.07020971022218198 0 161 93
0.003649785998295404 -0.005973492193145847 0.07138630593114512 0 76 178
0.004140713240892124 -0.006205443598769617 0.07117516996639887 0 101 153
0.004628516711112596 -0.0063810284527795955 0.07042406062906525 0 203 51
0.005117396015550189 -0.006576026073669893 0.06985891933312328 27 227 0
0.005608323256629563 -0.0068079774519141005 0.06964778310608968 56 198 0
0.0060997116887362614 -0.007048250738644065 0.06951636807651741 72 182 0
0.006590638929815636 -0.007280202116888273 0.06930523184948381 101 153 0
0.007080498187422348 -0.00749288239010823 0.0689094846559194 159 95 0
0.007573055290999546 -0.007754243634866919 0.0689800854582854 143 111 0
0.008065406114521136 -0.008011882682870848 0.06901502881705131 133 121 0
0.008556069168767498 -0.008239075199069884 0.06875830654794922 169 85 0
0.009047842836631683 -0.008486299828148924 0.06869348313458859 175 79 0
0.00953923126570369 -0.008726573060119763 0.0685620675804416 191 63 0
0.010032292689330344 -0.008997034450047039 0.06871984483652051 161 93 0
0.010524066357194531 -0.009244259079126078 0.0686550214231599 167 87 0
0.011016417183750812 -0.009501898181889132 0.06868996530650055 157 97 0
0.011509478604342776 -0.009772359517057282 0.06884774203800474 127 127 0
0.012003705394661921 -0.010063849232326283 0.06920696386412649 66 188 0
0.01250099515581475 -0.010410608372762493 0.07009564894556652 0 184 70
0.012999942044642675 -0.01078726936307069 0.07127078409818725 0 14 240
0.004393865417044681 -0.005725662810447401 0.07131772856181666 0 88 166
0.004882290094490616 -0.005912456966839064 0.07067400072358308 0 175 79
0.0053713697734760054 -0.006111070223227098 0.07014349604879078 0 246 8
0.005861391572143396 -0.006326683449934884 0.06977584560305151 44 210 0
0.006352291467626201 -0.006558141393704775 0.06955998243300615 73 181 0
0.006844669342379375 -0.006816268564547907 0.06959960185103371 62 192 0
0.007334152091998628 -0.007022154982661952 0.06913877171821933 131 123 0
0.007825051981412052 -0.007253612816913594 0.06892290749902451 160 94 0
0.008318349774051147 -0.007528339340318836 0.0691215433572832 124 130 0
0.008807428986881909 -0.007726952412132233 0.06859103923476342 203 51 0
0.009299236461198849 -0.007974787057862464 0.068532059584043 208 46 0
0.009794085894152088 -0.008277511976579216 0.06899891103311839 130 124 0
0.010284985783565513 -0.008508969810830859 0.06878304681392354 159 95 0
0.010778550938511657 -0.008788520722656493 0.06902789875621519 116 138 0
0.011270549631714996 -0.00903980579560469 0.06900197308464394 115 139 0
0.011763847427388778 -0.009314532373769058 0.0692006094674774 79 175 0
0.012260749710147803 -0.009654299704862904 0.0700223152719705 0 206 48
0.012758650067730578 -0.010012076682400645 0.0710165476769207 0 61 193
0.004154605748467373 -0.0049871427865509944 0.0714148035092764 0 86 168
0.004647667169059338 -0.005257604121719143 0.07157258024078057 0 59 195
0.0051332597154778396 -0.005393294215296028 0.0704392919742262 0 215 39
0.005622139019915433 -0.0055882918361863255 0.06987415067828423 41 213 0
0.006114101639752175 -0.005838925987417046 0.06984198938673956 41 213 0
0.006605028880831549 -0.006070877365661252 0.06963085315970595 70 184 0
0.007095956124945613 -0.006302828798664585 0.0694197174572471 99 155 0
0.007587918750851737 -0.006553463059413555 0.06938755721485189 99 155 0
0.008075722224106898 -0.0067290479681826575 0.068636448402093 213 41 0
0.00857060386119628 -0.0070323539907326624 0.06910886663834412 134 120 0
0.009062566011843706 -0.00728298790262962 0.06907670537449723 134 120 0
0.009552693357048508 -0.007500505651700816 0.06872729963832941 185 69 0
0.010045754777640473 -0.007770966986868966 0.0688850763698336 156 98 0
0.010535614035247184 -0.007983647260088924 0.0684893291762692 214 40 0
0.01102984082556633 -0.008275136975357925 0.06884855100239096 152 102 0
0.011521994667324162 -0.008529221608565736 0.06884944421457018 147 107 0
0.012017055964163628 -0.008835769480827031 0.06935291832477332 63 191 0
0.012514006170755857 -0.009176401568021022 0.07018290821361238 0 190 64
0.013011125315536446 -0.00952008204093809 0.07104210065383543 0 64 190
0.013503476140575382 -0.009777721116321584 0.07107704427488871 0 55 199
0.004898449942880232 -0.0047350694894800986 0.07130557028035937 0 104 150
0.005387529621865622 -0.004933682745868135 0.07077506560556708 0 175 79
0.0058748745594476934 -0.005100993660385751 0.0699446945982472 37 217 0
0.00636687324658165 -0.005352278623815699 0.06991876787752649 37 217 0
0.00685868072393328 -0.005600113324305054 0.06985978875138081 41 213 0
0.007350084936430851 -0.0058406713584844075 0.06973110151047364 57 197 0
0.007839567689084795 -0.006046557831357577 0.06927027190223402 126 128 0
0.008329882050129581 -0.006267450166258778 0.06895319360919594 171 83 0
0.008822069704409548 -0.006522144925636029 0.06895993163316486 165 89 0
0.009314256889500199 -0.006776839445679517 0.06896666968483156 160 94 0
0.009807290961460904 -0.007046807291614226 0.06911971894874924 131 123 0
0.010297899308152957 -0.007273004416738413 0.06885345883396696 168 86 0
0.0107914644630991 -0.007552555328564048 0.06909831077625861 125 129 0
0.011283652114344376 -0.007807250033182174 0.0691050482756528 119 135 0
0.01177826332408925 -0.008105676360595657 0.06953072060738025 48 206 0
0.012274614956178155 -0.008435507538961336 0.0702572412755547 0 191 63
0.01277202998025292 -0.008784526971795319 0.07116757922867335 0 58 196
0.013266132044790359 -0.00907376608703165 0.07150524103284606 0 6 248
0.004658128297402528 -0.00397738618133171 0.07121906767907965 0 127 127
0.005149516735578608 -0.004217659577579925 0.07108765369865687 0 142 112
0.0056379473185323575 -0.004404560295228608 0.07044494668287374 0 229 25
0.006128074660702471 -0.004622077989540679 0.07009554042213118 21 233 0
0.006619658105058758 -0.0048658701523947145 0.0699978350901372 32 222 0
0.007111046540200147 -0.005106143493883803 0.06986642058513967 48 206 0
0.007601973781279521 -0.005338094872128011 0.06965528435810607 77 177 0
0.008092369942408148 -0.005560463239240418 0.06935234597727324 120 134 0
0.008583033465843826 -0.005787655994773217 0.06909562368047338 156 98 0
0.009075187307601658 -0.006041740627981029 0.0690965168926526 152 102 0
0.009567340677135482 -0.006295824967095951 0.06909740960795488 147 107 0
0.010059114338930286 -0.006543049486656741 0.06903258514544477 153 101 0
0.010551268180688118 -0.006797134119864552 0.06903347835762402 148 106 0
0.011043422022445949 -0.007051218753072365 0.06903437156980324 143 111 0
0.012029224324440278 -0.007586357490842957 0.06929451682555206 93 161 0
0.012526863469516408 -0.007939421049326881 0.07024359619718659 0 200 54
0.013024153232186584 -0.008286180217142653 0.07113228154091401 0 70 184
0.013514280575874041 -0.008503697938834286 0.07078287554245882 0 115 139
0.005401993590369575 -0.0037256942340449547 0.07111348705781345 0 145 109
0.0058920153890369645 -0.0039413074607527404 0.07074583661207418 0 193 61
0.006379690324939088 -0.004114572992028323 0.06997250891148867 49 205 0
0.0068747723365762655 -0.0044214946500760665 0.07047956376888946 0 222 32
0.007364045598471994 -0.004623600991040352 0.06998252171697135 38 216 0
0.007857343391111087 -0.004898327514445595 0.07018115757523005 2 252 0
0.008345768068557021 -0.005085121670837256 0.06953742973699646 99 155 0
0.008836376418283765 -0.0053113188507205675 0.06927117014678892 136 118 0
0.009328564066494351 -0.005566013500579569 0.06927790712160835 131 123 0
0.00982094147812759 -0.005824140541607187 0.06931752761648317 120 134 0
0.010313319349846072 -0.006082267657691194 0.06935714650993598 109 145 0
0.010805126833267084 -0.006330102467698799 0.0692981684329398 114 140 0
0.011299228891735142 -0.006619341473416882 0.06963582918796303 56 198 0
0.011791801769633833 -0.006880987356106709 0.06970915672984464 40 214 0
0.012287332502754857 -0.007196005917396067 0.07029377730708661 0 204 50
0.012784747532898998 -0.007545025459748299 0.07120411630935475 0 71 183
0.013279358741126528 -0.00784345175978222 0.07162978837879483 0 6 248
0.005163276293710107 -0.002996960677013077 0.07130431348177688 0 129 125
0.005653403638914912 -0.0032144784260842735 0.07095490774560907 0 175 79
0.006143262896521623 -0.003427158699304232 0.07055916055204467 0 226 28
0.006633390238691736 -0.003644676393616303 0.07020975429130212 19 235 0
0.00712516390048654 -0.003891900913177094 0.07014492982879203 24 230 0
0.007616747344842828 -0.004135693076031128 0.07004722449679804 35 219 0
0.008107143505971456 -0.004358061443143536 0.06974428611596521 79 175 0
0.008598531935043464 -0.004598334675114375 0.06961287056181821 95 159 0
0.009091593361704809 -0.004868796119800774 0.06977064834247187 65 189 0
0.00958145261324214 -0.0050814762835024825 0.06937490009975798 123 131 0
0.010073605985810655 -0.005335560677376531 0.069375793339635 119 135 0
0.010567545503218034 -0.005621866729606786 0.06968535734683311 65 189 0
0.011057404760824747 -0.005834547002826744 0.0692896101532687 123 131 0
0.011551051712820039 -0.00611557389210446 0.06954860148319086 77 177 0
0.01204643852270692 -0.006427995447137144 0.07010834357865779 0 241 13
0.013531741442892858 -0.007349786881076293 0.07163934130442304 0 12 242
0.005906774498136268 -0.0027386442410021273 0.07113527296143332 0 156 98
0.006396509020857204 -0.002949073749912043 0.07071796417219565 0 211 43
0.006886530822559285 -0.003164687031378953 0.07035031425103111 4 250 0
0.007377430708938019 -0.003396144810871471 0.07013444950726153 34 220 0
0.007870464783933415 -0.003666112711565304 0.07028749929575395 5 249 0
0.008359738045829145 -0.00386821905252959 0.06979045724383585 79 175 0
0.008851142258326715 -0.004108777086708943 0.06966177000292867 95 159 0
0.00934352013914927 -0.004366904367070325 0.06970139047010572 84 170 0
0.00983532761346621 -0.0046147390128005545 0.0696424108193853 89 165 0
0.010326937633795384 -0.004859018949641778 0.06954938052520125 99 155 0
0.010821039692263442 -0.005148257955359861 0.06988704128022448 41 213 0
0.011312847175684454 -0.005396092765367466 0.0698280632032283 46 208 0
0.011805225047402937 -0.005654219881451474 0.06986768209668111 35 219 0
0.012299327105870997 -0.005943458887169557 0.07020534285170434 0 234 20
0.01329270892685633 -0.006615365384224628 0.07177567910065191 0 4 250
0.005668198326726251 -0.0020124572023137825 0.0713504942092585 0 137 117
0.006159125573875008 -0.002244408690076239 0.07113935903137437 0 163 91
0.006648475677170214 -0.002447901586841673 0.070655599736531 0 227 27
0.00713940292431897 -0.002679853074604129 0.07044446455864688 0 253 1
0.007628753027614176 -0.0028833459713695636 0.0699607052638035 69 185 0
0.008122105996996892 -0.003159068125183417 0.07016887894004462 32 222 0
0.008613033241110958 -0.0033910195581867498 0.06995774323758576 61 193 0
0.009104421676252347 -0.0036312928996758394 0.06982632873258823 77 177 0
0.009596575511940797 -0.0038853774233654007 0.06982722089561799 72 182 0
0.010089636938602143 -0.0041558388680518 0.06998499867627166 43 211 0
0.01057976381461763 -0.004373356377789234 0.06963559296780163 93 161 0
0.011072320915160137 -0.004634717567788797 0.06970619324559288 77 177 0
0.011565967870190121 -0.004915744511825636 0.0699651851000898 32 222 0
0.01205812170284388 -0.005169828980756073 0.0699660767385448 27 227 0
0.01255260027536878 -0.00546586195109832 0.07036882148196748 0 218 36
0.013049382970077206 -0.0058034713893579245 0.07116985536955193 0 101 153
0.013541733796633485 -0.006061110492120979 0.07120479925289258 0 92 162
0.006412168719898298 -0.0017626611218571637 0.07126307594524595 0 152 102
0.006902190521600379 -0.0019782744033240746 0.07089542602408141 0 200 54
0.007392212320267769 -0.0021938876300318594 0.07052777557834214 0 248 6
0.00788577746914453 -0.0024734384323392444 0.0707726264714843 0 209 45
0.008376091830189319 -0.0026943307672404448 0.07045554817844621 0 250 4
0.008867702319707809 -0.0029386109434154325 0.07036251785656439 4 250 0
0.009357436845463436 -0.0031490405070844726 0.06994520959190145 66 188 0
0.009849047338016616 -0.003393320738018584 0.06985217979459439 76 178 0
0.01034142521580448 -0.0036514479636208406 0.06989179973719667 65 189 0
0.010831739110694641 -0.0038723401139474038 0.06957472199643111 111 143 0
0.011326350317404824 -0.004170766386601762 0.07000039380358382 39 215 0
0.011818157791721764 -0.0044186010323319916 0.06994141415286342 43 211 0
0.012312769001466637 -0.004717027359745475 0.07036708648459086 0 230 24
0.012809120633555543 -0.005046858538111155 0.07109360715276533 0 123 131
0.006174326388253598 -0.0010497157704705135 0.07160514828376824 0 115 139
0.0066644537334584015 -0.00126723351954171 0.07125574254760042 0 160 94
0.007154312991065113 -0.0014799137927616686 0.07085999535403603 0 212 42
0.007645701420137121 -0.0017201870247325075 0.07072857979988902 0 226 28
0.008136628661216495 -0.0019521384029767153 0.07051744357285541 0 252 2
0.008627555902295869 -0.0021840897812209215 0.0703063073458218 26 228 0
0.00911894434047195 -0.0024243631774691367 0.07017489336539903 42 212 0
0.009609871581551323 -0.0026563145557133437 0.06996375713836542 71 183 0
0.010100798822630696 -0.0028882659339575507 0.06975262091133182 100 154 0
0.010591194983759326 -0.003110634301069958 0.06944968253049899 143 111 0
0.011084841469599992 -0.0033916610057730346 0.06970867441269368 97 157 0
0.011577192296156271 -0.0036493001085360893 0.06974361829603432 87 167 0
0.012070839254220946 -0.003930327107332054 0.07000261067510598 42 212 0
0.012565066038470709 -0.004221816713082806 0.07036183145207824 0 237 17
0.013060127338344867 -0.004528364640103226 0.07086530608685611 0 162 92
0.013556743721389602 -0.004862973086662337 0.07163759144249691 0 49 205
0.007405733670131455 -0.0009688898060154511 0.07070325362715738 0 241 13
0.007898306551064837 -0.001230535743464402 0.07077658169361371 0 227 27
0.008389206446547644 -0.0014619936872342942 0.07056071852356836 0 253 1
0.008880816936066134 -0.0017062738634092802 0.07046768820168654 8 246 0
0.009372221148563705 -0.001946831897588634 0.07033900096077937 24 230 0
0.009862535512643184 -0.00216772428724896 0.07002192319231602 69 185 0
0.010353143862369926 -0.002393921467132272 0.06975566360210848 107 147 0
0.010844951336686866 -0.0026417561128625018 0.06969668395138806 112 142 0
0.011337138521777517 -0.00289645063290599 0.06970342200305477 106 148 0
0.011832447595031206 -0.003207469478195686 0.07024972659189767 15 239 0
0.012325481670026603 -0.00347743737888952 0.07040277638039011 0 243 11
0.012819583728494661 -0.0037666763846076036 0.07074043713541332 0 191 63
0.013315935363618258 -0.004096507617732409 0.07146695832816252 0 84 170
0.007169684415746561 -0.00028829943115683213 0.0713552761984974 0 160 94
0.007659811757916675 -0.0005058171254689043 0.07100586993775486 0 205 49
0.008150739002030739 -0.0007377685584722357 0.07079473423529598 0 231 23
0.008642512669894924 -0.0009849931875512761 0.07072991082193537 0 236 18
0.00913428633168973 -0.0012322177071120654 0.07066508635942527 0 241 13
0.00962414558322706 -0.0014448978708137745 0.07026933811671139 43 211 0
0.010115534018368448 -0.0016851712123028637 0.07013792361171386 59 195 0
0.01060566136357325 -0.0019026889613740603 0.06978851787554606 110 144 0
0.011097815205331082 -0.0021567735945818714 0.0697894110877253 105 149 0
0.01159087615673373 -0.002427234690416258 0.06994718784692726 75 179 0
0.012085102947052874 -0.002718724405685259 0.070306409673049 14 240 0
0.012577256788810706 -0.00297280903889307 0.07030730288522824 9 245 0
0.013072485812997005 -0.0032823834479866177 0.07083977024149275 0 184 70
0.013566132768026989 -0.0035634103920234575 0.07109876209598967 0 143 111
0.014062583790783524 -0.0038950350138677245 0.07184246337386883 0 34 220
0.007914507423437456 -5.388825539068363e-05 0.07141524035605941 0 155 99
0.00840340744874214 -0.0002492597715856781 0.0708536808564646 0 230 24
0.0088975095072102 -0.0005384987773037623 0.07119134161148782 0 178 76
0.00938911999672869 -0.0007827789534787478 0.071098311289606 0 187 67
0.009879728346455435 -0.00100897613336206 0.07083205169939846 0 221 33
0.01036862836569074 -0.001204347540038806 0.07027049115065415 46 208 0
0.010860435843042368 -0.0014521822405281605 0.0702115120245085 51 203 0
0.011354000997988513 -0.0017317331523537946 0.07045636396680013 7 247 0
0.01184637840051768 -0.001989860029104038 0.07049598288795073 0 252 2
0.012339412475513074 -0.0022598279297978722 0.07064903267644315 0 226 28
0.012830816688010647 -0.0025003859639772252 0.07052034543553598 0 240 14
0.013326347424166357 -0.0028154045800257094 0.0711049665373527 0 153 101
0.013816661785211145 -0.003036296914926911 0.07078788824431462 0 194 60
0.008168058051657757 0.0004187021086516779 0.07162668033052641 0 132 122
0.008657408161022345 0.00021520910236799522 0.07114292208483251 0 196 58
0.009149561993676104 -3.8875366562441706e-05 0.07114381372328753 0 192 62
0.009641912826301766 -0.00029651457884374496 0.07117875865577766 0 183 71
0.01013368648809657 -0.0005437390984045359 0.07111393419326757 0 188 66
0.010624613732210634 -0.0007756905314078681 0.07090279849080869 0 213 41
0.011116576352047375 -0.0010263246826385875 0.07087063719926402 0 214 40
0.01160853898098819 -0.0012769589981466807 0.07083847748144356 0 214 40
0.012100312173593678 -0.001524183278373708 0.07077365304663125 0 219 35
0.01259208583538848 -0.001771407797934498 0.07070882858412114 0 224 30
0.01308443666194476 -0.0020290469006975526 0.0707437724674618 0 215 39
0.013576210323739565 -0.0022762714202583436 0.0706789480049517 0 221 33
0.014072332542326779 -0.002601962973060286 0.07136581239625799 0 119 135
0.01456756156651308 -0.0029115373821538334 0.0718982797525225 0 40 214
0.008913522407815311 0.000641540545724302 0.07179750758975965 0 110 144
0.0094026020868007 0.00044292728933626596 0.07126700291496736 0 181 73
0.009897911163089083 0.00013190838928744605 0.071813308028385 0 100 154
0.01038990985629242 -0.00011937668366075217 0.07178738235681377 0 100 154
0.010882482737225802 -0.00038102262110970356 0.07186071042327011 0 85 169
0.011368440505617597 -0.0005233029206070635 0.07079055420249541 0 232 22
0.011864792146810575 -0.0008531342632501181 0.07151707644439409 0 125 129
0.01235540002127862 -0.001079331094281417 0.07125081583273483 0 159 95
0.012846804233776191 -0.00131988912846077 0.07112212859182765 0 173 81
0.013338414723294683 -0.0015641693046357565 0.07102909826994584 0 182 72
0.013830987610297444 -0.0018258153516029592 0.07110242738555167 0 168 86
0.014326518337349086 -0.0021408338033740678 0.07168704691364416 0 81 173
0.014819091222834504 -0.0024024798229617065 0.0717603757669626 0 66 188
0.015312925189152435 -0.0026868812706898632 0.07205169427772713 0 21 233
0.009657635816849022 0.0008887559929025854 0.07173481095967393 0 122 132
0.010150988783197049 0.0006130338938478566 0.0719429841113403 0 89 165
0.01064314262495488 0.00035894926064004504 0.07194387732351955 0 84 170
0.011135105253895694 0.00010831494513195098 0.07191171760569909 0 85 169
0.011628458218726373 -0.0001674071265432165 0.0721198904950781 0 51 203
0.012117808326573616 -0.000370900105447337 0.07163613198709683 0 116 138
0.012608735098463674 -0.0006028512443577811 0.071424995787761 0 141 113
0.013099398621899351 -0.00083004399989058 0.07116827349096112 0 174 80
0.013591361250840166 -0.001080678315398674 0.07113611377314069 0 174 80
0.014083134912634968 -0.001327902834959465 0.07107128931063057 0 179 75
0.014576487878982997 -0.0016036249340141947 0.07127946246229697 0 146 108
0.015068641717706138 -0.001857709512462881 0.07128035514990144 0 141 113
0.015560415379500942 -0.0021049340320236703 0.07121553068739135 0 146 108
0.016052378008441757 -0.0023555683475317644 0.0711833709695709 0 147 107
0.016544728834998034 -0.002613207450294818 0.07121831485291154 0 138 116
0.017040115641850227 -0.0029256289505683788 0.07177805642380372 0 54 200
0.01753150407243958 -0.0031659022099187794 0.07164664113194408 0 69 185
0.019500785076545145 -0.004194249697706682 0.0717652553132381 0 36 218
0.019992747688074634 -0.0044448840043332495 0.07173309559644549 0 36 218
0.020484331112931187 -0.004688676024212637 0.0716353889537179 0 46 208
0.02097525838333489 -0.004920627417415204 0.07142425272495319 0 72 182
0.021468905336847532 -0.005201654334072483 0.07168324431716273 0 31 223
0.021961966765026222 -0.005472115806138444 0.07184102236010377 0 4 250
0.022945955310917577 -0.005974528487096924 0.07178766313378616 0 4 250
0.02343810915115806 -0.006228613092925172 0.07178855608367803 0 0 254
0.024910273961257858 -0.006913335409437819 0.0710485081767389 0 92 162
0.02540040130646266 -0.007130853158509015 0.07069910244057108 0 137 117
0.025891789741604047 -0.007371126499998104 0.07056768793557357 0 152 102
0.026386268308059565 -0.007667159360822101 0.07097043162984676 0 91 163
0.027369808918913673 -0.008161487272759442 0.0708396223454944 0 101 153
0.010898833760017573 0.000792915494983084 0.07252532399486408 0 9 245
0.011391211633253403 0.0005347883515195153 0.07256494315060426 0 0 255
0.011882822122771891 0.00029050817534452805 0.07247191282872244 0 9 245
0.0123737220182547 5.90502315746368e-05 0.07225604965867709 0 35 219
0.0128632042941326 -0.00014683586506695784 0.0717952187666984 0 96 158
0.013355777179618018 -0.0004084818846545966 0.07186854762001683 0 82 172
0.013845050439996402 -0.0006105881982393195 0.07137150530581136 0 148 106
0.014333475117442335 -0.0007973823546309818 0.07072777746757777 0 235 19
0.014827309088312302 -0.0010817838844978268 0.07101909676520442 0 189 65
0.015318713303844565 -0.001322341973436305 0.07089041004887198 0 203 51
0.01580961319629268 -0.001553799862447071 0.07067454635425188 0 230 24
0.01630161188646133 -0.0018050848806361432 0.07064862015810588 0 229 25
0.0167941847704294 -0.002066730872844219 0.07072194874913697 0 215 39
0.017286562645182576 -0.0023248580436873514 0.07076156816716453 0 205 49
0.017776584443849965 -0.002540471270395136 0.07039391772142524 0 253 1
0.018274325421002272 -0.0028953723260736154 0.07136059972314547 0 112 142
0.018763808284884165 -0.003101258749261977 0.07089976905883193 0 173 81
0.019257373439830305 -0.0033808096610876094 0.07114462100112356 0 135 119
0.019746646698691347 -0.003582915947292771 0.07064757842463072 0 201 53
0.02023864537751805 -0.003834201066118566 0.07062165327866206 0 200 54
0.020730049578102615 -0.004074759094221086 0.07049296603845814 0 214 40
0.021221857081743883 -0.004322593754909675 0.07043398638600662 0 219 35
0.02171404473602385 -0.004577288514286927 0.07044072440997555 0 214 40
0.022206617616957233 -0.004838934451735878 0.07051405247643189 0 199 55
0.022699915292299 -0.00511366091530768 0.07071268834161504 0 167 87
0.023190229656378476 -0.005334553304968008 0.07039561057315169 0 208 46
0.02368112954275721 -0.005566011084460524 0.0701797458293821 0 234 20
0.024176660278912923 -0.005881029700509006 0.07076436693119884 0 147 107
0.024665234785100812 -0.006070527424414364 0.07014653839719073 0 231 23
0.025156639000633075 -0.006311085513352843 0.0700178516808583 0 245 9
0.025649016881455627 -0.006569212793714223 0.07005747214803534 0 235 19
0.02614258203336708 -0.006848763650780731 0.07030232356575225 0 196 58
0.02663614718224384 -0.007128314453088116 0.07054717445889441 0 158 96
0.027129712337189985 -0.007407865364913751 0.07079202640118606 0 119 135
0.027621899991469953 -0.007662560124291001 0.07079876442515498 0 114 140
0.028115197785626392 -0.007937286675075804 0.07099740054570106 0 82 172
0.028609032221133642 -0.008221688362137727 0.0712887190287678 0 36 218
0.01213476846941838 0.0007920468138581729 0.07240603767658836 0 25 229
0.012626542131213185 0.0005448222942973828 0.07234121321407826 0 30 224
0.01311640091963058 0.00033214226041118795 0.07194546604821163 0 82 172
0.013607328160709954 0.00010019088216698096 0.07173432982117801 0 108 146
0.014097991684145631 -0.00012700187336581788 0.07147760752437815 0 140 114
0.014588655210616 -0.0003541946836577428 0.07122088575215302 0 172 82
0.015078782555820803 -0.0005717124327289397 0.07087148001598521 0 217 37
0.015568641813427516 -0.0007843927059488975 0.07047573282242081 16 238 0
0.016059569054506888 -0.0010163440841931045 0.07026459659538721 45 209 0
0.016550232574907876 -0.001243536784966779 0.07000787377401259 81 173 0
0.017041621013083957 -0.0014838101812149921 0.0698764597935898 97 157 0
0.01753377484877241 -0.0017378947049045542 0.06987735195661955 92 162 0
0.018026125672293995 -0.001995533752908483 0.06991229531538545 82 172 0
0.01851808830123481 -0.0022461680684165777 0.06988013559756502 82 172 0
0.019009671853784355 -0.0024899601268266788 0.06978242868492236 93 161 0
0.019501255298140643 -0.0027337522896807125 0.06968472335292837 104 150 0
0.019993606121662233 -0.0029913913376846428 0.06971966671169429 94 160 0
0.020487253059280893 -0.0032724182728399555 0.06997865856721903 49 205 0
0.020978836488689482 -0.0035162103748580305 0.06988095271135357 59 195 0
0.021470610179808617 -0.0037634349093771807 0.06981612824711236 65 189 0
0.02196276402156645 -0.004017519542584993 0.0698170214592916 60 194 0
0.02245511484812273 -0.004275158645348046 0.06985196534263224 50 204 0
0.022946888392620206 -0.004522383105075397 0.06978714088704659 56 198 0
0.023439239219176483 -0.004780022207838452 0.06982208477038725 46 208 0
0.023931393060934315 -0.005034106841046262 0.06982297798256647 41 213 0
0.024422056581335304 -0.005261299541819936 0.06956625516119186 77 177 0
0.02491570353636529 -0.005542326485856776 0.06982524701568876 31 223 0
0.025407857375088428 -0.005796411064305463 0.06982613970329327 27 227 0
0.025900918798715082 -0.0060668724542327366 0.06998391695937219 0 252 2
0.026395145589034226 -0.006358362169501737 0.07034313878549395 0 197 57
0.02688820700962619 -0.006628823504669887 0.07050091551699812 0 171 83
0.027382433799945337 -0.006920313219938889 0.07086013734311988 0 116 138
0.027875495220537304 -0.007190774555107037 0.07101791407462404 0 90 164
0.028368848192954713 -0.007466496763680016 0.07122608827543991 0 56 198
0.02886191008425334 -0.007736958365561494 0.07138386524153369 0 30 224
0.012880047534611663 0.0010182335263540683 0.07254479405707637 0 8 246
0.013370361427984478 0.0007973414034070673 0.07222771605402344 0 49 205
0.013860969779228566 0.0005711441961441929 0.07196145672610325 0 82 172
0.01435157812288593 0.000344947125779131 0.07169519608674622 0 116 138
0.014842478018368736 0.00011348918200923888 0.07147933291670086 0 142 112
0.015330618946178638 -6.818488668766578e-05 0.07078655629082059 0 236 18
0.01582222943569713 -0.0003124650628626522 0.07069352596893877 0 245 9
0.01631006853621938 -0.000488692843757875 0.06994857566366605 102 152 0
0.01680417060075682 -0.0007779319589942078 0.07028623746783876 44 210 0
0.017291012765981616 -0.0009361706554969285 0.06936895753992504 185 69 0
0.017781327127026403 -0.001157062990398131 0.06905187924688697 231 23 0
0.018275938333736585 -0.0014554892630524877 0.06947755105403967 159 95 0
0.018767745811088216 -0.0017033239635418432 0.06941857192789401 163 91 0
0.01926012380617341 -0.001961451248977541 0.06945819186357187 152 102 0
0.019752122496342058 -0.0022127362671666116 0.06943226566742587 152 102 0
0.02024392997672838 -0.0024605710224150923 0.06937328706585495 157 97 0
0.020741006852101087 -0.002803489075154898 0.07022517585295508 17 237 0
0.021229287652058993 -0.0029876872596364236 0.06955657950056982 119 135 0
0.021721286371551973 -0.003238972292783856 0.06953065330269273 118 136 0
0.022213664249339838 -0.0034970995183861127 0.06957027324529504 107 147 0
0.02270623713027322 -0.003758745455835064 0.06964360131175137 91 163 0
0.023198235706179227 -0.004010030468949821 0.06961767564710457 91 163 0
0.02368984619569772 -0.0042543106451248085 0.06952464532522275 101 153 0
0.0241824190766311 -0.004515956582573759 0.06959797339167909 84 170 0
0.02467460673091107 -0.004770651341951009 0.06960471141564802 79 175 0
0.02516844069571166 -0.0050550527622996045 0.06989602966412516 28 226 0
0.025661013582714418 -0.005316698809266807 0.069969358779731 12 242 0
0.02615431136928413 -0.005591425223153799 0.0701679935888402 0 233 21
0.026648145343188788 -0.0058758268077797665 0.07045931341104159 0 188 66
0.02714171049813493 -0.006155377719605401 0.07070416535333322 0 149 105
0.027635008290774025 -0.0064301042430106444 0.07090280121159193 0 117 137
0.028129110350759427 -0.006719343276108289 0.07124046222890253 0 65 189
0.013132913509331122 0.0015031780418020297 0.07263788524828545 0 2 252
0.01362384028122118 0.0012712269028915856 0.07242674904894962 0 28 226
0.014115228717879912 0.0010309535340229338 0.07229533480623947 0 42 212
0.014604578825727157 0.0008274605551188124 0.07181157629825821 0 107 147
0.01509550606984122 0.0005955091221154793 0.07160044059579934 0 132 122
0.015582219709851743 0.0004395895840697793 0.070660943878358 7 247 0
0.016070650289770803 0.00025268892118022156 0.0700182363380001 104 150 0
0.016560777634975606 3.517117210902459e-05 0.06966883060183231 155 99 0
0.017051441155376594 -0.00019202152866464994 0.06941210778045769 191 63 0
0.01754210468488165 -0.0004192143937156974 0.06915538653280728 227 27 0
0.01803466178542416 -0.0006805755837152611 0.06922598681059855 211 43 0
0.018526624408295594 -0.0009312097897051048 0.06919382604362861 211 43 0
0.019019181511872794 -0.0011925710344637937 0.06926442684599463 196 58 0
0.019511335467893264 -0.0014466556727459204 0.06926531952667468 191 63 0
0.020003489303581715 -0.0017007401964354817 0.06926621168970443 186 68 0
0.020495840130137995 -0.0019583792991985363 0.06930115557304507 176 78 0
0.020989779636203434 -0.002244685452065515 0.06961072063042051 122 132 0
0.02148116805336243 -0.00248495867795952 0.06947930507697676 139 115 0
0.021973725186263962 -0.002746319937676568 0.06954990587761166 123 131 0
0.022466076009785552 -0.0030039589856804983 0.06958484923637757 113 141 0
0.022959137433412206 -0.0032744203756077724 0.0697426264924565 83 171 0
0.023943707998052576 -0.0037873352269887665 0.06978987466929151 67 187 0
0.024436058824608854 -0.00404497432975182 0.06982481855263216 56 198 0
0.0249291202512702 -0.004315435774438219 0.06998259633328584 27 227 0
0.02542218167186217 -0.004585897109606369 0.07014037306479 0 253 1
0.025915534638210197 -0.004861619208661099 0.07034854621645639 0 219 35
0.02640859605880216 -0.005132080543829248 0.07050632294796055 0 193 61
0.027394681919247016 -0.00567233591946973 0.07081548394314724 0 141 113
0.02788974321760383 -0.005978883819110588 0.07131895831563774 0 65 189
0.028383970007922973 -0.006270373534379588 0.07167818014175949 0 10 244
0.014860736756890624 0.0012530037408724371 0.07247371305661494 0 20 234
0.015351051119452756 0.0010321113785916741 0.07215663502586422 0 61 193
0.015838396049448103 0.0008648006009718675 0.07132626270710751 0 174 80
0.016325407158930647 0.0007035134092278159 0.07043818637972725 45 209 0
0.016815428960632726 0.00048790012776090633 0.07007053645856272 99 155 0
0.017305450759300116 0.0002722869010531193 0.06970288601282343 152 102 0
0.017795472557967505 5.667367434533492e-05 0.06933523556708414 206 48 0
