ply
format ascii 1.0
element vertex 721
property float x
property float y
property float z
end_header
-0.004465715924777464 -0.013435620264406402 -0.001833873102441429
-0.0039840101751535874 -0.013157507320190866 -0.002724686404690145
-0.003502303618980701 -0.012879393910314042 -0.0021568769589066492
-0.0030205978693568234 -0.012601280966098506 -0.001510150497779249
-0.0025388921197329463 -0.01232316802188297 -0.0020522628910839545
-0.0020571855635600597 -0.012045054612006145 -0.0020554149523377406
-0.0015754794106616781 -0.011766941434959965 -0.002058567479252814
-0.0010937732577632963 -0.011488828257913785 -0.003317883005365728
-0.0006120671048649145 -0.011210715080867606 -0.0027793936897069203
-0.00013036095196653275 -0.010932601903821426 -0.003437760984525083
0.00035134520093184904 -0.010654488726775246 -0.0031978827901184546
0.0008330513538302309 -0.010376375549729066 -0.003428115742281078
0.001314757910003117 -0.010098262139852243 -0.0034312687348574387
0.0017964638612642466 -0.009820149079221385 -0.00336656393483281
0.0022781700141626285 -0.009542035902175205 -0.003402745351195334
0.0027598763686982625 -0.009263922608713704 -0.0030101251322776066
0.00324158262241527 -0.008985809373459863 -0.0015492588281631459
-0.005707241174789764 -0.013510140868874882 -0.0019273123471066345
-0.005225535425165887 -0.013232027924659346 -0.0020280741155147544
-0.004743828868993 -0.012953914514782523 -0.0026234632823616258
-0.004262123119369124 -0.012675801570566986 -0.002587281633168458
-0.003780416563196237 -0.012397688160690163 -0.0029799018520861855
-0.0032987108135723595 -0.012119575216474627 -0.0029437192715704432
-0.0028170050639484824 -0.01184146227225909 -0.002759584225714206
-0.002335298507775596 -0.011563348862382267 -0.002529350807890295
-0.0018535923548772142 -0.011285235685336088 -0.0027692278381437055
-0.0013718862019788324 -0.011007122508289908 -0.003521861042827367
-0.0008901800490804506 -0.010729009331243728 -0.003518709447234868
-0.0004084738961820689 -0.010450896154197548 -0.0036194701679050914
7.323225671631293e-05 -0.010172782977151369 -0.0036163181066513053
0.0005549384096146947 -0.009894669800105189 -0.0036465905141085378
0.001036644965787581 -0.009616556390228365 -0.0036434379871934644
0.0015183509170487105 -0.009338443329597507 -0.0035740050952881566
0.0020000570699470924 -0.009060330152551328 -0.003389869583770632
0.0024817634244827264 -0.008782216859089826 -0.003286349354311823
0.002963469678199734 -0.008504103623835985 -0.0024260571226477614
-0.006948766424802064 -0.013584661473343364 -0.0014101953711360682
-0.0059853541190053 -0.013028435119251005 -0.0012139130849391211
-0.005503648369381423 -0.012750322175035468 -0.0025248094461858264
-0.005021941813208536 -0.012472208765158645 -0.0029846255201846352
-0.00454023606358466 -0.012194095820943109 -0.0029877780470997086
-0.004058529507411773 -0.011915982411066285 -0.0030572109390050164
-0.0035768237577878956 -0.01163786946685075 -0.003160730004310607
-0.0030951180081640185 -0.011359756522635213 -0.002920852741226553
-0.002613411451991132 -0.01108164311275839 -0.0029570353217422954
-0.0021317052990927504 -0.01080352993571221 -0.003538837190717458
-0.0016499991461943685 -0.01052541675866603 -0.0036423562560230485
-0.0011682929932959867 -0.01024730358161985 -0.0037458757869899264
-0.000686586840397605 -0.00996919040457367 -0.0038153098430484525
-0.0002048806874992232 -0.009691077227527491 -0.003714547958225011
0.0002768254653991586 -0.009412964050481311 -0.0037177004851400844
0.0007585320215720447 -0.009134850640604488 -0.003687428776174783
0.0012402379728331744 -0.00885673757997363 -0.003657156601548194
0.0017219441257315562 -0.00857862440292745 -0.0034682410769164554
0.0022036504802671903 -0.008300511109465948 -0.0030316098127514115
0.002685356733984198 -0.008022397874212108 -0.00243312120437622
-0.0067451740850550095 -0.012824841972954942 -0.0016938064945861689
-0.006263467528882124 -0.012546728563078119 -0.0022322959266602984
-0.005781761779258246 -0.012268615618862583 -0.003160318359732627
-0.00530005522308536 -0.01199050220898576 -0.0030908859334886065
-0.004818349473461483 -0.011712389264770223 -0.0033307627309113732
-0.004336642917288597 -0.0114342758548934 -0.003361034905537962
-0.003854937167664719 -0.011156162910677864 -0.0033578823786228887
-0.003373231418040842 -0.010878049966462328 -0.00335473078303039
-0.0028915248618679554 -0.010599936556585504 -0.003124497365206479
-0.0024098187089695734 -0.010321823379539324 -0.0037198865320533505
-0.0019281125560711915 -0.010043710202493145 -0.003784591332077979
-0.0014464064031728097 -0.009765597025446965 -0.00429167691618204
-0.000964700250274428 -0.009487483848400785 -0.0039208601228892795
-0.0004829940973760462 -0.009209370671354605 -0.0039855646900832644
-1.2879444776648235e-06 -0.008931257494308426 -0.0033650174736976615
0.00048041861169522174 -0.008653144084431602 -0.0037074228748679152
0.0009621245629563514 -0.008375031023800744 -0.003704270813614129
0.0014438307158547332 -0.008096917846754564 -0.003634837456047534
0.0019255370703903667 -0.007818804553293063 -0.002627942943945526
-0.007504993011725067 -0.012621248764272097 -0.0018687964184209696
-0.007023287262101189 -0.01234313582005656 -0.00176803465001285
-0.006541580705928304 -0.012065022410179737 -0.0028027885127812615
-0.006059874956304426 -0.011786909465964201 -0.002410168293863534
-0.0055781684001315395 -0.011508796056087378 -0.003330834209918975
-0.005096462650507663 -0.011230683111871842 -0.0033670167904347173
-0.004614756094334776 -0.010952569701995018 -0.003643983742222189
-0.004133050344710899 -0.010674456757779482 -0.0035432225558906785
-0.0036513445950870213 -0.010396343813563946 -0.003579405136406421
-0.0031696380389141347 -0.010118230403687123 -0.003549132961779832
-0.002687931886015753 -0.009840117226640943 -0.00400894833728671
-0.0022062257331173715 -0.009562004049594763 -0.003978676628321408
-0.0017245195802189895 -0.009283890872548583 -0.0040481099858880034
-0.0012428134273206077 -0.009005777695502403 -0.003808231791481375
-0.000761107274422226 -0.008727664518456224 -0.003911752253770827
-0.0002794011215238442 -0.008449551341410044 -0.004095887765288352
0.000202305434649042 -0.00817143793153322 -0.003753482596948742
0.0006840113859101712 -0.007893324870902363 -0.0033168517984449855
0.0011657175388085535 -0.007615211693856182 -0.003687670221552252
0.001647423893344187 -0.00733709840039468 -0.0031491792760789386
0.0021291301470611947 -0.00705898516514084 -0.002064023865386843
-0.007783106188771247 -0.012139542611373715 -0.0012976174475625149
-0.007301400439147369 -0.011861429667158179 -0.0020215553231537333
-0.006819693882974483 -0.011583316257281356 -0.002692733192816376
-0.006337988133350606 -0.01130520331306582 -0.0027230053674429646
-0.005856281577177719 -0.011027089903188996 -0.003344585420563816
-0.005374575827553843 -0.01074897695897346 -0.003533500712364911
-0.004892869271380956 -0.010470863549096637 -0.0035303477197885505
-0.004411163521757079 -0.0101927506048811 -0.0037192637100815764
-0.003929457772133201 -0.009914637660665564 -0.003959142137318849
-0.0034477512159603145 -0.009636524250788741 -0.004023846238851546
-0.002966045063061933 -0.009358411073742561 -0.004054118413478135
-0.0024843389101635513 -0.009080297896696381 -0.0041188234463334075
-0.0020026327572651693 -0.008802184719650202 -0.004049389623105525
-0.0015209266043667874 -0.008524071542604022 -0.00411409419029951
-0.0010392204514684058 -0.008245958365557842 -0.003929958678781985
-0.0005575142985700239 -0.007967845188511662 -0.003960230853408574
-7.580774239713777e-05 -0.007689731778634839 -0.003729997668415307
0.0004058982088639918 -0.00741161871800398 -0.0035458621568977824
0.0008876043617623732 -0.0071335055409577994 -0.0034423430915921918
0.0013693107162980071 -0.006855392247496298 -0.002821795875206589
0.001851016970015015 -0.006577279012242457 -0.0019615036435425273
-0.008542925921990312 -0.011935949868352157 -0.0019678324460983268
-0.008061219365817426 -0.011657836458475334 -0.0016765665495768183
-0.007579513616193549 -0.011379723514259798 -0.0024406060110777608
-0.007097807060020663 -0.011101610104382974 -0.002811424434185027
-0.006616101310396786 -0.010823497160167438 -0.00313537917099893
-0.006134394754223899 -0.010545383750290615 -0.0035061975941061965
-0.005652689004600022 -0.010267270806075078 -0.0035093496553599826
-0.005170982448427136 -0.009989157396198255 -0.0037863170728087417
-0.004689276698803258 -0.009711044451982719 -0.003822498954832553
-0.004207570949179381 -0.009432931507767183 -0.003926018718630075
-0.0037258643930064943 -0.00915481809789036 -0.003995452541857957
-0.0032441582401081127 -0.00887670492084418 -0.004366269800812005
-0.002762452087209731 -0.008598591743798 -0.004023864399641751
-0.002280745934311349 -0.00832047856675182 -0.004565975628793239
-0.0017990397814129672 -0.00804236538970564 -0.0041293459944427005
-0.0013173336285145856 -0.0077642522126594605 -0.0039404290728271
-0.0008356274756162037 -0.007486139035613281 -0.003943582065403461
-0.00035392091944331757 -0.007208025625736457 -0.003878877265378832
0.00012778503181781205 -0.0069299125651055985 -0.0035876112524420014
0.0006094911847161934 -0.006651799388059418 -0.003296345937997102
0.0010911975392518273 -0.006373686094597916 -0.002625167602673172
0.0015729037929688352 -0.0060955728593440756 -0.0025137898046523324
0.0020546099458672172 -0.005817459682297896 -0.001761156716383993
-0.008821039099036494 -0.011454243715453775 -0.002044698689132928
-0.008339332542863606 -0.011176130305576952 -0.0017207420896738761
-0.007857626793239729 -0.010898017361361416 -0.0023674690164625636
-0.007375920237066843 -0.010619903951484592 -0.0030386473517864934
-0.006894214487442966 -0.010341791007269056 -0.0029692146927118293
-0.006412507931270079 -0.010063677597392233 -0.003615940921008586
-0.005930802181646202 -0.009785564653176697 -0.0036806459538638583
-0.005449095625473316 -0.009507451243299873 -0.003745350753888487
-0.004967389875849438 -0.009229338299084337 -0.003934266045689582
-0.004485684126225561 -0.008951225354868801 -0.00403502769768238
-0.004003977570052675 -0.008673111944991978 -0.003998845349997281
-0.003522271417154293 -0.008394998767945798 -0.00418776087462902
-0.0030405652642559113 -0.008116885590899618 -0.004184609279036521
-0.0025588591113575292 -0.007838772413853438 -0.004081088583916425
-0.0020771529584591476 -0.007560659236807259 -0.003896953770890831
-0.0015954468055607658 -0.007282546059761079 -0.003793434239923953
-0.001113740652662384 -0.007004432882714899 -0.0036899151746183625
-0.0006320340964894978 -0.006726319472838076 -0.003929791972041129
-0.00015032814522836858 -0.006448206412207216 -0.002895038574934005
0.00033137800767001324 -0.006170093235161036 -0.002891886979341506
0.0008130843622056471 -0.005891979941699535 -0.002271339762955903
-0.00958085802570655 -0.01125065050677093 -0.0018151361728087061
-0.009099152276082673 -0.010972537562555394 -0.001999271102249622
-0.008617445719909786 -0.01069442415267857 -0.0025007282383739944
-0.008135739970285908 -0.010416311208463034 -0.002570161130279302
-0.007654033414113023 -0.010138197798586211 -0.003228528425097465
-0.007172327664489146 -0.009860084854370675 -0.00341266393661499
-0.006690621108316259 -0.009581971444493851 -0.0035967994481325145
-0.006208915358692382 -0.009303858500278315 -0.003632982028648257
-0.005727208802519495 -0.009025745090401492 -0.0038171170745044942
-0.005245503052895618 -0.008747632146185956 -0.003920636605471372
-0.00476379730327174 -0.00846951920197042 -0.004422093741595744
-0.004282090747098855 -0.008191405792093596 -0.003883603028953075
-0.0038003845942004726 -0.007913292615047416 -0.003953035455197095
-0.003318678441302091 -0.007635179438001237 -0.004230002872645854
-0.002836972288403709 -0.007357066260955057 -0.004041087348014115
-0.0023552661355053274 -0.007078953083908877 -0.004077269695699214
-0.0018735599826069456 -0.006800839906862697 -0.004046997521072625
-0.0013918538297085638 -0.0065227267298165175 -0.004050149116665124
-0.0009101472735356775 -0.006244613319939694 -0.003657528897747397
-0.00042844132227454836 -0.005966500259308834 -0.002847212832421064
5.326483062383345e-05 -0.005688387082262655 -0.0025559475179761644
0.0005349711851594674 -0.005410273788801153 -0.0032143148127943273
0.0010166774388764752 -0.005132160553547312 -0.002741065807640552
-0.009377265453128853 -0.010490831409657012 -0.002168670995160937
-0.008895558896955966 -0.010212717999780189 -0.0025110763963311906
-0.008413853147332088 -0.009934605055564653 -0.0024416425731033082
-0.007932146591159202 -0.009656491645687828 -0.003165580332279205
-0.007450440841535326 -0.009378378701472291 -0.0033544958569109436
-0.006968734285362438 -0.00910026529159547 -0.0036969012580811973
-0.006487028535738562 -0.008822152347379934 -0.003797662444412708
-0.006005321979565675 -0.00854403893750311 -0.003986578434705733
-0.005523616229941798 -0.008265925993287574 -0.0037096110172569747
-0.00504191048031792 -0.007987813049072038 -0.004052015952765941
-0.0045602039241450345 -0.007709699639195214 -0.00408228812739253
-0.004078497771246652 -0.007431586462149034 -0.004271203652024268
-0.003596791618348271 -0.007153473285102854 -0.004301475826650857
-0.0031150854654498888 -0.006875360108056674 -0.003841660218313336
-0.002633379312551507 -0.006597246931010495 -0.004030575975775718
-0.002151673159653125 -0.006319133753964315 -0.0039270566776394835
-0.0016699670067547435 -0.006041020576918135 -0.0037429211661219593
-0.0011882604505818576 -0.005762907167041311 -0.003241465194150805
-0.0007065544993207281 -0.005484794106410453 -0.002917508594691753
-0.00022484834642234633 -0.005206680929364273 -0.0019675900693982835
0.00025685800811328766 -0.004928567635902771 -0.001309222541749477
-0.010137084496214232 -0.010287237999336915 -0.0022245778236538167
-0.009655378746590355 -0.010009125055121379 -0.0021943065803498025
-0.009173672190417467 -0.009731011645244555 -0.0024712728336453433
-0.00869196644079359 -0.009452898701029019 -0.002931088441982865
-0.008210259884620704 -0.009174785291152194 -0.003255045041441917
-0.0077285541349968265 -0.008896672346936658 -0.003532012458890676
-0.007246847578823941 -0.008618558937059834 -0.003635531291365623
-0.006765141829200063 -0.008340445992844298 -0.0037390519864857192
-0.006283435273027177 -0.008062332582967475 -0.00384257105179131
-0.005801729523403299 -0.00778421963875194 -0.0039120037108659736
-0.005320023773779423 -0.0075061066945364035 -0.003981437534093856
-0.004838317217606536 -0.007227993284659579 -0.00408495683223009
-0.0043566110647081545 -0.006949880107613399 -0.004020251799374818
-0.0038749049118097724 -0.00667176693056722 -0.0035131662152707572
-0.003393198758911391 -0.00639365375352104 -0.00413371343165636
-0.0029114926060130088 -0.00611554057647486 -0.004103441257029771
-0.002429786453114627 -0.00583742739942868 -0.004038736689835786
-0.0019480803002162453 -0.0055593142223825005 -0.003974032122641801
-0.001466373744043359 -0.005281200812505677 -0.003943759948015212
-0.0009846677927822295 -0.005003087751874819 -0.0027929241769015785
-0.000502961639883848 -0.0047249745748286385 -0.001642087241634726
-2.1255285348213946e-05 -0.004446861281367137 -0.0017115201335400339
-0.009933491923636534 -0.009527418902222997 -0.002184727462008595
-0.009451785367463647 -0.009249305492346174 -0.0025773476809263225
-0.00897007961783977 -0.008971192548130637 -0.002919752616435289
-0.008488373061666884 -0.008693079138253812 -0.0029844574164599176
-0.008006667312043006 -0.008414966194038276 -0.003377077635377645
-0.007524960755870121 -0.008136852784161453 -0.003719482803717255
-0.007043255006246243 -0.007858739839945917 -0.0035353472921997304
-0.006561548450073357 -0.007580626430069094 -0.003724262816831469
-0.006079842700449479 -0.007302513485853558 -0.003913179039955139
-0.005598136950825602 -0.007024400541638022 -0.004102094564586878
-0.005116430394652716 -0.0067462871317611976 -0.004166799131780863
-0.004634724241754334 -0.006468173954715018 -0.003982663620263338
-0.004153018088855953 -0.006190060777668838 -0.004171579144895077
-0.0036713119359575706 -0.005911947600622658 -0.004102146252989769
-0.0031896057830591885 -0.0056338344235764785 -0.004291062243282795
-0.002707899630160807 -0.005355721246530299 -0.0036705145612359043
-0.002226193477262425 -0.005077608069484119 -0.0033935487736016508
-0.0017444869210895388 -0.0047994946596072955 -0.0031165813561528917
-0.0012627809698284092 -0.0045213815989764376 -0.002287545939907431
-0.0007810748169300275 -0.004243268421930258 -0.003040178911760449
-0.010211605100682714 -0.009045712749324614 -0.0022133819293230768
-0.009729898544509827 -0.00876759933944779 -0.002714837901294231
-0.00924819279488595 -0.008489486395232254 -0.00299180531874299
-0.008766486238713064 -0.00821137298535543 -0.0033157602883875366
-0.008284780489089186 -0.007933260041139895 -0.003419280750676989
-0.0078030739329163 -0.007655146631263071 -0.0034887131769210096
-0.007321368183292423 -0.007377033687047535 -0.0037189465947449203
-0.006839661627119537 -0.007098920277170712 -0.003788379486650228
-0.00635795587749566 -0.0068208073329551755 -0.004018612205982208
-0.005876250127871782 -0.006542694388739639 -0.003988340497016907
-0.005394543571698896 -0.006264580978862816 -0.004057773854583502
-0.004912837418800514 -0.005986467801816636 -0.004060925915837288
-0.004431131265902132 -0.005708354624770456 -0.004164446145296097
-0.003949425113003751 -0.005430241447724277 -0.0039755296893417835
-0.0034677189601053687 -0.005152128270678097 -0.004079049453139305
-0.0029860128072069867 -0.004874015093631917 -0.0038901329971849914
-0.002504306654308605 -0.004595901916585737 -0.003650255966931581
-0.002022600098135719 -0.004317788506708914 -0.003213626099750399
-0.0015408941468745892 -0.004039675446078055 -0.0021928604692220684
-0.010489718277728894 -0.008564006596426232 -0.0014203276950865982
-0.010008011721556007 -0.008285893186549409 -0.0025711636990308757
-0.009526305971932129 -0.008007780242333873 -0.002963783917948603
-0.009044599415759243 -0.007729666832457049 -0.003203662112355232
-0.008562893666135366 -0.007451553888241513 -0.0033925776369869705
-0.00808118710996248 -0.0071734404783646896 -0.0035814929287880655
-0.007599481360338603 -0.0068953275341491534 -0.003770408453419804
-0.007117774804165717 -0.00661721412427233 -0.0038711703382432456
-0.0066360690545418394 -0.006339101180056794 -0.003971931990236044
-0.006154363304917962 -0.006060988235841258 -0.0040022036992013454
-0.005672656748745075 -0.005782874825964434 -0.004242080729454756
-0.005190950595846694 -0.005504761648918255 -0.004205898381769657
-0.004709244442948312 -0.005226648471872075 -0.004102379083633423
-0.0042275382900499306 -0.004948535294825895 -0.004066196735948324
-0.0037458321371515485 -0.004670422117779714 -0.0037892302498221393
-0.0032641259842531665 -0.004392308940733535 -0.0035122628323733802
-0.002782419831354785 -0.004114195763687355 -0.0025915969163179393
-0.0023007132751818988 -0.003836082353810532 -0.002267641015350818
-0.011249537262606612 -0.00836041328692476 -0.0016566804843023417
-0.010767831512982735 -0.008082300342709224 -0.0018408157629892228
-0.010286124956809847 -0.007804186932832401 -0.0025709811598062515
-0.00980441920718597 -0.007526073988616865 -0.0031130926217883825
-0.009322712651013084 -0.0072479605787400415 -0.0032972281333059072
-0.008841006901389207 -0.006969847634524505 -0.0034007481299340725
-0.008359300345216321 -0.006691734224647682 -0.003584883641451597
-0.007877594595592443 -0.006413621280432146 -0.003955700900405645
-0.007395888039419558 -0.006135507870555322 -0.0038549392484128475
-0.00691418228979568 -0.005857394926339786 -0.003790234914049506
-0.006432476540171803 -0.00557928198212425 -0.00402046786621213
-0.005950769983998916 -0.005301168572247426 -0.004056649282574654
-0.0054690638311005344 -0.005023055395201246 -0.00416016997769475
-0.004987357678202153 -0.004744942218155066 -0.003971253987401724
-0.004505651525303771 -0.0044668290411088865 -0.004007435403764248
-0.004023945372405389 -0.004188715864062707 -0.003942730836570263
-0.003542239219507007 -0.003910602687016527 -0.0037538153119385242
-0.0030605330666086256 -0.0036324895099703472 -0.0033611950930207968
-0.0025788265104357395 -0.003354376100093524 -0.002433172659948468
-0.00209712055917461 -0.0030762630394626654 -0.0012154872529208658
-0.011045944748236575 -0.007600594088992217 -0.0017468491569161413
-0.01056423819206369 -0.007322480679115393 -0.0023684287443757057
-0.010082532442439812 -0.007044367734899857 -0.002875515026971698
-0.009600825886266925 -0.006766254325023034 -0.003217920195311308
-0.009119120136643047 -0.006488141380807498 -0.0034068357199430466
-0.008637413580470162 -0.006210027970930674 -0.003337402828037739
-0.008155707830846284 -0.005931915026715138 -0.003774033160880208
-0.007674001274673398 -0.005653801616838314 -0.003962949849665165
-0.007192295525049521 -0.005375688672622778 -0.003732716664671898
-0.006710589775425643 -0.005097575728407242 -0.004239802714437246
-0.006228883219252757 -0.004819462318530418 -0.004270074889063835
-0.005747177066354375 -0.0045413491414842385 -0.0037686177529394627
-0.0052654709134559935 -0.004263235964438059 -0.003957534208893776
-0.004783764760557612 -0.003985122787391879 -0.003680566791445017
-0.0043020586076592295 -0.003707009610345699 -0.0036774142645299435
-0.0038203524547608483 -0.0034288964332995194 -0.0034471808467060328
-0.0033386463018624662 -0.003150783256253339 -0.0025868890807032585
-0.00285693974568958 -0.0028726698463765158 -0.0015521355671808121
-0.011805763645802802 -0.007397000930718684 -0.00172824552282691
-0.011324057896178925 -0.007118887986503148 -0.0015393299981951714
-0.010842351340006039 -0.006840774576626325 -0.002655961085110903
-0.010360645590382161 -0.006562661632410789 -0.003198072547093034
-0.009878939034209274 -0.006284548222533965 -0.003201225772500038
-0.009397233284585397 -0.006006435278318428 -0.003385361284017563
-0.008915526728412511 -0.005728321868441605 -0.0035694960970431566
-0.008433820978788633 -0.005450208924226069 -0.0035726481582969427
-0.007952114422615748 -0.005172095514349245 -0.004302813205868006
-0.00747040867299187 -0.004893982570133709 -0.00379572669044137
-0.006988702923367993 -0.004615869625918173 -0.0037988799158483744
-0.006506996367195106 -0.00433775621604135 -0.004122835583984852
-0.0060252902142967244 -0.00405964303899517 -0.0039339205250144005
-0.005543584061398343 -0.00378152986194899 -0.004304737783968449
-0.005061877908499961 -0.0035034166849028103 -0.0039121173322200775
-0.00458017175560158 -0.0032253035078566306 -0.0038818451575934887
-0.004098465602703197 -0.0029471903308104504 -0.0033433546777814627
-0.0036167594498048156 -0.0026690771537642706 -0.002474685898050666
-0.0031350528936319295 -0.002390963743887447 -0.001576486974954605
-0.0026533469423708 -0.0021128506832565888 -0.0015117824077606201
-0.011602171109604893 -0.006637181770593125 -0.001859526033513248
-0.011120464553432007 -0.006359068360716301 -0.002366612432524562
-0.01063875880380813 -0.006080955416500765 -0.003176928497850895
-0.010157052247635242 -0.005802842006623942 -0.00317377713508904
-0.009675346498011364 -0.005524729062408406 -0.0032040488440543413
-0.009193639941838479 -0.005246615652531582 -0.003304810496047139
-0.008711934192214601 -0.004968502708316046 -0.0037414401303976774
-0.008230227636041716 -0.004690389298439223 -0.004032705910503864
-0.007748521886417838 -0.0044122763542236865 -0.003996523562818766
-0.0072668161367939604 -0.00413416341000815 -0.00396034074947238
-0.006785109580621074 -0.0038560500001313266 -0.003776205936446786
-0.006303403427722692 -0.003577936823085147 -0.004016083665192127
-0.005821697274824311 -0.003299823646038967 -0.003739116247743368
-0.005339991121925929 -0.0030217104689927872 -0.003702934132888913
-0.0048582849690275475 -0.002743597291946607 -0.0032431180588901043
-0.004376578816129165 -0.0024654841149004273 -0.0024790791794657707
-0.003894872663230784 -0.0021873709378542475 -0.0015291611198335886
-0.0034131661070578977 -0.0019092575279774239 -0.001158342813141644
-0.012361990058102823 -0.006433588524103294 -0.0020265590865164995
-0.011880284308478945 -0.006155475579887758 -0.00213007815182209
-0.01139857775230606 -0.005877362170010935 -0.002750625368207693
-0.010916872002682182 -0.005599249225795399 -0.0030745817348361015
-0.010435165446509295 -0.005321135815918575 -0.003144014161080122
-0.009953459696885417 -0.005043022871703039 -0.003247533692047
-0.009471753140712531 -0.004764909461826216 -0.0034316692035645247
-0.008990047391088654 -0.0044867965176106795 -0.0037086366210132837
-0.008508340834915768 -0.004208683107733856 -0.003938869573175907
-0.00802663508529189 -0.00393057016351832 -0.003908597398549318
-0.007544929335668013 -0.0036524572193027834 -0.003878325689584017
-0.007063222779495127 -0.00337434380942596 -0.0039145080372691154
-0.006581516626596745 -0.00309623063237978 -0.0038842358626425266
-0.006099810473698363 -0.0028181174553336004 -0.003853963688015938
-0.005618104320799982 -0.0025400042782874207 -0.004682999104261398
-0.0051363981679016 -0.0022618911012412405 -0.0035321624018251896
-0.0046546920150032185 -0.0019837779241950607 -0.002543068490922451
-0.004172985862104836 -0.0017056647471488807 -0.0016150458250194788
-0.0036912793059319503 -0.0014275513372720573 -0.0019390020752325654
-0.012158397514628955 -0.0056737693765800635 -0.0021541460882872343
-0.01167669095845607 -0.00539565596670324 -0.002496551489457488
-0.011194985208832192 -0.005117543022487704 -0.003249184461310506
-0.010713278652659305 -0.0048394296126108806 -0.002707072999328375
-0.010231572903035427 -0.0045613166683953444 -0.003180321305990219
-0.009749866346862542 -0.004283203258518521 -0.0029500883538275957
-0.009268160597238664 -0.004005090314302985 -0.00357166794128716
-0.008786454041065778 -0.003726976904426161 -0.0038115449715405703
-0.0083047482914419 -0.003448863960210625 -0.0037753635551780462
-0.007823042541818023 -0.003170751015995089 -0.003705929731950164
-0.007341335985645138 -0.002892637606118265 -0.0036364973057061434
-0.006859629832746755 -0.002614524429072085 -0.0036667680833488703
-0.0063779236798483735 -0.0023364112520259054 -0.003295950824394822
-0.005896217526949992 -0.0020582980749797256 -0.0031924317590892315
-0.00541451137405161 -0.0017801848979335456 -0.0025718845427036285
-0.004932805221153229 -0.0015020717208873659 -0.0016219654353335502
-0.004451099068254846 -0.0012239585438411859 -0.001162149594165385
-0.012918216441299013 -0.005470176167897218 -0.002040739404037595
-0.012436510691675135 -0.005192063223681681 -0.002364695305004716
-0.01195480413550225 -0.0049139498138048585 -0.002735512563958764
-0.011473098385878372 -0.004635836869589322 -0.0030594689305871725
-0.010991391829705485 -0.004357723459712498 -0.003095651511102915
-0.010509686080081609 -0.004079610515496962 -0.0031650839373469353
-0.010027979523908721 -0.003801497105620139 -0.0034420513547956944
-0.009546273774284844 -0.003523384161404603 -0.0035455720499157906
-0.009064567218111958 -0.003245270751527779 -0.0033566553611308336
-0.00858286146848808 -0.002967157807312243 -0.0037274737842381
-0.008101155718864203 -0.0026890448630967068 -0.0036972013767808676
-0.007619449162691317 -0.0024109314532198833 -0.0033547962084412575
-0.007137743009792935 -0.0021328182761737036 -0.0037256134673953056
-0.006656036856894553 -0.0018547050991275236 -0.0034343479201197624
-0.006174330703996172 -0.0015765919220813438 -0.0028389582876116037
-0.00569262455109779 -0.001298478745035164 -0.0037596242036670446
-0.0052109183981994085 -0.0010203655679889845 -0.00519314082339406
-0.004729212245301027 -0.0007422523909428042 -0.0012026806361973288
-0.012714623926928976 -0.004710356969964673 -0.0022324980236589913
-0.01223291737075609 -0.00443224356008785 -0.002625118708238006
-0.011751211621132213 -0.004154130615872314 -0.0029675236437469725
-0.011269505064959325 -0.0038760172059954905 -0.003156440565362573
-0.01078779931533545 -0.0035979042617799543 -0.0029723050538450484
-0.010306092759162562 -0.003319790851903131 -0.0034455533605068926
-0.009824387009538684 -0.003041677907687595 -0.0035463150124996905
-0.009342680453365799 -0.002763564497810771 -0.003476881189271808
-0.008860974703741921 -0.002485451553595235 -0.003507153363898397
-0.008379268954118044 -0.0022073386093796987 -0.0035718583967536692
-0.007897562397945158 -0.0019292251995028753 -0.003201041137799621
-0.007415856245046776 -0.0016511120224566955 -0.0032313116826117043
-0.006934150092148394 -0.0013729988454105155 -0.0031618794891983275
-0.006452443939250012 -0.0010948856683643358 -0.0027910622302442793
-0.005970737786351631 -0.000816772491318156 -0.0037492411211133008
-0.005489031633453249 -0.0005386593142719761 -0.001144373673014343
-0.013474442853599033 -0.004506763761281828 -0.0020944226998835806
-0.012992737103975156 -0.004228650817066292 -0.0022785572800785307
-0.01251103054780227 -0.003950537407189468 -0.002738373819738627
-0.012029324798178392 -0.0036724244629739323 -0.0029225081671029334
-0.011547618242005505 -0.003394311053097109 -0.003382324939593673
-0.01106591249238163 -0.0031161981088815727 -0.003142447210848332
-0.010584205936208742 -0.0028380846990047493 -0.0033265820238739256
-0.010102500186584864 -0.002559971754789213 -0.0034301015548408036
-0.009620793630411979 -0.0022818583449123893 -0.003399830544367433
-0.009139087880788101 -0.0020037454006968532 -0.003210913855582476
-0.008657382131164224 -0.001725632456481317 -0.003534869989380241
-0.008175675574991338 -0.0014475190466044937 -0.0034341088030487303
-0.007693969422092955 -0.001169405869558314 -0.0031428427901119
-0.007212263269194574 -0.000891292692512134 -0.0031125722452998166
-0.006730557116296192 -0.0006131795154659541 -0.0026759409811347727
-0.0062488509633978105 -0.0003350663384197743 -0.0018365529831498866
-0.005767144810499429 -5.695316137359451e-05 -0.001771848066709936
-0.013270850281021335 -0.0037469446641679102 -0.0022036437876522545
-0.01278914372484845 -0.003468831254291087 -0.0025460484903305773
-0.012307437975224572 -0.0031907183100755507 -0.002888453891500831
-0.011825731419051686 -0.0029126049001987273 -0.0026114876382052903
-0.011344025669427809 -0.002634491955983191 -0.002902753418311477
-0.010862319113254922 -0.0023563785461063677 -0.0029674582183361058
-0.010380613363631044 -0.0020782656018908316 -0.0033600784372538333
-0.009898906807458158 -0.001800152192014008 -0.0034247827716171746
-0.00941720105783428 -0.0015220392477984718 -0.0033553494140505795
-0.008935495308210403 -0.0012439263035829355 -0.003646614728495479
-0.008453788752037518 -0.0009658128937061121 -0.003186799352988601
-0.007972082599139136 -0.0006876997166599322 -0.00321707152761519
-0.007490376446240754 -0.0004095865396137524 -0.002757255453616381
-0.007008670293342372 -0.00013147336256757257 -0.0019932165741920476
-0.014030669324106715 -0.0035433512538478123 -0.0019372944952920084
-0.013548963574482837 -0.0032652383096322757 -0.0022612505126744513
-0.013067257018309951 -0.0029871248997554523 -0.0026320677716284995
-0.012585551268686074 -0.002709011955539916 -0.0027355884667485957
-0.012103844712513188 -0.0024308985456630927 -0.0029197239782661204
-0.01162213896288931 -0.0021527856014475566 -0.003103859489783645
-0.011140432406716423 -0.001874672191570733 -0.0032073785550892357
-0.010658726657092547 -0.0015965592473551969 -0.0033915140666067605
-0.01017702010091966 -0.0013184458374783743 -0.003575649578124285
-0.009695314351295782 -0.0010403328932628382 -0.0038526169955730443
-0.009213608601671905 -0.000762219949047302 -0.0035613509826362137
-0.00873190204549902 -0.00048410653917047757 -0.003496646182611585
-0.008250195892600638 -0.00020599336212429774 -0.0032053797040134673
-0.007768489739702256 7.21198149218821e-05 -0.002812760649248958
-0.007286783586803874 0.0003502329919680619 -0.002274269470945001
-0.006805077433905492 0.0006283461690142417 -0.0014639525907114152
-0.013345370195356131 -0.0025054187468570707 -0.0028407587669789795
-0.012863664445732254 -0.0022273058026415346 -0.0027372392360121016
-0.012381957889559368 -0.0019491923927647111 -0.0029261547606438403
-0.01190025213993549 -0.001671079448549175 -0.002990859560668469
-0.011418545583762603 -0.0013929660386723514 -0.0030916212126612668
-0.010936839834138727 -0.0011148530944568153 -0.0033828865271061663
-0.01045513327796584 -0.0008367396845799923 -0.0036227637901902203
-0.009973427528341962 -0.000558626740364456 -0.003653035964816809
-0.009491721778718085 -0.0002805137961489199 -0.003616853384301067
-0.009010015222545199 -2.400386272095964e-06 -0.0030350519809871916
-0.008528309069646817 0.00027571279077408386 -0.002850916469469667
-0.008046602916748436 0.0005538259678202637 -0.0024800992105156188
-0.007564896763850054 0.0008319391448664436 -0.0017160597490146763
-0.014105189928575197 -0.002301826003835512 -0.0022609825246036057
-0.01362348337240231 -0.0020237125939586886 -0.002584939124062658
-0.013141777622778433 -0.0017455996497431525 -0.002769074169918895
-0.012660071066605548 -0.001467486239866329 -0.0028052555862814192
-0.01217836531698167 -0.001189373295650793 -0.0028414381667971615
-0.011696658760808783 -0.0009112598857739695 -0.003212256589904428
-0.011214953011184907 -0.0006331469415584332 -0.003315776120871306
-0.01073324645501202 -0.0003550335316816106 -0.003639732021838427
-0.010251540705388142 -7.692058746607446e-05 -0.003609459847211838
-0.009769834955764264 0.0002011923567494626 -0.0034205443225800995
-0.009288128399591379 0.00047930576662628607 -0.0030279243364930157
-0.008806422246692997 0.000757418943672466 -0.0029976519290357832
-0.008324716093794616 0.0010355321207186458 -0.0024298429489135747
-0.007843009940896234 0.0013136452977648256 -0.002138577168807388
-0.0073613037879978515 0.0015917584748110054 -0.0013571648159995682
-0.01390159654944849 -0.0015420064410603073 -0.002221168018877507
-0.013419890799824613 -0.001263893496844771 -0.002759657334536315
-0.012938184243651727 -0.0009857800869679475 -0.0023888400755822667
-0.01245647849402785 -0.0007076671427524113 -0.002453545108437539
-0.011974771937854962 -0.00042955373287558785 -0.0026934221386909494
-0.011493066188231087 -0.00015144078866005165 -0.0032319126185029754
-0.0110113596320582 0.00012667262121677183 -0.003262184327468277
-0.010529653882434322 0.000404785565432308 -0.002985216910019518
-0.010047948132810444 0.0006828985096478441 -0.002915784716606141
-0.009566241576637559 0.0009610119195246677 -0.0027316492050886163
-0.009084535423739177 0.0012391250965708474 -0.002832410857081414
-0.008602829270840795 0.0015172382736170274 -0.002211863175034524
-0.008121123117942414 0.0017953514506632072 -0.0025031291879713544
-0.01417970972649467 -0.0010603002881619257 -0.0020575474482029685
-0.013698003976870793 -0.0007821873439463894 -0.0025173628237098464
-0.013216297420697907 -0.0005040739340695659 -0.002487092278897763
-0.01273459167107403 -0.00022596098985402973 -0.0024223863147199163
-0.012252885114901144 5.215242002279377e-05 -0.0024585688952356586
-0.011771179365277266 0.0003302653642383299 -0.002642703941091896
-0.01128947280910438 0.0006083787741151534 -0.0026458569336682567
-0.010807767059480503 0.0008864917183306896 -0.0026490085292607555
-0.010326061309856626 0.0011646046625462259 -0.0026851911097764978
-0.009844354753683738 0.0014427180724230493 -0.00272137369029224
-0.009362648600785357 0.001720831249469229 -0.0026566688902676114
-0.008880942447886975 0.001998944426515409 -0.0026928514707833537
-0.008399236294988593 0.0022770576035615886 -0.0019689134787768134
-0.007917530142090212 0.002555170780607769 -0.0014011046150699264
-0.013976117153916973 -0.0003004811910480069 -0.0019056261517107495
-0.013494410597744087 -2.2367781171183425e-05 -0.0024127124343067416
-0.01301270484812021 0.00025574516304435274 -0.0018309104489162573
-0.012530998291947324 0.0005338585729211762 -0.001827757922001184
-0.012049292542323446 0.0008119715171367124 -0.001724238391034306
-0.01156758598615056 0.0010900849270135359 -0.0027770292945206174
-0.011085880236526683 0.001368197871229072 -0.0020129887852817782
-0.010604174486902805 0.0016463108154446083 -0.0022528672125190505
-0.010122467930729918 0.0019244242253214318 -0.0023536288645118484
-0.009640761777831536 0.0022025374023676115 -0.002418333664536477
-0.009159055624933155 0.0024806505794137913 -0.002314812969416381
-0.008677349472034773 0.002758763756459971 -0.0016942669171839961
-0.008195643319136392 0.0030368769335061513 -0.0015907465713098654
-0.00771393716623801 0.003314990110552331 -0.0012667913688346752
-0.013772523774790267 0.0004593383717271982 -0.0019898482132703075
-0.01329081802516639 0.0007374513159427344 -0.0017499709501862535
-0.012809111468993504 0.001015564725819558 -0.0017196986591443428
-0.012327405719369626 0.001293677670035094 -0.0017228501383215198
-0.01184569916319674 0.0015717910799119175 -0.0014829732244834313
-0.011363993413572863 0.0018499040241274536 -0.0019427890656515965
-0.010882287663948985 0.00212801696834299 -0.0021269244607537994
-0.010400581107776098 0.0024061303782198134 -0.0023571574129164228
-0.009918874954877716 0.002684243555265993 -0.0023603090085089215
-0.009437168801979335 0.002962356732312173 -0.002396491589024664
-0.008955462649080953 0.0032404699093583527 -0.00215661432594061
-0.008473756496182571 0.003518583086404533 -0.0021263426169753083
-0.00799205034328419 0.0037966962634507126 -0.0021625251974910506
-0.007510344190385807 0.004074809440496892 -0.0021656765602529058
-0.007028637634212922 0.004352922850373715 -0.002100971760228277
-0.006546931682951792 0.004631035911004574 -0.0015055827097967276
-0.0060652255300534105 0.004909149088050754 -0.0016091030556708583
-0.004138400565594691 0.006021601999962286 -0.0013716825051233181
-0.003656694409545728 0.0062997151788274555 -0.0013748338678851732
-0.003174988209388615 0.006577828383158476 -0.0014442675746977338
-0.002693282056490233 0.006855941560204656 -0.0016284030862152585
-0.0022115758027732254 0.007134054795458497 -0.0013371374225243935
-0.0017298695490562174 0.007412168030712337 -0.0011482206173241147
-0.0007664574448967061 0.007968394268389375 -0.0011434403713792571
-0.00028475109036107206 0.008246507561850877 -0.001113168429583312
0.0011603673683340734 0.009080847092989416 -0.001773410360328854
0.0016420735212324552 0.009358960270035596 -0.002097366377711297
0.0021237796741308368 0.009637073447081776 -0.002200885908678175
0.002605485827029219 0.009915186624127955 -0.0017642556922510275
0.0035688985361004865 0.01047141321105096 -0.0018377942033112058
-0.013087224646039683 0.0014972708787179395 -0.001181921106763185
-0.012605518896415806 0.0017753838229334757 -0.0011124885641038426
-0.01212381234024292 0.0020534972328102993 -0.0011771934805437931
-0.011642106590619043 0.0023316101770258354 -0.00136610888876021
-0.011160400840995165 0.0026097231212413715 -0.0018027399200946101
-0.010678694284822278 0.002887836531118195 -0.0016992195742204794
-0.010196988131923896 0.0031659497081643747 -0.002172468230128289
-0.009715281979025514 0.0034440628852105545 -0.0027940475847572097
-0.009233575826127133 0.0037221760622567343 -0.0024700916837900886
-0.008751869673228751 0.004000289239302914 -0.002570852870121599
-0.00827016352033037 0.004278402416349094 -0.002759768860414625
-0.007788457367431987 0.004556515593395274 -0.002756616799160839
-0.0073067508112591014 0.004834629003272097 -0.0026530968025326737
-0.006825044859997972 0.005112742063902956 -0.002583663910627366
-0.00634333870709959 0.005390855240949136 -0.0029260693117976197
-0.005861632352563956 0.005668968534410637 -0.0019191751489415773
-0.005379926098846948 0.005947081769664478 -0.002355805831030012
-0.0048982199459485665 0.006225194946710658 -0.002078838413581253
-0.004416513742640871 0.006503308152860668 -0.0025520871859043845
-0.003934807586591907 0.006781421331725837 -0.002548934193328024
-0.003453101386434795 0.007059534536056858 -0.0026496958453208217
-0.002971395233536413 0.007337647713103038 -0.002679968252778054
-0.002489688979819405 0.007615760948356878 -0.002643785672262312
-0.002007982726102397 0.007893874183610719 -0.0025402659084647903
-0.0015262767748412676 0.008171987244241577 -0.0023100331891328105
-0.0010445706219428857 0.008450100421287757 -0.00260129850357771
-0.0005628642674072519 0.008728213714749258 -0.0027902156580239543
-8.115811450887005e-05 0.009006326891795438 -0.0021696677431464204
0.00040054803838951176 0.009284440068841618 -0.002765057375654579
0.0008822541912878936 0.009562553245887798 -0.0028658185619860896
0.0013639603441862754 0.009840666422933977 -0.0027963847387582072
0.0018456664970846572 0.010118779599980157 -0.002519418019801379
0.002327372649983039 0.010396892777026337 -0.0022424515336751947
0.0028090788028814206 0.010675005954072517 -0.0019654841162264356
0.0032907853590543068 0.010953119363949342 -0.0019293015357106933
0.0037724911086781843 0.011231232308164878 -0.0016990683507174262
0.00425419766485107 0.011509345718041701 -0.001375113148242236
-0.012401925750119744 0.002535203788983186 -0.0012939985608682047
-0.011920220000495866 0.002813316733198722 -0.0013301812577992689
-0.011438514250871988 0.003091429677414258 -0.0017009984003379952
-0.010956807694699101 0.0033695430872910815 -0.0018851340282708417
-0.01047510154180072 0.0036476562643372613 -0.002115366980433465
-0.009993395388902338 0.003925769441383441 -0.0023455992341041574
-0.009511689236003956 0.004203882618429621 -0.002669555367901922
-0.009029983083105575 0.004481995795475801 -0.0030403723940253266
-0.008548276930207193 0.00476010897252198 -0.003224508138373495
-0.008066570777308811 0.00503822214956816 -0.0034547415561974057
-0.007584864221135925 0.0053163355594449836 -0.0035582606215029964
-0.007103158269874795 0.005594448620075842 -0.003527989378198982
-0.006621452116976414 0.005872561797122022 -0.003463285043835641
-0.006139745762440779 0.006150675090583524 -0.003466436406597496
-0.0056580395087237716 0.006428788325837364 -0.003535870462656022
-0.00517633335582539 0.006706901502883544 -0.003605302656069399
-0.0046946271525176945 0.006985014709033554 -0.0035405983217060575
-0.004212920996468731 0.007263127887898724 -0.0032493325415998706
-0.0037312147963116183 0.007541241092229744 -0.0033187652006745347
-0.0032495086434132362 0.007819354269275925 -0.003354947781190277
-0.0027678023896962286 0.008097467504529766 -0.003324675606563688
-0.0022860961359792206 0.008375580739783606 -0.0032599708065390596
-0.001804390184718091 0.008653693800414464 -0.003296153387054802
-0.0013226840318197092 0.008931806977460644 -0.003231448587030173
-0.0008409776772840753 0.009209920270922146 -0.0032011764124035844
-0.0003592715243856935 0.009488033447968326 -0.003431409830227495
0.00012243462851268833 0.009766146625014505 -0.0031401438172906646
0.0006041407814110702 0.010044259802060685 -0.003109872108325363
0.001085846934309452 0.010322372979106865 -0.002920956118032337
0.0015675530872078338 0.010600486156153045 -0.0025283358991146096
0.0020492592401062156 0.010878599333199224 -0.0023394206073135146
0.0025309653930045972 0.011156712510245404 -0.0019468003883957874
0.0030126719491774833 0.011434825920122228 -0.0017578848637640487
0.003494377698801361 0.011712938864337764 -0.0015180065529420983
0.003976084254974247 0.011991052274214587 -0.001329090795479716
-0.01219833341037269 0.0032950232893716076 -0.0011745080118998896
-0.011716627660748812 0.0035731362335871437 -0.0014657736755907546
-0.011234921104575924 0.003851249643463967 -0.0017056505894288432
-0.010753214951677543 0.004129362820510147 -0.0019455287838354718
-0.010271508798779161 0.004407475997556327 -0.0021344444248825325
-0.00978980264588078 0.0046855891746025065 -0.0028056227602064623
-0.009308096492982398 0.004963702351648686 -0.002870327560231091
-0.008826390340084016 0.005241815528694866 -0.0035942648537457002
-0.008344684187185635 0.005519928705741046 -0.0032234466634690775
-0.007862977631012747 0.005798042115617869 -0.004121646750718356
-0.007381271679751619 0.006076155176248728 -0.004412912297993899
-0.006899565526853237 0.006354268353294908 -0.003953096922487021
-0.006417859172317603 0.006632381646756409 -0.003983368631452323
-0.005936152918600595 0.00691049488201025 -0.003913935273885728
-0.005454446765702213 0.00718860805905643 -0.003910783212631942
-0.004972740562394518 0.00746672126520644 -0.003941054455935956
-0.004491034406345554 0.007744834444071609 -0.00305024115368724
-0.004009328206188442 0.008022947648402631 -0.0036969680804759277
-0.0035276220532900597 0.00830106082544881 -0.0036938160192221416
-0.003045915799573052 0.008579174060702651 -0.0036243826616555465
-0.002564209545856044 0.008857287295956492 -0.0035208631306886686
-0.0020825035945949144 0.00913540035658735 -0.003517710603773595
-0.0016007974416965326 0.00941351353363353 -0.003582415403798224
-0.0011190910871608987 0.009691626827095031 -0.003478895872831346
-0.0006373849342625169 0.009969740004141211 -0.0034427132923156036
-0.0001556787813641351 0.010247853181187391 -0.003118758322671057
0.0003260273715342467 0.01052596635823357 -0.0030152378603816045
0.0008077335244326284 0.01080407953527975 -0.0027850058395415558
0.0012894396773310104 0.01108219271232593 -0.0024610494729131473
0.001771145830229392 0.01136030588937211 -0.0021840820554643882
0.002252851983127774 0.01163841906641829 -0.001953849103301765
0.00273455853930066 0.011916532476295113 -0.0015830316115170728
-0.012476446354588226 0.003776729038995486 -0.00113056367263198
-0.011994740604964348 0.004054841983211022 -0.0013146991841495048
-0.01151303404879146 0.004332955393087846 -0.001418218598701061
-0.011031327895893079 0.004611068570134025 -0.0018780343234539043
-0.010549621742994697 0.004889181747180205 -0.002062169369310142
-0.010067915590096316 0.005167294924226385 -0.002982835285365583
-0.009586209437197934 0.005445408101272565 -0.003603382967412473
-0.009104503284299553 0.005723521278318744 -0.003927338868379594
-0.008622797131401171 0.006001634455364924 -0.004157572519034148
-0.008141090575228284 0.006279747865241748 -0.004387804307043553
-0.007659384623967155 0.0065578609258726064 -0.004287043120712043
-0.007177678471068773 0.006835974102918786 -0.004290195647627116
-0.006695972116533139 0.007114087396380288 -0.004189433995634318
-0.006214265862816131 0.0073922006316341285 -0.004159162286669017
-0.0057325597099177495 0.007670313808680308 -0.0041288910433650025
-0.005250853506610054 0.007948427014830318 -0.00406418601050973
-0.00476914735056109 0.008226540193695488 -0.0037217796780169023
-0.004287441150403978 0.008504653398026508 -0.0038253003731369985
-0.0038057349975055958 0.008782766575072688 -0.0037245387211442007
-0.003324028743788588 0.009060879810326529 -0.0036598343867808593
-0.00284232249007158 0.00933899304558037 -0.0034709183964878334
-0.0023606165388104505 0.009617106106211228 -0.004449556581676007
-0.0018789103859120687 0.009895219283257407 -0.00336440233513713
-0.0013972040313764349 0.010173332576718909 -0.003299697302281858
-0.000915497878478053 0.010451445753765089 -0.0031107808463275446
-0.0004337917255796712 0.010729558930811268 -0.002921865321695806
4.791442731871057e-05 0.011007672107857448 -0.002681988058611752
0.0005296205802170923 0.011285785284903628 -0.002493072766810657
0.0010113267331154743 0.011563898461949808 -0.003442990127950908
0.0014930328860138559 0.011842011638995988 -0.002121705794706942
0.0019747390389122377 0.012120124816042167 -0.001583215082064272
0.0024564455950851238 0.012398238225918993 -0.0011905949795618664
-0.011309441305769902 0.005092775126306911 -0.0012586616212502135
-0.01082773515287152 0.005370888303353091 -0.0015499271685257567
-0.01034602899997314 0.0056490014803992706 -0.0023602447472512735
-0.009864322847074758 0.00592711465744545 -0.0032289135269820703
-0.009382616694176376 0.00620522783449163 -0.003571318229660393
-0.008900910541277994 0.00648334101153781 -0.00391372386366129
-0.008419203985105107 0.006761454421414633 -0.0042561287991702565
-0.007937498033843977 0.007039567482045492 -0.004445044323801995
-0.007455791880945597 0.007317680659091672 -0.004121088422834874
