ply
format ascii 1.0
element vertex 718
property float x
property float y
property float z
end_header
0.0051964945159852505 -0.003947009798139334 -0.0023416660260409112
0.0051964945159852505 -0.0035100686363875866 -0.0020503711421042676
0.0051964945159852505 -0.003073127241805196 -0.0020478952210396524
0.0051964945159852505 -0.0026361860800534487 -0.0017566004535183304
0.0051964945159852505 -0.002199244685471058 -0.0016752815572544926
0.0051964945159852505 -0.001762303407303989 -0.0015939621953293675
0.0051964945159852505 -0.0013253620127215981 -0.0016731150681152933
0.0051964945159852505 -0.0008884207345545292 -0.0016706386813893908
0.0051964945159852505 -0.0004514794272836298 -0.001819040393456816
0.0051964945159852505 -1.453815548302373e-05 -0.0017644977197051042
0.0051964945159852505 0.00042240312905050814 -0.0016198508674278849
0.0051964945159852505 0.0008593444363214076 -0.0014022807590663427
0.0051964945159852505 0.0012962857726961374 -0.001550682471133768
0.0051964945159852505 0.0017332270508632064 -0.0015744622796773904
0.0051964945159852505 0.0021701683290302753 -0.0016536151524633163
0.0051964945159852505 0.0026071094907820225 -0.001508968300186097
0.0051964945159852505 0.0030440508853644133 -0.0014805452665314072
0.0051964945159852505 0.0034809920471161604 -0.0014521225821226829
0.0051964945159852505 0.003917933441698551 -0.0014759023906663054
0.0051964945159852505 0.004354874603450298 -0.0013945833779871457
0.0051964945159852505 0.0047918157652020454 -0.001703004585579037
0.0051964945159852505 0.00522875739261508 -0.0014854340115562075
0.0051964945159852505 0.005665698554366827 -0.0014570108614861959
0.0051964945159852505 0.006102639716118574 -0.0013123640092089766
0.0051964945159852505 0.006539581343531609 -0.00039289821870624954
0.0051964945159852505 0.006976522505283356 -0.00039042218122631246
0.0051964945159852505 0.00741346413269639 -0.00030910241184756095
0.0051964945159852505 0.007850405760109425 -1.7808504708227065e-05
0.004759553354233503 -0.009190305136144161 -0.0033158194273710247
0.004759553354233504 -0.008316422812640667 -0.0036822727415710683
0.004759553354233503 -0.007879480719566345 -0.003493838012218475
0.004759553354233503 -0.007442540023475885 -0.0035222612787038084
0.004759553354233503 -0.007005598396062851 -0.003443108173087239
0.004759553354233503 -0.006568657699972391 -0.003294705646112561
0.004759553354233503 -0.006131716538220644 -0.0033231286797672506
0.004759553354233503 -0.0056947749108076096 -0.003134694183245301
0.004759553354233503 -0.005257833749055862 -0.0031371698714792724
0.004759553354233503 -0.004820892587304115 -0.0032818168401718135
0.004759553354233503 -0.004383950959891081 -0.0028357771225273605
0.004759553354233503 -0.003947009798139334 -0.0022219424135982986
0.004759553354233503 -0.0035100686363875866 -0.001913521206006407
0.004759553354233503 -0.003073127241805196 -0.0019159977091476315
0.004759553354233503 -0.0026361860800534487 -0.0017675950657576316
0.004759553354233503 -0.002199244685471058 -0.0016884430078789585
0.004759553354233503 -0.001762303407303989 -0.0017168652266263955
0.004759553354233503 -0.0013253620127215981 -0.0016660366673022502
0.004759553354233503 -0.0008884207345545292 -0.001846895553171634
0.004759553354233503 -0.0004514794272836298 -0.0019282144494354718
0.004759553354233503 -1.453815548302373e-05 -0.0019306909525766962
0.004759553354233503 0.00042240312905050814 -0.0015323518309742206
0.004759553354233503 0.0008593444363214076 -0.0018935579573735588
0.004759553354233503 0.0012962857726961374 -0.0018144054338335984
0.004759553354233503 0.0017332270508632064 -0.0018168819369748228
0.004759553354233503 0.0021701683290302753 -0.0017377289477735751
0.004759553354233503 0.0026071094907820225 -0.0016585764242336147
0.004759553354233503 0.0030440508853644133 -0.0017398954369127744
0.004759553354233503 0.0034809920471161604 -0.0015514608239755028
0.004759553354233503 0.003917933441698551 -0.001696107792668044
0.004759553354233503 0.004354874603450298 -0.0016723275184631341
0.004759553354233503 0.0047918157652020454 -0.0016214993083849543
0.004759553354233503 0.00522875739261508 -0.001570670749060809
0.004759553354233503 0.005665698554366827 -0.0015468904748558992
0.004759553354233503 0.006102639716118574 -0.001318088150583207
0.004759553354233503 0.006539581343531609 -0.0013465108349919313
0.004759553354233503 0.006976522505283356 -0.0005446531577035779
0.004759553354233503 0.00741346413269639 -1.7411597582394606e-05
0.004759553354233503 0.007850405760109425 -0.00037861792952753544
0.004759553354233503 0.008287346921861172 -6.859511813672142e-06
0.004322612192481756 -0.009627246297895908 -0.0015454712556675072
0.004322612192481756 -0.008753363974392414 -0.0030384920537471767
0.004322612192481756 -0.008316422812640667 -0.00341025018133223
0.004322612192481756 -0.007879480719566345 -0.0034894032869487997
0.004322612192481756 -0.007442540023475885 -0.003540231846272945
0.004322612192481757 -0.007005598396062851 -0.0035640115384012456
0.004322612192481756 -0.006568657699972391 -0.003509469330310821
0.004322612192481757 -0.006131716538220644 -0.0035602976568043228
0.004322612192481756 -0.0056947749108076096 -0.003166381269693374
0.004322612192481756 -0.005257833749055862 -0.003474801545962691
0.004322612192481756 -0.004820892587304115 -0.0030808849260210987
0.004322612192481756 -0.004383950959891081 -0.0029995655640959735
0.004322612192481756 -0.003947009798139334 -0.002638359554111957
0.004322612192481756 -0.0035100686363875866 -0.0019625604618340726
0.004322612192481756 -0.003073127241805196 -0.0016013544518500562
0.004322612192481756 -0.0026361860800534487 -0.0013468721881508823
0.004322612192481756 -0.002199244685471058 -0.0011660131858661766
0.004322612192481756 -0.001762303407303989 -0.0011375901522114869
0.004322612192481756 -0.0013253620127215981 -8.292658458230964e-05
0.004322612192481756 -0.0008884207345545292 -0.0012576984008774157
0.004322612192481756 -0.0004514794272836298 -0.0015661194920539852
0.004322612192481756 -1.453815548302373e-05 -0.0019378777360543604
0.004322612192481756 0.00042240312905050814 -0.002017030725255608
0.004322612192481756 0.0008593444363214076 -0.0020145550370216365
0.004322612192481756 0.0012962857726961374 -0.0019600116647779937
0.004322612192481756 0.0017332270508632064 -0.00190546887461096
0.004322612192481756 0.0021701683290302753 -0.001760822487995028
0.004322612192481756 0.0026071094907820225 -0.0017323993379250164
0.004322612192481756 0.0030440508853644133 -0.0017299224855378266
0.004322612192481756 0.0034809920471161604 -0.001675380277447402
0.004322612192481756 0.003917933441698551 -0.0016991600859910245
0.004322612192481756 0.004354874603450298 -0.0016707374015823002
0.004322612192481756 0.0047918157652020454 -0.0016161947278305884
0.004322612192481756 0.00522875739261508 -0.0015877716941758986
0.004322612192481756 0.005665698554366827 -0.001638600253500044
0.004322612192481756 0.006102639716118574 -0.0016101772198453541
0.004322612192481756 0.006539581343531609 -0.001465530251152813
0.004322612192481756 0.006976522505283356 -0.0015163589268922801
0.004322612192481756 0.00741346413269639 -0.0012987883528694506
0.004322612192481756 0.007850405760109425 -0.0006229897844605142
0.003885670797899366 -0.009627246297895908 -0.0019810870289802547
0.0038856707978993654 -0.009190305136144161 -0.0014124019071459766
0.003885670797899366 -0.008753363974392414 -0.0030080459546297784
0.003885670797899366 -0.008316422812640667 -0.003225615713745355
0.003885670797899366 -0.007879480719566345 -0.003443186171352863
0.003885670797899366 -0.007442540023475885 -0.0034977297764271493
0.003885670797899366 -0.007005598396062851 -0.003552271984517574
0.003885670797899366 -0.006568657699972391 -0.0035806950181722637
0.003885670797899366 -0.006131716538220644 -0.0036091180518269535
0.003885670797899366 -0.0056947749108076096 -0.003558289492502808
0.003885670797899366 -0.005257833749055862 -0.0036396088544279333
0.003885670797899366 -0.004820892587304115 -0.003491206560283899
0.003885670797899366 -0.004383950959891081 -0.003302771365270018
0.003885670797899366 -0.003947009798139334 -0.00273408624343574
0.0038856707978993654 -0.0035100686363875866 -0.0017325251828879114
0.0038856707978993654 -0.003073127241805196 -0.0013607665896415706
0.0038856707978993654 -0.0026361860800534487 -0.0012816140661016102
0.0038856707978993654 -0.002199244685471058 -0.0010528113925829525
0.0038856707978993654 -0.001762303407303989 -0.0007838362944312389
0.0038856707978993654 -0.0013253620127215981 -0.0012408691691234703
0.0038856707978993654 -0.0008884207345545292 -0.0010524338576942678
0.0038856707978993654 -0.0004514794272836298 -0.0010016051819548006
0.0038856707978993654 -1.453815548302373e-05 -0.0013955226168036457
0.0038856707978993654 0.00042240312905050814 -0.0016868165694177146
0.003885670797899366 0.0008593444363214076 -0.001831463421694934
0.003885670797899366 0.0012962857726961374 -0.0020490339957177635
0.003885670797899366 0.0017332270508632064 -0.0017800589557737108
0.003885670797899366 0.0021701683290302753 -0.0020345407538115974
0.003885670797899366 0.0026071094907820225 -0.0020890838932245965
0.003885670797899366 0.0030440508853644133 -0.0019006497459486123
0.003885670797899366 0.0034809920471161604 -0.0018498203717172142
0.003885670797899366 0.003917933441698551 -0.0022110263817012306
0.0038856707978993654 0.004354874603450298 -0.001722748158499598
0.0038856707978993654 0.0047918157652020454 -0.0017511713085696097
0.0038856707978993654 0.00522875739261508 -0.001672018319368362
0.0038856707978993654 0.005665698554366827 -0.0015928654465824361
0.0038856707978993654 0.006102639716118574 -0.0012844442389905448
0.0038856707978993654 0.006539581343531609 -0.0016456508310511704
0.0038856707978993654 0.006976522505283356 -0.0016740738647058602
0.0038856707978993654 0.00741346413269639 -0.0011857943609356876
0.0038856707978993654 0.007850405760109425 -0.0009973598644137378
0.0038856707978993654 0.008287346921861172 -0.0002683558559510852
0.0034487294033169746 -0.009190305136144161 -0.0015154054854065175
0.003448729403316975 -0.008753363974392414 -0.0021747832652181383
0.003448729403316975 -0.008316422812640667 -0.0028803602326661344
0.003448729403316975 -0.007879480719566345 -0.0037843941245228048
0.003448729403316975 -0.007442540023475885 -0.003529911860823631
0.003448729403316975 -0.007005598396062851 -0.0036090647336095567
0.003448729403316975 -0.006568657699972391 -0.003757467027753591
0.003448729403316975 -0.006131716538220644 -0.003754990873858332
0.003448729403316975 -0.0056947749108076096 -0.00377877103164792
0.003448729403316975 -0.005257833749055862 -0.0037503479979932304
0.003448729403316975 -0.004820892587304115 -0.0037219249643385406
0.003448729403316975 -0.004383950959891081 -0.0034306310117244716
0.003448729403316975 -0.003947009798139334 -0.002943162806332111
0.0034487294033169746 -0.0035100686363875866 -0.00123889313545078
0.0034487294033169746 -0.003073127241805196 -0.001073037507012486
0.0034487294033169746 -0.0026361860800534487 -0.0007817427976988252
0.0034487294033169746 -0.001762303407303989 -0.0003864568716380741
0.0034487294033169746 -0.0013253620127215981 -0.000383980834158137
0.0034487294033169746 -0.0008884207345545292 -0.0002031221520155664
0.0034487294033169746 -0.0004514794272836298 -0.00043192465091124134
0.0034487294033169746 -1.453815548302373e-05 -0.0004557048669084902
0.0034487294033169746 0.00042240312905050814 -0.0007986978744156654
0.0034487294033169746 0.0008593444363214076 -0.0010676725069060917
0.0034487294033169746 0.0012962857726961374 -0.0015757060609757896
0.0034487294033169746 0.0017332270508632064 -0.0015472830273210998
0.003448729403316975 0.0021701683290302753 -0.001919041271321475
0.003448729403316975 0.0026071094907820225 -0.0019165655830875035
0.0034487294033169746 0.0030440508853644133 -0.0016620834358036514
0.0034487294033169746 0.0034809920471161604 -0.0017129115294665094
0.0034487294033169746 0.003917933441698551 -0.00156826467718929
0.0034487294033169746 0.004354874603450298 -0.001423618290573358
0.0034487294033169746 0.0047918157652020454 -0.0013951951405033465
0.0034487294033169746 0.00522875739261508 -0.0013406524667516346
0.0034487294033169746 0.005665698554366827 -0.00128611025866121
0.0034487294033169746 0.006102639716118574 -0.0012315667700022455
0.0034487294033169746 0.006539581343531609 -0.0013799684820696707
0.0034487294033169746 0.006976522505283356 -0.001298649585805833
0.0034487294033169746 0.00741346413269639 -0.0013778021093457933
0.0034487294033169746 0.007850405760109425 -0.0005433288752101357
0.0030117880087345843 -0.009627246297895908 -0.0019950421992689367
0.003011788008734584 -0.009190305136144161 -0.0015273364260792728
0.0030117880087345843 -0.008753363974392414 -0.0029732205439358945
0.0030117880087345843 -0.008316422812640667 -0.003672996070235967
0.0030117880087345843 -0.007879480719566345 -0.0032499870285391803
0.0030117880087345843 -0.007442540023475885 -0.0035044697578996416
0.0030117880087345843 -0.007005598396062851 -0.0035328920930624004
0.0030117880087345843 -0.006568657699972391 -0.003713750513270497
0.0030117880087345843 -0.006131716538220644 -0.0037421735469251867
0.0030117880087345843 -0.0056947749108076096 -0.003823492908850312
0.0030117880087345843 -0.005257833749055862 -0.003799712751060724
0.0030117880087345843 -0.004820892587304115 -0.0038281357847154136
0.0030117880087345843 -0.004383950959891081 -0.0038043556269258256
0.0030117880087345843 -0.003947009798139334 -0.0037252027541398998
0.0030117880087345843 -0.0035100686363875866 -0.0033534443937242027
0.003011788008734584 -0.003073127241805196 -0.001192208612337708
0.003011788008734584 -0.0026361860800534487 -0.0004866314702667292
0.003011788008734584 -0.002199244685471058 -1.892609361675531e-05
0.003011788008734584 0.0017332270508632064 -0.0008809735882095989
0.003011788008734584 0.0021701683290302753 -0.0006521712639369067
0.003011788008734584 0.0026071094907820225 -0.0013279698323458429
0.003011788008734584 0.0030440508853644133 -0.0013825125060975547
0.003011788008734584 0.0034809920471161604 -0.001358732231892645
0.003011788008734584 0.003917933441698551 -0.0013871553819626565
0.003011788008734584 0.004354874603450298 -0.0013080023927614088
0.003011788008734584 0.0047918157652020454 -0.0013364255428314205
0.003011788008734584 0.00522875739261508 -0.00125727301929146
0.003011788008734584 0.005665698554366827 -0.0009882978629320856
0.003011788008734584 0.006102639716118574 -0.0010428413515910502
0.003011788008734584 0.006539581343531609 -0.0008140386780723926
0.003011788008734584 0.006976522505283356 -0.0007632092456333336
0.003011788008734584 0.00741346413269639 -0.0007656860980205235
0.003011788008734584 0.007850405760109425 -0.0003673465980682518
0.0025748468469828367 -0.009190305136144161 -0.0015615021111443637
0.002574846846982837 -0.008753363974392414 -0.0021980425808578725
0.002574846846982837 -0.008316422812640667 -0.0030761586967855688
0.002574846846982837 -0.007879480719566345 -0.0032645931933075185
0.002574846846982837 -0.007442540023475885 -0.00349339609965682
0.002574846846982837 -0.007005598396062851 -0.0037623706739395853
0.002574846846982837 -0.006568657699972391 -0.003910772502422333
0.002574846846982837 -0.006131716538220644 -0.003882349235936999
0.002574846846982837 -0.0056947749108076096 -0.0039061296265572305
0.002574846846982837 -0.005257833749055862 -0.003985282499343157
0.002574846846982837 -0.004820892587304115 -0.003767711808905005
0.002574846846982837 -0.004383950959891081 -0.0037652368191629644
0.002574846846982837 -0.003947009798139334 -0.003913638647645712
0.002574846846982837 -0.0035100686363875866 -0.003768991213291883
0.002574846846982837 -0.003073127241805196 -0.003117746207863092
0.0025748468469828367 0.003917933441698551 -0.0003054975531995293
0.0025748468469828367 0.004354874603450298 -0.0002770752762444314
0.0025748468469828367 0.0047918157652020454 -0.00035622823634184864
0.0025748468469828367 0.00522875739261508 -6.493349064839973e-05
0.0025748468469828367 0.005665698554366827 -1.039083326759251e-05
0.002137905452400446 -0.009627246297895908 -0.0013165526324883101
0.0021379054524004464 -0.009190305136144161 -0.0017735855653882025
0.0021379054524004464 -0.008753363974392414 -0.0026294800918549295
0.0021379054524004464 -0.008316422812640667 -0.002990686101838946
0.0021379054524004464 -0.007879480719566345 -0.003351892344653606
0.0021379054524004464 -0.007442540023475885 -0.0034965390805155034
0.0021379054524004464 -0.007005598396062851 -0.0036411860492080446
0.0021379054524004464 -0.006568657699972391 -0.0037858325522392984
0.0021379054524004464 -0.006131716538220644 -0.0038403752259910102
0.0021379054524004464 -0.0056947749108076096 -0.0038687982596457
0.0021379054524004464 -0.005257833749055862 -0.0038712741807103153
0.0021379054524004464 -0.004820892587304115 -0.0036424715071916576
0.0021379054524004464 -0.004383950959891081 -0.0038969537708908315
0.0021379054524004464 -0.003947009798139334 -0.004188247956335545
0.0021379054524004464 -0.0035100686363875866 -0.003720542415976524
0.0021379054524004464 -0.003073127241805196 -0.0037489654496312137
0.0021379054524004464 -0.0026361860800534487 -0.0036981368903070684
0.0021379054524004464 -0.002199244685471058 -0.0031294508371502157
0.001700964290648699 -0.009190305136144161 -0.00125326681882143
0.001700964290648699 -0.008753363974392414 -0.002157301874831319
0.0017009642906486992 -0.008316422812640667 -0.003304986981675029
0.0017009642906486992 -0.007879480719566345 -0.0031603400129824877
0.0017009642906486992 -0.007442540023475885 -0.0035033326130360365
0.0017009642906486992 -0.007005598396062851 -0.003651734907180071
0.0017009642906486992 -0.006568657699972391 -0.0038401701021939516
0.0017009642906486992 -0.006131716538220644 -0.0038909984286874533
0.0017009642906486992 -0.0056947749108076096 -0.003914777655154467
0.0017009642906486992 -0.005257833749055862 -0.003912301734089851
0.0017009642906486992 -0.004820892587304115 -0.003830981906503439
0.0017009642906486992 -0.004383950959891081 -0.003749663010239601
0.0017009642906486992 -0.003947009798139334 -0.0037212399765849113
0.0017009642906486992 -0.0035100686363875866 -0.0036928176414221525
0.0017009642906486992 -0.003073127241805196 -0.0039216200821101665
0.0017009642906486992 -0.0026361860800534487 -0.00386707647703588
0.0017009642906486992 -0.002199244685471058 -0.003266888903453946
0.00126402301248163 -0.009627246297895908 -0.0009836854878813026
0.00126402301248163 -0.009190305136144161 -0.0012012552469968794
0.00126402301248163 -0.008753363974392414 -0.0020141012500971556
0.0012640230124816303 -0.008316422812640667 -0.002826947718858719
0.0012640230124816303 -0.007879480719566345 -0.0029082666151225567
0.0012640230124816303 -0.007442540023475885 -0.003559512086212635
0.0012640230124816303 -0.007005598396062851 -0.00364083144813776
0.0012640230124816303 -0.006568657699972391 -0.0037854784168303013
0.0012640230124816303 -0.006131716538220644 -0.003813901450484991
0.0012640230124816303 -0.0056947749108076096 -0.004414089024066925
0.0012640230124816303 -0.005257833749055862 -0.0038454029709100723
0.0012640230124816303 -0.004820892587304115 -0.0038738262373954058
0.0012640230124816303 -0.004383950959891081 -0.004091396927833557
0.0012640230124816303 -0.003947009798139334 -0.0038224211893975735
0.0012640230124816303 -0.0035100686363875866 -0.0038769638631492853
0.0012640230124816303 -0.003073127241805196 -0.0038531837053596973
0.0012640230124816303 -0.0026361860800534487 -0.003664749674499035
0.0012640230124816303 -0.002199244685471058 -0.0038456080947071314
0.0012640230124816303 -0.001762303407303989 -0.0037664552219212055
0.0012640230124816303 -0.0013253620127215981 -0.0035376527812331915
0.0008270816761069001 -0.009627246297895908 -0.0006289048469625412
0.0008270816761069002 -0.008753363974392414 -0.0017674034461379051
0.0008270816761069003 -0.008316422812640667 -0.002426780993118882
0.0008270816761069004 -0.007879480719566345 -0.0031091601122170687
0.0008270816761069004 -0.007442540023475885 -0.0032575619406998158
0.0008270816761069004 -0.007005598396062851 -0.003600555704906583
0.0008270816761069004 -0.006568657699972391 -0.003419696819037199
0.0008270816761069004 -0.006131716538220644 -0.0038874021265655756
0.0008270816761069004 -0.0056947749108076096 -0.0039665549993515015
0.0008270816761069004 -0.005257833749055862 -0.003964078146964312
0.0008270816761069004 -0.004820892587304115 -0.003909536637365818
0.0008270816761069004 -0.004383950959891081 -0.003907059784978628
0.0008270816761069005 -0.003947009798139334 -0.00454360106959939
0.0008270816761069005 -0.0035100686363875866 -0.004026423208415508
0.0008270816761069004 -0.003073127241805196 -0.0039718798361718655
0.0008270816761069004 -0.0026361860800534487 -0.0038272333331406116
0.0008270816761069004 -0.002199244685471058 -0.003906386438757181
0.0008270816761069004 -0.001762303407303989 -0.003930165432393551
0.0008270816761069004 -0.0013253620127215981 -0.0035689594224095345
0.0008270816761069003 -0.0008884207345545292 -0.002942900639027357
0.0003901403688360007 -0.009190305136144161 -0.0014363521477207541
0.0003901403688360007 -0.008753363974392414 -0.0014647743664681911
0.00039014036883600083 -0.008316422812640667 -0.002188000362366438
0.0003901403688360009 -0.007879480719566345 -0.0027615788858383894
0.00039014036883600094 -0.007442540023475885 -0.003187432186678052
0.000390140368836001 -0.007005598396062851 -0.0035486381966620684
0.000390140368836001 -0.006568657699972391 -0.003729497315362096
0.00039014036883600105 -0.006131716538220644 -0.0038108162116259336
0.00039014036883600105 -0.0056947749108076096 -0.0038921351078897715
0.00039014036883600105 -0.005257833749055862 -0.003920558374375105
0.00039014036883600105 -0.004820892587304115 -0.003975100815296173
0.0003901403688360011 -0.004383950959891081 -0.004229583311825991
0.00039014036883600105 -0.003947009798139334 -0.003921162337064743
0.000390140368836001 -0.0035100686363875866 -0.003413128899410367
0.00039014036883600105 -0.003073127241805196 -0.004112903494387865
0.00039014036883600105 -0.0026361860800534487 -0.003964501898735762
0.00039014036883600105 -0.002199244685471058 -0.0041453600861132145
0.00039014036883600105 -0.001762303407303989 -0.0037736024241894484
0.00039014036883600105 -0.0013253620127215981 -0.0037760776467621326
0.000390140368836001 -0.0008884207345545292 -0.003725249320268631
0.000390140368836001 -0.0004514794272836298 -0.0034964466467499733
-4.680091296904704e-05 -0.008753363974392414 -0.0013013794086873531
-4.6800912969046966e-05 -0.008316422812640667 -0.001937920693308115
-4.68009129690469e-05 -0.007879480719566345 -0.0025066060479730368
-4.680091296904684e-05 -0.007442540023475885 -0.002994885202497244
-4.680091296904678e-05 -0.007005598396062851 -0.003483164357021451
-4.6800912969046756e-05 -0.006568657699972391 -0.0036315666511654854
-4.6800912969046716e-05 -0.006131716538220644 -0.003974559251219034
-4.680091296904673e-05 -0.0056947749108076096 -0.0038932401221245527
-4.6800912969046716e-05 -0.005257833749055862 -0.003972392994910479
-4.6800912969046716e-05 -0.004820892587304115 -0.003996172454208136
-4.680091296904671e-05 -0.004383950959891081 -0.004047001712024212
-4.68009129690467e-05 -0.003947009798139334 -0.004070781636983156
-4.68009129690467e-05 -0.0035100686363875866 -0.004068304784595966
-4.680091296904671e-05 -0.003073127241805196 -0.0040658279322087765
-4.6800912969046716e-05 -0.0026361860800534487 -0.004011286422610283
-4.6800912969046716e-05 -0.002199244685471058 -0.003956743516027927
-4.680091296904672e-05 -0.001762303407303989 -0.003928320482373238
-4.680091296904674e-05 -0.0013253620127215981 -0.003783673280850053
-4.680091296904671e-05 -0.0008884207345545292 -0.004052648786455393
-4.6800912969046804e-05 -0.0004514794272836298 -0.0032616867683827877
-4.680091296904684e-05 -1.453815548302373e-05 -0.0029703928157687187
-0.00048374218749813714 -0.008753363974392414 -0.001725679263472557
-0.00048374218749813714 -0.008316422812640667 -0.0017802214715629816
-0.00048374218749813703 -0.007879480719566345 -0.0025489875115454197
-0.000483742187498137 -0.007442540023475885 -0.002974841045215726
-0.0004837421874981369 -0.007005598396062851 -0.0036008991301059723
-0.0004837421874981369 -0.006568657699972391 -0.0035771201364696026
-0.00048374218749813687 -0.006131716538220644 -0.003971036523580551
-0.00048374218749813687 -0.0056947749108076096 -0.003973513375967741
-0.00048374218749813687 -0.005257833749055862 -0.003975988365709782
-0.00048374218749813687 -0.004820892587304115 -0.003952208906412125
-0.00048374218749813687 -0.004383950959891081 -0.004033528733998537
-0.00048374218749813687 -0.003947009798139334 -0.0040880716405808926
-0.00048374218749813687 -0.0035100686363875866 -0.004008918534964323
-0.00048374218749813687 -0.003073127241805196 -0.004153565037995577
-0.0004837421874981368 -0.0026361860800534487 -0.004234884865581989
-0.00048374218749813687 -0.002199244685471058 -0.003926464356482029
-0.00048374218749813687 -0.001762303407303989 -0.004007783252745867
-0.00048374218749813687 -0.0013253620127215981 -0.0039286306127905846
-0.00048374218749813687 -0.0008884207345545292 -0.0037802287843078375
-0.000483742187498137 -0.0004514794272836298 -0.0031890005338937044
-0.0004837421874981369 -1.453815548302373e-05 -0.0036764692049473524
-0.0004837421874981369 0.00042240312905050814 -0.0033334754407405853
-0.00048374218749813703 0.0008593444363214076 -0.002742248587310314
-0.0009206834947690366 -0.008316422812640667 -0.0016453808639198544
-0.0009206834947690366 -0.007879480719566345 -0.0021130861714482307
-0.0009206834947690364 -0.007442540023475885 -0.0027043139562010765
-0.0009206834947690363 -0.007005598396062851 -0.003172019263729453
-0.0009206834947690363 -0.006568657699972391 -0.003618059679865837
-0.0009206834947690363 -0.006131716538220644 -0.003766461741179228
-0.0009206834947690363 -0.0056947749108076096 -0.0039148638024926186
-0.0009206834947690363 -0.005257833749055862 -0.003965691663324833
-0.0009206834947690362 -0.004820892587304115 -0.0040448447689414024
-0.0009206834947690362 -0.004383950959891081 -0.004123997874557972
-0.0009206834947690362 -0.003947009798139334 -0.004069454036653042
-0.0009206834947690362 -0.0035100686363875866 -0.004377875477075577
-0.0009206834947690362 -0.003073127241805196 -0.004086581524461508
-0.0009206834947690362 -0.0026361860800534487 -0.004110361449420452
-0.0009206834947690362 -0.002199244685471058 -0.004161189775913954
-0.0009206834947690363 -0.001762303407303989 -0.003980331122875214
-0.0009206834947690363 -0.0013253620127215981 -0.003951908089220524
-0.0009206834947690363 -0.0008884207345545292 -0.003734338330104947
-0.0009206834947690363 -0.0004514794272836298 -0.0037318619433790445
-0.0009206834947690363 -1.453815548302373e-05 -0.0036505425814539194
-0.0009206834947690363 0.00042240312905050814 -0.0035959992092102766
-0.0009206834947690363 0.0008593444363214076 -0.003170145908370614
-0.0013576247729361057 -0.008753363974392414 -0.0004901409265585246
-0.0013576247729361057 -0.008316422812640667 -0.0007814356940798464
-0.0013576247729361055 -0.007879480719566345 -0.0019555811304599047
-0.0013576247729361053 -0.007442540023475885 -0.0027900540735572577
-0.0013576247729361053 -0.007005598396062851 -0.0033072317019104958
-0.0013576247729361053 -0.006568657699972391 -0.0036684381775557995
-0.0013576247729361053 -0.006131716538220644 -0.003617609618231654
-0.0013576247729361053 -0.0056947749108076096 -0.003908902872353792
-0.0013576247729361053 -0.005257833749055862 -0.004200196824967861
-0.0013576247729361053 -0.004820892587304115 -0.004011762794107199
-0.0013576247729361053 -0.004383950959891081 -0.0040930816903710365
-0.0013576247729361053 -0.003947009798139334 -0.004042253829538822
-0.0013576247729361053 -0.0035100686363875866 -0.00425982428714633
-0.0013576247729361053 -0.003073127241805196 -0.00418067118152976
-0.0013576247729361053 -0.0026361860800534487 -0.00418314803391695
-0.0013576247729361053 -0.002199244685471058 -0.004185623489320278
-0.0013576247729361053 -0.001762303407303989 -0.0040372214280068874
-0.0013576247729361053 -0.0013253620127215981 -0.003888819832354784
-0.0013576247729361053 -0.0008884207345545292 -0.003917242866009474
-0.0013576247729361053 -0.0004514794272836298 -0.003838089993223548
-0.0013576247729361053 -1.453815548302373e-05 -0.003689688164740801
-0.0013576247729361053 0.00042240312905050814 -0.0037181104999035597
-0.0013576247729361053 0.0008593444363214076 -0.0034096892923116684
-0.0013576247729361053 0.0012962857726961374 -0.003330537350848317
-0.0013576247729361053 0.0017332270508632064 -0.0029321974143385887
-0.0017945661675184963 -0.007879480719566345 -0.001544211991131306
-0.0017945661675184963 -0.007442540023475885 -0.002609662944450975
-0.001794566167518496 -0.007005598396062851 -0.0032690407242625956
-0.001794566167518496 -0.006568657699972391 -0.003457474755123258
-0.001794566167518496 -0.006131716538220644 -0.004026160575449467
-0.001794566167518496 -0.0056947749108076096 -0.0037348663900047545
-0.001794566167518496 -0.005257833749055862 -0.004043287131935358
-0.001794566167518496 -0.004820892587304115 -0.004094116855412722
-0.001794566167518496 -0.004383950959891081 -0.0041732690297067165
-0.001794566167518496 -0.003947009798139334 -0.004144846927374601
-0.001794566167518496 -0.0035100686363875866 -0.004223999101668596
-0.001794566167518496 -0.003073127241805196 -0.004247778095304966
-0.001794566167518496 -0.0026361860800534487 -0.004193235654383898
-0.001794566167518496 -0.002199244685471058 -0.003975665662437677
-0.001794566167518496 -0.001762303407303989 -0.004124067723751068
-0.001794566167518496 -0.0013253620127215981 -0.003906497731804848
-0.001794566167518496 -0.0008884207345545292 -0.003985648974776268
-0.001794566167518496 -0.0004514794272836298 -0.0038410027045756583
-0.001794566167518496 -1.453815548302373e-05 -0.0038647828623652463
-0.001794566167518496 0.00042240312905050814 -0.0036103003658354287
-0.001794566167518496 0.0008593444363214076 -0.003528981236740947
-0.001794566167518496 0.0012962857726961374 -0.0034744385629892354
-0.001794566167518496 0.0017332270508632064 -0.003113232553005219
-0.0017945661675184963 0.0021701683290302753 -0.0024374327622354035
-0.002231507562100887 -0.007879480719566345 -0.0022582588717341427
-0.002231507562100887 -0.007442540023475885 -0.002312802476808429
-0.002231507562100887 -0.007005598396062851 -0.0031472744885832076
-0.002231507562100887 -0.006568657699972391 -0.003401756985113025
-0.002231507562100887 -0.006131716538220644 -0.003827610751613975
-0.002231507562100887 -0.0056947749108076096 -0.003908930812031031
-0.002231507562100887 -0.005257833749055862 -0.003911406733095646
-0.002231507562100887 -0.004820892587304115 -0.003992725629359484
-0.002231507562100887 -0.004383950959891081 -0.004074045456945896
-0.002231507562100887 -0.003947009798139334 -0.004328527022153139
-0.002231507562100887 -0.0035100686363875866 -0.004331003408879042
-0.002231507562100887 -0.003073127241805196 -0.003988010808825493
-0.002231507562100887 -0.0026361860800534487 -0.004279304761439562
-0.002231507562100887 -0.002199244685471058 -0.00420015212148428
-0.002231507562100887 -0.001762303407303989 -0.0042546954937279224
-0.002231507562100887 -0.0013253620127215981 -0.003911701496690512
-0.002231507562100887 -0.0008884207345545292 -0.0040563479997217655
-0.002231507562100887 -0.0004514794272836298 -0.0038679139688611035
-0.002231507562100887 -1.453815548302373e-05 -0.004441491793841124
-0.002231507562100887 0.00042240312905050814 -0.0037821147125214343
-0.002231507562100887 0.0008593444363214076 -0.0033360742963850503
-0.002231507562100887 0.0012962857726961374 -0.0036273682489991192
-0.002231507562100887 0.0017332270508632064 -0.0033985655754804616
-0.002231507562100887 0.0021701683290302753 -0.0032501637469977145
-0.002231507562100887 0.0026071094907820225 -0.002907170914113522
-0.002668448723852634 -0.007442540023475885 -0.00213677017018199
-0.002668448723852634 -0.007005598396062851 -0.002750605577602983
-0.002668448723852634 -0.006568657699972391 -0.003173614386469126
-0.002668448723852634 -0.006131716538220644 -0.0037648417055606846
-0.002668448723852634 -0.0056947749108076096 -0.0037886211648583417
-0.002668448723852634 -0.005257833749055862 -0.003977056127041578
-0.002668448723852634 -0.004820892587304115 -0.0038324086926877503
-0.002668448723852634 -0.004383950959891081 -0.004101383965462446
-0.002668448723852634 -0.003947009798139334 -0.004330186638981104
-0.002668448723852634 -0.0035100686363875866 -0.004275643732398748
-0.002668448723852634 -0.003073127241805196 -0.004194324836134911
-0.002668448723852634 -0.0026361860800534487 -0.004245153162628412
-0.002668448723852634 -0.002199244685471058 -0.004064294509589672
-0.002668448723852634 -0.001762303407303989 -0.004143447615206242
-0.002668448723852634 -0.0013253620127215981 -0.003998801112174988
-0.002668448723852634 -0.0008884207345545292 -0.004022580571472645
-0.002668448723852634 -0.0004514794272836298 -0.003768098540604115
-0.002668448723852634 -1.453815548302373e-05 -0.003791877999901772
-0.002668448723852634 0.00042240312905050814 -0.003763455664739013
-0.002668448723852634 0.0008593444363214076 -0.0037089127581566577
-0.002668448723852634 0.0012962857726961374 -0.0036275929305702452
-0.002668448723852634 0.0017332270508632064 -0.003482945961877704
-0.002668448723852634 0.0021701683290302753 -0.0034016270656138663
-0.002668448723852634 0.0026071094907820225 -0.003184056375175715
-0.002668448723852634 0.0030440508853644133 -0.00310273701325059
-0.002668448723852634 0.0034809920471161604 -0.0024269386194646363
-0.0031053901184350248 -0.007442540023475885 -0.0020505930297076706
-0.0031053901184350248 -0.007005598396062851 -0.002650781767442823
-0.0031053901184350248 -0.006568657699972391 -0.0030119877774268393
-0.0031053901184350248 -0.006131716538220644 -0.003585566300898791
-0.0031053901184350248 -0.0056947749108076096 -0.0038400485645979647
-0.0031053901184350248 -0.005257833749055862 -0.003984693903476
-0.0031053901184350248 -0.004820892587304115 -0.004013117402791977
-0.0031053901184350248 -0.004383950959891081 -0.004094437696039677
-0.0031053901184350248 -0.003947009798139334 -0.0041489796712994576
-0.0031053901184350248 -0.0035100686363875866 -0.004177402704954147
-0.0031053901184350248 -0.003073127241805196 -0.0042319451458752155
-0.0031053901184350248 -0.0026361860800534487 -0.004313264507800341
-0.0031053901184350248 -0.002199244685471058 -0.004262436181306839
-0.0031053901184350248 -0.001762303407303989 -0.004264913033694029
-0.0031053901184350248 -0.0013253620127215981 -0.004076478071510792
-0.0031053901184350248 -0.0008884207345545292 -0.00405269768089056
-0.0031053901184350248 -0.0004514794272836298 -0.003973545506596565
-0.0031053901184350248 -1.453815548302373e-05 -0.00405486486852169
-0.0031053901184350248 0.00042240312905050814 -0.0037858900614082818
-0.0031053901184350248 0.0008593444363214076 -0.0036374877672642474
-0.0031053901184350248 0.0012962857726961374 -0.003718806896358729
-0.0031053901184350248 0.0017332270508632064 -0.0036396542564034466
-0.0031053901184350248 0.0021701683290302753 -0.0035605020821094517
-0.0031053901184350248 0.0026071094907820225 -0.0033316998742520814
-0.0031053901184350248 0.0030440508853644133 -0.0033079197164624934
-0.0031053901184350248 0.0034809920471161604 -0.0027998860459774737
-0.0031053901184350248 0.003917933441698551 -0.0028283090796321635
-0.0035423310473561283 -0.007005598396062851 -0.0022771924268454318
-0.0035423310473561283 -0.006568657699972391 -0.002785225631669164
-0.0035423310473561283 -0.006131716538220644 -0.0032082337420433764
-0.0035423310473561283 -0.0056947749108076096 -0.0036065732128918175
-0.0035423310473561283 -0.005257833749055862 -0.003914994187653066
-0.0035423310473561283 -0.004820892587304115 -0.003965822514146567
-0.0035423310473561283 -0.004383950959891081 -0.004044975619763137
-0.0035423310473561283 -0.003947009798139334 -0.004016553517431022
-0.0035423310473561283 -0.0035100686363875866 -0.004067382309585811
-0.0035423310473561283 -0.003073127241805196 -0.004215783905237914
-0.0035423310473561283 -0.0026361860800534487 -0.004071136936545373
-0.0035423310473561283 -0.002199244685471058 -0.004150289576500655
-0.0035423310473561283 -0.001762303407303989 -0.004005643073469401
-0.0035423310473561283 -0.0013253620127215981 -0.0039772200398147115
-0.0035423310473561283 -0.0008884207345545292 -0.0037963616196066145
-0.0035423310473561283 -0.0004514794272836298 -0.0036155036650598054
-0.0035423310473561283 -1.453815548302373e-05 -0.003844306338578463
-0.0035423310473561283 0.00042240312905050814 -0.003841829486191273
-0.0035423310473561283 0.0008593444363214076 -0.0037872868124395613
-0.0035423310473561283 0.0012962857726961374 -0.003705966984853149
-0.0035423310473561283 0.0017332270508632064 -0.0036246476229280238
-0.0035423310473561283 0.0021701683290302753 -0.0035701054148375992
-0.0035423310473561283 0.0026071094907820225 -0.003425458446145058
-0.0035423310473561283 0.0030440508853644133 -0.0033709150739014153
-0.0035423310473561283 0.0034809920471161604 -0.0032895961776375775
-0.0035423310473561283 0.003917933441698551 -0.0031449492089450364
-0.0035423310473561283 0.004354874603450298 -0.00278374319896102
-0.003979272209107876 -0.007005598396062851 -0.0025857202708721165
-0.003979272209107876 -0.006568657699972391 -0.0026141433045268063
-0.003979272209107876 -0.006131716538220644 -0.003313918132334948
-0.003979272209107875 -0.0056947749108076096 -0.003568400396034122
-0.003979272209107875 -0.005257833749055862 -0.003929606173187495
-0.003979272209107875 -0.004820892587304115 -0.003984150011092425
-0.003979272209107875 -0.004383950959891081 -0.0040386924520134935
-0.003979272209107875 -0.003947009798139334 -0.004120011348277331
-0.003979272209107875 -0.0035100686363875866 -0.004148434381932021
-0.003979272209107875 -0.003073127241805196 -0.0042029772885143766
-0.003979272209107875 -0.0026361860800534487 -0.0041791978292167195
-0.003979272209107875 -0.002199244685471058 -0.004155417438596488
-0.003979272209107875 -0.001762303407303989 -0.004300064872950316
-0.003979272209107875 -0.0013253620127215981 -0.004071261733770371
-0.003979272209107875 -0.0008884207345545292 -0.0039921095594763764
-0.003979272209107875 -0.0004514794272836298 -0.0039412807673215875
-0.003979272209107875 -1.453815548302373e-05 -0.003995823208242656
-0.003979272209107875 0.00042240312905050814 -0.0039166705682873735
-0.003979272209107875 0.0008593444363214076 -0.003919147420674563
-0.003979272209107875 0.0012962857726961374 -0.0038399943150579934
-0.003979272209107875 0.0017332270508632064 -0.0037891662213951354
-0.003979272209107875 0.0021701683290302753 -0.003600731492042542
-0.003979272209107876 0.0026071094907820225 -0.002453046385198832
-0.003979272209107876 0.0030440508853644133 -0.003464120673015714
-0.003979272209107876 0.0034809920471161604 -0.003440340515226126
-0.003979272209107876 0.003917933441698551 -0.0033611881081014876
-0.003979272209107876 0.004354874603450298 -0.0030527669005095963
-0.003979272209107876 0.0047918157652020454 -0.002416226547211409
-0.00441621383652091 -0.006568657699972391 -0.0023420539218932395
-0.00441621383652091 -0.006131716538220644 -0.0029332817066460852
-0.00441621383652091 -0.0056947749108076096 -0.003421561094000936
-0.004416213836520909 -0.005257833749055862 -0.0038676005788147454
-0.004416213836520909 -0.004820892587304115 -0.003946752753108741
-0.004416213836520909 -0.004383950959891081 -0.0038654338568449025
-0.004416213836520909 -0.003947009798139334 -0.0041738548316061505
-0.004416213836520909 -0.0035100686363875866 -0.004145431797951461
-0.004416213836520909 -0.003073127241805196 -0.004090888425707818
-0.004416213836520909 -0.0026361860800534487 -0.00408841297030449
-0.004416213836520909 -0.002199244685471058 -0.0041675660759210595
-0.004416213836520909 -0.001762303407303989 -0.003680097404867411
-0.004416213836520909 -0.0013253620127215981 -0.004023090470582248
-0.004416213836520909 -0.0008884207345545292 -0.0039946683682501325
-0.004416213836520909 -0.0004514794272836298 -0.003992191515862943
-0.004416213836520909 -1.453815548302373e-05 -0.003937648609280587
-0.004416213836520909 0.00042240312905050814 -0.0037930023390799765
-0.004416213836520909 0.0008593444363214076 -0.0038438304327428345
-0.00441621383652091 0.0012962857726961374 -0.0031440563034266238
-0.004416213836520909 0.0017332270508632064 -0.0037127411924302582
-0.004416213836520909 0.0021701683290302753 -0.0036314222961664204
-0.004416213836520909 0.0026071094907820225 -0.0036289454437792306
-0.00441621383652091 0.0030440508853644133 -0.003267739433795214
-0.00441621383652091 0.0034809920471161604 -0.0034965416416525845
-0.00441621383652091 0.003917933441698551 -0.0032789714168757205
-0.00441621383652091 0.004354874603450298 -0.0028219395317137246
-0.00441621383652091 0.0047918157652020454 -0.0018241183133795862
-0.004853154998272657 -0.006568657699972391 -0.0021114989649504427
-0.004853154998272657 -0.006131716538220644 -0.003009837353602052
-0.004853154998272657 -0.0056947749108076096 -0.003466869238764048
-0.0048531549982726565 -0.005257833749055862 -0.0038607858587056403
-0.0048531549982726565 -0.004820892587304115 -0.003942104987800122
-0.0048531549982726565 -0.004383950959891081 -0.004023424815386535
-0.0048531549982726565 -0.003947009798139334 -0.004077967256307603
-0.0048531549982726565 -0.0035100686363875866 -0.003998814616352321
-0.0048531549982726565 -0.003073127241805196 -0.003975034225732089
-0.0048531549982726565 -0.0026361860800534487 -0.004119681660085917
-0.0048531549982726565 -0.002199244685471058 -0.00409590220078826
-0.0048531549982726565 -0.001762303407303989 -0.004098378121852876
-0.0048531549982726565 -0.0013253620127215981 -0.004100854042917491
-0.0048531549982726565 -0.0008884207345545292 -0.004103329963982106
-0.0048531549982726565 -0.0004514794272836298 -0.004024177324026824
-0.0048531549982726565 -1.453815548302373e-05 -0.004000397864729167
-0.004853154998272657 0.00042240312905050814 -0.002852713223546744
-0.0048531549982726565 0.0008593444363214076 -0.0038824819494038825
-0.0048531549982726565 0.0012962857726961374 -0.003910904750227929
-0.0048531549982726565 0.0017332270508632064 -0.0038317518774420027
-0.0048531549982726565 0.0021701683290302753 -0.003683349816128612
-0.0048531549982726565 0.0026071094907820225 -0.00360419717617333
-0.0048531549982726565 0.0030440508853644133 -0.003580417018383742
-0.0048531549982726565 0.0034809920471161604 -0.003556636860594154
-0.004853154998272657 0.003917933441698551 -0.0031105978414416318
-0.004853154998272657 0.004354874603450298 -0.002841622801497579
-0.004853154998272657 0.0047918157652020454 -0.0022729367483407263
-0.004853154998272657 0.00522875739261508 -0.002301359781995416
-0.004853154998272657 0.005665698554366827 -0.0007566395215690141
-0.0052900961600244045 -0.006131716538220644 -0.0020277539733797316
-0.0052900961600244045 -0.0056947749108076096 -0.0030382182449102406
-0.0052900961600244045 -0.005257833749055862 -0.0035059240180999045
-0.005290096160024404 -0.004820892587304115 -0.0038776830770075326
-0.005290096160024404 -0.004383950959891081 -0.0039014625363051896
-0.005290096160024404 -0.003947009798139334 -0.0038730402011424307
-0.005290096160024404 -0.0035100686363875866 -0.0041814614087343225
-0.0052900961600244045 -0.003073127241805196 -0.0034816858824342494
-0.005290096160024404 -0.0026361860800534487 -0.0036300884094089274
-0.005290096160024404 -0.002199244685471058 -0.003973081707954408
-0.005290096160024404 -0.001762303407303989 -0.00405223434790969
-0.005290096160024404 -0.0013253620127215981 -0.0040497574955225
-0.005290096160024404 -0.0008884207345545292 -0.004073537886142732
-0.005290096160024404 -0.0004514794272836298 -0.003928890451788903
-0.005290096160024404 -1.453815548302373e-05 -0.0038743487093597655
-0.005290096160024404 0.00042240312905050814 -0.004062782973051072
-0.005290096160024404 0.0008593444363214076 -0.0040082400664687165
-0.005290096160024404 0.0012962857726961374 -0.0038635935634374623
-0.0052900961600244045 0.0017332270508632064 -0.003469676245003939
-0.0052900961600244045 0.0021701683290302753 -0.003215193515643478
-0.0052900961600244045 0.0026071094907820225 -0.00344399712048471
-0.0052900961600244045 0.0030440508853644133 -0.003299350151792169
-0.0052900961600244045 0.0034809920471161604 -0.0031547034159302716
-0.0052900961600244045 0.003917933441698551 -0.0027934971731156115
-0.0052900961600244045 0.004354874603450298 -0.002167437924072147
-0.0052900961600244045 0.0047918157652020454 -0.0010413450654596097
-0.0052900961600244045 0.00522875739261508 -0.00010955744801322063
-0.005727037787437439 -0.0056947749108076096 -0.0028123091906309136
-0.005727037787437439 -0.005257833749055862 -0.0031735156662762174
-0.005727037787437438 -0.004820892587304115 -0.003824759740382434
-0.005727037787437438 -0.004383950959891081 -0.003969407174736262
-0.005727037787437438 -0.003947009798139334 -0.0038902550004422673
-0.005727037787437438 -0.0035100686363875866 -0.0038111021276563415
-0.005727037787437438 -0.003073127241805196 -0.003731949022039772
-0.005727037787437438 -0.0026361860800534487 -0.003786491695791484
-0.005727037787437438 -0.002199244685471058 -0.0038149147294461736
-0.005727037787437438 -0.001762303407303989 -0.0037911345716565856
-0.005727037787437438 -0.0013253620127215981 -0.0037936114240437755
-0.005727037787437438 -0.0008884207345545292 -0.0038481540977954873
-0.005727037787437438 -0.0004514794272836298 -0.0038506302516907462
-0.005727037787437438 -1.453815548302373e-05 -0.00393194891512394
-0.005727037787437438 0.00042240312905050814 -0.003743514884263278
-0.005727037787437438 0.0008593444363214076 -0.0035951132886111745
-0.005727037787437439 0.0012962857726961374 -0.003326138248667122
-0.005727037787437439 0.0017332270508632064 -0.0031377028208225974
-0.005727037787437439 0.0021701683290302753 -0.0031401796732097873
-0.005727037787437439 0.0026071094907820225 -0.003221498569473625
-0.005727037787437439 0.0030440508853644133 -0.002652812749147416
-0.005727037787437439 0.0034809920471161604 -0.0024240100756287583
-0.005727037787437439 0.003917933441698551 -0.0020810174755752095
-0.005727037787437439 0.004354874603450298 -0.0030216206796467313
-0.005727037787437439 0.0047918157652020454 -0.0007051696302369243
-0.006163978949189186 -0.005257833749055862 -0.002847699914127589
-0.006163978949189186 -0.004820892587304115 -0.0029961015097796926
-0.006163978949189186 -0.004383950959891081 -0.0033944409806281337
-0.006163978949189185 -0.003947009798139334 -0.0037662000395357617
-0.006163978949189186 -0.0035100686363875866 -0.0033722827211022386
-0.006163978949189186 -0.003073127241805196 -0.003343859454616905
-0.006163978949189185 -0.0026361860800534487 -0.003766868496313692
-0.006163978949189186 -0.002199244685471058 -0.0033098368439823398
-0.006163978949189186 -0.001762303407303989 -0.0031651901081204423
-0.006163978949189186 -0.0013253620127215981 -0.0032160186674445876
-0.006163978949189186 -0.0008884207345545292 -0.0029984479770064363
-0.006163978949189186 -0.0004514794272836298 -0.0028175902552902707
-0.006163978949189186 -1.453815548302373e-05 -0.003189348615705968
-0.006163978949189186 0.00042240312905050814 -0.0029547074809670457
-0.006163978949189186 0.0008593444363214076 -0.003377715591341258
-0.006163978949189186 0.0012962857726961374 -0.002914884826168419
-0.006163978949189186 0.0017332270508632064 -0.0027568317018449315
-0.006163978949189186 0.0021701683290302753 -0.002842223038896919
-0.006163978949189186 0.0026071094907820225 -0.002576144179329277
-0.006163978949189186 0.0030440508853644133 -0.0006830883212387569
-0.006163978949189186 0.0034809920471161604 -0.0003302949189674117
-0.006600920110940933 -0.004383950959891081 -0.002944028703495861
-0.006600920110940933 -0.003947009798139334 -0.003198511432856322
-0.006600920110940933 -0.0035100686363875866 -0.00327983032912016
