ply
format ascii 1.0
element vertex 724
property float x
property float y
property float z
end_header
-0.004309641622671762 -0.007692323058469048 -0.0008587153279222539
-0.004145174629167306 -0.008144192409368131 -0.00022747197363059886
-0.00398070747639731 -0.008596062197845691 1.1972246284131779e-05
-0.009285185605668378 0.007383839515960761 -0.003875877708196639
-0.008956251618659466 0.006480100814162595 -0.003929805010557174
-0.00879178446588947 0.006028231025685036 -0.0039898320101201526
-0.008627317313119472 0.005576361237207477 -0.003933892585337161
-0.008462850319615016 0.005124491886308394 -0.003877953626215457
-0.00829838332611056 0.004672622535409311 -0.003790844464674591
-0.008133916332606104 0.004220753184510227 -0.003627521684393286
-0.007969449179836108 0.003768883396032669 -0.003375716507434844
-0.007804982186331651 0.003317014045133586 -0.0032123951241374007
-0.007640515033561654 0.002865144256656027 -0.00300501612946391
-0.007476048040057198 0.0024132749057569442 -0.002841694047674536
-0.007311580887287202 0.0019614051172793853 -0.002678371733054518
-0.007147113814149976 0.0015095355475910645 -0.002591262571513652
-0.006982646741012749 0.0010576659779027435 -0.0023394559975713483
-0.006818179667875523 0.0006057964082144226 -0.002252346370369195
-0.006653712594738297 0.00015392683852610167 -0.002196408109739422
-0.00648924552160107 -0.0002979427311622193 -0.002285902388393878
-0.006324778408647458 -0.0007498124102451591 -0.001771175884641706
-0.006160311335510232 -0.00120168197993348 -0.001362042152322828
-0.005995844262373006 -0.001653551549621801 -0.001601485419087111
-0.005831377185502994 -0.0021054211295658673 -0.0016042114002630106
-0.005666910106144458 -0.0025572907163470978 -0.0015780404210090629
-0.005502443023053135 -0.0030091603133840733 -0.0015518693253397933
-0.005337975930007716 -0.0034610299377697035 -0.0020205366890877477
-0.00517350885687049 -0.0039128995074580245 -0.0015058097196742884
-0.005009041863366034 -0.004364768858357107 -0.0014796400209888807
-0.004844574790228807 -0.004816638428045429 -0.001392529462464153
-0.004680107637458811 -0.005268508216522988 -0.0013663584832102052
-0.004515640564321585 -0.005720377786211308 -0.001397639047354459
-0.004351173570817128 -0.006172247137110391 -0.001400363980792462
-0.004186706418047132 -0.00662411692558795 -0.0014603906311094752
-0.004022239424542676 -0.007075986276487033 -0.0014916703803464762
-0.003857772271772679 -0.007527856064964592 -0.0014357316540554157
-0.0036933052782682227 -0.007979725415863675 -0.0012724101543426505
-0.0035288381254982262 -0.008431595204341233 -0.000834023754578083
-0.00336437113199377 -0.008883464555240318 -0.00029665461624972446
-0.00883331581719082 0.007548306668730758 -0.0038285769987851373
-0.008504381830181906 0.006644567966932591 -0.0038989728782325974
-0.00833991467741191 0.006192698178455032 -0.0038962478283792725
-0.008175447524641914 0.005740828389977474 -0.003893522545695304
-0.008010980531137458 0.00528895903907839 -0.0038334962446242562
-0.007846513537633002 0.004837089688179307 -0.003773469710722565
-0.007682046544128545 0.004385220337280224 -0.0037134436424821607
-0.007517579391358548 0.003933350548802666 -0.003514401847496628
-0.007353112397854092 0.0034814811979035827 -0.003116881474852561
-0.007188645245084095 0.0030296114094260237 -0.003056855406612157
-0.007024178251579639 0.0025777420585269407 -0.0027362760156393042
-0.006859711098809643 0.0021258722700493817 -0.002577087376266717
-0.006695244025672417 0.001674002700361061 -0.0022565070539712897
-0.00653077695253519 0.00122213313067274 -0.0022537822369486085
-0.006366309879397964 0.0007702635609844191 -0.0019332017982378596
-0.006201842806260738 0.00031839399129609814 -0.0018437074031680816
-0.006037375733123511 -0.0001334755783922228 -0.0017542125424370163
-0.005872908620169899 -0.0005853452574751626 -0.001841323217377066
-0.005708441547032673 -0.0010372148271634836 -0.0018385977018624538
-0.005543974473895447 -0.0014890843968518046 -0.0020019193179905406
-0.005379507397025435 -0.001940953976795871 -0.001941893016919493
-0.005215040317666899 -0.0023928235635771013 -0.0017827040283009403
-0.005050573234575576 -0.002844693160614077 -0.001543260179460048
-0.004886106141530157 -0.003296562784999707 -0.0017065816791728132
-0.004721639068392931 -0.003748432354688028 -0.0017327521927654737
-0.004557172074888475 -0.004200301705587111 -0.0018198628677055233
-0.004392705001751248 -0.004652171275275432 -0.0016606737626716488
-0.004228237848981252 -0.005104041063752991 -0.001629393198527395
-0.004063770775844026 -0.005555910633441312 -0.0015981129836291068
-0.0038993037823395692 -0.006007779984340395 -0.0016242834972217673
-0.0037348366295695727 -0.006459649772817954 -0.0015347891021519893
-0.0035703696360651167 -0.006911519123717037 -0.0018742175307124847
-0.0034059024832951202 -0.007363388912194595 -0.0016347733326256269
-0.0032414354897906637 -0.007815258263093679 -0.0016034927684813731
-0.0030769683370206673 -0.008267128051571237 -0.0014443036634474986
-0.002912501343516211 -0.00871899740247032 -0.0004323985776863985
-0.0027480341907462147 -0.00917086719094788 -0.000429673615144565
-0.0025835668787106783 -0.009622737417003913 -0.0003401782887522124
-0.0024190997259406818 -0.010074607205481471 -1.9598897779359712e-05
-0.008381446466291737 0.007712773662235214 -0.0036491781938821073
-0.008052512479282823 0.006809034960437047 -0.004052473232150077
-0.007888045326512827 0.006357165171959488 -0.003845094237476587
-0.007723578173742831 0.00590529538348193 -0.0038763748016208406
-0.007559111180238375 0.005453426032582846 -0.0037892642430961128
-0.007394644186733919 0.005001556681683763 -0.003625941695645451
-0.007230177193229462 0.00454968733078468 -0.0036572224926203485
-0.007065710040459465 0.004097817542307122 -0.003449843497946858
-0.006901243046955009 0.0036459481914080387 -0.003452567849308252
-0.006736775894185013 0.0031940784029304793 -0.0036117569543421264
-0.006572308900680556 0.0027422090520313968 -0.0031208745203912254
-0.00640784174791056 0.002290339263553838 -0.0024453271180391307
-0.006243374674773334 0.001838469693865517 -0.0021058986894786354
-0.006078907601636107 0.001386600124177196 -0.0021086242049932476
-0.005914440528498881 0.0009347305544888751 -0.0019453017739579075
-0.005749973455361655 0.0004828609848005542 -0.0018581920303404325
-0.005585506382224428 3.099141511223326e-05 -0.0018894717795774334
-0.0054210392692708165 -0.00042087826397070653 -0.001833533053286373
-0.00525657219613359 -0.0008727478336590276 -0.002032574731856584
-0.005092105122996364 -0.0013246174033473485 -0.002122069243341684
-0.004927638046126352 -0.001776486983291415 -0.0021247945260256525
-0.004763170966767816 -0.0022283565700726453 -0.0016864081844687455
-0.004598703883676493 -0.002680226167109621 -0.0020839285571128126
-0.004434236790631074 -0.003132095791495251 -0.0019968182314187284
-0.004269769717493848 -0.003583965361183572 -0.0019995437469333406
-0.004105302723989392 -0.004035834712082655 -0.0019124330719932907
-0.003940835650852165 -0.004487704281770976 -0.0018253228627145284
-0.003776368498082169 -0.004939574070248535 -0.0019148172577843064
-0.0036119014249449423 -0.005391443639936856 -0.0017074383795261377
-0.0034474344314404863 -0.005843312990835939 -0.0018666273681446903
-0.00328296727867049 -0.006295182779313498 -0.0018404563888907426
-0.0031185002851660338 -0.006747052130212581 -0.0017845181282609695
-0.0029540331323960373 -0.007198921918690139 -0.0017285795183852308
-0.002789566138891581 -0.007650791269589223 -0.0017024084227159613
-0.0026250989861215843 -0.008102661058066781 -0.0014506033621728414
-0.0024606319926171283 -0.008554530408965864 -0.0014818834606558078
-0.002296164839847132 -0.009006400197443424 -0.0005994103266857558
-0.0021316975278115953 -0.009458270423499457 -1.9162087482981675e-05
-0.001967230375041599 -0.009910140211977015 -0.00041668259655125374
-0.0018027635408026828 -0.010362009125297623 -7.549138445028161e-06
-0.008094043830584173 0.00832911060348277 -0.0017008464783430093
-0.007765109525044181 0.007425371026527652 -0.003343969583511352
-0.007600642690805265 0.006973502113207044 -0.0037531026173382993
-0.007436175538035268 0.006521632324729485 -0.003840213408693671
-0.007271708385265272 0.006069762536251926 -0.0038961521349847312
-0.007107241391760816 0.005617893185352843 -0.003922322764992713
-0.00694277439825636 0.00516602383445376 -0.003862296929582953
-0.006778307404751903 0.004714154483554676 -0.003918235190212726
-0.006613840251981907 0.004262284695077118 -0.0034847161732614036
-0.006449373258477451 0.0038104153441780348 -0.003824143903329968
-0.006284906105707454 0.003358545555700476 -0.003390624420717358
-0.006120439112202998 0.0029066762048013933 -0.003301129443570971
-0.005955971959433002 0.0024548064163238343 -0.002903609303757548
-0.005791504886295776 0.0020029368466355137 -0.0021598681341856714
-0.005627037813158549 0.0015510672769471926 -0.001762347994372248
-0.005462570740021323 0.0010991977072588716 -0.0014822811353951686
-0.005298103666884097 0.0006473281375705507 -0.0012832393404096358
-0.00513363659374687 0.00019545856788222974 -0.0012519587762653821
-0.004969169480793258 -0.00025641111120071005 -9.126368240686075e-05
-0.004804702407656032 -0.0007082806808890311 -0.0013841422041878098
-0.004640235334518806 -0.001160150250577352 -0.001723570749163627
-0.0044757682576487936 -0.0016120198305214185 -0.002132704015821218
-0.004311301178290258 -0.0020638894173026488 -0.002219814574345946
-0.004146834095198935 -0.0025157590143396243 -0.0022170899901539083
-0.003982367002153516 -0.0029676286387252545 -0.0021570629905909296
-0.0038178999290162897 -0.0034194982084135754 -0.0020970369223505254
-0.0036534329355118332 -0.003871367559312659 -0.001937848282977938
-0.003488965862374607 -0.00432323712900098 -0.0019065676024183624
-0.0033244987096046107 -0.004775106917478539 -0.0019038417376577848
-0.003160031636467384 -0.005226976487166859 -0.0018438160186633461
-0.002995564642962928 -0.005678845838065942 -0.0018699866486713284
-0.0028310974901929317 -0.006130715626543501 -0.0018387064337730401
-0.0026666304966884756 -0.006582584977442584 -0.0017786802491173142
-0.002502163343918479 -0.007034454765920143 -0.0017473996849730604
-0.0023376963504140227 -0.007486324116819226 -0.0018033384112641209
-0.002173229197644026 -0.007938193905296785 -0.0017720577307045453
-0.00200876220413957 -0.008390063256195868 -0.0016128686256706708
-0.0018442950513695737 -0.008841933044673426 -0.0016688073519617313
-0.0016798277393340372 -0.009293803270729461 -0.0014293631538748735
-0.0015153605865640407 -0.00974567305920702 -0.0006856226245872671
-0.00764217447968509 0.008493577596987226 -0.0021802573464810844
-0.007477707326915093 0.008041707808509666 -0.001554399030283093
-0.007313240174145097 0.007589838020032108 -0.0033104624599218364
-0.007148773339906182 0.0071379691067115 -0.0035499057266861196
-0.006984306187136185 0.006686099318233941 -0.0037893499247729774
-0.006819839034366189 0.006234229529756382 -0.003849376924335956
-0.006655372040861733 0.005782360178857299 -0.0039094025269150725
-0.006490905047357277 0.005330490827958216 -0.00394068332388997
-0.00632643805385282 0.004878621477059133 -0.003971964120864867
-0.006161970901082824 0.004426751688581574 -0.003916025161743163
-0.005997503907578368 0.003974882337682491 -0.00400552013888955
-0.005833036754808371 0.0035230125492049322 -0.0038421980571001764
-0.005668569761303915 0.003071143198305849 -0.003634818363934755
-0.005504102608533918 0.0026192734098282903 -0.0030089600477367635
-0.005339635535396692 0.00216740384013997 -0.0019067061366513367
-0.005175168462259465 0.0017155342704516486 -0.0014975724043324585
-0.005010701389122239 0.0012636647007633276 -0.0014104621950536962
-0.004846234315985013 0.0008117951310750068 -0.001158656668849289
-0.004681767242847786 0.00035992556138668576 -0.0008626399212516839
-0.0045173001298941745 -9.194411769625403e-05 -0.001365620992146432
-0.0043528330567569485 -0.000543813687384575 -0.0011582411825656887
-0.0041883659836197224 -0.000995683257072896 -0.0011023024562746282
-0.00402389890674971 -0.0014475528370169624 -0.0015358227537944909
-0.0038594318273911733 -0.0018994224237981925 -0.0018564021447673436
-0.0036949647442998507 -0.0023512920208351683 -0.0020155911333858962
-0.003530497651254432 -0.0028031616452207984 -0.0022550355643033977
-0.003366030578117206 -0.0032550312149091194 -0.00195901864208281
-0.0032015635846127494 -0.0037069005658082028 -0.002239085035398602
-0.0030370965114755234 -0.004158770135496524 -0.002299111802130937
-0.002872629358705527 -0.004610639923974083 -0.002091733273118734
-0.0027081622855683004 -0.005062509493662403 -0.002035793615505099
-0.0025436952920638444 -0.005514378844561486 -0.0024333139881491657
-0.002379228139293848 -0.005966248633039045 -0.0018959462177008386
-0.002214761145789392 -0.006418117983938128 -0.0019272267818450923
-0.0020502939930193954 -0.006869987772415687 -0.0018401161069050427
-0.001885826999514939 -0.00732185712331477 -0.0017530055483803149
-0.0017213598467449426 -0.007773726911792329 -0.0014135770034044977
-0.0015568928532404863 -0.008225596262691412 -0.00181109772529453
-0.0013924257004704899 -0.00867746605116897 -0.0018423784058541055
-0.0012279583884349534 -0.009129336277225005 -0.0013050092384219165
-0.001063491235664957 -0.009581206065702563 -0.0010976303601637478
-0.000899024401426041 -0.010033074979023171 -0.0002953352231997991
-0.0070258373196482975 0.008206175040912433 -0.0016677581006661053
-0.006861370166878301 0.007754305252434875 -0.0023934268392622467
-0.006696903332639385 0.007302436339114267 -0.00316993985325098
-0.0065324361798693885 0.006850566550636708 -0.0041648615151643744
-0.006367969027099392 0.006398696762159149 -0.0038847946561872955
-0.006203502033594936 0.005946827411260066 -0.003971904981881379
-0.00603903504009048 0.005494958060360983 -0.004135227296501397
-0.005874568046586023 0.005043088709461899 -0.004132502246648072
-0.005710100893816027 0.004591218920984341 -0.004158673342317342
-0.005545633900311571 0.004139349570085257 -0.0041273925453424445
-0.005381166747541574 0.0036874797816076987 -0.004096111748367547
-0.005216699754037118 0.003235610430708616 -0.0037755325902253385
-0.005052232601267122 0.002783740642231057 -0.003239056328311562
-0.004887765528129895 0.0023318710725427363 -0.0013634463539347048
-0.004723298454992669 0.0018800015028544153 -0.0011809163261204954
-0.004558831381855442 0.0014281319331660943 -0.0008603359456174071
-0.00422989723558099 0.0005243927937894525 -0.0004253096412867303
-0.004065430122627379 7.252311470651266e-05 -0.00042258467874489676
-0.0039009630494901523 -0.0003793464549818083 -0.00022354321845341428
-0.0037364959763529263 -0.0008312160246701292 -0.0004753485554829235
-0.0035720288994829136 -0.0012830856046141957 -0.0005015195347368713
-0.003407561820124377 -0.0017349551913954258 -0.0008789956336840983
-0.0032430947370330546 -0.0021868247884324014 -0.001175011857412755
-0.003078627643987636 -0.002638694412818032 -0.0017341211205348368
-0.0029141605708504098 -0.003090563982506353 -0.0017028404399752613
-0.0027496935773459537 -0.0035424333334054363 -0.002111973706632852
-0.0025852265042087277 -0.003994302903093757 -0.0021092491224408145
-0.002420759351438731 -0.004446172691571316 -0.001829182379879057
-0.0022562922783015047 -0.004898042261259637 -0.0018851206405088301
-0.002091825284797048 -0.00534991161215872 -0.0017259315354749556
-0.0019273581320270517 -0.005801781400636278 -0.0015667428961023684
-0.0017628911385225955 -0.006253650751535362 -0.0015354623319581147
-0.001598423985752599 -0.00670552054001292 -0.0014754361473023887
-0.001433956992248143 -0.007157389890912004 -0.00141541042830795
-0.0012694898394781464 -0.007609259679389562 -0.0013553834287449713
-0.0011050228459736902 -0.008061129030288645 -0.0015187048120424147
-0.0009405556932036938 -0.008512998818766205 -0.0014292104169726367
-0.0007760883811681571 -0.008964869044822238 -0.001516320626251399
-0.0006116212283981608 -0.009416738833299796 -0.0005979529232718046
-0.006738434902729973 0.008822511902527218 -0.0021956155542284246
-0.006573967749959976 0.00837064211404966 -0.0016808885848149653
-0.00640950059718998 0.0079187723255721 -0.0032721359748393293
-0.006245033762951064 0.007466903412251493 -0.004042264074087143
-0.006080566610181068 0.007015033623773934 -0.003576727351173758
-0.005916099457411071 0.006563163835296375 -0.0038567946758121248
-0.005751632463906615 0.006111294484397292 -0.003888074308633804
-0.005587165470402159 0.005659425133498209 -0.00408711563795805
-0.005422698476897703 0.005207555782599126 -0.004118396434932947
-0.005258231324127707 0.004755685994121567 -0.004207891412079334
-0.00509376433062325 0.004303816643222484 -0.004181720316410065
-0.004929297177853254 0.003851946854744925 -0.004213000647723675
-0.004764830184348798 0.003400077503845842 -0.0041868300177156925
-0.004600363031578801 0.0029482077153682833 -0.004099719226360321
-0.004435895958441575 0.0024963381456799623 -0.0036905859597027297
-0.004271428885304348 0.0020444685759916418 -0.0013120684307068582
-0.004106961812167122 0.0015925990063033206 -0.0005355554167181249
-0.003942494739029896 0.0011407294366149996 -2.082884384435561e-05
-0.002462291001162089 -0.0029260969093691264 -0.0009695430053398009
-0.0022978240076576323 -0.00337796626026821 -0.0007177378865890201
-0.0021333569345204063 -0.0038298358299565308 -0.0014614784158766265
-0.0019688897817504098 -0.00428170561843409 -0.0015215046005323525
-0.0018044227086131833 -0.00473357518812241 -0.0014953336212784048
-0.001639955715108727 -0.005185444539021493 -0.0015266141854226585
-0.0014754885623387308 -0.005637314327499052 -0.0014395035104826088
-0.0013110215688342745 -0.006089183678398135 -0.0014707841910421844
-0.001146554416064278 -0.006541053466875694 -0.001383673981763422
-0.000982087422559822 -0.006992922817774777 -0.001087657292373478
-0.0008176202697898255 -0.007444792606252336 -0.0011476844083517786
-0.0006531532762853692 -0.00789666195715142 -0.0008958787657320495
-0.0004886861235153728 -0.008348531745628978 -0.0008399391081184144
-0.0003242188114798362 -0.008800401971685011 -0.000842665031086653
-0.00015975165870983976 -0.009252271760162571 -0.00040427810745313726
-0.0061220981802716555 0.008535109187186885 -0.0017184889875352378
-0.0059576310275016595 0.008083239398709327 -0.0024190247058868404
-0.0057931641932627434 0.007631370485388719 -0.0033854229841381307
-0.0056286970404927465 0.00717950069691116 -0.0035928019788116212
-0.0054642298877227505 0.006727630908433602 -0.0038446076214313503
-0.005299762894218294 0.006275761557534518 -0.0041406238451600075
-0.005135295900713838 0.005823892206635435 -0.004303945228457451
-0.0049708289072093815 0.005372022855736352 -0.004272664897143841
-0.004806361754439385 0.004920153067258793 -0.004298835527151823
-0.004641894760934929 0.00446828371635971 -0.0043859463185071945
-0.0044774276081649324 0.004016413927882151 -0.004146501887589693
-0.004312960614660476 0.0035645445769830683 -0.00414377823472023
-0.00414849346189048 0.0031126747885055093 -0.0043070996180176735
-0.003984026388753254 0.002660805218817189 -0.004147910047322512
-0.0038195593156160274 0.002208935649128868 -0.00343119166791439
-0.001188086145420406 -0.005020977465884267 -0.00033621100010350314
-0.0010236189926504098 -0.005472847254361826 -0.0003049313090741631
-0.0008591519991459535 -0.005924716605260909 -0.0003920419549103823
-0.0006946848463759572 -0.006376586393738468 -7.146163989091257e-05
-0.0005302178528715009 -0.006828455744637551 -1.1435484339017074e-05
-0.005834695763353331 0.00915144604880167 -0.001448913477361202
-0.005670228610583335 0.008699576260324112 -0.001951894490048289
-0.005505761457813338 0.008247706471846554 -0.0028938371688127513
-0.005341294623574422 0.007795837558525945 -0.0032913573086261745
-0.005176827470804426 0.007343967770048387 -0.0036888776812702413
-0.005012360318034429 0.006892097981570828 -0.003848066786304116
-0.004847893324529973 0.006440228630671745 -0.004007255658507347
-0.004683426331025517 0.005988359279772661 -0.004166444297879934
-0.004518959337521061 0.005536489928873578 -0.004226470831781626
-0.004354492184751065 0.00508462014039602 -0.004257751163095236
-0.004190025191246608 0.004632750789496936 -0.004260476212948561
-0.004025558038476612 0.004180881001019378 -0.004008670803159475
-0.003861091044972156 0.003729011650120295 -0.004288737662136555
-0.0036966238922021594 0.003277141861642736 -0.004609317053109407
-0.003532156819064933 0.002825272291954415 -0.004094590432941914
-0.0033676897459277064 0.002373402722266094 -0.004125870764255524
-0.0032032226727904804 0.0019215331525777731 -0.004069932270795107
-0.003038755599653254 0.0014696635828894522 -0.0034440730232745405
-0.005218359150289632 0.008864043293644952 -0.0013792651006951926
-0.005053891997519636 0.008412173505167394 -0.0023741880431771274
-0.00488942516328072 0.007960304591846787 -0.003637256566435098
-0.004724958010510724 0.007508434803369228 -0.0034780674614012237
-0.004560490857740727 0.007056565014891669 -0.0038555432111024852
-0.004396023864236271 0.0066046956639925864 -0.004018865060061216
-0.004231556870731815 0.006152826313093503 -0.0042262449860572815
-0.004067089877227359 0.00570095696219442 -0.004282183013856411
-0.0039026227244573623 0.005249087173716861 -0.004308353178203106
-0.0037381557309529062 0.004797217822817778 -0.004305628128349781
-0.0035736885781829097 0.004345348034340219 -0.004216133151203394
-0.0034092215846784537 0.003893478683441136 -0.004126638639718294
-0.0032447544319084572 0.0034416088949635773 -0.004095357842743397
-0.0030802873587712307 0.0029897393252752563 -0.004064078442752361
-0.0029158202856340043 0.0025378697555869354 -0.004315883386880159
-0.002751353212496778 0.0020860001858986144 -0.004255856387317181
-0.0025868861393595517 0.0016341306162102934 -0.0035953284241259094
-0.0049309567333713075 0.009480380155259737 -0.0010825811186805365
-0.0047664895806013114 0.00902851036678218 -0.0013220243854448197
-0.0046020224278313145 0.008576640578304621 -0.002216590801253915
-0.004437555593592399 0.008124771664984013 -0.0031111573334783316
-0.004273088440822402 0.007672901876506454 -0.0032006518449634314
-0.004108621288052406 0.007221032088028895 -0.003917370922863483
-0.00394415429454795 0.0067691627371298125 -0.004006865434348583
-0.003779687301043494 0.006317293386230729 -0.004166054539382458
-0.003615220307539038 0.005865424035331646 -0.004197335336357355
-0.0034507531547690417 0.005413554246854087 -0.004857863299548626
-0.0032862861612645853 0.004961684895955004 -0.004232003819197416
-0.0031218190084945888 0.004509815107477446 -0.004263284616172314
-0.0029573520149901327 0.004057945756578362 -0.004502729047089815
-0.0027928848622201363 0.0036060759681008033 -0.004206711892038584
-0.0026284177890829098 0.0031542063984124824 -0.004266737960278988
-0.0024639507159456833 0.0027023368287241614 -0.004240566864609718
-0.0022994836428084572 0.0022504672590358404 -0.004033188335597515
-0.0021350165696712308 0.0017985976893475197 -0.0042322296649217606
-0.0019705494965340047 0.0013467281196591987 -0.004145118873566389
-0.0018060823835803932 0.0008948584405762589 -0.003893313929438591
-0.004479087108985678 0.009644847248305157 -0.0006921323365531861
-0.004150152803445685 0.00874110767135004 -0.0019450908293947575
-0.003985685969206769 0.008289238758029432 -0.002670759567990899
-0.0038212188164367723 0.007837368969551874 -0.0034217422362416983
-0.003656751663666776 0.007385499181074315 -0.0035850636195391417
-0.0034922846701623197 0.006933629830175231 -0.0039625405333936214
-0.0033278176766578637 0.006481760479276148 -0.0037634989712387323
-0.0031633506831534076 0.006029891128377065 -0.0042782253585755825
-0.002998883530383411 0.005578021339899506 -0.004365336149930954
-0.0028344165368789547 0.005126151989000423 -0.0043626101687550545
-0.0026699493841089586 0.004674282200522864 -0.004302585031837225
-0.002505482390604502 0.004222412849623781 -0.0042998590506613255
-0.002341015237834506 0.003770543061146222 -0.005000395700335503
-0.0021765481646972796 0.003318673491457901 -0.004431223031133413
-0.002012081091560053 0.00286680392176958 -0.004371196031570435
-0.0018476140184228269 0.002414934352081259 -0.004212007392197847
-0.0016831469452856006 0.0019630647823929387 -0.004299118183553219
-0.0015186798721483743 0.0015111952127046175 -0.004325288347899914
-0.0013542127591947629 0.0010593255336216777 -0.003927767742425203
-0.0011897456860575366 0.0006074559639333568 -0.0032387678511440754
-0.0038627503591787053 0.009357444542918921 -0.001580757088959217
-0.003698283206408709 0.008905574754441363 -0.0016120367217808962
-0.003533816372169793 0.008453705841120755 -0.0024079729337245226
-0.0033693492193997967 0.008001836052643195 -0.003039216622710228
-0.0032048820666298002 0.007549966264165637 -0.003507883520796895
-0.003040415073125344 0.0070980969132665534 -0.003905403660610318
-0.002875948079620888 0.0066462275623674705 -0.004104445222765207
-0.0027114810861164317 0.006194358211468388 -0.004193939734250307
-0.0025470139333464356 0.005742488422990829 -0.004283434245735407
-0.002382546939841979 0.005290619072091746 -0.004314715042710304
-0.0022180797870719826 0.004838749283614187 -0.004374741110950708
-0.0020536127935675266 0.004386879932715104 -0.004654808435589075
-0.0018891456407975303 0.003935010144237545 -0.00431538000702858
-0.0017246785676603039 0.0034831405745492238 -0.003756270743906498
-0.0015602114945230776 0.003031271004860903 -0.004526397679001093
-0.0013957444213858513 0.002579401435172582 -0.0043630762957036495
-0.001231277348248625 0.002127531865484261 -0.004562117625027895
-0.0010668102751113986 0.0016756622957959401 -0.004152984824031591
-0.0009023431621577872 0.0012237926167130004 -0.004155708942562342
-0.0007378760890205609 0.0007719230470246794 -0.004099770449101925
-0.0005734090158833347 0.0003200534773363584 -0.0038479650393128395
-0.0032464136230460606 0.009070041832555636 -0.001432214630767703
-0.003081946788807145 0.008618172919235029 -0.0021327512804418802
-0.0029174796360371485 0.00816630313075747 -0.002758610062301159
-0.002753012483267152 0.007714433342279912 -0.003295978531241417
-0.002588545489762696 0.007262563991380828 -0.0038333472330123186
-0.00242407849625824 0.006810694640481745 -0.003996669314801693
-0.0022596115027537834 0.006358825289582662 -0.0043741450645029545
-0.0020951443499837873 0.005906955501105103 -0.004284650553017855
-0.0019306773564793309 0.00545508615020602 -0.004371761344373226
-0.0017662102037093346 0.005003216361728461 -0.004397931043058634
-0.0016017432102048783 0.004551347010829378 -0.004453870467841625
-0.0014372760574348819 0.004099477222351819 -0.004480041563510895
-0.0012728089842976556 0.0036476076526634985 -0.004477315582334995
-0.0011083419111604293 0.0031957380829751776 -0.004474589601159096
-0.000943874838023203 0.0027438685132868566 -0.004414564464241266
-0.0007794077648859767 0.0022919989435985356 -0.004354538396000862
-0.0006149406917487503 0.0018401293739102144 -0.004323257599025965
-0.00045047357879513894 0.0013882596948272747 -0.004164068028330803
-0.0002860065056579127 0.0009363901251389538 -0.004460085183382034
-0.00012153943252068628 0.00048452055545063287 -0.003589603351429105
4.292764434932617e-05 3.2650975506566415e-05 -0.003269023960456252
-0.0027945440396834123 0.009234508910669912 -0.0018991719698533416
-0.0026300772054444962 0.008782639997349304 -0.0019591976888477802
-0.0024656100526745 0.008330770208871744 -0.002805252093821764
-0.0023011428999045037 0.007878900420394186 -0.0032739194575697184
-0.0021366759064000477 0.007427031069495103 -0.003962918650358915
-0.0019722089128955916 0.006975161718596019 -0.003936748951673508
-0.0018077419193911354 0.006523292367696936 -0.00437026796862483
-0.0016432747666211389 0.006071422579219377 -0.00437299394980073
-0.0014788077731166826 0.005619553228320294 -0.00437571806833148
-0.0013143406203466863 0.005167683439842735 -0.004349547903984785
-0.00114987362684223 0.004715814088943652 -0.0044390433467924595
-0.0009854064740722336 0.004263944300466093 -0.004499069415032864
-0.0008209394009350073 0.003812074730777773 -0.004411958623677492
-0.0006564723277977811 0.003360205161089452 -0.004571147263050079
-0.0004920052546605547 0.002908335591401131 -0.004660642705857754
-0.0003275381815233284 0.00245646602171281 -0.004321215208619833
-0.0001630711083861021 0.002004596452024489 -0.0044107092544436455
1.3960045675092659e-06 0.0015527267729415492 -0.004323598928749561
0.00016586307770473558 0.0011008572032532283 -0.004160277079790831
0.000330330150841962 0.0006489876335649073 -0.003509609494358301
0.0004947972277119743 0.0001971180536208408 -0.004046086221933365
0.0006592643070705108 -0.00025475153316038927 -0.003668609308078885
0.0008237313901618336 -0.0007066211301973649 -0.003017942886799574
-0.0021782076357561753 0.008947107070486529 -0.0018108006333932283
-0.0020137404829861792 0.008495237282008971 -0.0023255271371454
-0.0018492733302161828 0.008043367493531413 -0.002976194489747286
-0.0016848063367117267 0.007591498142632329 -0.0034909211099147797
-0.0015203393432072704 0.007139628791733246 -0.003981804475188255
-0.0013558723497028142 0.006687759440834162 -0.004145126324146986
-0.001191405196932818 0.006235889652356604 -0.004308447707444429
-0.0010269382034283616 0.00578402030145752 -0.004364386200904846
-0.0008624710506583654 0.005332150512979962 -0.00445149652659893
-0.0006980040571539092 0.0048802811620808784 -0.004538607317954302
-0.0005335369043839128 0.00442841137360332 -0.004478580318391323
-0.0003690698312466865 0.003976541803914999 -0.0048180087469518185
-0.00020460275810946018 0.003524672234226678 -0.004497429355978966
-4.013568497223387e-05 0.003072802664538357 -0.004523600451648235
0.00012433138816499246 0.002620933094850036 -0.004579538479447365
0.00028879846130221897 0.0021690635251617155 -0.004380497150123119
0.00045326557425583034 0.0017171938460787755 -0.004349216818809509
0.0006177326473930567 0.0012653242763904545 -0.0041097733192145824
0.0007821997205302829 0.0008134547067021337 -0.00410704780369997
0.0009466667974002954 0.0003615851267580672 -0.0040175532922148705
0.0011111338767588318 -9.028446002316297e-05 -0.003957525826990604
0.0012756009598501544 -0.0005421540570601386 -0.003488859161734581
-0.0018908049003067704 0.009563443056944364 -0.0005394176696427169
-0.0017263380660678543 0.009111574143623756 -0.0008599979919381442
-0.0015618709132978583 0.008659704355146198 -0.0021521872840821743
-0.0013974037605278618 0.008207834566668638 -0.0030705544631928205
-0.0012329367670234055 0.007755965215769555 -0.00363972713239491
-0.0010684697735189495 0.007304095864870472 -0.004037247970700264
-0.0009040027800144932 0.006852226513971389 -0.00398130901157856
-0.0007395356272444967 0.00640035672549383 -0.004301887936890125
-0.0005750686337400408 0.005948487374594747 -0.004622467327862978
-0.00041060148097004414 0.005496617586117188 -0.004415088798850775
-0.00024613448746558814 0.005044748235218105 -0.0045045833103358746
-8.166733469559172e-05 0.004592878446740546 -0.004448645282536745
8.279973844163459e-05 0.004141008877052226 -0.004688089247792959
0.0002472668115788609 0.0036891393073639044 -0.004600978922098875
0.0004117338847160872 0.0032372697376755835 -0.004603704437613487
0.0005762009578533135 0.0027854001679872625 -0.0046064285561442375
0.0007406680309905399 0.0023335305982989415 -0.004443107172846794
0.0009051351439441515 0.0018816609192160018 -0.004279785789549351
0.0010696022170813776 0.0014297913495276808 -0.004311066120862961
0.001234069290218604 0.0009779217798393598 -0.004223955795168877
0.0013985363670886164 0.0005260521998952934 -0.004060634411871433
0.001563003446447153 7.418261311406329e-05 -0.004091913811862469
0.0017274705295384754 -0.00037768698392291235 -0.0037524853833019733
0.0018919376225838944 -0.0008295566083085427 -0.00366537575609982
0.0020564046957211204 -0.0012814261779968638 -0.003226988483220339
-0.0011100011248202993 0.008824171507916194 -0.0016994606703519823
-0.0009455339720503032 0.008372301719438634 -0.0028720276895910506
-0.000781066978545847 0.007920432368539551 -0.0035976965446025137
-0.0006165999850413908 0.007468563017640468 -0.003805075073614717
-0.0004521329915369346 0.007016693666741385 -0.0044309343211352825
-0.00028766583876693817 0.006564823878263826 -0.0041103544645011425
-0.000123198845262482 0.006112954527364743 -0.004449782427400351
4.126830750751443e-05 0.005661084738887184 -0.004505722317844629
0.00020573530101197063 0.005209215387988101 -0.004592832177877426
0.00037020245378196706 0.004757345599510542 -0.004561552777886391
0.0005346695269191934 0.004305476029822222 -0.0046486621722579
0.0006991366000564196 0.003853606460133901 -0.004674832336604595
0.000863603673193646 0.00340173689044558 -0.004614806268364191
0.0010280707463308724 0.002949867320757259 -0.004375362768769264
0.0011925378194680987 0.002497997751068938 -0.004538684152066708
0.00135700493242171 0.0020461280719859982 -0.004299241118133068
0.0015214720055589362 0.0015942585022976773 -0.00438635004684329
0.0016859390786961627 0.0011423889326093563 -0.004227161407470703
0.001850406155566175 0.0006905193526652899 -0.004253332037478685
0.0020148732349247116 0.00023864976588405977 -0.003973264712840319
0.002179340318016034 -0.0002132198311529159 -0.003883770434185863
0.002343807411061453 -0.0006650894555385462 -0.003823744365945459
0.002508274484198679 -0.0011169590252268673 -0.003426223993301392
0.0026727414777031355 -0.0015688283761259505 -0.0026824821252375845
-0.0006581315551319786 0.008988638581053419 -0.0024852950591593985
-0.0004936644023619823 0.008536768792575861 -0.0025453220587223773
-0.00032919740885752605 0.008084899441676778 -0.003463688306510449
-0.00016473041535306984 0.007633030090777695 -0.0037437556311488156
-2.6342184861364937e-07 0.007181160739878611 -0.004212423227727413
0.00016420373092138277 0.006729290951401053 -0.0043019182048738
0.00032867072442583896 0.006277421600501969 -0.004304643254727125
0.0004931378771958354 0.005825551812024411 -0.004394137766212225
0.0006576048707002916 0.0053736824611253274 -0.004483633209019899
0.000822072023470288 0.004921812672647769 -0.0047636996023356915
0.0009865390966075143 0.004469943102959448 -0.004766424186527729
0.0011510061697447406 0.004018073533271127 -0.004388949368149042
0.0013154732428819669 0.0035662039635828064 -0.004709528759121895
0.0014799403160191934 0.0031143343938944855 -0.004622417967766523
0.0016444073891564196 0.0026624648242061645 -0.004682444967329502
0.0018088745021100309 0.0022105951451232247 -0.004304967820644379
0.0019733415752472574 0.0017587255754349035 -0.004464156460016966
0.0021378086483844834 0.0013068560057465826 -0.004256777931004763
0.002302275725254496 0.0008549864258025161 -0.004888021387159824
0.0024667428046130325 0.00040311683902128606 -0.0041623529978096485
0.002631209887704355 -4.875275801568963e-05 -0.0036714693997055296
0.002795676980749774 -0.00050062238240132 -0.003992049023509026
0.002960144053887 -0.0009524919520896409 -0.003740243380889297
0.0031246110473914564 -0.0014043613029887242 -0.00357692176476121
0.0032890781205286825 -0.0018562308726770452 -0.0031994457822293047
-4.179483267366128e-05 0.008701235865713088 -0.0023515922948718075
0.0001226721608307949 0.008249366514814005 -0.003027139930054546
0.0002871391543352511 0.007797497163914921 -0.0034926764201372866
0.00045160614783970734 0.007345627813015838 -0.004143343307077885
0.0006160733006097038 0.006893758024538279 -0.00416951347142458
0.0007805402941141599 0.006441888673639196 -0.0043768929317593575
0.0009450074468841564 0.005990018885161637 -0.004217703361064196
0.0011094744403886126 0.005538149534262554 -0.004513720516115427
0.001273941593158609 0.005086279745784995 -0.004765525460243225
0.0014384086662958353 0.004634410176096675 -0.004705499392002821
0.0016028757394330616 0.0041825406064083534 -0.004616004880517721
0.0017673428125702878 0.0037306710367200325 -0.004671943373978138
0.0019318098857075143 0.0032788014670317115 -0.0044729020446538925
0.0020962769588447404 0.0028269318973433905 -0.004560012836009264
0.002260744071798352 0.0023750622182604508 -0.004400824196636677
0.0024252111449355783 0.0019231926485721298 -0.004426993895322084
0.0025896782180728044 0.0014713230788838088 -0.004146927502006292
0.002754145294942817 0.0010194534989397424 -0.004173097666352987
0.0029186123743013535 0.0005675839121585123 -0.0041418178007006645
0.003083079457392676 0.00011571431512153664 -0.004081791266798973
0.003247546550438095 -0.00033615530926409375 -0.003992296289652586
0.003412013623575321 -0.0007880248789524147 -0.0038331069517880683
0.0035764806170797774 -0.001239894229851498 -0.003743612673133612
0.0037409476902170035 -0.0016917637995398189 -0.0035041684750467543
0.003905414842987 -0.0021436335880173777 -0.003414673497900367
0.004069881916124226 -0.0025955031577056986 -0.0026709330268204217
0.0004100747370146597 0.008865702938850313 -0.0022567510604858403
0.0005745417305191159 0.00841383358795123 -0.002917280420660973
0.0007390087240235721 0.007961964237052147 -0.003314800560474396
0.0009034757175280283 0.007510094886153064 -0.0039460440166294575
0.0010679428702980247 0.007058225097675505 -0.004226110875606537
0.001232409863802481 0.006606355746776422 -0.0043852985836565495
0.0013968770165724773 0.006154485958298863 -0.004416579380631447
0.0015613440100769335 0.00570261660739978 -0.004506075754761696
0.00172581116284693 0.005250746818922221 -0.004566100891679525
0.0018902782359841563 0.004798877249233901 -0.004597381688654423
0.0020547453091213828 0.00434700767954558 -0.004657407756894827
0.002219212382258609 0.003895138109857259 -0.004746902268379927
0.0023836794553958353 0.003443268540168938 -0.00469096377491951
0.0025481465285330613 0.002991398970480617 -0.004693689756095409
0.002712613641486673 0.0025395292913976773 -0.0044863102957606316
0.0028770807146238993 0.0020876597217093563 -0.004460139200091362
0.0030415477877611253 0.0016357901520210353 -0.0043730298057198524
0.003206014864631138 0.001183920572076969 -0.004462523851543665
0.0033704819439896744 0.0007320509852957388 -0.004166507627815008
0.003534949027080997 0.00028018138825876315 -0.0040031857788562775
0.003699416120126416 -0.00017168823612686727 -0.004092680290341377
0.003863883193263642 -0.0006235578058151882 -0.004005569964647293
0.004028350186768098 -0.0010754271567142714 -0.003918460104614496
0.004192817259905324 -0.0015272967264025924 -0.0036666551604866986
0.004357284412675321 -0.001979166514880151 -0.0036404842976480727
0.004521751485812547 -0.002431036084568472 -0.003081375034525991
0.004686218479317003 -0.002882905435467555 -0.0031126555986702447
0.0010264110814181993 0.008578300581455686 -0.002506132004782558
0.0011908780749226554 0.008126431230556603 -0.0030652408022433524
0.0013553450684271116 0.00767456187965752 -0.0035307763610035185
0.001519812221197108 0.007222692091179961 -0.003969163168221713
0.0016842792147015644 0.006770822740280878 -0.004308591596782208
0.0018487463674715606 0.006318952951803319 -0.004364530090242625
0.0020132133609760167 0.0058670836009042365 -0.004451640881597997
0.002177680513746013 0.0054152138124266775 -0.004420361015945674
0.0023421475868832396 0.004963344242738357 -0.004476299975067378
0.002506614660020466 0.004511474673050036 -0.004639621824026109
0.002671081733157692 0.004059605103361715 -0.004480432253330947
0.0028355488062949187 0.003607735533673394 -0.004567542579025031
0.0030000158794321447 0.003155865963985073 -0.004408353939652444
0.003164482992385756 0.0027039962849021333 -0.004377073608338834
0.0033289500655229827 0.0022521267152138123 -0.004178032279014588
0.0034934171386602087 0.0018002571455254914 -0.00397899141535163
0.0036578842155302214 0.001348387565581425 -0.0042307968251407155
0.003822351294888758 0.0008965179788001949 -0.004228071309626103
0.00398681837798008 0.0004446483817632192 -0.004168044775724412
0.004151285471025499 -7.221242622411207e-06 -0.004078549798578025
0.004315752544162725 -0.00045909081231073213 -0.003989054821431638
0.004480219537667181 -0.0009109601632098154 -0.003929029218852521
0.004644686610804408 -0.0013628297328981364 -0.0037698398809880023
0.004809153763574404 -0.001814699521375695 -0.0037098128814250235
0.00497362083671163 -0.002266569091064016 -0.0036203186027705674
0.005138087830216087 -0.002718438441963099 -0.003461129497736693
0.005302554982986083 -0.003170308230440658 -0.003063609125092626
0.0014782806511065207 0.008742767654592913 -0.0028456780128180985
0.0016427476446109768 0.00829089830369383 -0.0028769585769623522
0.0018072146381154322 0.007839028952794747 -0.003647085744887591
0.0019716817908854286 0.007387159164317188 -0.003927152603864671
0.0021361487843898847 0.0069352898134181044 -0.004324672743678094
0.002300615937159881 0.006483420024940546 -0.004384699743241073
0.002465082930664337 0.0060315506740414625 -0.004444725811481477
0.0026295500834343337 0.005579680885563904 -0.0045342203229665765
0.00279401715657156 0.005127811315875583 -0.004565501119941474
0.0029584842297087867 0.0046759417461872625 -0.004625527188181878
0.0031229513028460127 0.004224072176498941 -0.004599357023835183
0.003287418375983239 0.0037722026068106205 -0.0045731859281659135
0.0034518854491204652 0.0033203330371222996 -0.004732375498861075
0.0036163525620740767 0.00286846335803936 -0.004480569623410703
0.003780819635211303 0.002416593788351039 -0.004393459763377906
0.003945286708348529 0.001964724218662718 -0.004337520804256202
0.004109753785218542 0.0015128546387186512 -0.004397546872496606
0.004274220864577078 0.0010609850519374211 -0.004310436081141234
0.0044386879476684005 0.0006091154549004455 -0.004313162062317134
0.00460315504071382 0.00015724583051481504 -0.004226051270961762
0.004767622113851046 -0.00029462373917350587 -0.004170113243162633
0.004932089107355502 -0.0007464930900725891 -0.003962734248489142
0.00509655618049273 -0.0011983626597609099 -0.002699665725231171
0.005261023333262725 -0.0016502324482384687 -0.0038123892154544596
0.005425490406399951 -0.0021021020179267896 -0.00378621811978519
0.005589957399904408 -0.002553971368825873 -0.0036991080269217495
0.005754424552674405 -0.0030058411573034315 -0.003359679598361254
0.005918891546178861 -0.0034577105082025145 -0.0026591438800096516
0.00209461699551006 0.008455365297198286 -0.0025775143876671795
0.002259083989014516 0.008003495946299203 -0.0032281817402690653
0.0024235511417845116 0.007551626157821644 -0.0037655506748706107
0.0025880181352889676 0.0070997568069225605 -0.004256433341652156
0.002752485288058964 0.006647887018445002 -0.004343543201684953
0.00291695228156342 0.0061960176675459186 -0.004254048690199853
0.0030814194343334166 0.00574414787906836 -0.004593477118760348
0.003245886507470643 0.005292278309380039 -0.004562196321785451
0.0034103535806078696 0.0048404087396917185 -0.004502169322222472
0.0035748206537450956 0.004388539170003397 -0.004499445203691722
0.003739287726882322 0.003936669600315077 -0.004586555995047093
0.003903754800019548 0.0034848000306267556 -0.00405007926747203
0.00406822191297316 0.003032930351543816 -0.004427555482834578
0.004232688986110386 0.002581060781855495 -0.004396275617182256
0.004397156059247612 0.002129191212167174 -0.004393549636006356
0.004561623136117625 0.0016773216322231073 -0.004333523567765952
0.004726090215476161 0.0012254520454418772 -0.004174334928393365
0.0048905572985674835 0.0007735824484049015 -0.004230273421853782
0.0050550243916129035 0.00032171282401927153 -0.00346014671958983
0.005219491464750129 -0.00013015674566904984 -0.004086005035787822
0.005383958458254585 -0.0005820260965681331 -0.003996510524302722
0.005548425531391812 -0.001033895666256454 -0.003993784543126822
0.005712892684161808 -0.0014857654547340126 -0.003596264403313399
0.005877359757299034 -0.0019376350244223336 -0.0038480695802718405
0.006041826750803491 -0.002389504375321417 -0.00360862584784627
0.006206293903573488 -0.002841374163798975 -0.003105645533651114
0.006370760897077944 -0.0032932435146980584 -0.002007507719099522
0.002546486783987619 0.008619832449968282 -0.0023237804416567096
0.002710953777492075 0.0081679630990692 -0.003312433836981655
0.0028754209302620706 0.00771609331059164 -0.0038154139183461675
0.0030398879237665266 0.007264223959692557 -0.004248933400958777
0.003204355076536523 0.006812354171214998 -0.004338427912443877
0.003368822070040979 0.0063604848203159155 -0.0044279233552515515
0.0035332892228109756 0.0059086150318383565 -0.004487949423491956
0.003697756295948202 0.005456745462150036 -0.004400838632136584
0.0038622233690854286 0.0050048758924617145 -0.004374667536467315
0.004026690442222655 0.004553006322773394 -0.0045338571071624765
0.004191157515359881 0.004101136753085073 -0.0045076869428157815
0.004355624588497108 0.003649267183396752 -0.004510411992669106
0.004520091701450719 0.0031973975043138123 -0.004513137042522431
0.004684558774587945 0.0027455279346254914 -0.004515862092375756
0.004849025847725171 0.0022936583649371704 -0.004428751301020385
0.005013492924595184 0.0018417887849931037 -0.00440258113667369
0.005177960003953721 0.0013899191982118739 -0.0031395130790770063
0.0053424270870450425 0.000938049601174898 -0.004272810649126769
0.005506894180090462 0.0004861799767892676 -0.004304090980440379
0.005671361253227688 3.4310407100946644e-05 -0.004216980654746295
0.005835828246732144 -0.0004175589437981366 -0.004053658805787564
0.006000295319869371 -0.0008694285134864576 -0.00396654848009348
0.006164762472639367 -0.0013212983019640161 -0.0039403773844242105
0.006329229545776593 -0.001773167871652337 -0.003914206288754941
0.0064936965392810506 -0.00222503722255142 -0.003423324320465327
0.006658163692051047 -0.002676907011028979 -0.003127307631075383
0.006822630685555503 -0.003128776361928062 -0.002501448383554817
0.0069870978383255 -0.0035806461504056205 -0.0025327291805297145
0.007151564831829956 -0.004032515501304704 -0.000832708959933371
0.003162823128391158 0.008332430092573655 -0.002231616061180831
0.0033272902811611544 0.007880560304096097 -0.0033436680678278216
0.0034917572746656095 0.0074286909531970135 -0.0038583951536566028
0.003656224427435606 0.0069768211647194545 -0.004267529584467412
0.003820691420940062 0.0065249518138203715 -0.0042936992831528195
0.0039851585737100586 0.0060730820253428125 -0.004262419883161784
0.004149625646847285 0.005621212455654492 -0.0046018483117222795
0.0043140927199845115 0.005169342885966171 -0.0038317202124744662
0.004478559793121738 0.00471747331627785 -0.003995042759925128
0.004643026866258964 0.004265603746589529 -0.004372518509626389
0.0048074939393961905 0.003813734176901208 -0.004459629300981761
0.004971961052349802 0.0033618644978182684 -0.004456903319805861
0.005136428125487028 0.0029099949281299474 -0.004483074415475131
0.005300895198624254 0.0024581253584416264 -0.004323884844779969
0.005465362275494267 0.00200625577849756 -0.00426385970786214
0.005629829354852803 0.0015543861917163297 -0.004471238236874343
0.005794296437944125 0.001102516594679354 -0.004411212168633939
0.005958763530989545 0.0006506469702937237 -0.0042520235292613515
0.006123230604126771 0.0001987774006054027 -0.003818503115326167
0.006287697597631228 -0.0002530919502936801 -0.0035384357906878003
0.006452164670768454 -0.0007049615199820015 -0.003790242364630104
0.00661663182353845 -0.00115683130845956 -0.0036310532595962295
0.006781098896675677 -0.0016087008781478806 -0.003471864154562355
0.0069455658901801335 -0.002060570229046964 -0.003074343781918288
0.0071100330429501295 -0.0025124400175245225 -0.0023853431921452293
0.007274500036454586 -0.002964309368423606 -0.0011460375972092158
0.0074389671892245825 -0.0034161791569011645 -0.00012057189451297817
0.0037791600696387134 0.008045027456866093 -0.0030950470827519902
0.003943627063143169 0.00759315810596701 -0.0034925676882267007
0.0041080942159131655 0.007141288317489451 -0.004209285136312247
0.0042725612094176215 0.006689418966590368 -0.004368474707007409
0.0044370283621876176 0.0062375491781128094 -0.0042813653126358995
