ply
format ascii 1.0
element vertex 722
property float x
property float y
property float z
end_header
0.007017348996979842 -0.0016070008358539238 -0.0016711880452930919
0.007284189911244163 -0.0011448188148099883 -0.0016421442851424209
0.0075510309419238066 -0.0006826365921288009 -0.0015454665990546337
0.007817871856188128 -0.00022045457108486551 -0.001516421325504779
0.00808471277045245 0.0002417274499590698 -0.0015511374222114674
0.008351553917547414 0.0007039098742775095 -0.0015541616594418875
0.008618394831811736 0.0011660918953214448 -0.0016207807930186382
0.008885235746076057 0.0016282739163653802 -0.0016554958419874302
0.009152076893171022 0.0020904563406838198 -0.001593413529917597
0.009418917807435343 0.0025526383617277553 -0.0014121549902483812
0.009685758721699664 0.0030148203827716907 -0.0009256219491362563
0.009952599635963986 0.0034770024038156258 -0.0003292352485004804
-0.00011585762690195293 -0.01289471347224677 -0.004249057732522487
0.00041782466728797695 -0.01197034862360989 -0.004327184986323117
0.0006846653487216546 -0.011508167005840458 -0.004324160516262054
0.0009515064958166196 -0.011045984581522018 -0.00432113604620099
0.0012183476429115845 -0.01058380215720358 -0.004254517145454883
0.0014851883243452622 -0.010121620539434148 -0.004187898244708776
0.0017520292386095835 -0.009659438518390212 -0.0041212793439626685
0.002018870152873905 -0.009197256497346278 -0.003900377778336405
0.0022857110671382253 -0.008735074476302342 -0.0034591990988701573
0.0025525522142331902 -0.008272892051983902 -0.003392580430954694
0.0028193931284975116 -0.007810710030939967 -0.0030367926228791467
0.003086234042761833 -0.007348528009896031 -0.002860120963305234
0.003353075189856798 -0.006886345585577592 -0.002504332223907112
0.0036199161041211188 -0.006424163564533656 -0.002501307986676692
0.00388675701838544 -0.005961981543489721 -0.0021455192472785703
0.004153598049065083 -0.005499799320808534 -0.002046196023002266
0.004420439079744726 -0.005037617098127346 -0.0019468722166493526
0.004687280052216709 -0.004575434976264785 -0.00204354990273714
0.004954121082896352 -0.004113252753583597 -0.0020405251998454324
0.005220962055368334 -0.0036510706317210355 -0.00222178385592997
0.005487803017835875 -0.0031888885271866754 -0.0021551651880145064
0.0057546440003122985 -0.002726706387995913 -0.001978492829948663
0.006021485030991942 -0.0022645241653147254 -0.0017127516912296406
0.006288326003463924 -0.001802342043452164 -0.0018940102308988562
0.006555166975935906 -0.0013401599215896024 -0.0019230550387874237
0.0068220078902002275 -0.0008779779005456671 -0.002019732724875211
0.007088848920879871 -0.00041579567786447955 -0.0018430603668093673
0.007355689835144192 4.63863431794558e-05 -0.0018083442701026789
0.007622530749408513 0.0005085683642233912 -0.0017736287554725996
0.007889371896503478 0.0009707507885418308 -0.0018026734469458452
0.0081562128107678 0.001432932809585766 -0.001703350222669541
0.008423053725032121 0.0018951148306297016 -0.0020800570491701356
0.008689894872127086 0.002357297254948141 -0.001814315444789826
0.008956735786391407 0.0028194792759920766 -0.0017795993480831376
0.009223576700655729 0.003281661297036012 -0.001602926990017294
0.00949041761492005 0.003743843318079947 -0.00047988755977712496
0.009757258762015015 0.004206025742398387 -0.0004768633516505353
0.01002409990910998 0.004668208166716827 -0.0003775390214286737
0.010290941056204945 0.005130390591035266 -2.17513843381304e-05
-0.000578040051220392 -0.012627872325151805 -0.004049956332892179
-4.435775703046214e-05 -0.011703507476514925 -0.004497543442994355
0.00022248292440321552 -0.011241325858745493 -0.004267388954758643
0.0004893240714981805 -0.010779143434427053 -0.00430210493505001
0.0007561652185931454 -0.010316961010108615 -0.004205427132546901
0.001023005900026823 -0.009854779392339183 -0.004024167545139789
0.0012898468142911444 -0.009392597371295247 -0.004058883525431155
0.0015566877285554657 -0.008930415350251313 -0.0038287290371954432
0.001823528642819787 -0.008468233329207377 -0.003831752808764576
0.002090369789914752 -0.008006050904888937 -0.004008424933999776
0.0023572107041790725 -0.007543868883845002 -0.0034636305645108214
0.002624051618443394 -0.007081686862801066 -0.002713889814913272
0.0028908927655383588 -0.006619504438482627 -0.002337183104827999
0.0031577336798026797 -0.006157322417438691 -0.0023402078077197066
0.003424574594067001 -0.005695140396394756 -0.0021589482203125945
0.003691415624746644 -0.005232958173713569 -0.002062271581962704
0.003958256655426287 -0.004770775951032381 -0.0020969866309314958
0.0042250976278982695 -0.00430859382916982 -0.0020349042024463406
0.004491938658577913 -0.003846411606488632 -0.0022558062337338916
0.004758779631049895 -0.0033842294846260705 -0.002355129458010196
0.0050256205935174355 -0.0029220473800917104 -0.0023581541609019032
0.005292461575993859 -0.002459865240900948 -0.0018716211197897785
0.005559302606673503 -0.0019976830182197604 -0.0023127999156713477
0.005826143579145485 -0.001535500896357199 -0.002216122578829526
0.006092984551617467 -0.0010733187744946374 -0.0022191472817212335
0.006359825465881788 -0.0006111367534507021 -0.002122469712048768
0.0066266664965614315 -0.00014895453076951455 -0.0020257923752069465
0.006893507410825753 0.0003132274902744208 -0.0021251155994832507
0.007160348325090074 0.0007754095113183562 -0.001894960994832217
0.007427189472185039 0.0012375919356367958 -0.0020716332364827386
0.0076940303864493605 0.001699773956680731 -0.0020425880793482057
0.007960871300713681 0.0021619559777246665 -0.0019805063493549815
0.008227712447808646 0.002624138402043106 -0.0019184239208698266
0.008494553362072967 0.0030863204230870416 -0.0018893787637352937
0.008761394276337289 0.003548502444130977 -0.0016099185450002545
0.00902823519060161 0.004010684465174912 -0.0016446341760456556
0.009295076337696575 0.004472866889493352 -0.0006652417359873645
0.00956191748479154 0.004935049313811792 -2.1266600015223246e-05
0.009828758631886505 0.005397231738130231 -0.00046244554687291313
0.010095599313320183 0.005859413355899662 -8.378236998395748e-06
-0.0013070627536980065 -0.012823213028656914 -0.0018876452231779688
-0.000773380925169363 -0.011898848986569044 -0.00371122732758522
-0.0005065397780743981 -0.011436666562250604 -0.004165294114500283
-0.0002396990966407204 -0.010974484944481172 -0.004261971917003392
2.714205045424455e-05 -0.010512302520162732 -0.004324054345488547
0.0002939831975492095 -0.010050120095844293 -0.004353099036961793
0.0005608238789828871 -0.009587938478074862 -0.0042864810675382605
0.0008276647932472085 -0.009125756457030926 -0.004348562564700841
0.0010945057075115298 -0.008663574435986992 -0.0038674317765980955
0.0013613466217758511 -0.008201392414943056 -0.004244137555360793
0.001628187768870816 -0.0077392099906246166 -0.0037630060687661167
0.0018950286831351372 -0.007277027969580681 -0.003663682378828525
0.002161869597399458 -0.006814845948536745 -0.0032225036993622776
0.002428710744494423 -0.006352663524218306 -0.002397079952061176
0.0026955516587587438 -0.00589048150317437 -0.0019559010397642847
0.002962392573023065 -0.005428299482130435 -0.0016450753901153796
0.0032292336037027082 -0.004966117259449248 -0.0014241735916584724
0.0034960746343823514 -0.00450393503676806 -0.001389457494951784
0.0037629156068543336 -0.004041752914905499 -0.00010128688882104987
0.004029756637533977 -0.0035795706922243107 -0.0015361582627519959
0.004296597610005959 -0.003117388570361749 -0.0019128650892525905
0.0045634385724734996 -0.002655206465827389 -0.002366932108998298
0.0048302795549499235 -0.0021930243266366266 -0.002463609911501407
0.005097120585629567 -0.0017308421039554389 -0.0024605861399322744
0.005363961558101549 -0.0012686599820928776 -0.0023939665406942363
0.005630802530573531 -0.0008064778602303161 -0.002327347872778773
0.0058976434448378525 -0.00034429583918638075 -0.0021506762132048603
0.006164484475517496 0.00011788638349480677 -0.00211596000008285
0.006431325389781817 0.0005800684045387421 -0.0021129348315298553
0.006698166304046138 0.0010422504255826774 -0.002046316629275679
0.006965007451141103 0.0015044328499011171 -0.0020753613207489248
0.007231848365405425 0.0019666148709450524 -0.0020406458061188455
0.007498689279669746 0.002428796891988988 -0.001974027138203382
0.007765530426764711 0.0028909793163074274 -0.0019393111579120153
0.008032371341029031 0.003353161337351363 -0.002001393353566527
0.008299212255293353 0.0038153433583952984 -0.0019666773732751604
0.008566053169557674 0.004277525379439233 -0.0017900050152093166
0.008832894316652639 0.004739707803757673 -0.0018520873272791498
0.009099735463747604 0.005201890228076113 -0.0015863456064835184
0.009366576610842569 0.0056640726523945525 -0.000760922383051365
-0.0017692447747419415 -0.012556372114392592 -0.0024197080638259645
-0.0015024040933082638 -0.01209419049662316 -0.001725113834254443
-0.001235562946213298 -0.011632008072304722 -0.003674040082842111
-0.0009687217991183331 -0.011169825647986282 -0.0039397808723151675
-0.0007018811176846554 -0.01070764403021685 -0.004205522593110799
-0.0004350399705896905 -0.01024546160589841 -0.004272141959518193
-0.00016819882349472553 -0.009783279181579972 -0.004338760394603013
9.86418579389521e-05 -0.00932109756381054 -0.00437347637489438
0.0003654827722032734 -0.008858915542766604 -0.004408192355185746
0.0006323236864675947 -0.00839673352172267 -0.004346109926700591
0.000899164600731916 -0.007934551500678734 -0.00444543408229947
0.001166005747826881 -0.007472369076360295 -0.004264174960553645
0.0014328466620912022 -0.007010187055316359 -0.004034019075334071
0.0016996875763555226 -0.006548005034272423 -0.0033394247293472286
0.001966528723450488 -0.006085822609953984 -0.0021161136683076616
0.0022333696377148087 -0.005623640588910048 -0.0016620461829006665
0.00250021055197913 -0.005161458567866113 -0.0015653689624741667
0.002767051582658773 -0.004699276345184926 -0.0012859082780778402
0.0030338926133384164 -0.004237094122503738 -0.0009573809802532191
0.0033007335858103986 -0.003774912000641177 -0.0015156029257923358
0.0035675746164900417 -0.0033127297779599893 -0.0012854471569880837
0.003834415588962024 -0.002850547656097428 -0.0012233649613335722
0.0041012565514295645 -0.0023883655515630677 -0.0017044973792508238
0.0043680975339059885 -0.001926183412372305 -0.0020602850709110494
0.004634938564585632 -0.0014640011896911176 -0.002236957428976893
0.004901779537057614 -0.0010018190678285563 -0.0025026989169418807
0.005168620509529596 -0.0005396369459659948 -0.0021741716191172595
0.005435461423793917 -7.745492492205941e-05 -0.002484996803104877
0.005702302454473561 0.0003847272977591281 -0.002551615936681628
0.005969143368737882 0.0008469093188030634 -0.002321461914107203
0.006235984283002203 0.0013090913398469987 -0.0022593785542994733
0.006502825430097168 0.0017712737641654385 -0.002700557233765721
0.0067696663443614895 0.0022334557852093737 -0.0021041720174252983
0.007036507258625811 0.002695637806253309 -0.0021388882305473085
0.007303348405720776 0.0031578202305717487 -0.0020422104280441995
0.007570189319985097 0.0036200022516156842 -0.0019455326255410903
0.007837030234249419 0.00408218427265962 -0.0015688257990404957
0.00810387114851374 0.004544366293703555 -0.0020100050605833526
0.008370712295608705 0.005006548718021995 -0.002044721040874719
0.00863755344270367 0.005468731142340435 -0.0014483343111351126
0.008904394589798635 0.005930913566658874 -0.0012181795900687569
0.009171235271232312 0.006393095184428305 -0.00032777097658254147
-0.0019645865176267036 -0.011827349349528195 -0.0018509228248149152
-0.0016977453705317384 -0.011365166925209755 -0.002656289609149098
-0.0014309042234367734 -0.010902984500891317 -0.0035180845297873016
-0.001164063542003095 -0.010440802883121885 -0.004622275009751319
-0.00089722239490813 -0.009978620458803445 -0.004311449360102414
-0.0006303812478131651 -0.009516438034485007 -0.004408127162605523
-0.00036354056637948745 -0.009054256416715575 -0.004589386284351348
-9.669965211516614e-05 -0.00859207439567164 -0.004586361814290284
0.00017014126214915515 -0.008129892374627705 -0.0046154074370861045
0.0004369821764134765 -0.007667710353583769 -0.004580690991133451
0.0007038233235084414 -0.00720552792926533 -0.004545975010842084
0.0009706642377727627 -0.006743345908221394 -0.0041901874355971805
0.001237505152037084 -0.006281163887177459 -0.003594791749492287
0.001504346299132048 -0.005818981462859019 -0.00151318940334022
0.0017711872133963694 -0.005356799441815083 -0.0013106126571074124
0.0020380281276606905 -0.004894617420771148 -0.0009548239759169514
0.002571710189019977 -0.003970252975408773 -0.0004720200959127391
0.002838551161491959 -0.003508070853546212 -0.000468995858682319
0.003105392192171602 -0.0030458886308650244 -0.0002480942639522249
0.0033722331646435844 -0.002583706509002463 -0.000527554599102586
0.003639074127111125 -0.0021215244044681027 -0.0005565998726524407
0.003905915109587549 -0.00165934226527734 -0.0009755330393090839
0.004172756140267192 -0.0011971600425961526 -0.001304059755057096
0.004439597112739174 -0.0007349779207335912 -0.0019245742587372656
0.004706438085211156 -0.00027279579887102976 -0.0018898581620305772
0.0049732789994754775 0.00018938622217290555 -0.0023439251817762847
0.005240120030155121 0.0006515684448540931 -0.002340901410207152
0.005506960944419442 0.0011137504658980284 -0.002030075760558247
0.005773801858683763 0.0015759324869419637 -0.0020921574905514713
0.006040643005778728 0.0020381149112604037 -0.0019154852489009495
0.00630748392004305 0.0025002969323043387 -0.001738813472911715
0.006574324834307371 0.002962478953348274 -0.0017040973762050267
0.006841165981402336 0.0034246613776667137 -0.0016374787082895632
0.007108006895666657 0.003886843398710649 -0.001570860622450709
0.0073748478099309785 0.004349025419754585 -0.001504240906797349
0.0076416887241953 0.00481120744079852 -0.0016854994464665647
0.007908529871290265 0.00527338986511696 -0.0015861762221902605
0.00817537101838523 0.0057355722894354 -0.0016828534426167603
0.008442212165480195 0.006197754713753839 -0.0006636242615059013
-0.002693609421741568 -0.012022689936617984 -0.002436753129586577
-0.0024267687403078907 -0.011560508318848554 -0.0018654953455552454
-0.0021599275932129257 -0.011098325894530114 -0.0036315044853836294
-0.0018930864461179605 -0.010636143470211674 -0.004486212972551583
-0.001626245764684283 -0.010173961852442242 -0.003969548270106315
-0.001359404617589318 -0.009711779428123802 -0.004280374385416507
-0.001092563470494353 -0.009249597003805364 -0.004315089434385299
-0.0008257227890606754 -0.008787415386035932 -0.004535990767180919
-0.0005588818747963541 -0.008325233364991996 -0.004570706747472285
-0.0002920409605320328 -0.007863051343948062 -0.004670030903071164
-2.520004626771149e-05 -0.007400869322904126 -0.004640985745936631
0.00024164110082725346 -0.006938686898585687 -0.004675701726227998
0.0005084820150915748 -0.006476504877541751 -0.004646656103432178
0.000775322929355896 -0.006014322856497816 -0.004549978766590356
0.001042164076450861 -0.005552140432179376 -0.004095911514014005
0.0013090049907151819 -0.005089958411135441 -0.0014561687130481
0.0015758459049795032 -0.004627776390091505 -0.0005943737924098964
0.0018426869356591464 -0.004165594167410318 -2.3116410375223044e-05
0.004244255862529969 -5.954768191386837e-06 -0.001076024840585887
0.00451109677679429 0.0004562272528525485 -0.0007965647964738305
0.0047779378074739335 0.000918409475533736 -0.001621988019905984
0.005044778721738255 0.0013805914965776714 -0.0016886066878214474
0.005311619636002576 0.0018427735176216066 -0.0016595614142715927
0.005578460783097541 0.0023049559419400464 -0.001694277510978281
0.0058453016973618625 0.002767137962983982 -0.001597599708475172
0.006112142611626184 0.003229319984027917 -0.0016323158051818605
0.006378983758721149 0.003691502408346357 -0.0015356385847553606
0.00664582467298547 0.004153684429390292 -0.0012071112869307394
0.0069126655872497915 0.004615866450434228 -0.0012737310025840993
0.007179506501514112 0.005078048471478163 -0.0009942703181877728
0.007446347648609077 0.005540230895796603 -0.000932187016587704
0.007713188795704042 0.006002413320115042 -0.0009352123015560205
0.007980029942799007 0.006464595744433482 -0.0004486787365749474
-0.002888950761351826 -0.011293667404584233 -0.0019072253489866848
-0.002622109614256861 -0.010831484980265793 -0.0026846986729651685
-0.002355268467161896 -0.010369302555947353 -0.0037572334986180063
-0.0020884277857282185 -0.009907120938177921 -0.003987388219684362
-0.0018215866386332535 -0.009444938513859481 -0.004266848787665367
-0.0015547454915382885 -0.008982756089541043 -0.004595375619828701
-0.0012879048101046109 -0.008520574471771611 -0.0047766342759132385
-0.0010210638958402895 -0.008058392450727675 -0.004741918295621872
-0.0007542229815759682 -0.007596210429683741 -0.004770963452756405
-0.00048738206731164694 -0.007134028408639805 -0.004867641255259514
-0.00022054092021668201 -0.006671845984321366 -0.0046018995344638824
4.6299994047639285e-05 -0.00620966396327743 -0.004598876461386681
0.0003131409083119606 -0.005747481942233495 -0.004780134651809931
0.0005799820554069255 -0.005285299517915055 -0.0046034618280828
0.0008468229696712468 -0.00482311749687112 -0.003808028763160109
0.005116278762053605 0.0025717968562043677 -0.00037313601933419666
0.005383119676317927 0.003033978877248303 -0.00033842094126157425
0.005649960590582248 0.0034961608982922382 -0.0004350986855570223
0.005916801737677213 0.003958343322610678 -7.931004802230708e-05
0.006183642651941534 0.004420525343654613 -1.2691408301179378e-05
-0.0036179736654666913 -0.01148900799167402 -0.001608043094165623
-0.0033511329840330136 -0.01102682637390459 -0.002166264923289418
-0.0030842918369380487 -0.01056464394958615 -0.0032116582151502366
-0.0028174506898430837 -0.01010246152526771 -0.003652836894616484
-0.002550610008409406 -0.009640279907498278 -0.004094015806913376
-0.002283768861314441 -0.009178097483179838 -0.0042706881649792194
-0.002016927714219476 -0.0087159150588614 -0.004447360057383776
-0.0017500870327857984 -0.008253733441091968 -0.004624031949788332
-0.001483246118521477 -0.007791551420048033 -0.004690650850534439
-0.0012164052042571557 -0.007329369399004098 -0.004725366830825806
-0.0009495642899928345 -0.006867187377960162 -0.004728390835225582
-0.0006827231428978695 -0.006405004953641723 -0.004448930267244577
-0.00041588222863354825 -0.005942822932597787 -0.004759755916893482
-0.00014904131436922692 -0.005480640911553852 -0.005115543957799673
0.00011779983272573803 -0.005018458487235412 -0.004544286523014307
0.00038464074699005933 -0.004556276466191477 -0.004579002503305674
0.0006514816612543807 -0.004094094445147542 -0.0045169200748205185
0.0009183226919340237 -0.0036319122224663537 -0.0038223247975111003
-0.003813315005076949 -0.010759985459640267 -0.001530745532363653
-0.0035464738579819837 -0.010297803035321828 -0.002634937642142176
-0.0032796327108870187 -0.009835620611003388 -0.004036725033074617
-0.003012792029453341 -0.009373438993233956 -0.003860052907839417
-0.002745950882358376 -0.008911256568915516 -0.004278985317796469
-0.002479109735263411 -0.008449074144597078 -0.0044602444395422935
-0.0022122690538297334 -0.007986892526827646 -0.0046904003247618675
-0.0019454281395654123 -0.007524710505783711 -0.004752482287585735
-0.001678587225301091 -0.007062528484739776 -0.004781526513397694
-0.0014117463110367697 -0.00660034646369584 -0.00477850204333663
-0.0011449051639418047 -0.006138164039377401 -0.004679177887737751
-0.0008780642496774835 -0.005675982018333465 -0.004579854663461447
-0.0006112233354131622 -0.00521379999728953 -0.004545138217508793
-0.00034438218831819726 -0.00475161757297109 -0.004510423168540001
-7.754127405387594e-05 -0.004289435551927155 -0.004789883270859718
0.00018929964021044537 -0.00382725353088322 -0.004723263904452324
0.0004561406708900885 -0.0033650713082020323 -0.003990191966295242
-0.004542337808373188 -0.010955326104937716 -0.0012014776002615688
-0.004275497126939511 -0.010493144487168286 -0.0014672182733193038
-0.004008655979844546 -0.010030962062849846 -0.0024600320030003786
-0.0037418148327495802 -0.009568779638531406 -0.0034528460819274187
-0.0034749741513159025 -0.009106598020761974 -0.0035521695390343666
-0.0032081330042209376 -0.008644415596443536 -0.004347603302448988
-0.0029412918571259726 -0.008182233172125096 -0.0044469269923865795
-0.002674451175692295 -0.007720051554355665 -0.004623599350452423
-0.0024076102614279736 -0.007257869533311729 -0.00465831533074379
-0.0021407693471636523 -0.006795687512267794 -0.005391387268900871
-0.001873928432899331 -0.006333505491223859 -0.0046967919915914536
-0.001607087285804366 -0.005871323066905419 -0.00473150797188282
-0.0013402463715400448 -0.005409141045861484 -0.0049972496926784515
-0.0010734054572757235 -0.004946959024817548 -0.004668721929192543
-0.0008065643101807585 -0.004484776600499108 -0.004735340364277363
-0.0005397233959164372 -0.004022594579455173 -0.00470629520714283
-0.00027288248165211593 -0.003560412558411238 -0.004476140718907118
-6.04145097247279e-06 -0.0030982303357300505 -0.004697042051702738
0.0002607995797071703 -0.002636048113048863 -0.004600364714860916
0.0005276405521791523 -0.002173865991186301 -0.004320904612541199
-0.005004519930235749 -0.010688485132465734 -0.0007681470597162842
-0.004470838101707107 -0.009764121090377864 -0.0021587139926850796
-0.004203996954612142 -0.009301938666059424 -0.0029640807770192623
-0.003937156273178464 -0.008839757048289992 -0.003797541605308652
-0.003670315126083499 -0.008377574623971554 -0.003978800028562546
-0.003403473978988534 -0.007915392199653114 -0.004397734068334103
-0.0031366332975548564 -0.007453210581883682 -0.004176832269877195
-0.002869792383290535 -0.006991028560839747 -0.004748089704662561
-0.0026029514690262138 -0.006528846539795812 -0.00484476750716567
-0.0023361105547618924 -0.006066664518751877 -0.004841742105782032
-0.0020692694076669274 -0.005604482094433437 -0.004775124602019787
-0.0018024284934026063 -0.005142300073389502 -0.0047720992006361485
-0.001535587579138285 -0.004680118052345566 -0.005549573805183172
-0.00126874643204332 -0.004217935628027126 -0.004917890764772892
-0.0010019055177789987 -0.003755753606983191 -0.00485127093270421
-0.0007350646035146774 -0.003293571585939256 -0.004674599040299654
-0.00046822357283503427 -0.0028313893632580683 -0.004771276842802763
-0.00020138254215539117 -0.0023692071405768808 -0.004800321068614721
6.545843031659084e-05 -0.001907025018714319 -0.004359142389148474
0.00033229946099623395 -0.0014448427960331316 -0.0035944716073572636
-0.00519986147148326 -0.00995946248401666 -0.0017543666763231158
-0.004933020324388295 -0.00949728005969822 -0.0017890817252919078
-0.00466617917729333 -0.00903509763537978 -0.002672433154657483
-0.004399338495859652 -0.008572916017610349 -0.003373004263266921
-0.004132497348764687 -0.00811073359329191 -0.0038931432645767927
-0.0038656562016697216 -0.007648551168973471 -0.004334322176873684
-0.003598815520236044 -0.00718636955120404 -0.004555223975330591
-0.0033319746059717226 -0.006724187530160104 -0.0046545471996068954
-0.0030651336917074013 -0.006262005509116169 -0.0047538704238832
-0.00279829277744308 -0.005799823488072234 -0.004788586404174566
-0.002531451630348115 -0.005337641063753794 -0.004855205304920673
-0.0022646107160837936 -0.004875459042709859 -0.0051660314202308655
-0.0019977698018194727 -0.004413277021665923 -0.004789324477314949
-0.0017309286547245075 -0.003951094597347483 -0.004168810322880745
-0.0014640877404601862 -0.0034889125763035477 -0.005023518111556768
-0.0011972468261958649 -0.0030267305552596126 -0.004842259455472231
-0.0009304057955162218 -0.002564548332578425 -0.005063160788267851
-0.0006635647648365788 -0.0021023661098972376 -0.004609094001352787
-0.00039672379236459655 -0.0016401839880346761 -0.004612117540091276
-0.00012988276168495345 -0.0011780017653534884 -0.004550035577267408
0.00013695821078702877 -0.0007158196434909271 -0.004270575009286404
-0.005395202449401438 -0.009230439085407249 -0.0015895103570073843
-0.005128361302306473 -0.008768256661088809 -0.0023669847287237644
-0.004861520620872795 -0.008306075043319377 -0.003061579540371895
-0.00459467947377783 -0.007843892619000939 -0.003657965688034892
-0.004327838326682865 -0.007381710194682499 -0.004254351835697889
-0.004060997645249188 -0.006919528576913068 -0.004435610957443714
-0.0037941567309848663 -0.006457346555869132 -0.004854543600231409
-0.003527315816720545 -0.005995164534825197 -0.004755220375955105
-0.0032604749024562237 -0.005532982513781262 -0.004851898178458214
-0.0029936337553612587 -0.005070800089462822 -0.004880942404270172
-0.0027267928410969373 -0.004608618068418887 -0.0049430252984166145
-0.002459951926832616 -0.004146436047374951 -0.0049720704555511475
-0.002193110779737651 -0.0036842536230565115 -0.004969045054167509
-0.0019262698654733297 -0.003222071602012576 -0.004966019652783871
-0.0016594289512090084 -0.002759889580968641 -0.0048994021490216255
-0.0013925879205293652 -0.0022977073582874535 -0.004832783713936806
-0.0011257468898497223 -0.0018355251356062658 -0.004798067733645439
-0.00085890591737774 -0.0013733430137437045 -0.004621394444257021
-0.0005920648866980969 -0.000911160791062517 -0.004949922673404217
-0.00032522391422611476 -0.00044897866919995543 -0.0039838384836912155
-5.8382951758574294e-05 1.3203435334404646e-05 -0.0036280506756156683
-0.005857384568113418 -0.008963598114754256 -0.0021077520214021206
-0.005590543421018453 -0.008501415690435816 -0.0021743702236562967
-0.005323702739584774 -0.008039234072666384 -0.0031133440788835287
-0.005056861592489809 -0.007577051648347945 -0.0036334837786853313
-0.004790020445394844 -0.007114869224029506 -0.004398153629153967
-0.0045231797639611665 -0.006652687606260075 -0.004369109869003296
-0.004256338849696846 -0.006190505585216139 -0.0048502408899366856
-0.003989497935432525 -0.005728323564172204 -0.004853266291320324
-0.003722657021168203 -0.005266141543128269 -0.004856289364397526
-0.003455815874073238 -0.004803959118809829 -0.0048272451385855675
-0.0031889749598089166 -0.004341777097765894 -0.004926569294184446
-0.0029221340455445953 -0.0038795950767219587 -0.0049931881949305534
-0.0026552928984496303 -0.0034174126524035187 -0.0048965103924274445
-0.002388451984185309 -0.0029552306313595836 -0.005073182284832001
-0.0021216110699209876 -0.002493048610315648 -0.00517250644043088
-0.0018547700392413447 -0.0020308663876344606 -0.004795800428837538
-0.0015879290085617016 -0.0015686841649532731 -0.004895124118775129
-0.0013210880360897195 -0.0011065020430907116 -0.00479844631627202
-0.0010542470054100764 -0.0006443198204095241 -0.004617187660187483
-0.0007874060329380941 -0.00018213769854696262 -0.0038950589951127768
-0.0005205650704705536 0.00028004440598739736 -0.004490455146878958
-0.0002537240879941297 0.0007422265451781601 -0.004071521107107401
1.3116942685513442e-05 0.0012044087678593478 -0.0033493940718472004
-0.006052725542881014 -0.008234574717963834 -0.0020096751395612955
-0.005785884861447336 -0.007772393100194403 -0.0025809325743466616
-0.005519043714352371 -0.007310210675875963 -0.0033030605409294367
-0.005252202567257406 -0.006848028251557524 -0.0038743179757148027
-0.004985361885823728 -0.006385846633788093 -0.0044191135093569756
-0.004718520971559407 -0.005923664612744157 -0.0046003726311028
-0.004451680057295086 -0.005461482591700222 -0.004781631287187338
-0.004184839143030764 -0.004999300570656287 -0.004843712784349918
-0.003917997995935799 -0.004537118146337847 -0.004940390586853027
-0.003651157081671478 -0.004074936125293912 -0.005037068389356136
-0.0033843161674071568 -0.0036127541042499764 -0.004970449022948742
-0.003117475020312192 -0.0031505716799315364 -0.005347155500203371
-0.0028506341060478705 -0.0026883896588876014 -0.0049913679249584675
-0.002583793191783549 -0.002226207637843666 -0.005020413082093
-0.002316952161103906 -0.0017640254151624784 -0.005082495044916868
-0.002050111130424263 -0.001301843192481291 -0.004861593712121248
-0.0017832701579522808 -0.0008396610706187295 -0.004826877731829882
-0.0015164291272726377 -0.00037747884793754195 -0.004561136942356825
-0.0012495881548006554 8.470327392501945e-05 -0.004558112472295761
-0.0009827471923331149 0.0005468853784593795 -0.004458788316696882
-0.0007159062098566911 0.0010090675176501424 -0.004392168950289488
-0.00044906517917704805 0.0014712497403313299 -0.0038720297161489725
-0.006781748912657167 -0.00842991611160263 -0.0005986602045595648
-0.006514907765562202 -0.00796773368728419 -0.0009544488857500257
-0.006248067084128524 -0.00750555206951476 -0.002388555323705077
-0.005981225937033558 -0.00704336964519632 -0.0034077840391546488
-0.005714384789938593 -0.006581187220877881 -0.004039466846734285
-0.0054475441085049155 -0.00611900560310845 -0.00448064599186182
-0.005180703194240595 -0.005656823582064514 -0.004418564029037952
-0.004913862279976273 -0.005194641561020579 -0.004774351138621569
-0.0046470213657119515 -0.004732459539976644 -0.005130138713866472
-0.0043801802186169865 -0.004270277115658204 -0.0048999846912920475
-0.004113339304352665 -0.0038080950946142687 -0.004999307915568352
-0.0038464983900883443 -0.0033459130735703333 -0.004937225952744484
-0.0035796572429933793 -0.0028837306492518933 -0.005202967673540115
-0.003312816328729058 -0.0024215486282079582 -0.005106289871037006
-0.0030459754144647366 -0.0019593666071640228 -0.005109315272420645
-0.0027791343837850935 -0.0014971843844828353 -0.005112338345497847
-0.0025122933531054503 -0.0010350021618016477 -0.004931079689413309
-0.002245452380633468 -0.0005728200399390864 -0.004749821033328772
-0.001978611349953825 -0.00011063781725789882 -0.0047845374792814255
-0.001711770377481843 0.0003515443046046626 -0.0046878596767783165
-0.0014449294150143024 0.0008137264091390227 -0.004506601020693779
-0.0011780884325378784 0.0012759085483297855 -0.004541316069662571
-0.0009112474018582356 0.001738090771010973 -0.0041646091267466545
-0.0006444064293862534 0.0022002728928735343 -0.0040679327212274075
-0.00037756545691427113 0.002662455014736096 -0.0035813983995467424
-0.006710249205991085 -0.0072387110970427776 -0.0018861071439459922
-0.00644340805889612 -0.006776528672724338 -0.0031874536070972685
-0.006176566911801155 -0.0063143462484058985 -0.003992820158600807
-0.005909726230367477 -0.0058521646306364675 -0.004222974646836519
-0.005642885316103156 -0.005389982609592532 -0.004917569924145937
-0.005376044401838835 -0.0049278005885485966 -0.004561781883239746
-0.005109203487574513 -0.0044656185675046615 -0.004938488360494375
-0.004842362340479548 -0.0040034361431862215 -0.005000572185963392
-0.004575521426215227 -0.0035412541221422865 -0.005097248591482639
-0.004308680511950906 -0.003079072101098351 -0.005062533542513847
-0.004041839364855941 -0.002616889676779911 -0.005159210413694382
-0.00377499845059162 -0.002154707655735976 -0.00518825463950634
-0.0035081575363272986 -0.0016925256346920405 -0.00512163620442152
-0.0032413165056476554 -0.001230343412010853 -0.0048558954149484634
-0.0029744754749680123 -0.0007681611893296655 -0.005037154071033001
-0.00270763450249603 -0.0003059790674671041 -0.004771413281559944
-0.002440793471816387 0.00015620315521408342 -0.004868089221417904
-0.0021739524993444046 0.0006183852770766449 -0.004691417329013348
-0.0019071115368768641 0.0010805673816110049 -0.0047204624861478806
-0.0016402705544004401 0.0015427495208017678 -0.0044096363708376884
-0.001373429523720797 0.002004931743482955 -0.004310313146561384
-0.0011065885512488148 0.0024671138653455165 -0.004243694245815277
-0.0008397475787768326 0.002929295987208078 -0.00380251556634903
-0.0005729066645125113 0.0033914780082520135 -0.0029770908877253537
-0.007172431428672272 -0.006971870066363134 -0.0027582473121583466
-0.006905590281577307 -0.006509687642044694 -0.0028248669113963847
-0.006638749134482342 -0.006047505217726255 -0.003844094462692738
-0.0063719084530486645 -0.005585323599956824 -0.00415492057800293
-0.006105067538784344 -0.0051231415789128884 -0.004675060510635376
-0.005838226624520023 -0.004660959557868953 -0.004774384666234255
-0.005571385710255701 -0.004198777536825018 -0.004777408670634031
-0.005304544563160736 -0.0037365951125065784 -0.004876732360571623
-0.005037703648896415 -0.0032744130914626433 -0.004976056516170502
-0.004770862734632094 -0.002812231070418708 -0.005286881700158119
-0.004504021587537129 -0.002350048646100268 -0.005289906170219183
-0.004237180673272807 -0.0018878666250563328 -0.004870973993092775
-0.003970339759008486 -0.0014256846040123974 -0.005226761568337679
-0.003703498728328843 -0.0009635023813312099 -0.00513008376583457
-0.0034366576976491998 -0.0005013201586500224 -0.005196703597903252
-0.0031698167251772175 -3.9138036787460946e-05 -0.0047777690924704075
-0.0029029756944975744 0.0004230441858937266 -0.004954440984874964
-0.002636134722025592 0.000885226307756288 -0.004724286962300539
-0.002369293759558051 0.0013474084122906478 -0.00542485760524869
-0.0021024527770816277 0.001809590551481411 -0.004619491286575794
-0.0018356117464019845 0.002271772774162598 -0.004074695520102978
-0.0015687707739300023 0.0027339548960251597 -0.004430483095347881
-0.0013019298014580202 0.003196137017887721 -0.004151022527366877
-0.001035088887193699 0.0036583190389316567 -0.003969763871282339
-0.0007682478565140558 0.004120501261612844 -0.003550830995664001
-0.007367772504258495 -0.006242846611365051 -0.0026098601520061497
-0.00710093135716353 -0.005780664187046612 -0.0033596013672649865
-0.006834090675729852 -0.005318482569277181 -0.0038762663025408988
-0.006567249761465531 -0.004856300548233245 -0.00459839403629303
-0.00630040884720121 -0.00439411852718931 -0.004627438262104988
-0.006033567932936888 -0.003931936506145375 -0.0048575932160019875
-0.0057667267858419234 -0.0034697540818269352 -0.004680920392274857
-0.005499885871577602 -0.003007572060783 -0.005009448155760765
-0.005233044957313281 -0.0025453900397390647 -0.0052889082580804825
-0.004966203810218316 -0.0020832076154206247 -0.005222289822995663
-0.0046993628959539945 -0.0016210255943766897 -0.0051229665987193584
-0.004432521981689673 -0.0011588435733327542 -0.005185048095881939
-0.00416568095101003 -0.0006966613506515667 -0.004964146763086319
-0.0038988399203303873 -0.00023447912797037922 -0.005060824565589428
-0.003631998947858405 0.00022770299389218221 -0.004884152673184872
-0.003365157917178762 0.0006898852165733697 -0.00491319689899683
-0.0030983169447067796 0.001152067338435931 -0.0046023717150092125
-0.002831475982239239 0.0016142494429702912 -0.004631415940821171
-0.002564634999762815 0.002076431582161054 -0.004596700891852379
-0.002297793969083172 0.0025386138048422414 -0.004530081991106272
-0.0020309529966111898 0.003000795926704803 -0.004430757369846106
-0.0017641120241392077 0.0034629780485673643 -0.004254085011780262
-0.0014972711098748864 0.0039251600696113 -0.004154761787503958
-0.0012304300791952433 0.004387342292292487 -0.0038890202995389704
-0.0009635891649309219 0.004849524313336423 -0.0037896963767707352
-0.0006967482506666006 0.005311706334380358 -0.002964273095130921
-0.00782995452530243 -0.00597600569710073 -0.002504603005945683
-0.007563113378207465 -0.005513823272782291 -0.003237676108255983
-0.0072962726967737875 -0.00505164165501286 -0.003678855020552874
-0.007029431782509467 -0.004589459633968924 -0.004379426129162312
-0.006762590868245146 -0.004127277612924989 -0.004690251778811217
-0.006495749953980824 -0.003665095591881054 -0.004866922274231912
-0.006228908806885859 -0.003202913167562614 -0.0049016387201845655
-0.005962067892621538 -0.002740731146518679 -0.005000963807106019
-0.005695226978357217 -0.0022785491254747434 -0.005067581310868264
-0.005428385831262252 -0.0018163667011563036 -0.005102297756820918
-0.00516154491699793 -0.0013541846801123684 -0.005168916191905738
-0.004894704002733609 -0.0008920026590684329 -0.005268239416182042
-0.004627862972053966 -0.00042982043638724543 -0.0052061579190194615
-0.004361021941374323 3.2361786293942104e-05 -0.005209182854741813
-0.0040941809689023405 0.0004945439081565035 -0.004979027900844813
-0.0038273399382226974 0.000956726130837691 -0.00494998274371028
-0.003560498965750715 0.0014189082527002524 -0.004853305872529746
-0.0032936580032831746 0.0018810903572346125 -0.00495262909680605
-0.0030268170208067506 0.002343272496425375 -0.004624102264642716
-0.0027599759901271075 0.0028054547191065627 -0.0044428431428968915
-0.0024931350176551252 0.003267636840969124 -0.004542166367173196
-0.002226294045183143 0.0037298189628316857 -0.004445489495992661
-0.0019594531309188217 0.004192000983875621 -0.004348812624812127
-0.0016926121002391787 0.004654183206556808 -0.00406935252249241
-0.0014257711859748574 0.005116365227600744 -0.004040307365357877
-0.001158930271710536 0.005578547248644679 -0.003419792745262385
-0.0008920891246155711 0.006040729672963119 -0.003454508958384395
-0.008025295197614149 -0.005246982474933291 -0.00278137275017798
-0.007758454516180471 -0.00478480085716386 -0.0034018866717815404
-0.007491613601916149 -0.004322618836119925 -0.003918550442904235
-0.007224772687651828 -0.00386043681507599 -0.004405084066092969
-0.0069579317733875065 -0.003398254794032055 -0.004781791009008885
-0.0066910906262925415 -0.002936072369713615 -0.004843872971832753
-0.00642424971202822 -0.00247389034866968 -0.004940550308674575
-0.006157408797763899 -0.0020117083276257443 -0.004905835259705783
-0.005890567650668934 -0.0015495259033073046 -0.004967918153852225
-0.0056237267364046125 -0.0010873438822633693 -0.005149176809936763
-0.005356885822140291 -0.0006251618612194338 -0.004972503986209632
-0.005090044791460648 -0.00016297963853824634 -0.005069181788712741
-0.004823203760781005 0.0002992025841429412 -0.0048925098963081845
-0.004556362788309023 0.0007613847060055026 -0.004857793916016818
-0.0042895217576293795 0.0012235669286866902 -0.004636892583221198
-0.004022680785157397 0.0016857490505492515 -0.004415991716086865
-0.003755839822689857 0.002147931155083612 -0.00469545228406787
-0.003488998840213433 0.0026101132942743742 -0.004692426882684232
-0.00322215780953379 0.0030722955169555618 -0.004625808447599412
-0.002955316837061808 0.0035344776388181232 -0.004526483826339246
-0.0026884758645898256 0.003996659760680685 -0.004427160136401654
-0.0024216349503255043 0.00445884178172462 -0.004360542166978122
-0.002154793919645861 0.004921024004405808 -0.004183869808912278
-0.00188795300538154 0.005383206025449743 -0.004117249976843596
-0.0016211120911172187 0.005845388046493679 -0.004017926752567292
-0.0013542709440222537 0.006307570470812118 -0.003841254394501448
-0.0010874300297579332 0.006769752491856054 -0.0034000757150352006
-0.008487477621932589 -0.004980141327838326 -0.003158209845423699
-0.008220636940498911 -0.004517959710068895 -0.003192926058545709
-0.007953796026234588 -0.00405577768902496 -0.004047633614391089
-0.007686955111970268 -0.003593595667981025 -0.004358459264039994
-0.0074201141977059465 -0.00313141364693709 -0.004799637943506242
-0.0071532730506109815 -0.00266923122261865 -0.004866257775574923
-0.00688643213634666 -0.002207049201574715 -0.004932876210659743
-0.006619591222082339 -0.0017448671805307793 -0.005032199900597335
-0.006352750074987374 -0.0012826847562123396 -0.005066915880888701
-0.0060859091607230525 -0.0008205027351684042 -0.005133534315973521
-0.005819068246458731 -0.0003583207141244689 -0.005104490090161563
-0.005552227215779088 0.00010386150855671863 -0.00507544493302703
-0.005285386185099445 0.0005660437312379062 -0.005252117756754161
-0.005018545212627463 0.0010282258531004677 -0.004972656723111869
-0.0047517041819478195 0.0014904080757816552 -0.004875979851931334
-0.004484863209475837 0.0019525901976442165 -0.004813896957784892
-0.004218022247008297 0.002414772302178577 -0.004880515858530999
-0.003951181264531873 0.0028769544413693392 -0.00478383805602789
-0.0036843402338522296 0.0033391366640505267 -0.0047868634574115285
-0.0034174992613802474 0.0038013187859130882 -0.0046901856549084195
-0.003150658288908265 0.00426350090777565 -0.004628103692084552
-0.002883817374643944 0.004725682928819585 -0.00439794920384884
-0.0026169763439643015 0.005187865151500773 -0.002996161580085755
-0.0023501354296999793 0.005650047172544708 -0.004231092054396869
-0.0020832945154356584 0.006112229193588644 -0.004202046897262336
-0.0018164533683406932 0.006574411617907083 -0.004105369560420514
-0.001549612454076372 0.007036593638951019 -0.003728662617504597
-0.0012827715398120514 0.007498775659994954 -0.0029511894099414353
-0.008682818961542845 -0.004251118795804574 -0.0028605947736650714
-0.008415978047278524 -0.003788936774760639 -0.0035827227402478465
-0.008149137133014203 -0.0033267547537167035 -0.004179109353572131
-0.007882296218749881 -0.0028645727326727685 -0.004723904188722373
-0.007615455071654917 -0.0024023903083543285 -0.00482058059424162
-0.007348614157390596 -0.0019402082873103933 -0.004721257369965316
-0.007081773243126275 -0.001478026266266458 -0.005097964312881232
-0.00681493209603131 -0.0010158438419480182 -0.005063248332589866
-0.006548091181766988 -0.0005536618209040829 -0.004996628500521184
-0.006281250267502667 -9.147979986014755e-05 -0.004993605427443982
-0.006014409236823024 0.00037070242282103994 -0.005090283229947091
-0.005747568206143381 0.0008328846455022275 -0.004494886845350266
-0.0054807272336713985 0.001295066767364789 -0.004913819953799249
-0.005213886202991755 0.0017572489900459765 -0.004879104904830457
-0.004947045230519773 0.002219431111908538 -0.004876079503446818
-0.004680204268052233 0.002681613216442898 -0.0048094610683619985
-0.004413363285575809 0.0031437953556336606 -0.004632789175957442
-0.0041465222548961655 0.003605977578314848 -0.00469487113878131
-0.0038796812824241833 0.00406815970017741 -0.003840163815766574
-0.003612840309952201 0.004530341822039971 -0.004534758161753417
-0.0033459993956878797 0.004992523843083906 -0.004435434937477113
-0.0030791583650082366 0.005454706065765094 -0.004432409536093474
-0.0028123174507439152 0.005916888086809029 -0.003991230856627227
-0.0025454765364795943 0.006379070107852965 -0.004270690958946944
-0.0022786353893846293 0.006841252532171404 -0.0040049497038126
-0.002011794475120308 0.00730343455321534 -0.0034467289224267015
-0.0017449535608559865 0.007765616574259275 -0.0022279859986156234
-0.009145000982586781 -0.003984277881540253 -0.0025789940264076003
-0.00887816006832246 -0.0035220958604963177 -0.0036762282252311715
-0.008611319154058139 -0.003059913839452382 -0.00423444900661707
-0.008344478239793817 -0.002597731818408447 -0.004715580493211747
-0.008077637092698852 -0.002135549394090007 -0.004814903717488051
-0.007810796178434531 -0.001673367373046072 -0.0049142283387482175
-0.00754395526417021 -0.0012111853520021367 -0.004980846773833037
-0.007277114117075245 -0.0007490029276836969 -0.004884168971329928
-0.0070102732028109235 -0.00028682090663976155 -0.004855123814195395
-0.006743432288546602 0.00017536111440417376 -0.005031796637922526
-0.006476591257866959 0.0006375433370853613 -0.005002752412110568
-0.006209750227187316 0.0010997255597665488 -0.005005776416510344
-0.005942909254715334 0.0015619076816291103 -0.005008800886571408
-0.00567606822403569 0.002024089904310298 -0.005011824890971185
-0.005409227251563708 0.0024862720261728593 -0.004915147554129363
-0.005142386289096168 0.0029484541307072194 -0.004886103328317405
-0.004875545306619745 0.0034106362698979823 -0.0034843161702156076
-0.0046087042759401006 0.0038728184925791694 -0.004742079880088569
-0.004341863303468118 0.004335000614441731 -0.004776795860379935
-0.004075022330996136 0.004797182736304292 -0.0046801185235381135
-0.0038081814167318147 0.005259364757348227 -0.004498859401792289
-0.0035413403860521716 0.005721546980029415 -0.004402182064950467
-0.0032744994717878503 0.00618372900107335 -0.004373136907815934
-0.0030076585575235294 0.006645911022117286 -0.004344091750681401
-0.0027408174104285644 0.007108093446435725 -0.0037992973811924466
-0.002473976496164244 0.007570275467479661 -0.0034707700833678254
-0.0022071355818999226 0.008032457488523596 -0.0027761748060584077
-0.0019402944348049576 0.008494639912842036 -0.0028108907863497743
-0.0016734535205406363 0.008956821933885972 -0.0009241627994924791
-0.0093403424926409 -0.0032552547134013523 -0.0024767075665295133
-0.009073501578376579 -0.0027930726923574172 -0.0037108927499502906
-0.008806660664112257 -0.002330890671313482 -0.004282150883227588
-0.008539819517017292 -0.0018687082469950422 -0.004736218601465226
-0.008272978602752971 -0.001406526225951107 -0.004765263292938472
-0.00800613768848865 -0.0009443442049071716 -0.00473054824396968
-0.007739296541393685 -0.00048216178058873194 -0.005107254721224309
-0.0074724556271293634 -1.9979759544796588e-05 -0.004252546001225711
-0.007205614712865042 0.00044220226149913874 -0.004433805588632823
-0.006938773682185399 0.0009043844841803263 -0.004852738697081805
-0.006671932651505756 0.0013665667068615138 -0.004949416499584914
-0.0064050916790337736 0.0018287488287240753 -0.004946391098201276
-0.00613825064835413 0.002290931051405263 -0.004975436720997096
-0.005871409675882148 0.0027531131732678243 -0.004798763897269965
-0.005604568713414608 0.0032152952778021844 -0.004732145927846433
-0.005337727730938184 0.003677477416992947 -0.004962300416082145
-0.0050708867002585405 0.004139659639674134 -0.0048956815153360375
-0.004804045727786558 0.004601841761536696 -0.004719010088592769
-0.004537204755314576 0.005064023883399257 -0.00423787720501423
-0.004270363841050255 0.005526205904443192 -0.003927051089704038
-0.004003522810370612 0.00598838812712438 -0.004206513054668904
-0.0037366818961062902 0.006450570148168315 -0.004029840696603061
-0.0034698409818419693 0.006912752169212251 -0.0038531681057065734
-0.0032029998347470044 0.007374934593530691 -0.003411989426240326
-0.002936158920482683 0.007837116614574627 -0.0026473181787878284
-0.0026693180062183617 0.008299298635618561 -0.0012719032820314178
-0.0024024768591233967 0.008761481059937001 -0.0001338139409199365
-0.009535683599420515 -0.0025262317780930955 -0.0034349665511399516
-0.009268842685156192 -0.002064049757049161 -0.0038761456962674865
-0.009002001538061227 -0.0016018673327307209 -0.004671577829867602
-0.008735160623796905 -0.0011396853116867856 -0.004848250653594733
-0.008468319709532584 -0.0006775032906428503 -0.004751574248075486
-0.008201478562437619 -0.00021532086632441058 -0.004654896445572377
-0.007934637648173298 0.00024686115471952476 -0.004558218643069268
-0.007667796733908977 0.0007090431757634601 -0.004624837078154088
-0.007400955703229334 0.0011712253984446476 -0.004659553524106742
-0.007134114672549691 0.0016334076211258351 -0.004630507901310922
-0.006867273700077709 0.0020955897429883966 -0.00463353330269456
-0.0066004326693980655 0.002557771965669584 -0.004700152203440667
-0.006333591696926083 0.0030199540875321456 -0.0047031762078404435
-0.006066750734458543 0.0034821361920665058 -0.004802499432116748
-0.005799909751982119 0.003944318331257269 -0.004572345409542323
-0.005533068721302476 0.004406500553938456 -0.0043910867534577855
-0.005266227748830493 0.004868682675801018 -0.004062559455633164
-0.004999386776358511 0.005330864797663579 -0.003832403803244234
-0.00473254586209419 0.005793046818707514 -0.0038354289717972287
-0.004465704831414547 0.006255229041388702 -0.003934752196073533
-0.004198863917150226 0.006717411062432638 -0.0032401569187641152
-0.003932023002885905 0.007179593083476573 -0.0029606963507831105
-0.0036651818557909403 0.007641775507795013 -0.0025417637079954156
-0.003398340941526618 0.008103957528838947 -0.003690620418637992
-0.0031315000272622976 0.008566139549882883 -0.0008612972451373943
-0.009731024706200127 -0.0017972088427848389 -0.003478192724287511
-0.009464183559105162 -0.0013350264184663996 -0.0036594513803720483
-0.009197342644840841 -0.0008728443974224643 -0.004145985003560782
-0.00893050173057652 -0.000410662376378529 -0.004600053187459708
-0.008663660583481555 5.152004793991073e-05 -0.004118920303881169
