ply
format ascii 1.0
element vertex 722
property float x
property float y
property float z
end_header
-0.0074519146932357835 -0.0070943134152507276 0.0011794907917738252
-0.006931766526807108 -0.00718602957095814 0.000668160863739677
-0.006411618360378433 -0.007277745726665553 -0.00021305528550474056
-0.0058914701939497575 -0.007369461882372965 -0.00014712491970230595
-0.005371322027521083 -0.007461178038080377 -0.0003749030480538025
-0.004851173861092408 -0.00755289419378779 -0.0004036484477803944
-0.004331025694663733 -0.007644610349495202 -0.0004006549328407586
-0.003810878024287005 -0.0077363264177352726 -0.00039766242530981863
-0.00329072985785833 -0.007828042573442684 -0.00017904113829899835
-0.0027705816914296547 -0.007919758729150097 -0.0007444009132118327
-0.00225043352500098 -0.00801147488485751 -0.0008058422658656835
-0.0017302853585723047 -0.008103191040564922 -0.001287352392799145
-0.0012101371921436296 -0.008194907196272335 -0.0009352378683918757
-0.0006899890257149546 -0.008286623351979747 -0.0009966792210457263
-0.00016984085928627954 -0.00837833950768716 -0.0004074302600245111
0.0003503073071423956 -0.00847005566339457 -0.0007325658758533131
0.0008704554735710707 -0.008561771819101983 -0.0007295728646180252
0.0013906036399997455 -0.008653487974809396 -0.0006636414914068947
0.0019107518064284206 -0.008745204130516809 0.00029246894621538387
-0.007880346703957045 -0.0064824490931146405 0.0010133267866675125
-0.007360198537528371 -0.006574165248822052 0.001109006434961926
-0.0068400503710996955 -0.006665881404529465 0.0001264419486917032
-0.00631990220467102 -0.0067575975602368775 0.0004992597292068156
-0.005799754038242345 -0.00684931371594429 -0.0003749710481407706
-0.005279605871813671 -0.006941029871651702 -0.0004093287217117882
-0.004759457705384995 -0.007032746027359114 -0.0006723263617735783
-0.004239309538956321 -0.007124462183066527 -0.0005766472171835128
-0.0037191618685795923 -0.007216178251306597 -0.0006110048907545305
-0.0031990137021509174 -0.00730789440701401 -0.0005822594910279386
-0.0026788655357222425 -0.007399610562721422 -0.0010188835161103445
-0.002158717369293567 -0.007491326718428834 -0.0009901386200881004
-0.0016385692028648923 -0.007583042874136247 -0.001056069993299231
-0.0011184210364362172 -0.007674759029843659 -0.0008282903538346905
-0.0005982728700075422 -0.007766475185551071 -0.0009265897684425896
-7.812470357886716e-05 -0.007858191341258484 -0.0011014381402112377
0.000442023462849808 -0.007949907496965896 -0.0007763025243824358
0.0009621716292784831 -0.008041623652673309 -0.00036169390523418135
0.0014823197957071579 -0.008133339808380722 -0.0007138094370501467
0.002002467962135833 -0.008225055964088134 -0.00020247799790295496
0.002522616252577495 -0.008316772141662382 0.000827945956984043
-0.007788630548249634 -0.005962300926685965 0.0015556974951416833
-0.007268482381820958 -0.006054017082393377 0.0008682725270778073
-0.006748334215392283 -0.0061457332381007895 0.00023094649716151933
-0.006228186048963608 -0.006237449393808202 0.00020220109743492745
-0.005708037882534933 -0.006329165549515615 -0.0003880285759516707
-0.005187889716106259 -0.0064208817052230265 -0.0005674158275993459
-0.004667741549677583 -0.006512597860930439 -0.0005644218089553622
-0.004147593383248908 -0.006604314016637852 -0.0007438095643073852
-0.00362744571287218 -0.006696030084877922 -0.0009715892037719256
-0.003107297546443505 -0.0067877462405853345 -0.0010330300527214282
-0.00258714938001483 -0.006879462396292746 -0.0010617754524480203
-0.002067001213586155 -0.006971178552000159 -0.0011232168051018708
-0.00154685304715748 -0.0070628947077075715 -0.0010572849281863927
-0.0010267048807288048 -0.007154610863414984 -0.0011187262808402432
-0.0005065567143001298 -0.007246327019122396 -0.0009438779090715952
1.3591452128545233e-05 -0.0073380431748298084 -0.0009726233087981871
0.0005337396185572204 -0.007429759330537221 -0.0007540020217873668
0.0010538877849858956 -0.007521475486244634 -0.0005791536500187188
0.0015740359514145703 -0.007613191641952045 -0.0004808557465238634
0.0020941841178432454 -0.007704907797659458 0.00010839321449735181
0.0026143324082849076 -0.007796623975233706 0.0009252953851917816
-0.008217062558970896 -0.005350436604549878 0.000919285688616854
-0.007696914392542221 -0.005442152760257291 0.0011958611830809364
-0.0071767662261135465 -0.0055338689159647025 0.0004703571737236753
-0.006656618059684871 -0.005625585071672115 0.00011824164190771
-0.006136469893256196 -0.005717301227379528 -0.00018937412929204728
-0.0056163217268275206 -0.00580901738308694 -0.0005414896611080126
-0.005096173560398846 -0.005900733538794352 -0.0005444826723433004
-0.004576025393970171 -0.005992449694501765 -0.0008074808161094385
-0.004055877227541496 -0.006084165850209177 -0.0008418379859761082
-0.003535729557164768 -0.0061758819184492475 -0.0009401363931753114
-0.003015581390736093 -0.00626759807415666 -0.0010060682700907897
-0.0024954332243074177 -0.006359314229864072 -0.0013581827944980592
-0.001975285057878743 -0.006451030385571484 -0.0010330471786692574
-0.0014551368914500677 -0.006542746541278897 -0.0015478163999909423
-0.0009349887250213926 -0.00663446269698631 -0.0011332087882513838
-0.00041484055859271763 -0.006726178852693721 -0.0009538200254906649
0.0001053076078359574 -0.006817895008401134 -0.0009568140441346487
0.0006254557742646326 -0.006909611164108547 -0.0008953726914807979
0.0011456039406933078 -0.007001327319815959 -0.0006187971970167156
0.0016657521071219825 -0.007093043475523371 -0.00034222220625698127
0.0021859002735506576 -0.0071847596312307836 0.0002951043273636546
0.00270604856399232 -0.007276475808805032 0.00040086461077281326
0.0032261967304209943 -0.0073681919645124435 0.0011155374655369415
-0.008125346403263484 -0.004830288438121203 0.0008462964100827929
-0.007605198236834809 -0.004922004593828615 0.0011539136923955937
-0.007085050070406134 -0.005013720749536027 0.0005398054106919211
-0.006564901903977459 -0.00510543690524344 -9.752112292871478e-05
-0.006044753737548783 -0.005197153060950852 -3.159025342193227e-05
-0.005524605571120108 -0.005288869216658265 -0.0006456980314212571
-0.005004457404691434 -0.005380585372365677 -0.0007071393840751077
-0.004484309238262758 -0.005472301528073089 -0.0007685807367289585
-0.003964161071834084 -0.005564017683780502 -0.0009479679883766337
-0.0034440134014573553 -0.005655733752020572 -0.001043647636671047
-0.0029238652350286804 -0.005747449907727985 -0.0010092899631000294
-0.0024037170686000055 -0.0058391660634353965 -0.0011886772147477046
-0.0018835689021713304 -0.005930882219142809 -0.0011856847072167648
-0.0013634207357426553 -0.006022598374850222 -0.0010873852926088657
-0.0008432725693139802 -0.006114314530557634 -0.0009125374245445654
-0.00032312440288530524 -0.006206030686265046 -0.000814239017345362
0.0001970237635433698 -0.006297746841972459 -0.0007159411138505067
0.000717171929972045 -0.006389462997679871 -0.0009437192422020033
0.0012373200964007202 -0.006481179153387284 3.88447403638715e-05
0.0017574682628293948 -0.006572895309094696 4.183724789481147e-05
0.00227761642925807 -0.006664611464802108 0.0006310862089160266
-0.008553778413984747 -0.004218424115985116 0.0010642805110935055
-0.008033630247556071 -0.004310140271692528 0.0008894326430292054
-0.007513482081127397 -0.004401856427399941 0.00041326732293142865
-0.006993333914698721 -0.004493572583107353 0.00034733645342464615
-0.006473185748270046 -0.004585288738814765 -0.00027782511648958826
-0.005953037581841371 -0.004677004894522178 -0.00045267348825823626
-0.005432889415412696 -0.0047687210502295905 -0.0006275218600268844
-0.004912741248984022 -0.004860437205937002 -0.000661879533597902
-0.004392593082555346 -0.004952153361644415 -0.0008367274016622021
-0.003872444916126671 -0.0050438695173518275 -0.0009350258088614054
-0.003352297245749943 -0.005135585585591898 -0.001411191128959182
-0.0028321490793212683 -0.00522730174129931 -0.0008998601935163383
-0.002312000912892593 -0.005319017897006722 -0.0009657905593187729
-0.001791852746463918 -0.005410734052714135 -0.001228788703084911
-0.001271704580035243 -0.005502450208421547 -0.0010494014514372358
-0.0007515564136065678 -0.00559416636412896 -0.0010837591250082534
-0.00023140824717789285 -0.005685882519836372 -0.0010550137252816616
0.0002887399192507822 -0.005777598675543784 -0.0010580062328126015
0.0008088880856794574 -0.005869314831251197 -0.0006851884522974892
0.0013290362521081326 -0.005961030986958609 8.425822066719024e-05
0.0018491844185368072 -0.006052747142666021 0.00036083321142692465
0.0023693325849654823 -0.006144463298373434 -0.00026432835848730975
0.0028894808754071446 -0.006236179475947682 0.00018505147550159729
-0.007941914091848658 -0.0037899921052638526 0.0007285766743411803
-0.007421765925419984 -0.003881708260971265 0.00040344105851237847
-0.006901617758991309 -0.003973424416678677 0.0004693729354278568
-0.006381469592562633 -0.00406514057238609 -0.00021805203263601926
-0.005861321426133959 -0.004156856728093503 -0.0003974392842836944
-0.005341173259705284 -0.004248572883800915 -0.0007225749001124963
-0.004821025093276609 -0.004340289039508327 -0.0008182540447025618
-0.004300876926847934 -0.0044320051952157396 -0.0009976418000545847
-0.003780728760419259 -0.004523721350923152 -0.0007346436562884468
-0.0032605810900425305 -0.004615437419163222 -0.0010597787684129007
-0.0027404329236138556 -0.004707153574870635 -0.0010885241681394926
-0.0022202847571851803 -0.004798869730578047 -0.0012679114197871677
-0.0017001365907565054 -0.004890585886285459 -0.0012966568195137598
-0.0011799884243278303 -0.004982302041992872 -0.0008600327944313539
-0.0006598402578991553 -0.0050740181977002845 -0.0010394200460790291
-0.00013969209147048035 -0.005165734353407696 -0.0009411221425841737
0.0003804560749581947 -0.005257450509115109 -0.0007662737708155256
0.0009006042413868699 -0.0053491666648225215 -0.0002901094581264447
0.001420752407815545 -0.005440882820529934 1.7507824186356262e-05
0.0019409005742442196 -0.005532598976237346 0.0009195158815038492
0.002461048740672895 -0.0056243151319447585 0.0015446777032702575
-0.008370346102569922 -0.003178127783127765 0.0006754897620017834
-0.007850197936141248 -0.0032698439388351773 0.0007042341543196795
-0.007330049769712571 -0.00336156009454259 0.00044123701796223725
-0.006809901603283896 -0.0034532762502500025 4.612992879831488e-06
-0.006289753436855222 -0.0035449924059574147 -0.00030300428943296956
-0.005769605270426546 -0.0036367085616648273 -0.0005660024331991076
-0.005249457103997871 -0.0037284247173722395 -0.0006643003366939629
-0.0047293089375691965 -0.0038201408730796516 -0.0007625997513018621
-0.004209160771140521 -0.003911857028787064 -0.0008608976547967174
-0.0036890126047118463 -0.004003573184494477 -0.0009268285243034999
-0.0031688649343351184 -0.004095289252734547 -0.000992760401218978
-0.002648716767906443 -0.00418700540844196 -0.0010910583047138336
-0.002128568601477768 -0.004278721564149371 -0.0010296169520599828
-0.001608420435049093 -0.004370437719856784 -0.0005481068251265213
-0.001088272268620418 -0.004462153875564197 -0.0011373557861477364
-0.000568124102191743 -0.004553870031271609 -0.0011086103864211443
-4.7975935763067965e-05 -0.004645586186979021 -0.0010471695374716415
0.0004721722306656071 -0.004737302342686434 -0.000985728184817791
0.0009923203970942822 -0.004829018498393846 -0.0009569827850911992
0.0015124685635229573 -0.004920734654101259 0.00013580883474545802
0.0020326167299516322 -0.0050124508098086705 0.001228601461990811
0.002552764896380307 -0.005104166965516083 0.0011626705924840286
-0.007758481780433834 -0.002749695772406502 0.0007133300474342585
-0.00723833361400516 -0.0028414119281139146 0.0003405122669191461
-0.006718185447576484 -0.002933128083821327 1.537715479469209e-05
-0.006198037281147809 -0.0030248442395287393 -4.60641978591586e-05
-0.005677889114719134 -0.003116560395236152 -0.000418881978374271
-0.005157740948290458 -0.003208276550943564 -0.0007440175942030728
-0.004637592781861784 -0.0032999927066509763 -0.0005691692224344248
-0.004117444615433109 -0.003391708862358389 -0.0007485564740821
-0.003597296449004434 -0.003483425018065801 -0.0009279442294341231
-0.0030771487786277057 -0.0035751410863058717 -0.0011073314810817983
-0.002557000612199031 -0.003666857242013284 -0.001168772833735649
-0.0020368524457703555 -0.0037585733977206965 -0.0009939244619670009
-0.0015167042793416807 -0.0038502895534281087 -0.001173311713614676
-0.0009965561129130056 -0.003942005709135521 -0.0011073808441078936
-0.00047640794648433056 -0.004033721864842934 -0.0012867685994599166
4.3740219944344426e-05 -0.004125438020550346 -0.0006975191347343535
0.0005638883863730194 -0.004217154176257758 -0.00043452250208125923
0.0010840365528016946 -0.004308870331965171 -0.0001715243583151212
0.0016041847192303697 -0.0044005864876725835 0.0006156975373829938
0.0021243328856590444 -0.004492302643379995 -9.897531738113444e-05
-0.0076667656247264215 -0.0022295476059778266 0.0006861209459687954
-0.007146617458297747 -0.0023212637616852392 0.00020995663327971452
-0.006626469291869072 -0.002412979917392652 -5.3041510486423514e-05
-0.006106321125440396 -0.002504696073100064 -0.0003606572816861808
-0.005586172959011721 -0.0025964122288074766 -0.0004589566962940799
-0.005066024792583046 -0.002688128384514889 -0.0005248870620965145
-0.004545876626154372 -0.002779844540222301 -0.0007435083491073348
-0.004025728459725696 -0.0028715606959297136 -0.0008094392186141173
-0.0035055802932970215 -0.0029632768516371258 -0.0010280600019205897
-0.002985432622920293 -0.0030549929198771964 -0.0009993151058983458
-0.0024652844564916183 -0.0031467090755846086 -0.0010652464791094762
-0.0019451362900629432 -0.003238425231292021 -0.001068239490344764
-0.0014249881236342683 -0.0033301413869994334 -0.0011665384012483153
-0.0009048399572055932 -0.003421857542706846 -0.0009871501421919442
-0.00038469179077691806 -0.003513573698414258 -0.0010854490530954955
0.00013545637565175693 -0.0036052898541216708 -0.0009060607940391245
0.0006556045420804319 -0.003697006009829083 -0.00067828216198328
0.001175752708509107 -0.0037887221655364955 -0.0002636745502437214
0.0016959008749377823 -0.0038804383212439077 0.0007056072523720851
-0.00757504946901901 -0.001709399439549152 0.001439176323895925
-0.0070549013025903344 -0.0018011155952565644 0.0003463844522070938
-0.006534753136161659 -0.0018928317509639768 -2.643332830801859e-05
-0.006014604969732984 -0.001984547906671389 -0.0002542129677725589
-0.0054944568033043085 -0.0020762640623788018 -0.00043360021942023407
-0.004974308636875634 -0.002167980218086214 -0.0006129874710679093
-0.00445416047044696 -0.002259696373793626 -0.0007923747227155844
-0.003934012304018284 -0.0023514125295010387 -0.0008880543710099978
-0.003413864137589609 -0.002443128685208451 -0.0009837340193044111
-0.002893716467212881 -0.0025348447534485215 -0.001012478915326655
-0.002373568300784206 -0.0026265609091559337 -0.0012402575473824996
-0.0018534201343555308 -0.0027182770648633463 -0.001205899873811482
-0.0013332719679268559 -0.0028099932205707585 -0.0011076019703166267
-0.0008131238014981808 -0.002901709376278171 -0.0010732442967456089
-0.00029297563506950567 -0.0029934255319855833 -0.0008102471603881669
0.00022717253135916932 -0.003085141687692996 -0.0005472490166220288
0.0007473206977878443 -0.003176857843400408 0.0003269817607255574
0.0012674688642165194 -0.0032685739991078207 0.0006345985393340105
-0.008003481479740272 -0.0010975351174130643 0.0012147443035276017
-0.007483333313311597 -0.0011892512731204766 0.0010398961836111276
-0.006963185146882922 -0.001280967428827889 0.0003465577265027752
-0.0064430369804542465 -0.0013726835845353014 -0.00016821149481890995
-0.005922888814025572 -0.0014643997402427138 -0.00034305986658755795
-0.005402740647596897 -0.0015561158959501262 -0.00044135877749110913
-0.004882592481168221 -0.0016478320516575386 -0.0006162071492597571
-0.004362444314739547 -0.001739548207364951 -0.0009683216736670266
-0.0038422961483108716 -0.0018312643630723634 -0.0008726420253726133
-0.0033221479818821968 -0.0019229805187797758 -0.0008112011764231105
-0.0028020003115054684 -0.002014696587019846 -0.0010298219597295831
-0.0022818521450767935 -0.0021064127427272584 -0.0010641786258919048
-0.0017617039786481184 -0.002198128898434671 -0.001162478040499804
-0.0012415558122194435 -0.002289845054142083 -0.0009830902851477809
-0.0007214076457907684 -0.0023815612098494958 -0.0010174469513101027
-0.00020125947936209328 -0.002473277365556908 -0.0009560055986562519
0.0003188886870665817 -0.0025649935212643206 -0.0007766183470085767
0.0008390368534952567 -0.0026567096769717327 -0.0004038005664934643
0.0013591850199239318 -0.0027484258326791453 0.00047741558275095336
0.0018793331863526071 -0.0028401419883865575 0.0016336852837722398
-0.007391617146670767 -0.0006691030446853081 0.0011291233792087997
-0.006871468980242092 -0.0007608192003927207 0.0005388942095265494
-0.0063513208138134165 -0.0008525353561001331 5.73835788887398e-05
-0.005831172647384741 -0.0009442515118075455 -0.00026775203694006213
-0.005311024480956066 -0.0010359676675149579 -0.0004471392885877373
-0.0047908763145273914 -0.0011276838232223702 -0.00038120841908095474
-0.004270728148098717 -0.0012193999789297826 -0.0007958165345248613
-0.0037505799816700412 -0.0013111161346371952 -0.0009752047935812322
-0.0032304318152413664 -0.0014028322903446074 -0.0007565840102747598
-0.0027102841448646384 -0.001494548358584678 -0.0012380941372082215
-0.0021901359784359635 -0.0015862645142920905 -0.0012668395369348133
-0.0016699878120072882 -0.0016779806699995026 -0.0007906742168370366
-0.0011498396455786133 -0.0017696968257069152 -0.0009700624758934076
-0.0006296914791499382 -0.0018614129814143274 -0.0007070643321272696
-0.0001095433127212631 -0.00195312913712174 -0.0007040708171876338
0.0004106048537074119 -0.002044845292829152 -0.00048544953017681347
0.0009307530201360869 -0.0021365614485365646 0.00033145213681326843
0.001450901186564762 -0.0022282776042439768 0.0013140163712313173
-0.007820049162858738 -5.723875355246739e-05 0.0011467887943943905
-0.007299900996430063 -0.0001489549092598798 0.0013261760460420657
-0.006779752830001388 -0.00024067106496729242 0.0002658637862630654
-0.0062596046635727135 -0.0003323872206747048 -0.00024890543505861967
-0.005739456497144038 -0.00042410337638211726 -0.00025189945370260335
-0.005219308330715363 -0.0005158195320895297 -0.0004267478254712514
-0.0046991601642866875 -0.0006075356877969421 -0.0006015956935355515
-0.004179011997858013 -0.0006992518435043544 -0.0006045887047708393
-0.0036588638314293377 -0.000790967999211767 -0.001297926658174844
-0.003138715665000663 -0.0008826841549191792 -0.0008164160275370345
-0.002618567994623935 -0.0009744002231592495 -0.0008194100461810182
-0.00209841982819526 -0.0010661163788666622 -0.0011270268247894713
-0.0015782716617665847 -0.0011578325345740746 -0.0009476395731417961
-0.0010581234953379098 -0.001249548690281487 -0.0012997540975490656
-0.0005379753289092347 -0.0013412648459888994 -0.0009269363170339532
-1.782716248055966e-05 -0.0014329810016963118 -0.0008981909173073614
0.0005023210039481154 -0.001524697157403724 -0.0003868599818645176
0.0010224691703767904 -0.0016164133131111363 0.00043799618418777675
0.0015426173368054657 -0.0017081294688185485 0.0012908930675839354
0.002062765503234141 -0.001799845624525961 0.001352334168385612
-0.007208184840039313 0.0003711932610442009 0.0010221295238516065
-0.006688036673610637 0.00027947710533678853 0.000540618893213797
-0.006167888507181962 0.000187760949629376 -0.0002288277797508824
-0.005647740340753287 9.60447939219636e-05 -0.00022583527221994244
-0.005127592174324611 4.328638214551185e-06 -0.00025458016824218637
-0.004607444007895937 -8.738751749286122e-05 -0.00035025981653659974
-0.0040872958414672625 -0.00017910367320027359 -0.0007648674282761584
-0.0035671476750385868 -0.0002708198289076861 -0.0010414429227402406
-0.003046999508609912 -0.0003625359846150984 -0.001007085249169223
-0.002526851838233184 -0.00045425205285516874 -0.0009727275755982054
-0.002006703671804509 -0.0005459682085625811 -0.0007978797075339053
-0.0014865555053758337 -0.0006376843642699935 -0.0010256588432940976
-0.0009664073389471588 -0.0007294005199774059 -0.0007626606995279597
-0.0004462591725184837 -0.0008211166756848183 -0.00072830352966129
7.388899391019137e-05 -0.0009128328313922306 -0.0002916790008745363
0.0005940371603388664 -0.001004548987099643 0.0004338245047783768
0.0011141853267675414 -0.0010962651428070552 0.0013358320583915218
0.0016343334931962167 -0.0011879812985144675 0.0016879475902074872
-0.007636616845977205 0.0009830576103081292 0.0008635210839639608
-0.007116468679548529 0.0008913414546007168 0.0007652231804691055
-0.006596320513119855 0.0007996252988933043 0.00017597421944789033
-0.00607617234669118 0.0007079091431858919 -0.00013164306286491068
-0.005556024180262504 0.0006161929874784795 -0.0001975734286673453
-0.005035876013833829 0.000524476831771067 -0.00029587183586654857
-0.004515727847405154 0.00043276067606365457 -0.00047072020763519657
-0.00399557968097648 0.0003410445203562423 -0.0007337183514013346
-0.0034754315145478043 0.0002493283646488298 -0.0009523391347078072
-0.0029552833481191294 0.00015761220894141745 -0.0009235937349812152
-0.002435135677742401 6.589614070134712e-05 -0.0008948488389589713
-0.0019149875113137263 -2.582001500606526e-05 -0.0009292065125299888
-0.001394839344885051 -0.00011753617071347768 -0.000900461112803397
-0.0008746911784563761 -0.00020925232642089004 -0.0008717157130768051
0.00016560515440097403 -0.00039268463783571477 -0.000566144981529567
0.0006857533208296491 -0.00048440079354312705 0.0003730626492898581
0.001205901487258324 -0.0005761169492505394 0.0012542790503864496
0.0017260496536869992 -0.0006678331049579518 0.0009466620199258226
-0.007024752534774535 0.0014114895590228984 0.000742369106795682
-0.00650460436834586 0.001319773403315486 0.00041723349096688014
-0.005984456201917185 0.0012280572476080734 -0.000297439363797248
-0.00546430803548851 0.0011363410919006613 0.00021732985752443706
-0.004944159869059835 0.0010446249361932486 -0.00023204947276012208
-0.004424011702631159 0.0009529087804858363 -1.3428689453649644e-05
-0.0039038635362024852 0.000861192624778424 -0.0006036578591358999
-0.0033837153697738095 0.0007694764690710115 -0.0008314364911917444
-0.0028635672033451346 0.0006777603133635991 -0.0007970798250294226
-0.0023434195329684066 0.0005860442451235288 -0.0007311479481139443
-0.0018232713665397315 0.0004943280894161164 -0.0006652175823115096
-0.0013031232001110564 0.00040261193370870403 -0.0006939614709250577
-0.0007829750336823815 0.00031089577800129164 -0.0003418469465177883
-0.00026282686725370637 0.00021917962229387928 -0.00024354904302293298
0.0002573212991749687 0.00012746346658646697 0.00034569991799828225
0.0007774694656036437 3.57473108790547e-05 0.001247708479020123
0.0012976176320323187 -5.596884482835764e-05 0.0016843327559547029
-0.007453184545495798 0.002023353881158986 0.0008500560593356006
-0.006933036379067122 0.0019316377254515735 0.0005424392807271475
-0.006412888212638448 0.001839921569744161 0.00019032475631987805
-0.005892740046209773 0.0017482054140367485 -0.00011729252599292295
-0.005372591879781097 0.0016564892583293361 -0.00015165019956394054
-0.004852443713352422 0.0015647731026219238 -0.00021758056536637515
-0.004332295546923747 0.0014730569469145114 -0.00048057870913251324
-0.0038121473804950726 0.001381340791207099 -0.0005788781237404123
-0.0032919992140663973 0.0012896246354996866 -0.0003994898646840413
-0.0027718510476377224 0.0011979084797922742 -0.0007516053965000067
-0.002251703377260994 0.0011061924115522038 -0.0007228599967734147
-0.0017315552108323191 0.0010144762558447916 -0.00039772438094461284
-0.001211407044403644 0.0009227601001373791 -0.0007498389053518823
-0.0006912588779749691 0.0008310439444299667 -0.0004732639145921479
-0.00017111071154629398 0.0007393277887225544 9.209636402503442e-05
0.001389333787739731 0.00046417932160031745 0.0016458459659916837
-0.006841320223359711 0.0024517858918802486 0.0006679689523831218
-0.006321172056931035 0.002360069736172836 0.00029515066816366143
-0.00580102389050236 0.002268353580465424 -2.9984443960792513e-05
-0.005280875724073685 0.0021766374247580112 -0.0002093732067215114
-0.004760727557645009 0.002084921269050599 -3.452483495286336e-05
-0.004240579391216335 0.0019932051133431865 -0.0004839041652374225
-0.0037204312247876604 0.0019014889576357743 -0.0005795838135318358
-0.0032002830583589847 0.001809772801928362 -0.0005136519366163574
-0.00268013489193031 0.0017180566462209495 -0.0005423973363429494
-0.002159987221553582 0.001626340577980879 -0.0006038386889968
-0.0016398390551249067 0.0015346244222734667 -0.00025172416458953063
-0.0011196908886962316 0.0014429082665660543 -0.00028046805320307874
-0.0005995427222675566 0.001351192110858642 -0.00021453768740064416
-7.939455583888157e-05 0.0012594759551512295 0.00013757683700662532
0.0009609017770184686 0.001076043643736405 0.0017012121405053783
-0.007269752234080973 0.003063650214016336 0.0007990801719182991
-0.006749604067652298 0.0029719340583089235 0.000624232807558347
-0.006229455901223623 0.002880217902601511 0.00018760777506724534
-0.005709307734794947 0.0027885017468940987 1.27604107072931e-05
-0.005189159568366273 0.002696785591186686 -0.0004238646217838085
-0.004669011401937598 0.002605069435479274 -0.0001960854860236161
-0.004148863235508922 0.0025133532797718613 -0.0003709333540879162
-0.003628715069080248 0.002421637124064449 -0.0004692317612871195
-0.0031085669026515725 0.0023299209683570366 -0.00044048736896922343
-0.0025884187362228976 0.0022382048126496244 -0.00026109910991285246
-0.0020682710658461692 0.002146488744409554 -0.0005687158885213056
-0.0015481228994174943 0.0020547725887021416 -0.0004730367439312401
-0.0010279747329888192 0.0019630564329947294 -0.0001964612494671578
-0.0005078265665601444 0.0018713402772873168 -0.00016771736085360964
1.2321599868530796e-05 0.0017796241215799044 0.00024689176199899266
0.0005324697662972059 0.0016879079658724922 0.001043943951750941
0.001052617932725881 0.0015961918101650798 0.0011053853044047917
-0.006657887911944885 0.003492082224737599 0.000695367950387747
-0.00613773974551621 0.0034003660690301862 0.0003702328382632931
-0.005617591579087536 0.0033086499133227736 4.5097222434491215e-05
-0.00509744341265886 0.0032169337576153615 0.00030809435879193347
-0.004577295246230185 0.003125217601907949 3.151886432785111e-05
-0.00405714707980151 0.0030335014462005367 -2.9922488325999577e-05
-0.0035369989133728357 0.0029417852904931245 -0.000402740268841112
-0.00301685074694416 0.002850069134785712 -0.00046418111779061475
-0.002496702580515485 0.0027583529790782997 -0.0003982497445794843
-0.001976554910138757 0.002666636910838229 -0.0006748247353392187
-0.001456406743710082 0.002574920755130817 -0.00023820071025681293
-0.0009362585772814068 0.0024832045994234043 -0.0002669461099834048
-0.00041611041085273185 0.002391488443715992 0.0001696784188033489
0.00010403775557594324 0.0022997722880085795 0.000895181924456262
-0.007086319922666148 0.004103946546873687 0.0009482834442217482
-0.006566171756237473 0.004012230391166274 0.0006406666656132951
-0.006046023589808798 0.0039205142354588616 0.00028855214120602563
-0.005525875423380123 0.003828798079751449 0.0001902527265981265
-0.005005727256951448 0.0037370819240440368 1.540435482947845e-05
-0.004485579090522772 0.003645365768336624 -0.00015944401693916962
-0.003965430924094097 0.003553649612629212 -0.0002577419204340249
-0.003445282757665423 0.0034619334569218 -0.000432590292202673
-0.0029251345912367473 0.003370217301214387 -0.000607438663971321
-0.002404986424808073 0.003278501145506975 -0.0008704368077374591
-0.0018848387544313444 0.0031867850772669044 -0.0005938613132733767
-0.0013646905880026696 0.003095068921559492 -0.0005324199606195261
-0.0008445424215739945 0.0030033527658520796 -0.00025584396245109583
-0.00032439425514531946 0.0029116366101446674 0.00011697281065532072
0.00019575391128335564 0.002819920454437255 0.0006283042498025124
0.0007159020777120306 0.0027282042987298426 0.0013977516783237134
-0.005954307434101386 0.004440662401887536 9.038679146822375e-05
-0.00543415926767271 0.004348946246180124 0.00018868519866742703
-0.004914011101244035 0.004257230090472712 9.29794701975186e-06
-0.00439386293481536 0.004165513934765299 -5.2143405634098825e-05
-0.003873714768386685 0.0040737977790578864 -0.00014782305392851218
-0.003353566601958011 0.003982081623350475 -0.00042439804468824663
-0.002833418435529335 0.003890365467643062 -0.0006521766767440912
-0.0023132702691006602 0.00379864931193565 -0.000680922076470683
-0.0017931225987239323 0.0037069332436955793 -0.0006465644028996654
-0.0012729744322952572 0.003615217087988167 -9.410701485857436e-05
-0.0007528262658665821 0.0035235009322807545 8.074135691007368e-05
-0.00023267809943790712 0.0034317847765733423 0.00043285588131734316
0.000287470066990768 0.0033400686208659297 0.001158359890674604
-0.0063827394448226485 0.005052526724023624 0.0006409210363089901
-0.005862591278393973 0.004960810568316211 0.000333303753996189
-0.005342443111965298 0.004869094412608799 0.0001584558859318889
-0.004822294945536623 0.004777378256901386 0.00012409921976956715
-0.004302146779107948 0.004685662101193974 8.974154619854954e-05
-0.0037819986126792727 0.004593945945486562 -0.0002623739856174158
-0.0032618504462505983 0.004502229789779149 -0.00036067239281661905
-0.002741702279821923 0.0044105136340717365 -0.0006682891714250721
-0.002221554113393248 0.004318797478364325 -0.0006395437716984802
-0.0017014064430165199 0.004227081410124255 -0.0004601565200508051
-0.0011812582765878448 0.004135365254416842 -8.733873953569269e-05
-0.0006611101101591697 0.004043649098709429 -5.8593339809100806e-05
-0.00014096194373049473 0.003951932943002017 0.00048057733494279067
0.00037918622269818037 0.0038602167872946046 0.000757152829406873
0.0008993343891268554 0.0037685006315871924 0.0014991534080103972
-0.0057708751226865605 0.005480958734744886 0.000678727573550155
-0.005250726956257886 0.005389242579037474 0.00016739764551600706
-0.004730578789829211 0.005297526423330061 0.0005195121699232766
-0.0042104306234005354 0.005205810267622649 0.00045807081726942584
-0.00369028245697186 0.005114094111915236 0.00023029218521358134
-0.003170134290543186 0.0050223779562078245 -0.00028103875022926245
-0.0026499861241145103 0.004930661800500412 -0.0003097836462515064
-0.0021298379576858355 0.004838945644792999 -4.678550248536836e-05
-0.0016096902873091075 0.004747229576552929 1.9144863317066244e-05
-0.0010895421208804324 0.0046555134208455164 0.0001939932350857143
-0.0005693939544517573 0.004563797265138105 9.831358679130094e-05
-4.924578802308235e-05 0.004472081109430692 0.000687563051516864
0.00047090237840559276 0.0043803649537232795 0.0004109875570527817
-0.005679158966979149 0.006001106901173561 0.0008340956833676883
-0.0051590108005504735 0.005909390745466149 0.0003974716582852825
-0.004638862634121798 0.005817674589758737 0.00042621554689883066
-0.004118714467693123 0.005725958434051324 0.00048765790696137716
-0.003598566301264448 0.0056342422783439115 0.00045330023339035957
-0.0030784181348357735 0.0055425261226365 0.00027845236532605944
-0.002558269968407098 0.005450809966929087 0.00027545834668207575
-0.0020381218019784233 0.005359093811221675 0.0002724658391511358
-0.001517974131601695 0.005267377742981604 0.00023810816558011817
-0.00099782596517302 0.005175661587274192 0.00020375049200910055
-0.0004776777987443449 0.00508394543156678 0.00026519184466295125
4.247036768433004e-05 0.004992229275859367 0.00023083417109193366
0.0005626185341130051 0.004900513120151955 0.0009182591391558096
0.0010827667005416802 0.004808796964444542 0.001457429813907701
-0.005067294644843061 0.006429538911894825 0.0009783545937920419
-0.0045471464784143855 0.006337822756187412 0.0004968439631542322
-0.00402699831198571 0.0062461066004799995 0.0010493018548996711
-0.0035068501455570353 0.006154390444772587 0.001052295369839307
-0.0029867019791283613 0.006062674289065175 0.0011505937770385102
-0.0024665538126996856 0.0059709581333577625 0.0001509018318262656
-0.001946405646271011 0.00587924197765035 0.0008764068485922225
-0.0014262579758942827 0.00578752590941028 0.0006486272091276821
-0.0009061098094656077 0.005695809753702867 0.0005529475608332687
-0.0003859616430369325 0.005604093597995455 0.0004915062081794181
0.00013418652339174244 0.005512377442288043 0.0005898056227873172
0.0006543346898204175 0.00542066128658063 0.0011790535763998365
0.0011744828562490926 0.0053289451308732175 0.0012773527391555617
0.0016946310226777675 0.005237228975165806 0.0015849687622074928
-0.004455430322706974 0.006857970922616086 0.0008983804470654971
-0.0039352821562782985 0.006766254766908673 0.0011261590791213417
-0.003415133989849623 0.0066745386112012604 0.0011549044788479335
-0.002894985823420949 0.006582822455493849 0.0011519119713169937
-0.0023748376569922734 0.006491106299786436 0.0013796903515206642
-0.0018546894905635987 0.0063993901440790235 0.0009430660745860844
-0.0013345418201868705 0.006307674075838953 0.0007682177028174363
-0.0008143936537581955 0.006215957920131541 0.0005495969195109639
-0.0002942454873295203 0.006124241764424129 0.0005466044119800239
0.00022590267909915462 0.006032525608716716 0.0005122467384090063
0.0007460508455278297 0.005940809453009304 0.0007400253704648508
0.0012661990119565048 0.005849093297301891 0.0007687702664870948
0.0017863471783851797 0.005757377141594479 0.0007344125929160772
0.002306495344813855 0.005665660985887067 0.0007314200853851372
0.00282664351124253 0.005573944830179654 0.000792861438038988
0.003346791677671205 0.0054822286744722415 0.0013582212129518224
0.0038669398440998796 0.00539051251876483 0.0012599220501960974
0.005947532633827567 0.005023647874068345 0.0014853680274167654
0.006467680781848064 0.0049319317216067905 0.0014823755198858253
0.006987828935681671 0.004840215568120228 0.001416443894822521
0.007507977133113592 0.004748499406946107 0.001241595523053873
0.008028125299542267 0.004656783251238695 0.0015181707656657813
0.008548273465970943 0.0045650670955312824 0.0016975592765743263
0.009588569674815306 0.004381634805983293 0.0017020984083055274
0.010108717841243982 0.00428991865027588 0.0017308435561799453
0.011669162340530006 0.004014770183153643 0.001103901895100193
0.012189310506958682 0.003923054027446231 0.0007962851164917398
0.012709458673387356 0.0038313378717388185 0.0006979867092925365
0.013229606839816032 0.003739621716031406 0.0011125948247364432
0.014269903172673381 0.0035561894046165815 0.0010427652835768287
-0.0033234178341422106 0.007194686777629936 0.0016655584356471847
-0.0028032696677135365 0.007102970621922524 0.0017314890533017932
-0.0022831215012848608 0.007011254466215111 0.0016700477006479425
-0.0017629733348561861 0.006919538310507699 0.0014906604490002673
-0.001242825664479458 0.006827822242267629 0.001076051577999839
-0.0007226774980507829 0.006736106086560216 0.001174350740755564
-0.00020252933162210772 0.006644389930852804 0.0007249711586188311
0.0003176188348065672 0.006552673775145392 0.00013474198893658092
0.0008377670012352423 0.006460957619437979 0.000442358767545034
0.0013579151676639174 0.006369241463730566 0.00034667962295496855
0.0018780633340925923 0.006277525308023155 0.00016729186760294548
0.0023982115005212676 0.006185809152315742 0.00017028487883823337
0.0029183596669499425 0.0060940929966083295 0.00026858378974178453
0.003438507833378618 0.006002376840900917 0.00033451465924856703
0.003958655999807293 0.005910660685193505 9.379043419765162e-06
0.004478804166235968 0.0058189445294860925 0.0009654889773376958
0.00499895245667763 0.005727228351911844 0.0005508803581894414
0.005519100623106304 0.0056355121962044325 0.0008138785019555795
0.00603924878953498 0.00554379604049702 0.00036449866796667236
0.006559396937555476 0.005452079888035466 0.0003674926866106561
0.007079545091389083 0.005360363734548903 0.00027181303831624274
0.007599693288821005 0.005268647573374782 0.00024306763858965088
0.00811984145524968 0.00517693141766737 0.00027742531216066844
0.008639989621678355 0.005085215261959958 0.0003757237193598717
0.009160137664094042 0.004993499128119381 0.0005943445026663442
0.009680285830522719 0.004901782972411968 0.00031776951190660974
0.010200433996951395 0.0048100668167045555 0.00013838074914589084
0.01072058216338007 0.004718350660997144 0.0007276302138714539
0.011240730329808745 0.004626634505289731 0.0001622699352542716
0.011760878496237418 0.004534918349582319 6.659079066420616e-05
0.012281026662666094 0.004443202193874906 0.0001325226675796845
0.012801174829094769 0.004351486038167494 0.0003955203076414746
0.013321322995523445 0.004259769882460082 0.0006585174439989169
0.01384147116195212 0.004168053726752669 0.000921515587765055
0.014361619328380794 0.004076337571045256 0.0009558732613360726
0.01488176749480947 0.003984621415337845 0.0011744942964947189
0.015401916157290092 0.0038929051721630897 0.00148211031954665
-0.0021914053455774486 0.007531402632643787 0.0015591337662031312
-0.0016712571791487737 0.007439686476936374 0.0015247760926321136
-0.0011511095087720455 0.007347970408696304 0.001172661568224844
-0.0006309613423433705 0.007256254252988891 0.000997813196456196
-0.00011081317591469534 0.0071645380972814796 0.0007791924131497237
0.0004093349905139796 0.007072821941574067 0.0005605721335475992
0.0009294831569426547 0.006981105785866654 0.00025295535493914613
0.0014496313233713298 0.006889389630159242 -9.915916946812336e-05
0.001969779489800005 0.00679767347445183 -0.00027400754123677143
0.0024899276562286798 0.006705957318744417 -0.0004926288282475918
0.003010075822657355 0.006614241163037005 -0.0005909267317424471
0.00353022398908603 0.006522525007329592 -0.000562182339424551
0.004050372155514704 0.00643080885162218 -0.0005007414904750482
0.00457052032194338 0.006339092695914768 -0.0005037339980059882
0.005090668612385042 0.00624737651834052 -0.0005696658749214666
0.005610816778813717 0.006155660362633108 -0.0006355962407239012
0.006130964945242391 0.006063944206925695 -0.0005741553917743984
0.006651113093262889 0.005972228054464141 -0.0002975798973103161
0.007171261247096496 0.005880511900977579 -0.0003635107668170986
0.007691409444528417 0.0057887957398034574 -0.00039786844038811617
0.008211557610957092 0.005697079584096046 -0.0003691230406615243
0.008731705777385768 0.005605363428388633 -0.00030768168800767364
0.009251853819801455 0.005513647294548056 -0.00034203936157869123
0.009772001986230131 0.0054219311388406435 -0.00028059800892484053
0.010292150152658807 0.005330214983133231 -0.00025185260919824865
0.010812298319087482 0.005238498827425819 -0.000470473896209069
0.011332446485516156 0.0051467826717184065 -0.00019389840174498666
0.01185259465194483 0.005055066516010994 -0.00016515350572274268
0.012372742818373507 0.004963350360303581 1.4234249629280395e-05
0.012892890984802181 0.0048716342045961696 0.00038705203014439277
0.013413039151230858 0.004779918048888757 0.0005664392817920679
0.013933187317659532 0.004688201893181344 0.0009392570623071803
0.014453335484088206 0.004596485737473932 0.0011186443139548554
0.014973483650516883 0.00450476958176652 0.0013464239534193958
0.015493632312997505 0.004413053338591765 0.001525811456919245
-0.0015795409359740191 0.007959835139416997 0.0016725977039092426
-0.001059393265597291 0.007868119071176927 0.0013960224612973341
-0.000539245099168616 0.0077764029154695135 0.0011682440810936636
-1.9096932739940763e-05 0.007684686759762102 0.0009404644416291232
0.0005010512336887341 0.007592970604054689 0.000761077189981448
0.0010211994001174092 0.007501254448347277 0.0001237506563608122
0.0015413475665460843 0.007409538292639864 6.23093037069615e-05
0.0020614957329747594 0.007317822136932452 -0.0006251151606525666
0.0025816438994034343 0.00722610598122504 -0.00027299962883660134
0.0031017920658321096 0.007134389825517627 -0.0011258975196414556
0.0036219402322607845 0.007042673669810214 -0.001402473014105538
0.004142088398689459 0.006950957514102803 -0.0009658489890231322
0.004662236565118135 0.00685924135839539 -0.0009945938850453762
0.005182384855559797 0.006767525180821142 -0.0009286625118342458
0.005702533021988471 0.00667580902511373 -0.000925669500598958
0.006222681188417146 0.0065840928694063175 -0.0009544138929168539
0.006742829336437643 0.006492376716944763 -0.00010853008515666193
0.00726297749027125 0.006400660563458201 -0.0007226383668603347
0.007783125687703171 0.00630894440228408 -0.0007196453556250469
0.008303273854131847 0.006217228246576668 -0.0006537139824139164
0.008823422020560521 0.006125512090869255 -0.0005554155752147132
0.00934357006297621 0.006033795957028678 -0.0005524220602750774
0.009863718229404884 0.005942079801321266 -0.000613863412928928
0.01038386639583356 0.005850363645613853 -0.0005155650057297248
0.010904014562262235 0.005758647489906441 -0.0004812073321587071
0.011424162728690911 0.005666931334199029 -0.00017359156095894985
0.011944310895119586 0.005575215178491616 -7.529214635105075e-05
0.012464459061548262 0.0054834990227842035 0.00014332762954672584
0.012984607227976936 0.005391782867076792 0.00045094491185952685
0.013504755394405613 0.005300066711369379 0.0007139430556256649
0.014024903560834287 0.005208350555661967 0.0009325638389321373
0.014545051727262961 0.005116634399954554 0.0012846786151915809
-0.0014878247802666068 0.008479983305845673 0.0017143255794988955
-0.0009676771098898785 0.008388267237605603 0.0015394772077302475
-0.0004475289434612035 0.00829655108189819 0.001441179052383218
7.261922296747162e-05 0.008204834926190778 0.0010045547754486384
0.0005927673893961465 0.008113118770483365 0.0008297069073843383
0.0011129155558248216 0.008021402614775953 -4.452386996324788e-05
0.0016330637222534967 0.00792968645906854 -0.000633773334688811
0.0021532118886821716 0.007837970303361128 -0.000941390113297264
0.002673360055110847 0.007746254147653716 -0.0011600114003080845
0.003193508221539522 0.007654537991946303 -0.001378631176205861
0.003713656387968197 0.007562821836238891 -0.0012829520316157957
0.004233804554396872 0.007471105680531479 -0.0012859455465554315
0.004753952720825547 0.007379389524824066 -0.0011902658982610181
0.005274101011267209 0.007287673347249818 -0.001161521002238774
0.005794249177695884 0.007195957191542406 -0.001132776609920878
0.006314397344124559 0.007104241035834994 -0.0010713352572670274
0.006834545492145056 0.0070125248833734395 -0.0007461986340295295
0.007354693645978663 0.006920808729886877 -0.0008444980486374286
0.007874841843410585 0.006829092568712756 -0.0007488184003430153
0.00839499000983926 0.006737376413005344 -0.0006873775513935125
0.008915138176267934 0.0066456602572979315 -0.0005079897960414894
0.009955434385112297 0.006462227967749942 -0.00040684596298093623
0.010475582551540973 0.006370511812042529 -0.00034540461032708553
0.010995730717969648 0.0062787956563351175 -0.00016601635127071456
0.011515878884398324 0.006187079500627705 1.3370900376960605e-05
0.012036027050826998 0.006095363344920292 0.0002411495324328051
0.012556175217255675 0.00600364718921288 0.0004205367840804803
0.013596471550113025 0.005820214877798055 0.0007731731461921857
0.0141166197165417 0.005728498722090643 0.0012845043334872032
0.014636767882970372 0.00563678256638323 0.0016573221140023158
0.00016433537867488403 0.008724983092619452 0.0015926885350435783
0.0006844835451035589 0.00863326693691204 0.0013161132924316699
0.001204631711532234 0.008541550781204627 0.0005466653602061208
0.0017247798779609091 0.008449834625497215 -0.0002781908058461734
0.0022449280443895842 0.008358118469789802 -0.0006033259179706275
0.002765076210818259 0.00826640231408239 -0.0009284615337994294
0.0032852243772469344 0.008174686158374979 -0.0012535971496282312
0.0038053725436756093 0.008082970002667566 -0.0014329844012759064
0.004325520710104284 0.007991253846960153 -0.0011253676226674534
0.004845668876532959 0.00789953769125274 -0.0012210467672575187
0.005365817166974622 0.0078078215136784925 -0.0011227488637626634
0.005885965333403296 0.007716105357971081 -0.0009479004919940154
0.006406113499831971 0.007624389202263668 -0.0009449069770543796
0.006926261647852468 0.007532673049802114 -0.0006372896947415786
0.007446409801686075 0.007440956896315552 -0.0006342971872106386
0.007966557999117996 0.00734924073514143 -0.0003712990434445005
0.008486706165546672 0.007257524579434019 -0.0003053671665290222
0.009006854331975346 0.007165808423726606 2.248604670735066e-06
0.009527002374391033 0.007074092289886029 -2.6495283942813082e-05
0.01004715054081971 0.006982376134178616 0.00044966852504191995
0.010567298707248386 0.006890659978471204 0.0003539893804518545
0.01108744687367706 0.006798943822763792 0.0003883470540228721
0.011607595040105737 0.006707227667056379 0.0007404615784301416
0.012127743206534411 0.006615511511348967 0.0007434550933697774
0.012647891372963087 0.006523795355641554 0.0009183034651384254
0.013168039539391762 0.006432079199934142 0.0010931518369070735
0.013688187705820438 0.00634036304422673 0.00131177161280485
0.01420833587224911 0.006248646888519317 0.0016638871446208153
0.0012963478672396464 0.009061698947633302 0.001089708010280405
0.0018164960336683215 0.008969982791925889 0.0006135436975913241
0.0023366442000969964 0.008878266636218476 0.0002614281657753588
0.0028567923665256717 0.008786550480511064 -1.5699779907792106e-06
0.0033769405329543466 0.008694834324803653 -0.00026456711434822143
0.003897088699383022 0.00860311816909624 -0.0004394154861168695
0.004417236865811696 0.008511402013388828 -0.0005053468593279999
0.004937385032240372 0.008419685857681415 -0.00047660196330575596
0.0054575333226820335 0.008327969680107168 -0.0011017635332199903
0.005977681489110708 0.008236253524399755 -0.0005115338598333922
0.006497829655539383 0.008144537368692343 -0.0005145278784773759
0.007017977803559881 0.008052821216230788 -0.00048578247875078406
0.007538125957393487 0.007961105062744226 -0.0002092069842867017
0.008058274154825408 0.007869388901570105 -0.00014776613533719893
0.008578422321254085 0.007777672745862693 3.1621620014824144e-05
0.009098570487682759 0.00768595659015528 9.306246896432691e-05
0.009618718530098446 0.007594240456314703 0.00027245022431635
0.010138866696527122 0.007502524300607291 0.00033389107326585275
0.010659014862955798 0.007410808144899878 0.0004295707215602661
0.011179163029384473 0.0073190919891924664 0.0005252503698546795
0.011699311195813149 0.007227375833485054 0.0008503854819791335
0.012219459362241824 0.007135659677777641 0.0008473929744481936
0.0127396075286705 0.007043943522070229 0.0008761373667660895
0.013259755695099174 0.006952227366362817 0.001248955147281202
0.014300052027956523 0.006768795054947992 0.0016882148053640527
0.014820200194385198 0.006677078899240579 0.0016852222978331127
0.0019082121893757341 0.009490130958354565 0.0016645590862209288
0.0029485085222330843 0.00930669864693974 0.0015109539416210843
0.003468656688661759 0.00921498249123233 0.0013202847199888959
0.0039888048550904345 0.009123266335524917 0.0011296144909480116
0.004508953021519109 0.009031550179817504 0.0004421900265884834
0.005029101187947784 0.008939834024110091 0.0006608108098949557
0.005549249478389446 0.008848117846535844 0.0008161960456603181
0.006069397644818121 0.008756401690828431 0.0007205163973659048
0.006589545811246796 0.008664685535121019 0.001446020406723166
0.0071096939592672935 0.008572969382659465 0.000934689471280322
0.0076298421131009 0.008481253229172902 0.0010329883821838732
0.008149990310532821 0.008389537067998781 0.0009373092375938077
0.008670138476961497 0.008297820912291368 0.001244926268054435
0.009190286643390172 0.008206104756583956 0.0010171463767377205
0.009710434685805859 0.00811438862274338 0.0009884014807154766
0.010230582852234535 0.008022672467035967 0.0009913949956551124
0.010750731018663211 0.007930956311328554 0.0012990120261157393
0.011270879185091886 0.007839240155621142 0.001364942643770348
