ply
format ascii 1.0
element vertex 643
property float x
property float y
property float z
property uchar red
property uchar green
property uchar blue
end_header
0.02593856060409694 -0.0025193970498306717 -0.004414964070450122 0 121 133
0.024697748480169632 -0.007482645841372552 -0.0028847199185119696 0 25 229
0.024697748480169632 -0.006241833717445248 -0.0033061495226582444 0 51 203
0.024697748480169632 -0.005001021593517944 -0.004748846731150643 0 142 112
0.024697748480169632 -0.003760209173757976 -0.004026174867400524 0 96 158
0.024697748480169632 -0.0025193970498306717 -0.003615411805770081 0 71 183
0.02345693635624233 -0.013686706461009073 -0.0063951069870756124 0 245 9
0.02345693635624233 -0.011205082213154464 -0.00635109182006664 0 242 12
0.02345693635624233 -0.00996427008922716 -0.006358125537474462 0 243 11
0.02345693635624233 -0.008723457965299856 -0.006768889190770231 15 239 0
0.02345693635624233 -0.007482645841372552 -0.006624547700916823 5 249 0
0.02345693635624233 -0.006241833717445248 -0.005748703150641933 0 204 50
0.02345693635624233 -0.005001021593517944 -0.004420528091185583 0 121 133
0.02345693635624233 -0.003760209173757976 -0.0030339278556802624 0 34 220
0.02345693635624233 -0.0025193970498306717 -0.0034446909173107055 0 60 194
0.022216124232315025 -0.023613202269096852 -0.005799620685356124 0 207 47
0.022216124232315025 -0.017409142832790984 -0.003177442197406474 0 43 211
0.022216124232315025 -0.014927518584936376 -0.0028536000973057797 0 23 231
0.022216124232315025 -0.013686706461009073 -0.0029979415871591894 0 32 222
0.022216124232315025 -0.012445894337081768 -0.007205587902011363 46 208 0
0.022216124232315025 -0.011205082213154464 -0.006794824248715593 17 237 0
0.022216124232315025 -0.00996427008922716 -0.006939165738569002 27 227 0
0.022216124232315025 -0.008723457965299856 -0.007163940579641195 43 211 0
0.022216124232315025 -0.007482645841372552 -0.007083225595726742 37 217 0
0.022216124232315025 -0.006241833717445248 -0.007150755909493492 42 212 0
0.022216124232315025 -0.005001021593517944 -0.006637159639027953 6 248 0
0.022216124232315025 -0.003760209173757976 -0.0036421586285441377 0 72 182
0.020975312108387722 -0.027335638640878766 -0.003521636401426603 0 65 189
0.020975312108387722 -0.024854014393024156 -0.005834095840631944 0 210 44
0.020975312108387722 -0.023613202269096852 -0.004090945654081971 0 100 154
0.020975312108387722 -0.02237239014516955 -0.006078143588067056 0 225 29
0.020975312108387722 -0.021131578021242242 -0.004811492255977371 0 146 108
0.020975312108387722 -0.01989076589731494 -0.0033687956391503003 0 55 199
0.020975312108387722 -0.018649954956718288 -0.004578122884364632 0 131 123
0.020975312108387722 -0.017409142832790984 -0.004585154235111145 0 131 123
0.020975312108387722 -0.01616833070886368 -0.004592186769188313 0 132 122
0.020975312108387722 -0.014927518584936376 -0.007401427941930114 59 195 0
0.020975312108387722 -0.013686706461009073 -0.006200182845083115 0 233 21
0.020975312108387722 -0.012445894337081768 -0.00766884765311386 78 176 0
0.020975312108387722 -0.011205082213154464 -0.007133734881365277 40 214 0
0.020975312108387722 -0.00996427008922716 -0.0076473311518308155 76 178 0
0.020975312108387722 -0.008723457965299856 -0.007654364869238637 77 177 0
0.020975312108387722 -0.007482645841372552 -0.0075100233793852274 67 187 0
0.020975312108387722 -0.006241833717445248 -0.007590735996638372 73 181 0
0.020975312108387722 -0.005001021593517944 -0.006714891446363483 11 243 0
0.020975312108387722 -0.003760209173757976 -0.0034560372832873037 0 61 193
0.01973450116779107 -0.02609482651695146 -0.004299386982135968 0 113 141
0.01973450116779107 -0.024854014393024156 -0.004524163006538814 0 128 126
0.01973450116779107 -0.023613202269096852 -0.0058523380659951645 0 211 43
0.01973450116779107 -0.02237239014516955 -0.005771625448742019 0 206 48
0.01973450116779107 -0.021131578021242242 -0.006647469999016909 6 248 0
0.01973450116779107 -0.01989076589731494 -0.006566755015102455 1 253 0
0.01973450116779107 -0.018649954956718288 -0.00615599254513734 0 230 24
0.01973450116779107 -0.017409142832790984 -0.005642395091341147 0 198 56
0.01973450116779107 -0.01616833070886368 -0.0061775054964284225 0 231 23
0.01973450116779107 -0.014927518584936376 -0.007856455261672213 91 163 0
0.01973450116779107 -0.013686706461009073 -0.007849425094256355 91 163 0
0.01973450116779107 -0.012445894337081768 -0.008074198751997892 106 148 0
0.01973450116779107 -0.011205082213154464 -0.00806716740125138 106 148 0
0.01973450116779107 -0.00996427008922716 -0.00813469771501813 111 143 0
0.01973450116779107 -0.008723457965299856 -0.008127665180940961 110 144 0
0.01973450116779107 -0.007482645841372552 -0.007972776664967781 99 155 0
0.01973450116779107 -0.006241833717445248 -0.007562013011672011 71 183 0
0.01973450116779107 -0.005001021593517944 -0.007331083667867974 54 200 0
0.01973450116779107 -0.003760209173757976 -0.005411971029726401 0 183 71
0.018493689043863767 -0.02857645076480607 -0.003145818869006975 0 41 213
0.018493689043863767 -0.02609482651695146 -0.0027079587187288697 0 14 240
0.018493689043863767 -0.024854014393024156 -0.005632264597611612 0 197 57
0.018493689043863767 -0.023613202269096852 -0.006658007558491446 7 247 0
0.018493689043863767 -0.02237239014516955 -0.006665040092568613 8 246 0
0.018493689043863767 -0.021131578021242242 -0.006819928608541793 18 236 0
0.018493689043863767 -0.01989076589731494 -0.007050855585684521 35 219 0
0.018493689043863767 -0.018649954956718288 -0.006515745180597246 0 252 2
0.018493689043863767 -0.017409142832790984 -0.006596460164511699 3 251 0
0.018493689043863767 -0.01616833070886368 -0.007894325392594574 94 160 0
0.018493689043863767 -0.014927518584936376 -0.008125252369737303 110 144 0
0.018493689043863767 -0.013686706461009073 -0.008356180530210686 126 128 0
0.018493689043863767 -0.012445894337081768 -0.008511071412845173 137 117 0
0.018493689043863767 -0.011205082213154464 -0.008286295388442326 121 133 0
0.018493689043863767 -0.00996427008922716 -0.008293327922519493 122 132 0
0.018493689043863767 -0.008723457965299856 -0.008225798792083398 117 137 0
0.018493689043863767 -0.007482645841372552 -0.008158268478316648 112 142 0
0.018493689043863767 -0.006241833717445248 -0.0077368418324970075 83 171 0
0.018493689043863767 -0.005001021593517944 -0.006762818704514827 14 240 0
0.018493689043863767 -0.003760209173757976 -0.005427729444046717 0 184 70
0.017252876919936464 -0.027335638640878766 -0.003778489561534787 0 81 173
0.017252876919936464 -0.02609482651695146 -0.004979734658381787 0 156 98
0.017252876919936464 -0.024854014393024156 -0.00704993732109696 35 219 0
0.017252876919936464 -0.023613202269096852 -0.006895049988454434 24 230 0
0.017252876919936464 -0.02237239014516955 -0.007430159210211056 61 193 0
0.017252876919936464 -0.021131578021242242 -0.007497689523977805 66 188 0
0.017252876919936464 -0.01989076589731494 -0.007490656989900637 66 188 0
0.017252876919936464 -0.018649954956718288 -0.007483626822484778 65 189 0
0.017252876919936464 -0.017409142832790984 -0.006970029368688586 29 225 0
0.017252876919936464 -0.01616833070886368 -0.008298204428144936 122 132 0
0.017252876919936464 -0.014927518584936376 -0.008442545917998345 132 122 0
0.017252876919936464 -0.013686706461009073 -0.009573736656793454 212 42 0
0.017252876919936464 -0.012445894337081768 -0.008746529363062354 154 100 0
0.017252876919936464 -0.011205082213154464 -0.008890870852915763 164 90 0
0.017252876919936464 -0.00996427008922716 -0.0075065739705286 67 187 0
0.017252876919936464 -0.008723457965299856 -0.00827040089109679 120 134 0
0.017252876919936464 -0.007482645841372552 -0.008263369540350278 120 134 0
0.017252876919936464 -0.006241833717445248 -0.008108479841046444 109 145 0
0.017252876919936464 -0.005001021593517944 -0.005862331293368828 0 211 43
0.016012064796009157 -0.02857645076480607 -0.004168851411023651 0 105 149
0.016012064796009157 -0.027335638640878766 -0.003944075386620805 0 91 163
0.016012064796009157 -0.02609482651695146 -0.006252371276919784 0 236 18
0.016012064796009157 -0.024854014393024156 -0.005376526726644894 0 181 73
0.016012064796009157 -0.023613202269096852 -0.007430318959849355 61 193 0
0.016012064796009157 -0.02237239014516955 -0.007511033943763809 67 187 0
0.016012064796009157 -0.021131578021242242 -0.008128882828184004 110 144 0
0.016012064796009157 -0.01989076589731494 -0.007904107987111811 95 159 0
0.016012064796009157 -0.018649954956718288 -0.007984822971026265 100 154 0
0.016012064796009157 -0.017409142832790984 -0.007917292657259515 95 159 0
0.016012064796009157 -0.01616833070886368 -0.008943034434808695 167 87 0
0.016012064796009157 -0.014927518584936376 -0.0088755053043726 163 91 0
0.016012064796009157 -0.013686706461009073 -0.009030395003676434 173 81 0
0.016012064796009157 -0.012445894337081768 -0.00849528223192785 136 118 0
0.016012064796009157 -0.011205082213154464 -0.00872621275906254 152 102 0
0.016012064796009157 -0.00996427008922716 -0.00913697641235831 181 73 0
0.016012064796009157 -0.008723457965299856 -0.008373149491790119 127 127 0
0.016012064796009157 -0.007482645841372552 -0.007399127547138593 59 195 0
0.016012064796009157 -0.006241833717445248 -0.008226337207531001 117 137 0
0.016012064796009157 -0.005001021593517944 -0.00702508856069204 33 221 0
0.016012064796009157 -0.003760209173757976 -0.0046043585082961285 0 133 121
0.014771252672081854 -0.02857645076480607 -0.0028946835626192822 0 25 229
0.014771252672081854 -0.027335638640878766 -0.004509621056130887 0 127 127
0.014771252672081854 -0.02609482651695146 -0.006006863299457543 0 220 34
0.014771252672081854 -0.024854014393024156 -0.006074393613224293 0 225 29
0.014771252672081856 -0.023613202269096852 -0.0074609944403949404 63 191 0
0.014771252672081856 -0.02237239014516955 -0.00788242108621458 93 161 0
0.014771252672081856 -0.021131578021242242 -0.007875387368806759 92 162 0
0.014771252672081856 -0.01989076589731494 -0.008296815197957053 122 132 0
0.014771252672081856 -0.018649954956718288 -0.008831927969705635 160 94 0
0.014771252672081856 -0.017409142832790984 -0.00897626827622839 170 84 0
0.014771252672081856 -0.01616833070886368 -0.00904379858999514 174 80 0
0.014771252672081856 -0.014927518584936376 -0.00918814007984855 185 69 0
0.014771252672081856 -0.013686706461009073 -0.009033249197214063 174 80 0
0.014771252672081856 -0.012445894337081768 -0.009177590687067472 184 70 0
0.014771252672081856 -0.011205082213154464 -0.008766827033771702 155 99 0
0.014771252672081856 -0.00996427008922716 -0.00883435734753845 160 94 0
0.014771252672081856 -0.008723457965299856 -0.00832075989374226 124 130 0
0.014771252672081856 -0.007482645841372552 -0.007909996240446488 95 159 0
0.014771252672081856 -0.006241833717445248 -0.007679069263303761 79 175 0
0.014771252672081854 -0.005001021593517944 -0.0062947723809165974 0 239 15
0.014771252672081854 -0.003760209173757976 -0.004375659742775023 0 118 136
0.01353044054815455 -0.029817262888733372 -0.0043897780608087925 0 119 135
0.01353044054815455 -0.02857645076480607 -0.0037400313152773515 0 78 176
0.01353044054815455 -0.027335638640878766 -0.005444426239575716 0 185 69
0.01353044054815455 -0.02609482651695146 -0.006271635899968124 0 237 17
0.01353044054815455 -0.024854014393024156 -0.0069943042137262795 31 223 0
0.013530440548154552 -0.023613202269096852 -0.007821513874118688 89 165 0
0.013530440548154552 -0.02237239014516955 -0.007828545224865202 89 165 0
0.013530440548154552 -0.021131578021242242 -0.008446395292616052 133 121 0
0.013530440548154552 -0.01989076589731494 -0.00852710909319985 138 116 0
0.013530440548154552 -0.018649954956718288 -0.008758037253673233 154 100 0
0.013530440548154552 -0.017409142832790984 -0.00891292813630772 165 89 0
0.013530440548154552 -0.01616833070886368 -0.009740135430038821 223 31 0
0.013530440548154552 -0.014927518584936376 -0.00897630850947063 170 84 0
0.013530440548154552 -0.013686706461009073 -0.010185633388023653 255 0 0
0.013530440548154552 -0.012445894337081768 -0.009211613810033435 186 68 0
0.013530440548154552 -0.011205082213154464 -0.008790183614221833 157 97 0
0.013530440548154552 -0.00996427008922716 -0.008797217331629654 157 97 0
0.013530440548154552 -0.008723457965299856 -0.008652875841776245 147 107 0
0.013530440548154552 -0.007482645841372552 -0.008003129096244805 101 153 0
0.013530440548154552 -0.006241833717445248 -0.007353383534044018 56 198 0
0.01353044054815455 -0.005001021593517944 -0.005856140107386708 0 211 43
0.01353044054815455 -0.003760209173757976 -0.005607682086603859 0 195 59
0.01353044054815455 -0.0025193970498306717 -0.003928732321360069 0 90 164
0.012289628424227246 -0.029817262888733372 -0.004561248589237524 0 130 124
0.012289628424227246 -0.02857645076480607 -0.003838576725487406 0 85 169
0.012289628424227246 -0.027335638640878766 -0.005281274525645131 0 175 79
0.012289628424227246 -0.02609482651695146 -0.00677851795230244 16 238 0
0.012289628424227246 -0.024854014393024156 -0.006623629436329261 5 249 0
0.012289628424227247 -0.023613202269096852 -0.008066326053156332 106 148 0
0.012289628424227247 -0.02237239014516955 -0.008210667543009741 116 138 0
0.012289628424227247 -0.021131578021242242 -0.00835500903286315 126 128 0
0.012289628424227247 -0.01989076589731494 -0.00877643567868279 156 98 0
0.012289628424227247 -0.018649954956718288 -0.009001211703085637 171 83 0
0.012289628424227247 -0.017409142832790984 -0.008920496719171184 166 88 0
0.012289628424227247 -0.01616833070886368 -0.009341923364990824 195 59 0
0.012289628424227247 -0.014927518584936376 -0.009334893197574964 195 59 0
0.012289628424227247 -0.013686706461009073 -0.009103962670440273 179 75 0
0.012289628424227247 -0.012445894337081768 -0.008693200200475157 150 104 0
0.012289628424227247 -0.011205082213154464 -0.008462272040001776 134 120 0
0.012289628424227247 -0.00996427008922716 -0.008231345062859047 117 137 0
0.012289628424227247 -0.008723457965299856 -0.008766454284615668 155 99 0
0.012289628424227246 -0.007482645841372552 -0.006458159577647343 0 249 5
0.012289628424227246 -0.006241833717445248 -0.006451129410231484 0 248 6
0.012289628424227246 -0.005001021593517944 -0.005066832527844321 0 162 92
0.011048816300299942 -0.031058075012660676 -0.004049148048718736 0 98 156
0.011048816300299942 -0.029817262888733372 -0.004459910518683853 0 124 130
0.011048816300299942 -0.02857645076480607 -0.0055785449359085715 0 194 60
0.011048816300299942 -0.027335638640878766 -0.005733433451881751 0 203 51
0.011048816300299944 -0.02609482651695146 -0.007202098259912497 45 209 0
0.011048816300299944 -0.024854014393024156 -0.007612861913208267 74 180 0
0.011048816300299944 -0.023613202269096852 -0.008023625566504038 103 151 0
0.011048816300299944 -0.02237239014516955 -0.00810434055041849 109 145 0
0.011048816300299944 -0.021131578021242242 -0.008515103020383606 137 117 0
0.011048816300299944 -0.01989076589731494 -0.008746031180856989 154 100 0
0.011048816300299944 -0.018649954956718288 -0.009864665598081707 232 22 0
0.011048816300299944 -0.017409142832790984 -0.008663418134573398 148 106 0
0.011048816300299944 -0.01616833070886368 -0.008818305467215924 159 95 0
0.011048816300299944 -0.014927518584936376 -0.009436155534966774 202 52 0
0.011048816300299944 -0.013686706461009073 -0.009014728889147136 172 82 0
0.011048816300299944 -0.012445894337081768 -0.009095443873061588 178 76 0
0.011048816300299944 -0.011205082213154464 -0.009027913559294838 173 81 0
0.011048816300299944 -0.00996427008922716 -0.009034943726710697 174 80 0
0.011048816300299944 -0.008723457965299856 -0.008159099176435808 112 142 0
0.011048816300299942 -0.007482645841372552 -0.006351471669206599 0 242 12
0.011048816300299942 -0.006241833717445248 -0.005701726107005812 0 201 53
0.011048816300299944 -0.005001021593517944 -0.007170390915036558 43 211 0
0.011048816300299942 -0.003760209173757976 -0.0061146824720035835 0 227 27
0.009808004176372637 -0.029817262888733372 -0.0048378024297400755 0 147 107
0.009808004176372637 -0.02857645076480607 -0.005601629350308266 0 195 59
0.009808004176372637 -0.027335638640878766 -0.005446738467673779 0 185 69
0.009808004176372637 -0.02609482651695146 -0.007061675961185385 35 219 0
0.009808004176372639 -0.024854014393024156 -0.007483102607005024 65 189 0
0.009808004176372639 -0.023613202269096852 -0.008246929527573214 119 135 0
0.009808004176372639 -0.02237239014516955 -0.008471704368645406 134 120 0
0.009808004176372639 -0.021131578021242242 -0.0088931321977957 164 90 0
0.009808004176372639 -0.01989076589731494 -0.00827528213004485 121 133 0
0.009808004176372639 -0.018649954956718288 -0.009039107867282388 174 80 0
0.009808004176372639 -0.017409142832790984 -0.009106638181049138 179 75 0
0.009808004176372639 -0.01616833070886368 -0.009528064826868776 208 46 0
0.009808004176372639 -0.014927518584936376 -0.009595595140635526 213 41 0
0.009808004176372639 -0.013686706461009073 -0.008569853363086346 141 113 0
0.009808004176372639 -0.012445894337081768 -0.008991280008905986 171 83 0
0.009808004176372639 -0.011205082213154464 -0.008760353031763257 155 99 0
0.009808004176372639 -0.00996427008922716 -0.008349589378467488 126 128 0
0.009808004176372639 -0.008723457965299856 -0.007230957327904078 47 207 0
0.009808004176372637 -0.007482645841372552 -0.006508285464153959 0 252 2
0.009808004176372637 -0.006241833717445248 -0.004389237278699881 0 119 135
0.009808004176372637 -0.005001021593517944 -0.0029205718790038075 0 27 227
0.008567192052445334 -0.031058075012660676 -0.004962517197364997 0 155 99
0.008567192052445334 -0.029817262888733372 -0.004894989250259556 0 151 103
0.008567192052445334 -0.02857645076480607 -0.005512836951349098 0 190 64
0.008567192052445334 -0.027335638640878766 -0.006538578728898278 0 254 0
0.008567192052445336 -0.02609482651695146 -0.007261250592648397 49 205 0
0.008567192052445336 -0.024854014393024156 -0.007879100660399246 93 161 0
0.008567192052445336 -0.023613202269096852 -0.008110027637541975 109 145 0
0.008567192052445336 -0.02237239014516955 -0.008340958164676664 125 129 0
0.008567192052445336 -0.021131578021242242 -0.008571885141819393 141 113 0
0.008567192052445336 -0.01989076589731494 -0.008726773657792572 152 102 0
0.008567192052445336 -0.018649954956718288 -0.00888166454042706 163 91 0
0.008567192052445336 -0.017409142832790984 -0.009112591517569789 179 75 0
0.008567192052445336 -0.01616833070886368 -0.008968250027716378 169 85 0
0.008567192052445336 -0.014927518584936376 -0.007837059288921271 90 164 0
0.008567192052445336 -0.013686706461009073 -0.009221356171308434 187 67 0
0.008567192052445336 -0.012445894337081768 -0.009153825857541684 182 72 0
0.008567192052445336 -0.011205082213154464 -0.00900948555101893 172 82 0
0.008567192052445336 -0.00996427008922716 -0.008865144061165519 162 92 0
0.008567192052445336 -0.008723457965299856 -0.008797613747398769 157 97 0
0.008567192052445334 -0.007482645841372552 -0.006230366060076606 0 234 20
0.008567192052445334 -0.006241833717445248 -0.003663116006093134 0 74 180
0.008567192052445334 -0.005001021593517944 -0.0038180045220663136 0 83 171
0.00732637992851803 -0.029817262888733372 -0.004873620665308271 0 149 105
0.00732637992851803 -0.02857645076480607 -0.0057494652155831594 0 204 50
0.00732637992851803 -0.027335638640878766 -0.006513290952820696 0 252 2
0.00732637992851803 -0.02609482651695146 -0.006657632442674106 7 247 0
0.00732637992851803 -0.024854014393024156 -0.007533476992948995 69 185 0
0.00732637992851803 -0.023613202269096852 -0.008297303913517184 122 132 0
0.00732637992851803 -0.02237239014516955 -0.007886540260221415 93 161 0
0.00732637992851803 -0.021131578021242242 -0.008307966906041055 123 131 0
0.00732637992851803 -0.01989076589731494 -0.008729394735191348 152 102 0
0.00732637992851803 -0.018649954956718288 -0.009150821381010988 182 72 0
0.00732637992851803 -0.017409142832790984 -0.009295162870864397 192 62 0
0.00732637992851803 -0.01616833070886368 -0.008884399217568627 163 91 0
0.00732637992851803 -0.014927518584936376 -0.009305825863388267 193 61 0
0.00732637992851803 -0.013686706461009073 -0.009150937347415088 182 72 0
0.00732637992851803 -0.012445894337081768 -0.009572365176565381 211 43 0
0.00732637992851803 -0.011205082213154464 -0.008188067110847564 114 140 0
0.00732637992851803 -0.00996427008922716 -0.007570220593088676 71 183 0
0.00732637992851803 -0.008723457965299856 -0.0069523705253378264 28 226 0
0.00732637992851803 -0.007482645841372552 -0.005102984462656965 0 164 90
0.00732637992851803 -0.006241833717445248 -0.0067819342279007554 16 238 0
0.006085567804590726 -0.029817262888733372 -0.004937541820580091 0 153 101
0.006085567804590726 -0.02857645076480607 -0.006056173871143502 0 224 30
0.006085567804590726 -0.027335638640878766 -0.006674023938894352 8 246 0
0.006085567804590726 -0.02609482651695146 -0.007396692252652508 59 195 0
0.006085567804590726 -0.024854014393024156 -0.007627622779787199 75 179 0
0.006085567804590726 -0.023613202269096852 -0.007782510112429724 86 168 0
0.006085567804590726 -0.02237239014516955 -0.008296107566225917 122 132 0
0.006085567804590726 -0.021131578021242242 -0.008450996082199097 133 121 0
0.006085567804590726 -0.01989076589731494 -0.008964592352664634 169 85 0
0.006085567804590726 -0.018649954956718288 -0.00889706322222854 164 90 0
0.006085567804590726 -0.017409142832790984 -0.009051952921532373 175 79 0
0.006085567804590726 -0.01616833070886368 -0.009058984272278886 175 79 0
0.006085567804590726 -0.014927518584936376 -0.009289913616082923 192 62 0
0.006085567804590726 -0.013686706461009073 -0.008868484603601975 162 92 0
0.006085567804590726 -0.012445894337081768 -0.009099413947406012 178 76 0
0.006085567804590726 -0.011205082213154464 -0.008677984934925064 149 105 0
0.006085567804590726 -0.00996427008922716 -0.008142874529837788 111 143 0
0.006085567804590726 -0.008723457965299856 -0.007168854951847569 43 211 0
0.006085567804590726 -0.007482645841372552 -0.004891763490896548 0 151 103
0.004844755680663421 -0.029817262888733372 -0.0031684216678304626 0 43 211
0.0048447556806634215 -0.02857645076480607 -0.0057356699468179536 0 203 51
0.0048447556806634215 -0.027335638640878766 -0.006611514497092842 4 250 0
0.0048447556806634215 -0.02609482651695146 -0.007146627268841426 41 213 0
0.0048447556806634215 -0.024854014393024156 -0.007568053914661066 71 183 0
0.0048447556806634215 -0.023613202269096852 -0.007989480560480705 100 154 0
0.0048447556806634215 -0.02237239014516955 -0.008410907206300345 130 124 0
0.0048447556806634215 -0.021131578021242242 -0.008635683230703193 146 108 0
0.0048447556806634215 -0.01989076589731494 -0.008860459255106038 162 92 0
0.0048447556806634215 -0.018649954956718288 -0.008927988385542134 166 88 0
0.0048447556806634215 -0.017409142832790984 -0.009463098790629409 204 50 0
0.0048447556806634215 -0.01616833070886368 -0.009382383806714956 198 56 0
0.0048447556806634215 -0.014927518584936376 -0.009151456829572227 182 72 0
0.0048447556806634215 -0.013686706461009073 -0.009070741845657775 176 78 0
0.0048447556806634215 -0.012445894337081768 -0.008452894144568233 133 121 0
0.0048447556806634215 -0.011205082213154464 -0.007835044076817383 90 164 0
0.0048447556806634215 -0.00996427008922716 -0.005781251843612921 0 206 48
0.0048447556806634215 -0.008723457965299856 -0.0050585811631934565 0 161 93
0.003603943556736117 -0.031058075012660676 -0.0036956700240520636 0 76 178
0.003603943556736117 -0.029817262888733372 -0.004106433085682506 0 101 153
0.0036039435567361174 -0.02857645076480607 -0.005735262881072951 0 203 51
0.0036039435567361174 -0.027335638640878766 -0.006944587759625975 27 227 0
0.0036039435567361174 -0.02609482651695146 -0.007355351412921745 56 198 0
0.0036039435567361174 -0.024854014393024156 -0.007586280756725782 72 182 0
0.0036039435567361174 -0.023613202269096852 -0.007997044410021553 101 153 0
0.0036039435567361174 -0.02237239014516955 -0.008824251703752653 159 95 0
0.0036039435567361174 -0.021131578021242242 -0.008599475679349806 143 111 0
0.0036039435567361174 -0.01989076589731494 -0.008455135372827051 133 121 0
0.003603943556736118 -0.018649954956718288 -0.008968731643292588 169 85 0
0.003603943556736118 -0.017409142832790984 -0.009049444260545735 175 79 0
0.003603943556736118 -0.01616833070886368 -0.009280374787680424 191 63 0
0.003603943556736118 -0.014927518584936376 -0.008858946958530131 161 93 0
0.003603943556736118 -0.013686706461009073 -0.008939659575783276 167 87 0
0.0036039435567361174 -0.012445894337081768 -0.008795318085929866 157 97 0
0.0036039435567361174 -0.011205082213154464 -0.008373891440110226 127 127 0
0.0036039435567361174 -0.00996427008922716 -0.007498046889835337 66 188 0
0.0036039435567361174 -0.008723457965299856 -0.005427844227120164 0 184 70
0.003603943556736117 -0.007482645841372552 -0.0027114702524448386 0 14 240
0.0023631312848924812 -0.029817262888733372 -0.0038968155269583603 0 88 166
0.0023631312848924812 -0.02857645076480607 -0.005283415170798354 0 175 79
0.0023631312848924817 -0.027335638640878766 -0.0064146070929241164 0 246 8
0.0023631312848924817 -0.02609482651695146 -0.007178434013492307 44 210 0
0.0023631312848924817 -0.024854014393024156 -0.007599860659311947 73 181 0
0.0023631312848924817 -0.023613202269096852 -0.007444972143338767 62 192 0
0.0023631312848924817 -0.02237239014516955 -0.008418992904659639 131 123 0
0.0023631312848924817 -0.021131578021242242 -0.008840421917140587 160 94 0
0.0023631312848924817 -0.01989076589731494 -0.00832682564667505 124 130 0
0.002363131284892482 -0.018649954956718288 -0.009458016385470157 203 51 0
0.002363131284892482 -0.017409142832790984 -0.009525546699236907 208 46 0
0.0023631312848924817 -0.01616833070886368 -0.008406912282012189 130 124 0
0.0023631312848924817 -0.014927518584936376 -0.008828341294493136 159 95 0
0.0023631312848924817 -0.013686706461009073 -0.008210491226742285 116 138 0
0.0023631312848924817 -0.012445894337081768 -0.008203458692665118 115 139 0
0.0023631312848924817 -0.011205082213154464 -0.007689861238868926 79 175 0
0.0023631312848924817 -0.00996427008922716 -0.005770749784058006 0 206 48
0.0023631312848924812 -0.008723457965299856 -0.003462454485424354 0 61 193
0.0011223192349233428 -0.031058075012660676 -0.0038553149375892977 0 86 168
0.0011223192349233428 -0.029817262888733372 -0.0034338882917696583 0 59 195
0.001122319234923343 -0.02857645076480607 -0.005924833635186415 0 215 39
0.0011223192349233432 -0.027335638640878766 -0.007134158513739439 41 213 0
0.0011223192349233432 -0.02609482651695146 -0.00714119223114726 41 213 0
0.0011223192349233432 -0.024854014393024156 -0.00755195588444303 70 184 0
0.0011223192349233432 -0.023613202269096852 -0.007962718354408146 99 155 0
0.0011223192349233435 -0.02237239014516955 -0.00796974970515466 99 155 0
0.0011223192349233435 -0.021131578021242242 -0.00959857831721445 213 41 0
0.0011223192349233435 -0.01989076589731494 -0.00846738639508869 134 120 0
0.0011223192349233435 -0.018649954956718288 -0.00847442011249651 134 120 0
0.0011223192349233435 -0.017409142832790984 -0.009197090792915974 185 69 0
0.0011223192349233435 -0.01616833070886368 -0.008775664147096336 156 98 0
0.0011223192349233435 -0.014927518584936376 -0.009602871440827434 214 40 0
0.0011223192349233435 -0.013686706461009073 -0.008727026890552545 152 102 0
0.0011223192349233435 -0.012445894337081768 -0.008659496576785797 147 107 0
0.0011223192349233432 -0.011205082213154464 -0.007458249113277488 63 191 0
0.001122319234923343 -0.00996427008922716 -0.0055204505007774175 0 190 64
0.0011223192349233428 -0.008723457965299856 -0.003516777054095647 0 64 190
0.0011223192349233428 -0.007482645841372552 -0.0033724361559075646 0 55 199
-0.00011849289824873213 -0.029817262888733372 -0.004148171524513039 0 104 150
-0.00011849289824873198 -0.02857645076480607 -0.005279363446638801 0 175 79
-0.00011849289824873176 -0.027335638640878766 -0.007086990953868011 37 217 0
-0.00011849289824873176 -0.02609482651695146 -0.007079960786452151 37 217 0
-0.00011849289824873175 -0.024854014393024156 -0.007147489916888247 41 213 0
-0.00011849289824873172 -0.023613202269096852 -0.007372265941291094 57 197 0
-0.00011849289824873161 -0.02237239014516955 -0.008346285519281313 126 128 0
-0.00011849289824873153 -0.021131578021242242 -0.008996032264812753 171 83 0
-0.00011849289824873153 -0.01989076589731494 -0.0089153172808983 165 89 0
-0.00011849289824873154 -0.018649954956718288 -0.008834602296983846 160 94 0
-0.0001184928982487316 -0.017409142832790984 -0.00842383982701873 131 123 0
-0.00011849289824873153 -0.01616833070886368 -0.008958951415436659 168 86 0
-0.00011849289824873161 -0.014927518584936376 -0.008341101347685809 125 129 0
-0.00011849289824873161 -0.013686706461009073 -0.00826038754710201 119 135 0
-0.00011849289824873175 -0.012445894337081768 -0.007234644586222176 48 206 0
-0.00011849289824873195 -0.011205082213154464 -0.005530250845254466 0 191 63
-0.00011849289824873221 -0.00996427008922716 -0.0034112038431310414 0 58 196
-0.00011849289824873232 -0.008723457965299856 -0.002583994182738633 0 6 248
-0.0013593050868894313 -0.031058075012660676 -0.0045207834141907785 0 127 127
-0.0013593050868894313 -0.029817262888733372 -0.0047517103913335065 0 142 112
-0.0013593050868894313 -0.02857645076480607 -0.00613600727372067 0 229 25
-0.001359305086889431 -0.027335638640878766 -0.0068586791374707886 21 233 0
-0.001359305086889431 -0.02609482651695146 -0.0070135664701133135 32 222 0
-0.001359305086889431 -0.024854014393024156 -0.007244494630586696 48 206 0
-0.001359305086889431 -0.023613202269096852 -0.007655258283882466 77 177 0
-0.0013593050868894309 -0.02237239014516955 -0.008273108351633316 120 134 0
-0.0013593050868894309 -0.021131578021242242 -0.008786704622098854 156 98 0
-0.0013593050868894309 -0.01989076589731494 -0.008719174308332104 152 102 0
-0.0013593050868894309 -0.018649954956718288 -0.008651645177896008 147 107 0
-0.0013593050868894309 -0.017409142832790984 -0.008732360161810462 153 101 0
-0.0013593050868894309 -0.01616833070886368 -0.008664829848043712 148 106 0
-0.0013593050868894309 -0.014927518584936376 -0.008597299534276962 143 111 0
-0.001359305086889431 -0.012445894337081768 -0.00787943554297435 93 161 0
-0.0013593050868894313 -0.011205082213154464 -0.005672996022055528 0 200 54
-0.0013593050868894315 -0.00996427008922716 -0.0036027927676750286 0 70 184
-0.0013593050868894315 -0.008723457965299856 -0.00432546403975982 0 115 139
-0.002600117062900404 -0.029817262888733372 -0.0048054004697701954 0 145 109
-0.0026001170629004035 -0.02857645076480607 -0.005569227390338387 0 193 61
-0.0026001170629004035 -0.027335638640878766 -0.007248177155582177 49 205 0
-0.0026001170629004035 -0.02609482651695146 -0.006038852277029154 0 222 32
-0.0026001170629004035 -0.024854014393024156 -0.007094559536731474 38 216 0
-0.0026001170629004035 -0.023613202269096852 -0.006580963266265936 2 252 0
-0.0026001170629004035 -0.02237239014516955 -0.007967562910105929 99 155 0
-0.0026001170629004035 -0.021131578021242242 -0.008502673315193204 136 118 0
-0.0026001170629004035 -0.01989076589731494 -0.008421960697940059 131 123 0
-0.0026001170629004035 -0.018649954956718288 -0.008267069815305571 120 134 0
-0.0026001170629004035 -0.017409142832790984 -0.008112182482663046 109 145 0
-0.0026001170629004035 -0.01616833070886368 -0.008179709246437834 114 140 0
-0.0026001170629004035 -0.014927518584936376 -0.007352501952706734 56 198 0
-0.0026001170629004035 -0.013686706461009073 -0.007121574975564006 40 214 0
-0.0026001170629004035 -0.012445894337081768 -0.005737278093176842 0 204 50
-0.002600117062900404 -0.011205082213154464 -0.00361822872439211 0 71 183
-0.002600117062900404 -0.00996427008922716 -0.0025924863551776024 0 6 248
-0.003840929186827708 -0.031058075012660676 -0.004552416209235511 0 129 125
-0.003840929186827708 -0.029817262888733372 -0.005275086889654976 0 175 79
-0.0038409291868277077 -0.02857645076480607 -0.006102294183386075 0 226 28
-0.0038409291868277077 -0.027335638640878766 -0.006824966047136193 19 235 0
-0.0038409291868277077 -0.02609482651695146 -0.006905681031050647 24 230 0
-0.0038409291868277077 -0.024854014393024156 -0.007060568363693172 35 219 0
-0.0038409291868277077 -0.023613202269096852 -0.007678418431444022 79 175 0
-0.0038409291868277077 -0.02237239014516955 -0.007909348958578711 95 159 0
-0.0038409291868277077 -0.021131578021242242 -0.007487919946097764 65 189 0
-0.0038409291868277077 -0.01989076589731494 -0.008315129606490172 123 131 0
-0.0038409291868277077 -0.018649954956718288 -0.008247599292723423 119 135 0
-0.0038409291868277077 -0.017409142832790984 -0.007483772372155232 65 189 0
-0.0038409291868277077 -0.01616833070886368 -0.008310979665886332 123 131 0
-0.0038409291868277077 -0.014927518584936376 -0.007661234103685546 77 177 0
-0.0038409291868277077 -0.013686706461009073 -0.006333057860898541 0 241 13
-0.003840929186827708 -0.00996427008922716 -0.002682901692128835 0 12 242
-0.005081741310755012 -0.029817262888733372 -0.0049801855073609924 0 156 98
-0.005081741310755012 -0.02857645076480607 -0.005856031240966535 0 211 43
-0.005081741310755012 -0.027335638640878766 -0.006619856978204073 4 250 0
-0.005081741310755012 -0.02609482651695146 -0.0070412871740156745 34 220 0
-0.005081741310755012 -0.024854014393024156 -0.006630523520719904 5 249 0
-0.005081741310755012 -0.023613202269096852 -0.007686230780422225 79 175 0
-0.005081741310755012 -0.02237239014516955 -0.007911006804825071 95 159 0
-0.005081741310755012 -0.021131578021242242 -0.0077561159221905835 84 170 0
-0.005081741310755012 -0.01989076589731494 -0.007823646235957332 89 165 0
-0.005081741310755012 -0.018649954956718288 -0.007967987725810742 99 155 0
-0.005081741310755012 -0.017409142832790984 -0.007140780432079643 41 213 0
-0.005081741310755012 -0.01616833070886368 -0.0072083071958544305 46 208 0
-0.005081741310755012 -0.014927518584936376 -0.007053419863211905 35 219 0
-0.005081741310755012 -0.013686706461009073 -0.006226212569480805 0 234 20
-0.005081741310755013 -0.011205082213154464 -0.0025528323532942234 0 4 250
-0.006322553434682316 -0.031058075012660676 -0.004672171638089205 0 137 117
-0.006322553434682316 -0.029817262888733372 -0.005082932924723667 0 163 91
-0.006322553434682316 -0.02857645076480607 -0.006108677068934156 0 227 27
-0.006322553434682316 -0.027335638640878766 -0.006519438355568618 0 253 1
-0.006322553434682316 -0.02609482651695146 -0.007545182499779106 69 185 0
-0.006322553434682316 -0.024854014393024156 -0.007010070911361177 32 222 0
-0.006322553434682316 -0.023613202269096852 -0.007420833381326293 61 193 0
-0.006322553434682316 -0.02237239014516955 -0.007651761541799675 77 177 0
-0.006322553434682316 -0.021131578021242242 -0.007584233594694234 72 182 0
-0.006322553434682316 -0.01989076589731494 -0.007162804582213286 43 211 0
-0.006322553434682316 -0.018649954956718288 -0.00788547526263275 93 161 0
-0.006322553434682316 -0.017409142832790984 -0.007660700421560558 77 177 0
-0.006322553434682316 -0.01616833070886368 -0.007010953676029117 32 222 0
-0.006322553434682316 -0.014927518584936376 -0.006943426912254329 27 227 0
-0.006322553434682316 -0.013686706461009073 -0.005969403784272149 0 218 36
-0.006322553434682316 -0.012445894337081768 -0.004096923840546361 0 101 153
-0.006322553434682316 -0.011205082213154464 -0.003952582350692952 0 92 162
-0.00756336555860962 -0.029817262888733372 -0.004915818236432585 0 152 102
-0.00756336555860962 -0.02857645076480607 -0.005679643973670122 0 200 54
-0.00756336555860962 -0.027335638640878766 -0.006443470894238313 0 248 6
-0.00756336555860962 -0.02609482651695146 -0.0058256231931487715 0 209 45
-0.00756336555860962 -0.024854014393024156 -0.006475369938680212 0 250 4
-0.00756336555860962 -0.023613202269096852 -0.006619711428533621 4 250 0
-0.00756336555860962 -0.02237239014516955 -0.007495555978808511 66 188 0
-0.00756336555860962 -0.021131578021242242 -0.007639896285331266 76 178 0
-0.00756336555860962 -0.01989076589731494 -0.007485006586027432 65 189 0
-0.00756336555860962 -0.018649954956718288 -0.00813475214822822 111 143 0
-0.00756336555860962 -0.017409142832790984 -0.0071090103706790385 39 215 0
-0.00756336555860962 -0.01616833070886368 -0.007176540684445789 43 211 0
-0.00756336555860962 -0.014927518584936376 -0.006150797723565954 0 230 24
-0.00756336555860962 -0.013686706461009073 -0.004446403982598244 0 123 131
-0.008804177682536924 -0.031058075012660676 -0.004321654898384353 0 115 139
-0.008804177682536924 -0.029817262888733372 -0.005044325578803817 0 160 94
-0.008804177682536924 -0.02857645076480607 -0.005871532872534917 0 212 42
-0.008804177682536924 -0.027335638640878766 -0.006102463399669608 0 226 28
-0.008804177682536924 -0.02609482651695146 -0.0065132270529653785 0 252 2
-0.008804177682536924 -0.024854014393024156 -0.006923990706261148 26 228 0
-0.008804177682536923 -0.023613202269096852 -0.007154917683403876 42 212 0
-0.008804177682536923 -0.02237239014516955 -0.007565681336699647 71 183 0
-0.008804177682536923 -0.021131578021242242 -0.007976444989995418 100 154 0
-0.008804177682536923 -0.01989076589731494 -0.008594295057746268 143 111 0
-0.008804177682536923 -0.018649954956718288 -0.007944548312214828 97 157 0
-0.008804177682536923 -0.017409142832790984 -0.0078002068223614164 87 167 0
-0.008804177682536923 -0.01616833070886368 -0.0071504588934993224 42 212 0
-0.008804177682536924 -0.014927518584936376 -0.0062746167098857416 0 237 17
-0.008804177682536924 -0.013686706461009073 -0.00507336806304678 0 162 92
-0.008804177682536924 -0.012445894337081768 -0.0032657387808215886 0 49 205
-0.01004498980646423 -0.02857645076480607 -0.006337074085138472 0 241 13
-0.01004498980646423 -0.027335638640878766 -0.00610614592466509 0 227 27
-0.01004498980646423 -0.02609482651695146 -0.006527572570484729 0 253 1
-0.01004498980646423 -0.024854014393024156 -0.006671914060338138 8 246 0
-0.01004498980646423 -0.023613202269096852 -0.006896690084740985 24 230 0
-0.010044989806464228 -0.02237239014516955 -0.007546435646941772 69 185 0
-0.010044989806464228 -0.021131578021242242 -0.008081546052029048 107 147 0
-0.010044989806464228 -0.01989076589731494 -0.008149076365795796 112 142 0
-0.010044989806464228 -0.018649954956718288 -0.008068361381881344 106 148 0
-0.01004498980646423 -0.017409142832790984 -0.006770497337129123 15 239 0
-0.01004498980646423 -0.01616833070886368 -0.006359733683833353 0 243 11
-0.01004498980646423 -0.014927518584936376 -0.005532526390102253 0 191 63
-0.01004498980646423 -0.013686706461009073 -0.003828131465803889 0 84 170
-0.011285801930391533 -0.029817262888733372 -0.0050437279968235105 0 160 94
-0.011285801930391533 -0.02857645076480607 -0.005766399860573629 0 205 49
-0.011285801930391533 -0.027335638640878766 -0.006177162330538745 0 231 23
-0.011285801930391533 -0.02609482651695146 -0.006257874947791889 0 236 18
-0.011285801930391533 -0.024854014393024156 -0.006338589931706343 0 241 13
-0.011285801930391531 -0.023613202269096852 -0.007165799592098751 43 211 0
-0.011285801930391531 -0.02237239014516955 -0.007396727752572133 59 195 0
-0.011285801930391531 -0.021131578021242242 -0.008119398432991597 110 144 0
-0.011285801930391531 -0.01989076589731494 -0.008051868119224847 105 149 0
-0.011285801930391531 -0.018649954956718288 -0.007630441473405207 75 179 0
-0.011285801930391533 -0.017409142832790984 -0.006754596923130319 14 240 0
-0.011285801930391533 -0.01616833070886368 -0.006687066609363569 9 245 0
-0.011285801930391533 -0.014927518584936376 -0.005420416460604538 0 184 70
-0.011285801930391533 -0.013686706461009073 -0.004770669715073097 0 143 111
-0.011285801930391533 -0.012445894337081768 -0.003027520120188451 0 34 220
-0.012526614054318838 -0.02857645076480607 -0.004954910747920606 0 155 99
-0.012526614054318838 -0.027335638640878766 -0.006156155844767606 0 230 24
-0.012526614054318838 -0.02609482651695146 -0.005328948551036506 0 178 76
-0.012526614054318838 -0.024854014393024156 -0.005473290040889915 0 187 67
-0.012526614054318838 -0.023613202269096852 -0.006008400445977191 0 221 33
-0.012526614054318836 -0.02237239014516955 -0.007209647909485499 46 208 0
-0.012526614054318836 -0.021131578021242242 -0.007277177039921594 51 203 0
-0.012526614054318838 -0.01989076589731494 -0.006659326972170744 7 247 0
-0.012526614054318838 -0.018649954956718288 -0.0065044396395282185 0 252 2
-0.012526614054318838 -0.017409142832790984 -0.006093675986232448 0 226 28
-0.012526614054318838 -0.01616833070886368 -0.006318452010635295 0 240 14
-0.012526614054318838 -0.014927518584936376 -0.004934153944917478 0 153 101
-0.012526614054318838 -0.013686706461009073 -0.005583900690448918 0 194 60
-0.013767426178246141 -0.02857645076480607 -0.004589911224340531 0 132 122
-0.013767426178246141 -0.027335638640878766 -0.0056156530018897114 0 196 58
-0.013767426178246141 -0.02609482651695146 -0.005548126238114924 0 192 62
-0.013767426178246141 -0.024854014393024156 -0.0054037823816002065 0 183 71
-0.013767426178246141 -0.023613202269096852 -0.005484497365514659 0 188 66
-0.013767426178246141 -0.02237239014516955 -0.0058952598354797756 0 213 41
-0.013767426178246141 -0.021131578021242242 -0.005902293552887597 0 214 40
-0.013767426178246141 -0.01989076589731494 -0.005909323720303456 0 214 40
-0.013767426178246141 -0.018649954956718288 -0.005990038704217909 0 219 35
-0.013767426178246141 -0.017409142832790984 -0.006070753688132362 0 224 30
-0.013767426178246141 -0.01616833070886368 -0.005926412198278953 0 215 39
-0.013767426178246141 -0.014927518584936376 -0.0060071271821934055 0 221 33
-0.013767426178246141 -0.013686706461009073 -0.0043921896886818 0 119 135
-0.013767426178246141 -0.012445894337081768 -0.0031255395399227693 0 40 214
-0.015008238302173446 -0.027335638640878766 -0.004251010058336079 0 110 144
-0.015008238302173446 -0.02609482651695146 -0.005382201980461842 0 181 73
-0.015008238302173446 -0.024854014393024156 -0.004084336752378967 0 100 154
-0.015008238302173446 -0.023613202269096852 -0.0040773042183018 0 100 154
-0.015008238302173446 -0.02237239014516955 -0.0038463760578284173 0 85 169
-0.015008238302173446 -0.021131578021242242 -0.006194908740357907 0 232 22
-0.015008238302173446 -0.01989076589731494 -0.004490511449398235 0 125 129
-0.015008238302173446 -0.018649954956718288 -0.005025624221146817 0 159 95
-0.015008238302173446 -0.017409142832790984 -0.0052504002455496645 0 173 81
-0.015008238302173446 -0.01616833070886368 -0.005394741735403073 0 182 72
-0.015008238302173446 -0.014927518584936376 -0.005163811208268383 0 168 86
-0.015008238302173446 -0.013686706461009073 -0.0037795166925425282 0 81 173
-0.015008238302173446 -0.012445894337081768 -0.0035485867570731644 0 66 188
-0.015008238302173446 -0.011205082213154464 -0.0028259178516496816 0 21 233
-0.01624905042610075 -0.02609482651695146 -0.004438889832944868 0 122 132
-0.01624905042610075 -0.024854014393024156 -0.003903779427857594 0 89 165
-0.01624905042610075 -0.023613202269096852 -0.0038362491140908443 0 84 170
-0.01624905042610075 -0.02237239014516955 -0.0038432792815067036 0 85 169
-0.01624905042610075 -0.021131578021242242 -0.0033081694680847555 0 51 203
-0.01624905042610075 -0.01989076589731494 -0.004333911837299262 0 116 138
-0.01624905042610075 -0.018649954956718288 -0.004744675490595033 0 141 113
-0.01624905042610075 -0.017409142832790984 -0.005258271761060571 0 174 80
-0.01624905042610075 -0.01616833070886368 -0.00526530192847643 0 174 80
-0.01624905042610075 -0.014927518584936376 -0.005346016912390883 0 179 75
-0.01624905042610075 -0.013686706461009073 -0.004810906507303608 0 146 108
-0.01624905042610075 -0.012445894337081768 -0.004743377376867513 0 141 113
-0.01624905042610075 -0.011205082213154464 -0.004824092360781965 0 146 108
-0.01624905042610075 -0.00996427008922716 -0.004831122528197825 0 147 107
-0.01624905042610075 -0.008723457965299856 -0.004686781038344415 0 138 116
-0.01624905042610075 -0.007482645841372552 -0.0033586059788880654 0 54 200
-0.01624905042610075 -0.006241833717445248 -0.003589535914357429 0 69 185
-0.01624905042610075 -0.0012785849259033674 -0.0030599055135291753 0 36 218
-0.01624905042610075 -3.7772845888724236e-05 -0.0030669356809450345 0 36 218
-0.01624905042610075 0.001203039247993075 -0.003221825971914195 0 46 208
-0.01624905042610075 0.002443851445878545 -0.0036325896252099653 0 72 182
-0.01624905042610075 0.003684663569805849 -0.0029828434713438517 0 31 223
-0.01624905042610075 0.004925475693733154 -0.002561413867197577 0 4 250
-0.01624905042610075 0.007407099645755098 -0.0025507502830083803 0 4 250
-0.01624905042610075 0.008647911769682402 -0.0024832205609069576 0 0 254
-0.01624905042610075 0.012370348141464316 -0.003956067259469204 0 92 162
-0.01624905042610075 0.013611160265391619 -0.004678737939888668 0 137 117
-0.01624905042610075 0.014851972389318924 -0.00490966610036205 0 152 102
-0.01624905042610075 0.01609278451324623 -0.003935645339041178 0 91 163
-0.01624905042610075 0.018574408761100836 -0.004099692834276898 0 101 153
-0.017489862550028053 -0.023613202269096852 -0.002636592046981613 0 9 245
-0.017489862550028053 -0.02237239014516955 -0.0024817041226737604 0 0 255
-0.017489862550028053 -0.021131578021242242 -0.00262604561252717 0 9 245
-0.017489862550028053 -0.01989076589731494 -0.0030474722583468095 0 35 219
-0.017489862550028053 -0.018649954956718288 -0.004021494794663663 0 96 158
-0.017489862550028053 -0.017409142832790984 -0.003790564859194299 0 82 172
-0.017489862550028053 -0.01616833070886368 -0.0048462727105619465 0 148 106
-0.017489862550028053 -0.014927518584936376 -0.00623287235440194 0 235 19
-0.017489862550028053 -0.013686706461009073 -0.005510201673982476 0 189 65
-0.017489862550028053 -0.012445894337081768 -0.005734976515054668 0 203 51
-0.017489862550028053 -0.011205082213154464 -0.006156404344204962 0 230 24
-0.017489862550028053 -0.00996427008922716 -0.0061493729934584485 0 229 25
-0.017489862550028053 -0.008723457965299856 -0.005918443649654412 0 215 39
-0.017489862550028053 -0.007482645841372552 -0.005763555133681233 0 205 49
-0.017489862550028053 -0.006241833717445248 -0.0065273820542494235 0 253 1
-0.017489862550028053 -0.005001021593517944 -0.004281234689902462 0 112 142
-0.017489862550028053 -0.003760209173757976 -0.005255256634553988 0 173 81
-0.017489862550028053 -0.0025193970498306717 -0.004637406566803138 0 135 119
-0.017489862550028053 -0.0012785849259033674 -0.005693115009836112 0 201 53
-0.017489862550028053 -3.7772845888724236e-05 -0.005686081292428291 0 200 54
-0.017489862550028053 0.001203039247993075 -0.005910857316831137 0 214 40
-0.017489862550028053 0.002443851445878545 -0.005978387630597887 0 219 35
-0.017489862550028053 0.003684663569805849 -0.005897672646683434 0 214 40
-0.017489862550028053 0.004925475693733154 -0.005666744486210052 0 199 55
-0.017489862550028053 0.006166287521827794 -0.005153148215744514 0 167 87
-0.017489862550028053 0.007407099645755098 -0.0058028937779453 0 208 46
-0.017489862550028053 0.008647911769682402 -0.006224323973756902 0 234 20
-0.017489862550028053 0.009888723893609707 -0.004840025908039084 0 147 107
-0.017489862550028053 0.01112953601753701 -0.006168202150826089 0 231 23
-0.017489862550028053 0.012370348141464316 -0.006392976991898281 0 245 9
-0.017489862550028053 0.013611160265391619 -0.006238086109263794 0 235 19
-0.017489862550028053 0.014851972389318924 -0.005620237224843598 0 196 58
-0.017489862550028053 0.01609278451324623 -0.005002389523754056 0 158 96
-0.017489862550028053 0.017333596637173532 -0.0043845394560032055 0 119 135
-0.017489862550028053 0.018574408761100836 -0.004303824472088753 0 114 140
-0.017489862550028053 0.01981522088502814 -0.0037902276099578878 0 82 172
-0.017489862550028053 0.021056034192286098 -0.003067558704534405 0 36 218
-0.01873067467395536 -0.021131578021242242 -0.0028866108808971867 0 25 229
-0.01873067467395536 -0.01989076589731494 -0.0029673258648116397 0 30 224
-0.01873067467395536 -0.018649954956718288 -0.00379453315854274 0 82 172
-0.01873067467395536 -0.017409142832790984 -0.00420529681183851 0 108 146
-0.01873067467395536 -0.01616833070886368 -0.004718893082304048 0 140 114
