ply
format ascii 1.0
element vertex 737
property float x
property float y
property float z
end_header
0.019625158980488777 -0.022784020751714706 -0.00292859738692641
0.02126513607800007 -0.022784020751714706 -0.0007757796556688817
0.02290511131286621 -0.022784020751714706 4.08306332246894e-05
-0.03449408337473869 -0.02114404365420342 -0.013218450360000132
-0.03121412917971611 -0.02114404365420342 -0.013402366079390047
-0.02957415208220482 -0.02114404365420342 -0.013607084751129149
-0.027934174984693527 -0.021144043654203415 -0.013416306115686892
-0.026294197887182236 -0.021144043654203415 -0.013225530274212359
-0.024654222652316093 -0.021144043654203415 -0.012928449548780916
-0.023014245554804802 -0.021144043654203415 -0.012371446937322615
-0.02137426845729351 -0.021144043654203415 -0.01151267997920513
-0.01973429135978222 -0.021144043654203415 -0.010955682024359701
-0.018094314262270927 -0.021144043654203415 -0.01024842821061611
-0.016454337164759636 -0.021144043654203415 -0.009691429324448107
-0.014814360067248343 -0.021144043654203415 -0.00913442764431238
-0.013174382969737051 -0.021144043654203415 -0.008837346918880938
-0.01153440587222576 -0.021144043654203415 -0.00797857530415058
-0.009894428774714468 -0.021144043654203415 -0.007681493181735275
-0.008254451677203177 -0.021144043654203415 -0.007490718737244603
-0.006614474579691886 -0.021144043654203415 -0.007795934099704025
-0.0049744974821805945 -0.021144043654203415 -0.006040489766746757
-0.003334520151838659 -0.021144043654203415 -0.004645163659006355
-0.0016945431707426893 -0.021144043654203415 -0.005461771041154859
-5.4566236940444084e-05 -0.021144043654203415 -0.0054710675030946706
0.00158541079144925 -0.021144043654203415 -0.005381812807172534
0.0032253880053758634 -0.021144043654203415 -0.005292558111250398
0.0048653651028871545 -0.021144043654203415 -0.006890920456498859
0.006505342200398446 -0.021144043654203415 -0.005135474260896442
0.008145318366587164 -0.021144043654203415 -0.005046224687248466
0.009785295464098455 -0.021144043654203415 -0.004749138839542863
0.011425272561609747 -0.021144043654203415 -0.004659884143620727
0.013065249659121038 -0.021144043654203415 -0.004766564816236493
0.01470522675663233 -0.021144043654203415 -0.004775858018547294
0.016345204785466194 -0.021144043654203415 -0.004980575293302533
0.017985181882977486 -0.021144043654203415 -0.005087253171950576
0.019625158980488777 -0.021144043654203415 -0.004896477330476043
0.02126513607800007 -0.021144043654203415 -0.0043394793756306145
0.02290511131286621 -0.021144043654203415 -0.0028443883638828967
0.024545088410377502 -0.021144043654203415 -0.0010117229539900992
-0.03449408337473869 -0.019504066556692127 -0.013057134114205836
-0.03121412917971611 -0.019504066556692127 -0.013297215104103087
-0.02957415208220482 -0.019504066556692127 -0.013287921436130999
-0.027934174984693527 -0.019504066556692123 -0.013278626836836336
-0.026294197887182236 -0.019504066556692123 -0.013073910959064959
-0.024654222652316093 -0.019504066556692123 -0.012869194149971007
-0.023014245554804802 -0.019504066556692123 -0.012664478272199629
-0.02137426845729351 -0.019504066556692123 -0.011985658667981623
-0.01973429135978222 -0.019504066556692123 -0.010629938915371893
-0.018094314262270927 -0.019504066556692123 -0.01042522396892309
-0.016454337164759636 -0.019504066556692123 -0.00933190621435642
-0.014814360067248343 -0.019504066556692123 -0.008789002895355223
-0.013174382969737051 -0.019504066556692123 -0.007695683278143403
-0.01153440587222576 -0.019504066556692123 -0.007686390075832603
-0.009894428774714468 -0.019504066556692123 -0.006593069992959497
-0.008254451677203177 -0.019504066556692123 -0.006287854630500076
-0.006614474579691886 -0.019504066556692123 -0.005982637405395505
-0.0049744974821805945 -0.019504066556692123 -0.006279723253101108
-0.003334520151838659 -0.019504066556692123 -0.006270428188145158
-0.0016945431707426893 -0.019504066556692123 -0.006827426608651874
-5.4566236940444186e-05 -0.019504066556692123 -0.006622710730880496
0.00158541079144925 -0.019504066556692123 -0.0060798060148954365
0.0032253880053758634 -0.019504066556692123 -0.00526319723576307
0.0048653651028871545 -0.019504066556692123 -0.005820195190608499
0.006505342200398446 -0.019504066556692123 -0.005909448489546773
0.008145318366587164 -0.019504066556692123 -0.0062065338715910886
0.009785295464098455 -0.019504066556692123 -0.005663629155606029
0.011425272561609747 -0.019504066556692123 -0.005556948482990262
0.013065249659121038 -0.019504066556692123 -0.005450269207358358
0.01470522675663233 -0.019504066556692123 -0.005539522506296632
0.016345204785466194 -0.019504066556692123 -0.005234307143837211
0.017985181882977486 -0.019504066556692123 -0.0063919075764715646
0.019625158980488777 -0.019504066556692123 -0.0055752974003553364
0.02126513607800007 -0.019504066556692123 -0.00546861672773957
0.02290511131286621 -0.019504066556692123 -0.004925711546093223
0.024545088410377502 -0.019504066556692123 -0.0014746696688234782
0.026185065507888794 -0.019504066556692123 -0.0014653763500973558
0.027825044468045235 -0.019504066556692123 -0.0011601578444242454
0.029465021565556526 -0.01950406655669212 -6.684087566099822e-05
-0.03449408337473869 -0.017864089459180835 -0.012445305474102495
-0.03121412917971611 -0.017864089459180835 -0.013820718973875044
-0.02957415208220482 -0.017864089459180835 -0.013113465160131453
-0.027934174984693527 -0.017864089459180832 -0.013220145367085932
-0.026294197887182236 -0.017864089459180832 -0.012923059985041617
-0.024654222652316093 -0.017864089459180832 -0.012366059236228464
-0.023014245554804802 -0.017864089459180832 -0.012472739443182944
-0.02137426845729351 -0.017864089459180832 -0.011765485629439352
-0.01973429135978222 -0.017864089459180832 -0.01177477743476629
-0.018094314262270927 -0.017864089459180832 -0.012317682616412638
-0.016454337164759636 -0.017864089459180832 -0.01064355671405792
-0.014814360067248343 -0.017864089459180832 -0.008339643478393553
-0.013174382969737051 -0.017864089459180832 -0.007182042580097911
-0.01153440587222576 -0.017864089459180832 -0.007191337179392574
-0.009894428774714468 -0.017864089459180832 -0.006634335964918134
-0.008254451677203177 -0.017864089459180832 -0.0063372533768415425
-0.006614474579691886 -0.017864089459180832 -0.006443931255489585
-0.0049744974821805945 -0.017864089459180832 -0.006253155414015052
-0.003334520151838659 -0.017864089459180832 -0.0069319754838943455
-0.0016945431707426895 -0.017864089459180832 -0.007237190846353767
-5.456623694044429e-05 -0.017864089459180832 -0.007246485445648429
0.0015854107914492499 -0.017864089459180832 -0.005751394666731355
0.0032253880053758634 -0.017864089459180832 -0.007107113953679797
0.0048653651028871545 -0.017864089459180832 -0.006810029968619344
0.006505342200398446 -0.017864089459180832 -0.006819325033575294
0.008145318366587164 -0.017864089459180832 -0.006522239185869691
0.009785295464098455 -0.017864089459180832 -0.006225155200809238
0.011425272561609747 -0.017864089459180832 -0.006530370563268659
0.013065249659121038 -0.017864089459180832 -0.005823116749525068
0.01470522675663233 -0.017864089459180832 -0.006366021931171415
0.016345204785466194 -0.017864089459180832 -0.006276767235249278
0.017985181882977486 -0.017864089459180832 -0.0060859932564198945
0.019625158980488777 -0.017864089459180832 -0.005895217414945361
0.02126513607800007 -0.017864089459180832 -0.005805962719023225
0.02290511131286621 -0.017864089459180832 -0.004947196226567027
0.024545088410377502 -0.017864089459180832 -0.005053875502198932
0.026185065507888794 -0.017864089459180832 -0.002044253284111617
0.027825044468045235 -0.017864089459180832 -6.535115971928244e-05
0.029465021565556526 -0.01786408945918083 -0.0014210712397471049
0.031104998663067818 -0.01786408945918083 -2.5745888706294494e-05
-0.036134060472249985 -0.016224112361669544 -0.005800636019557713
-0.0328541062772274 -0.016224112361669544 -0.011404409073293207
-0.03121412917971611 -0.016224112361669544 -0.01279973331838846
-0.02957415208220482 -0.016224112361669544 -0.01309681963175535
-0.027934174984693527 -0.01622411236166954 -0.013287594541907309
-0.026294197887182236 -0.01622411236166954 -0.013376847840845583
-0.024654222652316093 -0.01622411236166954 -0.013172133825719355
-0.023014245554804802 -0.01622411236166954 -0.013362907804548739
-0.02137426845729351 -0.01622411236166954 -0.011884417384862898
-0.01973429135978222 -0.01622411236166954 -0.013042015023529528
-0.018094314262270927 -0.01622411236166954 -0.011563522741198538
-0.016454337164759636 -0.01622411236166954 -0.011258305981755255
-0.014814360067248343 -0.01622411236166954 -0.0099025871604681
-0.013174382969737051 -0.01622411236166954 -0.0073661021888256056
-0.01153440587222576 -0.01622411236166954 -0.006010382901877163
-0.009894428774714468 -0.01622411236166954 -0.005055231507867573
-0.008254451677203177 -0.01622411236166954 -0.0043764114379882795
-0.006614474579691886 -0.01622411236166954 -0.004269730765372513
-0.0049744974821805945 -0.01622411236166954 -0.0003112493432126919
-0.0033345201518386594 -0.01622411236166954 -0.0047205346636474115
-0.0016945431707426895 -0.01622411236166954 -0.0058781355619430525
-5.456623694044438e-05 -0.01622411236166954 -0.0072734598070383055
0.0015854107914492499 -0.01622411236166954 -0.007570545654743908
0.003225388005375863 -0.01622411236166954 -0.0075612538494169695
0.0048653651028871545 -0.01622411236166954 -0.007356535177677868
0.006505342200398446 -0.01622411236166954 -0.007151819765567778
0.008145318366587164 -0.01622411236166954 -0.00660891644656658
0.009785295464098455 -0.01622411236166954 -0.0065022357739508135
0.011425272561609747 -0.01622411236166954 -0.006492939312011002
0.013065249659121038 -0.01622411236166954 -0.006288225296884773
0.01470522675663233 -0.01622411236166954 -0.0063774781301617605
0.016345204785466194 -0.01622411236166954 -0.006270798854529856
0.017985181882977486 -0.01622411236166954 -0.006066083442419766
0.019625158980488777 -0.01622411236166954 -0.005959402769803999
0.02126513607800007 -0.01622411236166954 -0.006150178145617245
0.02290511131286621 -0.01622411236166954 -0.006043497473001478
0.024545088410377502 -0.01622411236166954 -0.005500592757016419
0.026185065507888794 -0.01622411236166954 -0.005691368132829664
0.027825044468045235 -0.01622411236166954 -0.004874757956713436
0.029465021565556526 -0.016224112361669537 -0.0023382750805467345
-0.036134060472249985 -0.014584135264158252 -0.007435637991875408
-0.03449408337473869 -0.01458413526415825 -0.005301185417920349
-0.0328541062772274 -0.014584135264158252 -0.011290134862065314
-0.03121412917971611 -0.014584135264158252 -0.01210674177855253
-0.02957415208220482 -0.014584135264158252 -0.012923352420330046
-0.027934174984693527 -0.014584135264158252 -0.013128071092069147
-0.026294197887182236 -0.014584135264158252 -0.013332785107195376
-0.024654222652316093 -0.014584135264158252 -0.01343946624547243
-0.023014245554804802 -0.014584135264158252 -0.013546146452426909
-0.02137426845729351 -0.014584135264158252 -0.013355370610952376
-0.01973429135978222 -0.014584135264158252 -0.013660588301718233
-0.018094314262270927 -0.014584135264158252 -0.013103588484227656
-0.016454337164759636 -0.014584135264158252 -0.01239633187651634
-0.014814360067248343 -0.014584135264158252 -0.010261879302561281
-0.013174382969737051 -0.014584135264158249 -0.0065027079544961435
-0.01153440587222576 -0.014584135264158249 -0.005107381846755741
-0.009894428774714468 -0.014584135264158249 -0.004810297396034001
-0.008254451677203177 -0.014584135264158249 -0.003951529506593941
-0.006614474579691886 -0.014584135264158249 -0.002941982122138141
-0.0049744974821805945 -0.014584135264158249 -0.004657369107007979
-0.0033345201518386594 -0.014584135264158249 -0.0039501124992966635
-0.0016945431707426897 -0.014584135264158249 -0.003759336890652774
-5.4566236940444484e-05 -0.014584135264158249 -0.005237832199782131
0.0015854107914492497 -0.014584135264158249 -0.006331149023026226
0.003225388005375863 -0.014584135264158249 -0.006874054204672573
0.0048653651028871545 -0.01458413526415825 -0.007690664380788801
0.006505342200398446 -0.014584135264158249 -0.006681116763502358
0.008145318366587164 -0.01458413526415825 -0.007636266760528086
0.009785295464098455 -0.01458413526415825 -0.007840983569622038
0.011425272561609747 -0.01458413526415825 -0.007133732084184883
0.013065249659121038 -0.014584135264158249 -0.006942952983081339
0.01470522675663233 -0.014584135264158249 -0.008298672735691069
0.016345204785466194 -0.014584135264158247 -0.006466011516749857
0.017985181882977486 -0.014584135264158247 -0.006572692189365624
0.019625158980488777 -0.014584135264158247 -0.006275606807321308
0.02126513607800007 -0.014584135264158247 -0.005978520959615706
0.02290511131286621 -0.014584135264158247 -0.004820920526981352
0.024545088410377502 -0.014584135264158247 -0.006176641210913656
0.026185065507888794 -0.014584135264158247 -0.006283321883529423
0.027825044468045235 -0.014584135264158247 -0.0044506564736366255
0.029465021565556526 -0.014584135264158247 -0.003743402892723678
0.031104998663067818 -0.014584135264158247 -0.0010072232689708454
-0.03449408337473869 -0.012944157235324385 -0.005687789991497992
-0.0328541062772274 -0.012944157235324386 -0.008162640035152434
-0.03121412917971611 -0.012944157235324386 -0.010810891166329382
-0.02957415208220482 -0.012944157235324386 -0.014204012230038641
-0.027934174984693527 -0.012944157235324386 -0.013248860836029051
-0.026294197887182236 -0.012944157235324386 -0.013545946218073366
-0.024654222652316093 -0.012944157235324386 -0.014102946035563944
-0.023014245554804802 -0.012944157235324386 -0.01409365329891443
-0.02137426845729351 -0.012944157235324386 -0.01418290752917528
-0.01973429135978222 -0.012944157235324386 -0.014076226390898226
-0.018094314262270927 -0.012944157235324386 -0.013969546183943747
-0.016454337164759636 -0.012944157235324386 -0.012876229360699652
-0.014814360067248344 -0.012944157235324386 -0.01104660890996456
-0.013174382969737053 -0.012944157235324383 -0.0046499529853463156
-0.011534405872225761 -0.012944157235324383 -0.00402744486927986
-0.00989442877471447 -0.012944157235324383 -0.0029341247864067537
-0.006614474579691886 -0.012944157235324383 -0.0014504932332783922
-0.0049744974821805945 -0.012944157235324383 -0.0014411999145522698
-0.0033345201518386594 -0.012944157235324383 -0.0007623808342032118
-0.0016945431707426897 -0.012944157235324383 -0.0016211479669436797
-5.4566236940444586e-05 -0.012944157235324383 -0.0017104025464504942
0.0015854107914492497 -0.012944157235324383 -0.0029977625235915167
0.003225388005375863 -0.012944157235324383 -0.004007308278232811
0.0048653651028871545 -0.012944157235324383 -0.005914116743952034
0.006505342200398446 -0.012944157235324383 -0.005807436071336268
0.008145318366587162 -0.012944157235324385 -0.007202760782092808
0.009785295464098454 -0.012944157235324385 -0.007193468976765869
0.011425272561609745 -0.012944157235324383 -0.006238317582756279
0.013065249659121037 -0.012944157235324383 -0.00642909202724695
0.014705226756632328 -0.012944157235324381 -0.005886186845600603
0.016345204785466194 -0.012944157235324381 -0.0053432835265994055
0.017985181882977486 -0.012944157235324381 -0.005236602853983639
0.019625158980488777 -0.012944157235324381 -0.005031887441873549
0.02126513607800007 -0.012944157235324381 -0.00482717342674732
0.02290511131286621 -0.012944157235324381 -0.004622454289346932
0.024545088410377502 -0.012944157235324381 -0.005179452709853647
0.026185065507888794 -0.012944157235324381 -0.004874237347394226
0.027825044468045235 -0.012944157235324381 -0.00517132133245468
0.029465021565556526 -0.012944157235324381 -0.0020392828155308945
-0.036134060472249985 -0.01130418106913567 -0.0074880165047943575
-0.03449408337473869 -0.011304181069135668 -0.0057325703091919405
-0.0328541062772274 -0.01130418106913567 -0.011159424670040606
-0.03121412917971611 -0.01130418106913567 -0.01378590054810047
-0.02957415208220482 -0.01130418106913567 -0.012198216281831263
-0.027934174984693527 -0.01130418106913567 -0.013153368607163428
-0.026294197887182236 -0.01130418106913567 -0.013260046951472758
-0.024654222652316093 -0.01130418106913567 -0.013938864693045614
-0.023014245554804802 -0.01130418106913567 -0.014045545831322668
-0.02137426845729351 -0.01130418106913567 -0.014350762590765951
-0.01973429135978222 -0.01130418106913567 -0.014261508360505102
-0.018094314262270927 -0.01130418106913567 -0.014368188567459582
-0.016454337164759636 -0.01130418106913567 -0.014278934337198733
-0.014814360067248344 -0.01130418106913567 -0.013981848955154417
-0.013174382969737053 -0.011304181069135668 -0.01258652377873659
-0.011534405872225761 -0.011304181069135666 -0.004474731162190436
-0.00989442877471447 -0.011304181069135666 -0.0018264797981828438
-0.008254451677203178 -0.011304181069135666 -7.10355307091945e-05
0.006505342200398446 -0.011304181069135666 -0.003306568833068012
0.008145318366587162 -0.011304181069135666 -0.002447802340611814
0.009785295464098454 -0.011304181069135666 -0.004984285216778515
0.011425272561609745 -0.011304181069135666 -0.005189000628888605
0.013065249659121037 -0.011304181069135666 -0.005099746398627756
0.014705226756632328 -0.011304181069135664 -0.005206427071243523
0.016345204785466194 -0.011304181069135664 -0.00490934122353792
0.017985181882977486 -0.011304181069135664 -0.005016021896153687
0.019625158980488777 -0.011304181069135664 -0.004718937911093233
0.02126513607800007 -0.011304181069135664 -0.0037093905266374337
0.02290511131286621 -0.011304181069135664 -0.003914109431207178
0.024545088410377502 -0.011304181069135664 -0.0030553413089364754
0.026185065507888794 -0.011304181069135664 -0.002864562440663575
0.027825044468045235 -0.011304181069135664 -0.0028738589026033865
0.029465021565556526 -0.011304181069135664 -0.0013787664938718068
-0.03449408337473869 -0.009664203971624376 -0.005860804580152034
-0.0328541062772274 -0.009664203971624378 -0.008249939419329165
-0.03121412917971611 -0.009664203971624378 -0.011545783840119837
-0.02957415208220482 -0.009664203971624378 -0.012253037653863428
-0.027934174984693527 -0.009664203971624378 -0.013111805543303488
-0.026294197887182236 -0.009664203971624378 -0.01412135176360607
-0.024654222652316093 -0.009664203971624378 -0.014678349718451498
-0.023014245554804802 -0.009664203971624378 -0.014571668580174444
-0.02137426845729351 -0.009664203971624378 -0.014660923741757868
-0.01973429135978222 -0.009664203971624378 -0.014958009123802183
-0.018094314262270927 -0.009664203971624378 -0.014141398482024668
-0.016454337164759636 -0.009664203971624378 -0.014132108539342879
-0.014814360067248344 -0.009664203971624378 -0.014689106494188307
-0.013174382969737053 -0.009664203971624376 -0.014146200381219385
-0.011534405872225761 -0.009664203971624376 -0.011701874434947966
0.014705226756632328 -0.009664203971624373 -0.001146627590060233
0.016345204785466194 -0.009664203971624373 -0.0010399500606581558
0.017985181882977486 -0.009664203971624373 -0.0013370357919484366
0.019625158980488777 -0.009664203971624373 -0.0002437156654195848
0.02126513607800007 -0.009664203971624373 -3.900003866874494e-05
-0.036134060472249985 -0.008024226874113085 -0.0049414332024753085
-0.03449408337473869 -0.008024226874113085 -0.006656819954514503
-0.0328541062772274 -0.008024226874113086 -0.009869259782135485
-0.03121412917971611 -0.008024226874113086 -0.01122497860342264
-0.02957415208220482 -0.008024226874113086 -0.01258069835603237
-0.027934174984693527 -0.008024226874113086 -0.013123602606356142
-0.026294197887182236 -0.008024226874113086 -0.01366650778800249
-0.024654222652316093 -0.008024226874113086 -0.014209411107003687
-0.023014245554804802 -0.008024226874113086 -0.014414126984775065
-0.02137426845729351 -0.008024226874113086 -0.014520807191729544
-0.01973429135978222 -0.008024226874113086 -0.014530100859701632
-0.018094314262270927 -0.008024226874113086 -0.013671332970261572
-0.016454337164759636 -0.008024226874113086 -0.014626484364271162
-0.014814360067248344 -0.008024226874113086 -0.01571980118751526
-0.013174382969737053 -0.008024226874113085 -0.01396435685455799
-0.011534405872225761 -0.008024226874113085 -0.014071037061512469
-0.00989442877471447 -0.008024226874113085 -0.01388026215136051
-0.008254451677203178 -0.008024226874113085 -0.011745805852115153
-0.03449408337473869 -0.006384249776601794 -0.004703901708126067
-0.0328541062772274 -0.006384249776601794 -0.0080970274284482
-0.03121412917971611 -0.006384249776601795 -0.012404647655785084
-0.02957415208220482 -0.006384249776601795 -0.011861742474138737
-0.027934174984693527 -0.006384249776601795 -0.013149101287126541
-0.026294197887182236 -0.006384249776601795 -0.013706100173294544
-0.024654222652316093 -0.006384249776601795 -0.01441335678100586
-0.023014245554804802 -0.006384249776601795 -0.014604131691157818
-0.02137426845729351 -0.006384249776601795 -0.014693383127450943
-0.01973429135978222 -0.006384249776601794 -0.014684089459478855
-0.018094314262270927 -0.006384249776601794 -0.014378870837390423
-0.016454337164759636 -0.006384249776601794 -0.014073655940592289
-0.014814360067248344 -0.006384249776601794 -0.013966974802315235
-0.013174382969737053 -0.006384249776601794 -0.01386029738932848
-0.011534405872225761 -0.006384249776601794 -0.01471906341612339
-0.00989442877471447 -0.006384249776601794 -0.014514344744384289
-0.008254451677203178 -0.006384249776601794 -0.012261653319001198
-0.036134060472249985 -0.004744272679090503 -0.0036920786369591947
-0.03449408337473869 -0.0047442726790905025 -0.004508685786277055
-0.0328541062772274 -0.0047442726790905025 -0.007559550926089286
-0.03121412917971611 -0.0047442726790905025 -0.01061041746288538
-0.02957415208220482 -0.004744272679090503 -0.010915632359683514
-0.027934174984693527 -0.004744272679090503 -0.013359960168600082
-0.026294197887182236 -0.004744272679090503 -0.013665176928043365
-0.024654222652316093 -0.004744272679090503 -0.014208082109689713
-0.023014245554804802 -0.004744272679090503 -0.014314762316644192
-0.02137426845729351 -0.004744272679090503 -0.016567453742027283
-0.01973429135978222 -0.0047442726790905025 -0.0144329983741045
-0.018094314262270927 -0.0047442726790905025 -0.014539678581058979
-0.016454337164759636 -0.0047442726790905025 -0.015356289222836494
-0.014814360067248344 -0.0047442726790905025 -0.014346740208566189
-0.013174382969737053 -0.0047442726790905025 -0.014551456086337566
-0.011534405872225761 -0.0047442726790905025 -0.014462200924754143
-0.00989442877471447 -0.0047442726790905025 -0.0137549489736557
-0.008254451677203178 -0.0047442726790905025 -0.014433767646551132
-0.006614474579691887 -0.004744272679090502 -0.014136681333184242
-0.004974497482180595 -0.004744272679090502 -0.013277915306389332
-0.036134060472249985 -0.0031042958144098546 -0.0023604761809110637
-0.0328541062772274 -0.003104295814409855 -0.006633616518229246
-0.03121412917971611 -0.003104295814409855 -0.009108467027544975
-0.02957415208220482 -0.003104295814409855 -0.011669648811221123
-0.027934174984693527 -0.003104295814409855 -0.012226646766066551
-0.026294197887182236 -0.0031042958144098555 -0.013514009304344654
-0.024654222652316093 -0.003104295814409855 -0.012835189700126648
-0.023014245554804802 -0.003104295814409855 -0.014590634033083916
-0.02137426845729351 -0.003104295814409855 -0.014887719415128231
-0.01973429135978222 -0.003104295814409855 -0.01487842295318842
-0.018094314262270927 -0.003104295814409855 -0.01467371080070734
-0.016454337164759636 -0.0031042958144098546 -0.014664414338767529
-0.014814360067248344 -0.003104295814409855 -0.017053551971912384
-0.013174382969737053 -0.0031042958144098546 -0.015112423337996006
-0.011534405872225761 -0.0031042958144098546 -0.014907704666256905
-0.00989442877471447 -0.003104295814409854 -0.014364801347255707
-0.008254451677203178 -0.003104295814409854 -0.014661886729300022
-0.006614474579691887 -0.003104295814409854 -0.014751138165593147
-0.004974497482180595 -0.003104295814409854 -0.013395419344305992
-0.0033345201518386602 -0.0031042958144098533 -0.011045624502003193
-0.03449408337473869 -0.0014643186004832415 -0.005391078069806099
-0.0328541062772274 -0.0014643186004832413 -0.005497755482792854
-0.03121412917971611 -0.0014643186004832417 -0.008212248794734478
-0.02957415208220482 -0.0014643186004832417 -0.010365067049860954
-0.027934174984693527 -0.001464318600483242 -0.011963427998125553
-0.026294197887182236 -0.001464318600483242 -0.013319146819412708
-0.024654222652316093 -0.001464318600483242 -0.013997967354953289
-0.023014245554804802 -0.0014643186004832417 -0.014303182251751423
-0.02137426845729351 -0.0014643186004832417 -0.014608398079872131
-0.01973429135978222 -0.0014643186004832417 -0.01471507828682661
-0.018094314262270927 -0.0014643186004832415 -0.014919794164597988
-0.016454337164759636 -0.0014643186004832417 -0.015874946489930153
-0.014814360067248344 -0.0014643186004832413 -0.0147173460572958
-0.013174382969737053 -0.001464318600483241 -0.012810537591576576
-0.011534405872225761 -0.0014643186004832413 -0.015437010675668716
-0.00989442877471447 -0.001464318600483241 -0.014880011789500713
-0.008254451677203178 -0.001464318600483241 -0.015558830462396145
-0.006614474579691887 -0.0014643186004832409 -0.014163507148623466
-0.004974497482180595 -0.0014643186004832406 -0.01417279802262783
-0.0033345201518386602 -0.0014643186004832406 -0.013982024043798447
-0.0016945431707426906 -0.0014643186004832402 -0.013123255223035812
-0.0328541062772274 0.0001756584388203893 -0.004884482827037573
-0.03121412917971611 0.00017565843882038907 -0.007273620925843716
-0.02957415208220482 0.0001756584388203889 -0.009408075362443924
-0.027934174984693527 0.0001756584388203888 -0.01124073937535286
-0.026294197887182236 0.0001756584388203887 -0.013073403388261795
-0.024654222652316093 0.0001756584388203887 -0.013630403205752373
-0.023014245554804802 0.00017565843882038867 -0.014917761087417603
-0.02137426845729351 0.0001756584388203888 -0.014612545259296894
-0.01973429135978222 0.00017565843882038886 -0.014909631572663784
-0.018094314262270927 0.00017565843882038894 -0.01499888300895691
-0.016454337164759636 0.00017565843882038902 -0.015189659781754017
-0.014814360067248344 0.00017565843882038913 -0.01527891494333744
-0.013174382969737053 0.0001756584388203892 -0.015269618481397629
-0.011534405872225761 0.00017565843882038932 -0.015260322019457817
-0.00989442877471447 0.00017565843882038945 -0.015055608935654163
-0.008254451677203178 0.00017565843882038956 -0.01485089398920536
-0.006614474579691887 0.00017565843882038967 -0.014744212850928307
-0.004974497482180595 0.00017565843882038986 -0.014201306737959385
-0.0033345201518386602 0.0001756584388203898 -0.01521085575222969
-0.0016945431707426906 0.0001756584388203903 -0.012242129072546959
-5.456623694044539e-05 0.00017565843882039054 -0.01114881131798029
-0.0328541062772274 0.0018156354781240197 -0.006477012764662504
-0.03121412917971611 0.0018156354781240197 -0.0066817267797887325
-0.02957415208220482 0.0018156354781240197 -0.009567145258188248
-0.027934174984693527 0.0018156354781240194 -0.011165507137775421
-0.026294197887182236 0.0018156354781240192 -0.013515298254787922
-0.024654222652316093 0.0018156354781240192 -0.013426048681139946
-0.023014245554804802 0.0018156354781240194 -0.014904539100825787
-0.02137426845729351 0.0018156354781240194 -0.014913835562765598
-0.01973429135978222 0.0018156354781240194 -0.014923125505447388
-0.018094314262270927 0.0018156354781240197 -0.014833874069154263
-0.016454337164759636 0.0018156354781240194 -0.015139092691242695
-0.014814360067248344 0.0018156354781240197 -0.015343808569014072
-0.013174382969737053 0.0018156354781240199 -0.015046722255647182
-0.011534405872225761 0.0018156354781240199 -0.01558962557464838
-0.00989442877471447 0.0018156354781240199 -0.015894845128059387
-0.008254451677203178 0.0018156354781240203 -0.014737246558070183
-0.006614474579691887 0.0018156354781240203 -0.015042462386190891
-0.004974497482180595 0.0018156354781240205 -0.014745376072824001
-0.0033345201518386602 0.0018156354781240205 -0.014188378117978573
-0.0016945431707426908 0.001815635478124021 -0.011969314888119698
-5.456623694044549e-05 0.0018156354781240207 -0.013798936270177364
0.0015854107914492486 0.001815635478124021 -0.012511573731899261
0.003225388005375862 0.0018156354781240214 -0.01029251515865326
-0.03121412917971611 0.0034556125756353114 -0.0061756279319524765
-0.02957415208220482 0.0034556125756353114 -0.007931072264909744
-0.027934174984693527 0.003455612575635311 -0.010150134563446045
-0.026294197887182236 0.003455612575635311 -0.011905578896403313
-0.024654222652316093 0.003455612575635311 -0.01357970666140318
-0.023014245554804802 0.003455612575635311 -0.014136706478893757
-0.02137426845729351 0.003455612575635311 -0.01469370536506176
-0.01973429135978222 0.003455612575635311 -0.014884479343891144
-0.018094314262270927 0.003455612575635311 -0.01518156472593546
-0.016454337164759636 0.0034556125756353114 -0.015478650107979774
-0.014814360067248344 0.0034556125756353114 -0.015273931436240673
-0.013174382969737053 0.003455612575635311 -0.0164315328001976
-0.011534405872225761 0.0034556125756353114 -0.015338215045630932
-0.00989442877471447 0.003455612575635312 -0.015427470207214355
-0.008254451677203178 0.003455612575635312 -0.01561824418604374
-0.006614474579691887 0.003455612575635312 -0.014939425513148308
-0.004974497482180595 0.003455612575635312 -0.014832745306193829
-0.0033345201518386602 0.0034556125756353123 -0.014016137458384037
-0.0016945431707426908 0.0034556125756353123 -0.014006842859089375
-5.456623694044559e-05 0.0034556125756353123 -0.013701626099646091
0.0015854107914492486 0.0034556125756353123 -0.01349690742790699
0.003225388005375862 0.0034556125756353127 -0.011898546479642391
-0.0328541062772274 0.00509558944031596 -0.001839651842601598
-0.03121412917971611 0.00509558944031596 -0.0029329720418900256
-0.02957415208220482 0.005095589440315959 -0.007339906878769399
-0.027934174984693527 0.005095589440315959 -0.010471943765878677
-0.026294197887182236 0.005095589440315958 -0.012413072399795055
-0.024654222652316093 0.005095589440315958 -0.013768794015049934
-0.023014245554804802 0.005095589440315958 -0.013578018173575401
-0.02137426845729351 0.005095589440315958 -0.014671333134174347
-0.01973429135978222 0.005095589440315959 -0.015764649957418442
-0.018094314262270927 0.005095589440315959 -0.01505739800632
-0.016454337164759636 0.005095589440315959 -0.015362613834440708
-0.014814360067248344 0.005095589440315959 -0.015171839855611324
-0.013174382969737053 0.005095589440315959 -0.01598845049738884
-0.011534405872225761 0.005095589440315959 -0.01569136418402195
-0.00989442877471447 0.005095589440315959 -0.01570066064596176
-0.008254451677203178 0.005095589440315959 -0.015709951519966125
-0.006614474579691887 0.00509558944031596 -0.015152952633798122
-0.004974497482180595 0.00509558944031596 -0.014595954678952694
-0.0033345201518386607 0.00509558944031596 -0.014702635817229748
-0.0016945431707426908 0.00509558944031596 -0.014405549503862858
-5.456623694044569e-05 0.00509558944031596 -0.01384855154901743
0.0015854107914492486 0.00509558944031596 -0.013955228962004185
0.0032253880053758617 0.00509558944031596 -0.012797628529369831
0.004865365102887154 0.00509558944031596 -0.01250054594129324
0.006505342200398445 0.00509558944031596 -0.011005451902747154
-0.02957415208220482 0.006735567003488538 -0.005795909557491542
-0.027934174984693527 0.006735567003488538 -0.009794879704713821
-0.026294197887182236 0.006735567003488537 -0.012269729748368263
-0.024654222652316093 0.006735567003488537 -0.01297698263078928
-0.023014245554804802 0.006735567003488537 -0.015111437998712063
-0.02137426845729351 0.006735567003488537 -0.014018119312822819
-0.01973429135978222 0.006735567003488538 -0.015175718814134598
-0.018094314262270927 0.006735567003488538 -0.01536649838089943
-0.016454337164759636 0.006735567003488538 -0.01566358096897602
-0.014814360067248344 0.006735567003488538 -0.015556903555989265
-0.013174382969737053 0.006735567003488538 -0.015853986144065857
-0.011534405872225761 0.006735567003488538 -0.015943238511681557
-0.00989442877471447 0.006735567003488538 -0.01573852263391018
-0.008254451677203178 0.006735567003488538 -0.014921914786100388
-0.006614474579691887 0.006735567003488539 -0.015478912740945816
-0.004974497482180595 0.006735567003488539 -0.014662305824458599
-0.0033345201518386607 0.006735567003488539 -0.014959385618567467
-0.001694543170742691 0.006735567003488539 -0.014416482299566269
-5.456623694044579e-05 0.006735567003488539 -0.014505736529827118
0.0015854107914492484 0.006735567003488539 -0.013550584204494953
0.0032253880053758617 0.006735567003488539 -0.013245368376374245
0.004865365102887154 0.006735567003488539 -0.013040652498602867
0.006505342200398445 0.006735567003488539 -0.011684933677315712
0.008145318366587162 0.006735567003488541 -0.009148445911705494
-0.02957415208220482 0.008375544100999829 -0.008475950919091703
-0.027934174984693527 0.008375544100999829 -0.008680669590830805
-0.026294197887182236 0.008375544100999829 -0.01181270368397236
-0.024654222652316093 0.008375544100999829 -0.012767856009304525
-0.023014245554804802 0.008375544100999829 -0.014366217888891699
-0.02137426845729351 0.008375544100999829 -0.014671436510980131
-0.01973429135978222 0.008375544100999829 -0.014680730178952219
-0.018094314262270927 0.008375544100999829 -0.014985945075750353
-0.016454337164759636 0.008375544100999829 -0.015291163697838785
-0.014814360067248344 0.008375544100999829 -0.016246313229203224
-0.013174382969737053 0.00837554410099983 -0.016255607828497887
-0.011534405872225761 0.00837554410099983 -0.014968249946832659
-0.00989442877471447 0.00837554410099983 -0.01606156677007675
-0.008254451677203178 0.00837554410099983 -0.01576448231935501
-0.006614474579691888 0.00837554410099983 -0.015969200059771538
-0.004974497482180596 0.00837554410099983 -0.014681837521493437
-0.0033345201518386607 0.00837554410099983 -0.015224740840494634
-0.001694543170742691 0.00837554410099983 -0.014517488889396192
-5.4566236940445893e-05 0.00837554410099983 -0.016670305281877518
0.0015854107914492484 0.00837554410099983 -0.014195457100868227
0.0032253880053758617 0.00837554410099983 -0.012521328404545786
0.004865365102887153 0.00837554410099983 -0.01361464522778988
0.006505342200398444 0.00837554410099983 -0.012755877338349821
0.008145318366587162 0.00837554410099983 -0.012198879383504392
0.009785295464098454 0.00837554410099983 -0.010911519639194013
-0.027934174984693527 0.01001552119851112 -0.008019965142011644
-0.026294197887182236 0.01001552119851112 -0.010323881171643736
-0.024654222652316093 0.01001552119851112 -0.011911565437912943
-0.023014245554804802 0.01001552119851112 -0.014130625873804094
-0.02137426845729351 0.01001552119851112 -0.01421987731009722
-0.01973429135978222 0.01001552119851112 -0.01492713298648596
-0.018094314262270927 0.01001552119851112 -0.014384225942194464
-0.016454337164759636 0.01001552119851112 -0.01539377495646477
-0.014814360067248344 0.01001552119851112 -0.016252541914582253
-0.013174382969737053 0.010015521198511122 -0.016047826036810875
-0.011534405872225761 0.010015521198511122 -0.01574261114001274
-0.00989442877471447 0.010015521198511122 -0.015933385118842125
-0.008254451677203178 0.010015521198511122 -0.015254566445946695
-0.006614474579691888 0.010015521198511122 -0.01555165182799101
-0.004974497482180596 0.010015521198511122 -0.015008748508989813
-0.0033345201518386607 0.010015521198511122 -0.015097999945282938
-0.0016945431707426912 0.010015521198511122 -0.014142850413918497
-5.4566236940445995e-05 0.010015521198511122 -0.014232101850211622
0.0015854107914492481 0.010015521198511122 -0.014125424437224867
0.0032253880053758617 0.010015521198511122 -0.01392070669680834
0.004865365102887153 0.010015521198511122 -0.013615488074719908
0.006505342200398444 0.010015521198511122 -0.013072583824396135
0.008145318366587162 0.010015521198511122 -0.012767367996275427
0.009785295464098454 0.010015521198511122 -0.011950758285820486
0.011425272561609745 0.010015521198511122 -0.011645540595054628
0.013065249659121037 0.010015521198511122 -0.009109058417379858
-0.027934174984693527 0.011655498296022412 -0.007696515414863827
-0.026294197887182236 0.011655498296022412 -0.009949211031198503
-0.024654222652316093 0.011655498296022412 -0.011304930783808233
-0.023014245554804802 0.011655498296022412 -0.01345774903893471
-0.02137426845729351 0.011655498296022412 -0.0144129004329443
-0.01973429135978222 0.011655498296022412 -0.014955800957977773
-0.018094314262270927 0.011655498296022412 -0.015062481164932253
-0.016454337164759636 0.011655498296022412 -0.015367703512310983
-0.014814360067248344 0.011655498296022412 -0.015572415664792063
-0.013174382969737053 0.011655498296022413 -0.015679096803069115
-0.011534405872225761 0.011655498296022413 -0.015883812680840492
-0.00989442877471447 0.011655498296022413 -0.016189027577638626
-0.008254451677203178 0.011655498296022413 -0.015998253598809242
-0.006614474579691888 0.011655498296022413 -0.016007550060749054
-0.004974497482180596 0.011655498296022413 -0.015300294384360315
-0.003334520151838661 0.011655498296022413 -0.015211040154099466
-0.0016945431707426912 0.011655498296022413 -0.014913957566022875
-5.456623694044609e-05 0.011655498296022413 -0.015219172462821009
0.0015854107914492481 0.011655498296022413 -0.014209627173841001
0.0032253880053758613 0.011655498296022413 -0.013652627356350424
0.004865365102887153 0.011655498296022413 -0.013957842253148557
0.006505342200398444 0.011655498296022413 -0.013660758733749391
0.008145318366587162 0.011655498296022413 -0.0133636761456728
0.009785295464098454 0.011655498296022413 -0.012504909187555315
0.011425272561609745 0.011655498296022413 -0.012415654957294466
0.013065249659121037 0.011655498296022413 -0.010508846491575243
0.014705226756632328 0.011655498296022415 -0.010615526698529722
-0.026294197887182236 0.013295474462211129 -0.008547014556825163
-0.024654222652316093 0.013295474462211129 -0.010453821159899237
-0.023014245554804802 0.013295474462211129 -0.01204150263220072
-0.02137426845729351 0.013295474462211129 -0.01353659573942423
-0.01973429135978222 0.013295474462211129 -0.014694196172058584
-0.018094314262270927 0.013295474462211129 -0.014884970150887968
-0.016454337164759636 0.013295474462211129 -0.015182055532932283
-0.014814360067248344 0.013295474462211129 -0.015075378119945528
-0.013174382969737053 0.01329547446221113 -0.01526615582406521
-0.011534405872225761 0.01329547446221113 -0.015823153778910637
-0.00989442877471447 0.01329547446221113 -0.015280246734619142
-0.008254451677203178 0.01329547446221113 -0.015577333047986032
-0.006614474579691888 0.01329547446221113 -0.015034429728984834
-0.004974497482180596 0.01329547446221113 -0.01492774859070778
-0.003334520151838661 0.01329547446221113 -0.01424892991781235
-0.0016945431707426914 0.01329547446221113 -0.013570113107562067
-5.456623694044619e-05 0.01329547446221113 -0.014428881928324701
0.001585410791449248 0.01329547446221113 -0.01441958546638489
0.0032253880053758613 0.01329547446221113 -0.014214869588613512
0.004865365102887153 0.01329547446221113 -0.01390965096652508
0.006505342200398444 0.01329547446221113 -0.013604434207081796
0.008145318366587162 0.01329547446221113 -0.013399720191955568
0.009785295464098454 0.01329547446221113 -0.012856815010309221
0.011425272561609745 0.01329547446221113 -0.01265209633857012
0.013065249659121037 0.01329547446221113 -0.012346880510449411
0.014705226756632328 0.013295474462211132 -0.011803976260125639
0.016345204785466194 0.013295474462211132 -0.010448256507515909
-0.026294197887182236 0.01493545155972242 -0.009705015458166601
-0.024654222652316093 0.01493545155972242 -0.009811696596443655
-0.023014245554804802 0.01493545155972242 -0.01243816874921322
-0.02137426845729351 0.01493545155972242 -0.01339332014322281
-0.01973429135978222 0.01493545155972242 -0.014749038964509966
-0.018094314262270927 0.01493545155972242 -0.014953758567571642
-0.016454337164759636 0.01493545155972242 -0.015158473514020445
-0.014814360067248346 0.01493545155972242 -0.015463689342141153
-0.013174382969737055 0.014935451559722422 -0.015570369549095632
-0.011534405872225763 0.014935451559722422 -0.015775086358189586
-0.009894428774714472 0.014935451559722422 -0.015685833990573887
-0.00825445167720318 0.014935451559722422 -0.015596579760313036
-0.006614474579691888 0.014935451559722422 -0.016139484941959385
-0.004974497482180596 0.014935451559722422 -0.015280716121196749
-0.003334520151838661 0.014935451559722422 -0.014983633533120157
-0.0016945431707426914 0.014935451559722422 -0.01479285676032305
-5.456623694044629e-05 0.014935451559722422 -0.014997571706771852
0.001585410791449248 0.014935451559722422 -0.014700486324727537
0.0032253880053758613 0.014935451559722422 -0.014709782786667349
0.004865365102887153 0.014935451559722422 -0.014412697404623033
0.006505342200398444 0.014935451559722422 -0.01422192342579365
0.00814531836658716 0.014935451559722422 -0.013514669612050058
0.009785295464098452 0.014935451559722422 -0.009207049384713175
0.011425272561609743 0.014935451559722422 -0.013001926243305208
0.013065249659121035 0.014935451559722422 -0.012912672013044359
0.014705226756632326 0.014935451559722424 -0.012615587562322618
0.016345204785466194 0.014935451559722424 -0.011457987129688265
0.017985181882977486 0.014935451559722424 -0.009068852290511133
-0.024654222652316093 0.01657542772591114 -0.008790459483861925
-0.023014245554804802 0.01657542772591114 -0.011009521782398226
-0.02137426845729351 0.01657542772591114 -0.012842186726629736
-0.01973429135978222 0.016575427725911137 -0.014516312628984453
-0.018094314262270927 0.016575427725911137 -0.014813395217061045
-0.016454337164759636 0.016575427725911137 -0.014508179388940336
-0.014814360067248346 0.016575427725911137 -0.015665780752897266
-0.013174382969737055 0.016575427725911137 -0.01555909961462021
-0.011534405872225763 0.016575427725911137 -0.015354380942881109
-0.009894428774714472 0.016575427725911137 -0.01534509100019932
-0.00825445167720318 0.016575427725911137 -0.01564217731356621
-0.006614474579691888 0.01657542772591114 -0.013812554068863394
-0.004974497482180596 0.016575427725911137 -0.015099914744496347
-0.003334520151838661 0.016575427725911137 -0.014993236400187017
-0.0016945431707426916 0.016575427725911137 -0.014983939938247206
-5.4566236940446395e-05 0.016575427725911137 -0.014779224991798403
0.0015854107914492477 0.016575427725911137 -0.014236321672797205
0.0032253880053758613 0.016575427725911137 -0.014427095651626589
0.004865365102887153 0.01657542772591114 -0.011800624430179598
0.006505342200398444 0.01657542772591114 -0.013935077004134657
0.00814531836658716 0.01657542772591114 -0.013629861176013948
0.009785295464098452 0.01657542772591114 -0.013620564714074137
0.011425272561609743 0.01657542772591114 -0.012264845892786981
0.013065249659121035 0.01657542772591114 -0.013123611919581892
0.014705226756632326 0.01657542772591114 -0.012307003140449526
0.016345204785466194 0.01657542772591114 -0.010591619648039343
0.017985181882977486 0.01657542772591114 -0.006846485193818809
-0.024654222652316093 0.018215404823422432 -0.00792511459439993
-0.023014245554804802 0.018215404823422432 -0.01129685901105404
-0.02137426845729351 0.018215404823422432 -0.013012242503464224
-0.01973429135978222 0.01821540482342243 -0.014490734785795214
-0.018094314262270927 0.01821540482342243 -0.014795949682593347
-0.016454337164759636 0.01821540482342243 -0.01510116830468178
-0.014814360067248346 0.01821540482342243 -0.015305884182453157
-0.013174382969737055 0.01821540482342243 -0.015008798800408842
-0.011534405872225763 0.01821540482342243 -0.014919543638825418
-0.009894428774714472 0.01821540482342243 -0.015462450683116915
-0.00825445167720318 0.01821540482342243 -0.01537319924682379
-0.006614474579691888 0.01821540482342243 -0.015382491983473303
-0.004974497482180596 0.01821540482342243 -0.01539178565144539
-0.0033345201518386615 0.01821540482342243 -0.015401079319417478
-0.0016945431707426916 0.01821540482342243 -0.015103993006050588
-5.4566236940446497e-05 0.01821540482342243 -0.015014741569757463
0.0015854107914492477 0.018215404823422432 -0.010707123205065729
0.003225388005375861 0.01821540482342243 -0.014572165906429293
0.004865365102887153 0.01821540482342243 -0.014678847044706346
0.006505342200398444 0.01821540482342243 -0.014381761662662031
0.00814531836658716 0.018215404823422432 -0.013824761845171453
0.009785295464098452 0.018215404823422432 -0.013527677394449713
0.011425272561609743 0.018215404823422432 -0.013438423164188864
0.013065249659121035 0.018215404823422432 -0.01334916800260544
0.014705226756632326 0.018215404823422432 -0.011675043962895872
0.016345204785466194 0.018215404823422432 -0.010665496811270716
0.017985181882977486 0.018215404823422432 -0.008531041443347933
0.019625158980488777 0.018215404823422432 -0.008637721650302412
0.02126513607800007 0.018215404823422432 -0.0028399042785167716
-0.023014245554804802 0.019855381920933723 -0.007610793691128495
-0.02137426845729351 0.019855381920933723 -0.01140338182449341
-0.01973429135978222 0.019855381920933723 -0.013158827088773252
-0.018094314262270927 0.01985538192093372 -0.014554155059158804
-0.016454337164759636 0.01985538192093372 -0.014643406495451929
-0.014814360067248346 0.01985538192093372 -0.014536729082465174
-0.013174382969737055 0.01985538192093372 -0.01569432951509953
-0.011534405872225763 0.019855381920933723 -0.013067853637039663
-0.009894428774714472 0.019855381920933723 -0.01362485531717539
-0.00825445167720318 0.01985538192093372 -0.014912215061485769
-0.006614474579691888 0.01985538192093372 -0.015209300443530084
-0.004974497482180596 0.01985538192093372 -0.015200003981590273
-0.0033345201518386615 0.01985538192093372 -0.015289259143173696
-0.0016945431707426919 0.01985538192093372 -0.0147463520988822
-5.456623694044659e-05 0.01985538192093372 -0.014541639946401121
0.0015854107914492475 0.01985538192093372 -0.015248891897499563
0.003225388005375861 0.01985538192093372 -0.015044176019728185
0.004865365102887153 0.01985538192093372 -0.014501272700726988
0.006505342200398444 0.019855381920933723 -0.013022777624428274
0.00814531836658716 0.019855381920933723 -0.01206762529909611
0.009785295464098452 0.019855381920933723 -0.012926395982503893
0.011425272561609743 0.019855381920933723 -0.012383490800857546
0.013065249659121035 0.019855381920933723 -0.011840586550533773
0.014705226756632326 0.019855381920933723 -0.010484866797924043
0.016345204785466194 0.019855381920933723 -0.00813507102429867
0.017985181882977486 0.019855381920933723 -0.003908493090420964
0.019625158980488777 0.019855381920933723 -0.0004112032765988285
-0.02137426845729351 0.021495359018445015 -0.010555474087595943
-0.01973429135978222 0.021495359018445015 -0.011911194771528247
-0.018094314262270927 0.02149535901844501 -0.014355516992509369
-0.016454337164759636 0.02149535901844501 -0.014898424036800865
-0.014814360067248346 0.02149535901844501 -0.014601341448724273
-0.013174382969737055 0.02149535901844501 -0.014304255135357383
-0.011534405872225763 0.021495359018445015 -0.014007169753313068
-0.009894428774714472 0.02149535901844501 -0.014211885631084446
-0.00825445167720318 0.02149535901844501 -0.014318565838038925
-0.006614474579691889 0.02149535901844501 -0.014229311607778076
-0.004974497482180597 0.02149535901844501 -0.014238608069717888
-0.0033345201518386615 0.02149535901844501 -0.014443323947489265
-0.0016945431707426919 0.02149535901844501 -0.014452616684138778
-5.456623694044669e-05 0.02149535901844501 -0.014757832512259487
0.0015854107914492475 0.021495359018445015 -0.014050580561161045
0.003225388005375861 0.021495359018445015 -0.013493581674993042
0.004865365102887152 0.021495359018445015 -0.012484034523367885
0.006505342200398443 0.021495359018445015 -0.01177677791565657
