ply
format ascii 1.0
element vertex 727
property float x
property float y
property float z
property uchar red
property uchar green
property uchar blue
end_header
-8.446444511413574 -3.516636371612549 0.7015175819396973 0 58 196
-8.446444511413574 -3.016636371612549 0.3485856056213379 0 29 225
-8.446444511413574 -2.516636371612549 0.5141077041625977 0 43 211
-8.446444511413574 -2.016636371612549 0.4868955612182617 0 40 214
-8.446444511413574 -1.0166362524032593 0.3074626922607422 0 26 228
-8.446444511413574 -0.5166362524032593 0.09183360636234283 0 9 245
-8.446444511413574 -0.016636280342936516 0.03366948291659355 0 4 250
-8.446444511413574 0.48336371779441833 0.006457578856498003 0 2 252
-7.946444988250732 -6.516636371612549 2.5735507011413574 0 208 46
-7.946444988250732 -5.516636371612549 1.2102293968200684 0 99 155
-7.946444988250732 -5.016636371612549 1.1777043342590332 0 96 158
-7.946444988250732 -4.516636371612549 1.5306363105773926 0 124 130
-7.946444988250732 -4.016636371612549 1.5278024673461914 0 124 130
-7.946444988250732 -3.516636371612549 1.0770363807678223 0 88 166
-7.946444988250732 -3.016636371612549 1.3388595581054688 0 109 145
-7.946444988250732 -2.516636371612549 1.0055265426635742 0 82 172
-7.946444988250732 -2.016636371612549 0.9431114196777344 0 77 177
-7.946444988250732 -1.5166362524032593 0.8500566482543945 0 70 184
-7.946444988250732 -1.0166362524032593 0.6430964469909668 0 53 201
-7.946444988250732 -0.5166362524032593 0.640263557434082 0 53 201
-7.946444988250732 -0.016636280342936516 0.730839729309082 0 60 194
-7.946444988250732 0.48336371779441833 0.43963050842285156 0 37 217
-7.946444988250732 0.9833637475967407 0.4071054458618164 0 34 220
-7.946444988250732 1.4833637475967407 1.0104374885559082 0 83 171
-7.946444988250732 1.9833637475967407 0.3540816307067871 0 30 224
-7.946444988250732 2.483363628387451 0.14712144434452057 0 13 241
-7.946444988250732 2.983363628387451 0.1442885547876358 0 13 241
-7.946444988250732 3.483363628387451 -0.02123354747891426 0 0 254
-7.946444988250732 3.983363628387451 0.19439555704593658 0 17 237
-7.446444988250732 -8.51663589477539 3.607748508453369 56 198 0
-7.446444988250732 -7.516636371612549 3.678074359893799 65 189 0
-7.446444988250732 -6.516636371612549 3.319701671600342 21 233 0
-7.446444988250732 -5.516636371612549 2.8083105087280273 0 227 27
-7.446444988250732 -5.016636371612549 2.3524837493896484 0 190 64
-7.446444988250732 -4.516636371612549 2.2619075775146484 0 183 71
-7.446444988250732 -4.016636371612549 2.0920886993408203 0 169 85
-7.446444988250732 -3.516636371612549 2.1545023918151855 0 174 80
-7.446444988250732 -3.016636371612549 1.762009620666504 0 143 111
-7.446444988250732 -2.516636371612549 1.5001864433288574 0 122 132
-7.446444988250732 -2.016636371612549 1.1923933029174805 0 97 157
-7.446444988250732 -1.5166362524032593 1.1018176078796387 0 90 164
-7.446444988250732 -1.0166362524032593 1.1046504974365234 0 90 164
-7.446444988250732 -0.5166362524032593 0.9348316192626953 0 76 178
-7.446444988250732 -0.016636280342936516 1.1417913436889648 0 93 161
-7.446444988250732 0.48336371779441833 0.9261612892150879 0 76 178
-7.446444988250732 0.9833637475967407 0.958686351776123 0 78 176
-7.446444988250732 1.4833637475967407 0.9005227088928223 0 74 180
-7.446444988250732 1.9833637475967407 0.9330472946166992 0 76 178
-7.446444988250732 2.483363628387451 0.6712245941162109 0 55 199
-7.446444988250732 2.983363628387451 0.7642793655395508 0 63 191
-7.446444988250732 3.483363628387451 0.7671136856079102 0 63 191
-7.446444988250732 3.983363628387451 0.5972943305969238 0 49 205
-7.446444988250732 4.483363628387451 0.506718635559082 0 42 212
-7.446444988250732 4.983363628387451 0.5095515251159668 0 42 212
-6.946444988250732 -9.51663589477539 4.103671550750732 118 136 0
-6.946444988250732 -8.51663589477539 3.570375442504883 52 202 0
-6.946444988250732 -7.516636371612549 4.053082466125488 112 142 0
-6.946444988250732 -7.016636371612549 3.6397476196289062 60 194 0
-6.946444988250732 -6.516636371612549 3.607222557067871 56 198 0
-6.946444988250732 -6.016636371612549 3.35825252532959 25 229 0
-6.946444988250732 -5.516636371612549 3.0249195098876953 0 244 10
-6.946444988250732 -5.016636371612549 2.931863307952881 0 237 17
-6.946444988250732 -4.516636371612549 2.838808536529541 0 229 25
-6.946444988250732 -4.016636371612549 2.6318483352661133 0 213 41
-6.946444988250732 -3.516636371612549 2.5387935638427734 0 205 49
-6.946444988250732 -3.016636371612549 2.0514817237854004 0 166 88
-6.946444988250732 -2.516636371612549 1.9584264755249023 0 159 95
-6.946444988250732 -2.016636371612549 1.4711146354675293 0 120 134
-6.946444988250732 -1.5166362524032593 1.46828031539917 0 119 135
-6.946444988250732 -1.0166362524032593 1.37522554397583 0 112 142
-6.946444988250732 -0.5166362524032593 1.1262555122375488 0 92 162
-6.946444988250732 -0.016636280342936516 1.3418846130371094 0 109 145
-6.946444988250732 0.48336371779441833 1.279470443725586 0 104 150
-6.946444988250732 0.9833637475967407 1.3066825866699219 0 106 148
-6.946444988250732 1.4833637475967407 1.244267463684082 0 101 153
-6.946444988250732 1.9833637475967407 1.1512126922607422 0 94 160
-6.946444988250732 2.483363628387451 1.0887985229492188 0 89 165
-6.946444988250732 2.983363628387451 1.0859646797180176 0 89 165
-6.946444988250732 3.483363628387451 1.1765403747558594 0 96 158
-6.946444988250732 3.983363628387451 1.0834856033325195 0 88 166
-6.946444988250732 4.483363628387451 1.1740612983703613 0 96 158
-6.946444988250732 4.983363628387451 1.1712274551391602 0 95 159
-6.946444988250732 5.483363628387451 0.2163255363702774 0 19 235
-6.946444988250732 5.983363628387451 0.8928775787353516 0 73 181
-6.946444988250732 6.483363628387451 0.23652149736881256 0 20 234
-6.946444988250732 6.983363628387451 -0.012448538094758987 0 0 254
-6.446444988250732 -10.51663589477539 4.03007173538208 109 145 0
-6.446444988250732 -9.51663589477539 4.08614444732666 116 138 0
-6.446444988250732 -9.01663589477539 4.1485595703125 124 130 0
-6.446444988250732 -8.51663589477539 4.090394496917725 116 138 0
-6.446444988250732 -8.01663589477539 4.032230377197266 109 145 0
-6.446444988250732 -7.516636371612549 3.9416556358337402 98 156 0
-6.446444988250732 -7.016636371612549 3.7718353271484375 77 177 0
-6.446444988250732 -6.516636371612549 3.510012626647949 44 210 0
-6.446444988250732 -6.016636371612549 3.340193748474121 23 231 0
-6.446444988250732 -5.516636371612549 3.1245646476745605 0 252 2
-6.446444988250732 -5.016636371612549 2.954745292663574 0 239 15
-6.446444988250732 -4.516636371612549 2.7849254608154297 0 225 29
-6.446444988250732 -4.016636371612549 2.6943507194519043 0 218 36
-6.446444988250732 -3.516636371612549 2.4325265884399414 0 197 57
-6.446444988250732 -3.016636371612549 2.341951370239258 0 190 64
-6.446444988250732 -2.516636371612549 2.283787727355957 0 185 69
-6.446444988250732 -2.016636371612549 2.376842498779297 0 192 62
-6.446444988250732 -1.5166362524032593 1.8416385650634766 0 149 105
-6.446444988250732 -1.0166362524032593 1.4162282943725586 0 115 139
-6.446444988250732 -0.5166362524032593 1.6651973724365234 0 135 119
-6.446444988250732 -0.016636280342936516 1.6680316925048828 0 135 119
-6.446444988250732 0.48336371779441833 1.6408195495605469 0 133 121
-6.446444988250732 0.9833637475967407 1.613607406616211 0 131 123
-6.446444988250732 1.4833637475967407 2.100919723510742 0 170 84
-6.446444988250732 1.9833637475967407 1.5657153129577637 0 127 127
-6.446444988250732 2.483363628387451 1.5385046005249023 0 125 129
-6.446444988250732 2.983363628387451 1.4479284286499023 0 118 136
-6.446444988250732 3.483363628387451 1.4207162857055664 0 115 139
-6.446444988250732 3.983363628387451 1.4532413482666016 0 118 136
-6.446444988250732 4.483363628387451 1.4560747146606445 0 118 136
-6.446444988250732 4.983363628387451 1.5184893608093262 0 123 131
-6.446444988250732 5.483363628387451 1.551013469696045 0 126 128
-6.446444988250732 5.983363628387451 1.492849349975586 0 121 133
-6.446444988250732 6.483363628387451 1.3230304718017578 0 108 146
-6.446444988250732 6.983363628387451 0.8672037124633789 0 71 183
-6.446444988250732 7.483363628387451 0.3084564208984375 0 26 228
-5.946444988250732 -10.51663589477539 3.980889320373535 103 151 0
-5.946444988250732 -9.51663589477539 4.054085731506348 112 142 0
-5.946444988250732 -9.01663589477539 4.051252365112305 112 142 0
-5.946444988250732 -8.51663589477539 4.0484185218811035 111 143 0
-5.946444988250732 -8.01663589477539 3.98600435256958 103 151 0
-5.946444988250732 -7.516636371612549 3.9235897064208984 96 158 0
-5.946444988250732 -7.016636371612549 3.861175537109375 88 166 0
-5.946444988250732 -6.516636371612549 3.6542153358459473 62 192 0
-5.946444988250732 -6.016636371612549 3.2408804893493652 11 243 0
-5.946444988250732 -5.516636371612549 3.178466320037842 3 251 0
-5.946444988250732 -5.016636371612549 2.8451333045959473 0 230 24
-5.946444988250732 -4.516636371612549 2.6796116828918457 0 217 37
-5.946444988250732 -4.016636371612549 2.3462777137756348 0 190 64
-5.946444988250732 -3.516636371612549 2.343444347381592 0 190 64
-5.946444988250732 -3.016636371612549 2.010110378265381 0 163 91
-5.946444988250732 -2.516636371612549 1.917055606842041 0 155 99
-5.946444988250732 -2.016636371612549 1.824000358581543 0 148 106
-5.946444988250732 -1.5166362524032593 1.914576530456543 0 155 99
-5.946444988250732 -1.0166362524032593 1.9117426872253418 0 155 99
-5.946444988250732 -0.5166362524032593 2.08156156539917 0 169 85
-5.946444988250732 -0.016636280342936516 2.0191473960876465 0 164 90
-5.946444988250732 0.48336371779441833 1.8536252975463867 0 150 104
-5.946444988250732 0.9833637475967407 1.6046557426452637 0 130 124
-5.946444988250732 1.4833637475967407 1.7744746208190918 0 144 110
-5.946444988250732 1.9833637475967407 1.8016862869262695 0 146 108
-5.946444988250732 2.483363628387451 1.8922624588012695 0 153 101
-5.946444988250732 2.983363628387451 1.7267403602600098 0 140 114
-5.946444988250732 3.483363628387451 1.6942152976989746 0 137 117
-5.946444988250732 3.983363628387451 1.6616907119750977 0 135 119
-5.946444988250732 4.483363628387451 1.6889023780822754 0 137 117
-5.946444988250732 4.983363628387451 1.5958476066589355 0 130 124
-5.946444988250732 5.483363628387451 1.948779582977295 0 158 96
-5.946444988250732 5.983363628387451 1.6998095512390137 0 138 116
-5.946444988250732 6.483363628387451 1.6672844886779785 0 135 119
-5.946444988250732 6.983363628387451 1.5017623901367188 0 122 132
-5.946444988250732 7.483363628387451 0.4496006965637207 0 37 217
-5.946444988250732 7.983363628387451 0.44676733016967773 0 37 217
-5.946444988250732 8.48336410522461 0.3537116050720215 0 30 224
-5.946444988250732 8.98336410522461 0.02037860080599785 0 3 251
-5.446444988250732 -10.51663589477539 3.794353485107422 80 174 0
-5.446444988250732 -9.51663589477539 4.213692665100098 132 122 0
-5.446444988250732 -9.01663589477539 3.998063564300537 105 149 0
-5.446444988250732 -8.51663589477539 4.030588626861572 109 145 0
-5.446444988250732 -8.01663589477539 3.9400124549865723 98 156 0
-5.446444988250732 -7.516636371612549 3.7701926231384277 77 177 0
-5.446444988250732 -7.016636371612549 3.802717685699463 81 173 0
-5.446444988250732 -6.516636371612549 3.5870885848999023 54 200 0
-5.446444988250732 -6.016636371612549 3.589921474456787 54 200 0
-5.446444988250732 -5.516636371612549 3.755443572998047 75 179 0
-5.446444988250732 -5.016636371612549 3.24503231048584 11 243 0
-5.446444988250732 -4.516636371612549 2.542609691619873 0 206 48
-5.446444988250732 -4.016636371612549 2.1896777153015137 0 177 77
-5.446444988250732 -3.516636371612549 2.192511558532715 0 178 76
-5.446444988250732 -3.016636371612549 2.0226917266845703 0 164 90
-5.446444988250732 -2.516636371612549 1.9321165084838867 0 157 97
-5.446444988250732 -2.016636371612549 1.9646406173706055 0 159 95
-5.446444988250732 -1.5166362524032593 1.9064764976501465 0 155 99
-5.446444988250732 -1.0166362524032593 2.113436698913574 0 171 83
-5.446444988250732 -0.5166362524032593 2.206491470336914 0 179 75
-5.446444988250732 -0.016636280342936516 2.2093253135681152 0 179 75
-5.446444988250732 0.48336371779441833 1.7534985542297363 0 142 112
-5.446444988250732 0.9833637475967407 2.1668334007263184 0 175 79
-5.446444988250732 1.4833637475967407 2.0762577056884766 0 168 86
-5.446444988250732 1.9833637475967407 2.0790915489196777 0 168 86
-5.446444988250732 2.483363628387451 1.9885153770446777 0 161 93
-5.446444988250732 2.983363628387451 1.897939682006836 0 154 100
-5.446444988250732 3.483363628387451 1.9909944534301758 0 161 93
-5.446444988250732 3.983363628387451 1.7753653526306152 0 144 110
-5.446444988250732 4.483363628387451 1.940887451171875 0 157 97
-5.446444988250732 4.983363628387451 1.913675308227539 0 155 99
-5.446444988250732 5.483363628387451 1.8555116653442383 0 150 104
-5.446444988250732 5.983363628387451 1.7973475456237793 0 146 108
-5.446444988250732 6.483363628387451 1.7701354026794434 0 144 110
-5.446444988250732 6.983363628387451 1.508312702178955 0 123 131
-5.446444988250732 7.483363628387451 1.540837287902832 0 125 129
-5.446444988250732 7.983363628387451 0.6232566833496094 0 51 203
-5.446444988250732 8.48336410522461 0.019924413412809372 0 3 251
-5.446444988250732 8.98336410522461 0.4332594871520996 0 36 218
-5.446444988250732 9.48336410522461 0.007849466055631638 0 2 252
-4.946444988250732 -11.01663589477539 1.7685112953186035 0 143 111
-4.946444988250732 -10.01663589477539 3.4770026206970215 40 214 0
-4.946444988250732 -9.51663589477539 3.9024124145507812 93 161 0
-4.946444988250732 -9.01663589477539 3.9929885864257812 104 150 0
-4.946444988250732 -8.51663589477539 4.05115270614624 112 142 0
-4.946444988250732 -8.01663589477539 4.078364372253418 115 139 0
-4.946444988250732 -7.516636371612549 4.015950679779053 107 147 0
-4.946444988250732 -7.016636371612549 4.0741143226623535 114 140 0
-4.946444988250732 -6.516636371612549 3.6233487129211426 58 196 0
-4.946444988250732 -6.016636371612549 3.9762797355651855 102 152 0
-4.946444988250732 -5.516636371612549 3.5255136489868164 46 208 0
-4.946444988250732 -5.016636371612549 3.4324584007263184 35 219 0
-4.946444988250732 -4.516636371612549 3.0191235542297363 0 244 10
-4.946444988250732 -4.016636371612549 2.2457942962646484 0 182 72
-4.946444988250732 -3.516636371612549 1.8324594497680664 0 149 105
-4.946444988250732 -3.016636371612549 1.5412507057189941 0 125 129
-4.946444988250732 -2.516636371612549 1.3342905044555664 0 109 145
-4.946444988250732 -2.016636371612549 1.3017654418945312 0 106 148
-4.946444988250732 -1.5166362524032593 0.0948944240808487 0 9 245
-4.946444988250732 -1.0166362524032593 1.4392075538635254 0 117 137
-4.946444988250732 -0.5166362524032593 1.7921395301818848 0 145 109
-4.946444988250732 -0.016636280342936516 2.2175493240356445 0 180 74
-4.946444988250732 0.48336371779441833 2.3081254959106445 0 187 67
-4.946444988250732 0.9833637475967407 2.3052926063537598 0 187 67
-4.946444988250732 1.4833637475967407 2.24287748336792 0 182 72
-4.946444988250732 1.9833637475967407 2.1804633140563965 0 177 77
-4.946444988250732 2.483363628387451 2.014941692352295 0 163 91
-4.946444988250732 2.983363628387451 1.9824166297912598 0 161 93
-4.946444988250732 3.483363628387451 1.9795823097229004 0 160 94
-4.946444988250732 3.983363628387451 1.9171686172485352 0 155 99
-4.946444988250732 4.483363628387451 1.944380283355713 0 158 96
-4.946444988250732 4.983363628387451 1.911855697631836 0 155 99
-4.946444988250732 5.483363628387451 1.8494415283203125 0 150 104
-4.946444988250732 5.983363628387451 1.8169164657592773 0 147 107
-4.946444988250732 6.483363628387451 1.8750805854797363 0 152 102
-4.946444988250732 6.983363628387451 1.8425555229187012 0 149 105
-4.946444988250732 7.483363628387451 1.6770334243774414 0 136 118
-4.946444988250732 7.983363628387451 1.7351975440979004 0 141 113
-4.946444988250732 8.48336410522461 1.4862275123596191 0 121 133
-4.946444988250732 8.98336410522461 0.7128987312316895 0 59 195
-4.446444988250732 -11.01663589477539 2.2669944763183594 0 183 71
-4.446444988250732 -10.51663589477539 1.6162376403808594 0 131 123
-4.446444988250732 -10.01663589477539 3.44216251373291 36 218 0
-4.446444988250732 -9.51663589477539 3.691131591796875 67 187 0
-4.446444988250732 -9.01663589477539 3.9401016235351562 98 156 0
-4.446444988250732 -8.51663589477539 4.002516746520996 106 148 0
-4.446444988250732 -8.01663589477539 4.064930438995361 113 141 0
-4.446444988250732 -7.516636371612549 4.0974555015563965 117 137 0
-4.446444988250732 -7.016636371612549 4.129980564117432 121 133 0
-4.446444988250732 -6.516636371612549 4.071816444396973 114 140 0
-4.446444988250732 -6.016636371612549 4.164871692657471 126 128 0
-4.446444988250732 -5.516636371612549 3.9950523376464844 105 149 0
-4.446444988250732 -5.016636371612549 3.7794222831726074 78 176 0
-4.446444988250732 -4.516636371612549 3.1286654472351074 0 253 1
-4.446444988250732 -4.016636371612549 1.982560634613037 0 161 93
-4.446444988250732 -3.516636371612549 1.5571503639221191 0 126 128
-4.446444988250732 -3.016636371612549 1.4665746688842773 0 119 135
-4.446444988250732 -2.516636371612549 1.2047514915466309 0 98 156
-4.446444988250732 -2.016636371612549 0.8969583511352539 0 73 181
-4.446444988250732 -1.5166362524032593 1.4199495315551758 0 115 139
-4.446444988250732 -1.0166362524032593 1.2043194770812988 0 98 156
-4.446444988250732 -0.5166362524032593 1.1461553573608398 0 93 161
-4.446444988250732 -0.016636280342936516 1.5969223976135254 0 130 124
-4.446444988250732 0.48336371779441833 1.93025541305542 0 156 98
-4.446444988250732 0.9833637475967407 2.0957775115966797 0 170 84
-4.446444988250732 1.4833637475967407 2.344747543334961 0 190 64
-4.446444988250732 1.9833637475967407 2.036954402923584 0 165 89
-4.446444988250732 2.483363628387451 2.328162670135498 0 188 66
-4.446444988250732 2.983363628387451 2.3905773162841797 0 193 61
-4.446444988250732 3.483363628387451 2.1749486923217773 0 176 78
-4.446444988250732 3.983363628387451 2.116783618927002 0 171 83
-4.446444988250732 4.483363628387451 2.530118465423584 0 205 49
-4.446444988250732 4.983363628387451 1.9713726043701172 0 160 94
-4.446444988250732 5.483363628387451 2.0038976669311523 0 162 92
-4.446444988250732 5.983363628387451 1.9133214950561523 0 155 99
-4.446444988250732 6.483363628387451 1.8227453231811523 0 148 106
-4.446444988250732 6.983363628387451 1.469813346862793 0 119 135
-4.446444988250732 7.483363628387451 1.8831486701965332 0 153 101
-4.446444988250732 7.983363628387451 1.9156737327575684 0 155 99
-4.446444988250732 8.48336410522461 1.356926441192627 0 110 144
-4.446444988250732 8.98336410522461 1.1412973403930664 0 93 161
-4.446444988250732 9.48336410522461 0.3070845603942871 0 26 228
-3.9464447498321533 -10.51663589477539 1.7341065406799316 0 141 113
-3.9464447498321533 -10.01663589477539 2.488644599914551 0 201 53
-3.9464447498321533 -9.51663589477539 3.2960495948791504 18 236 0
-3.9464447498321533 -9.01663589477539 4.330552101135254 146 108 0
-3.9464447498321533 -8.51663589477539 4.039343357086182 110 144 0
-3.9464447498321533 -8.01663589477539 4.129919528961182 121 133 0
-3.9464447498321533 -7.516636371612549 4.299738883972168 143 111 0
-3.9464447498321533 -7.016636371612549 4.296905517578125 142 112 0
-3.9464447498321533 -6.516636371612549 4.324117660522461 146 108 0
-3.9464447498321533 -6.016636371612549 4.291592597961426 142 112 0
-3.9464447498321533 -5.516636371612549 4.259067535400391 137 117 0
-3.9464447498321533 -5.016636371612549 3.925734519958496 96 158 0
-3.9464447498321533 -4.516636371612549 3.367915630340576 27 227 0
-3.9464447498321533 -4.016636371612549 1.4176883697509766 0 115 139
-3.9464447498321533 -3.516636371612549 1.2278966903686523 0 100 154
-3.9464447498321533 -3.016636371612549 0.8945627212524414 0 73 181
-3.9464447498321533 -2.016636371612549 0.4422297477722168 0 37 217
-3.9464447498321533 -1.5166362524032593 0.43939638137817383 0 37 217
-3.9464447498321533 -1.0166362524032593 0.2324364334344864 0 20 234
-3.9464447498321533 -0.5166362524032593 0.4942593574523926 0 41 213
-3.9464447498321533 -0.016636280342936516 0.5214715003967285 0 43 211
-3.9464447498321533 0.48336371779441833 0.9139647483825684 0 75 179
-3.9464447498321533 0.9833637475967407 1.221757411956787 0 100 154
-3.9464447498321533 1.4833637475967407 1.8031096458435059 0 146 108
-3.9464447498321533 1.9833637475967407 1.7705845832824707 0 144 110
-3.9464447498321533 2.483363628387451 2.1959943771362305 0 178 76
-3.9464447498321533 2.983363628387451 2.1931614875793457 0 178 76
-3.9464447498321533 3.483363628387451 1.9019527435302734 0 154 100
-3.9464447498321533 3.983363628387451 1.9601163864135742 0 159 95
-3.9464447498321533 4.483363628387451 1.7945942878723145 0 146 108
-3.9464447498321533 4.983363628387451 1.629072666168213 0 132 122
-3.9464447498321533 5.483363628387451 1.5965476036071777 0 130 124
-3.9464447498321533 5.983363628387451 1.5341334342956543 0 125 129
-3.9464447498321533 6.483363628387451 1.471719741821289 0 120 134
-3.9464447498321533 6.983363628387451 1.4093046188354492 0 115 139
-3.9464447498321533 7.483363628387451 1.5791234970092773 0 128 126
-3.9464447498321533 7.983363628387451 1.4860687255859375 0 121 133
-3.9464447498321533 8.48336410522461 1.5766444206237793 0 128 126
-3.9464447498321533 8.98336410522461 0.6217412948608398 0 51 203
-3.4464447498321533 -11.01663589477539 2.282963752746582 0 185 69
-3.4464447498321533 -10.51663589477539 1.7477593421936035 0 142 112
-3.4464447498321533 -10.01663589477539 3.402311325073242 31 223 0
-3.4464447498321533 -9.51663589477539 4.20307731628418 131 123 0
-3.4464447498321533 -9.01663589477539 3.719020366668701 70 184 0
-3.4464447498321533 -8.51663589477539 4.010229587554932 106 148 0
-3.4464447498321533 -8.01663589477539 4.04275369644165 111 143 0
-3.4464447498321533 -7.516636371612549 4.24971342086792 136 118 0
-3.4464447498321533 -7.016636371612549 4.282238483428955 140 114 0
-3.4464447498321533 -6.516636371612549 4.375293731689453 152 102 0
-3.4464447498321533 -6.016636371612549 4.348081588745117 149 105 0
-3.4464447498321533 -5.516636371612549 4.380606651306152 153 101 0
-3.4464447498321533 -5.016636371612549 4.353394508361816 149 105 0
-3.4464447498321533 -4.516636371612549 4.262818336486816 138 116 0
-3.4464447498321533 -4.016636371612549 3.8374085426330566 85 169 0
-3.4464447498321533 -3.516636371612549 1.3642663955688477 0 111 143
-3.4464447498321533 -3.016636371612549 0.556861400604248 0 46 208
-3.4464447498321533 -2.516636371612549 0.02165747806429863 0 3 251
-3.4464447498321533 1.9833637475967407 1.0081143379211426 0 82 172
-3.4464447498321533 2.483363628387451 0.7462916374206543 0 61 193
-3.4464447498321533 2.983363628387451 1.519620418548584 0 123 131
-3.4464447498321533 3.483363628387451 1.5820345878601074 0 128 126
-3.4464447498321533 3.983363628387451 1.5548224449157715 0 126 128
-3.4464447498321533 4.483363628387451 1.5873475074768066 0 129 125
-3.4464447498321533 4.983363628387451 1.4967713356018066 0 122 132
-3.4464447498321533 5.483363628387451 1.5292963981628418 0 124 130
-3.4464447498321533 5.983363628387451 1.438720703125 0 117 137
-3.4464447498321533 6.483363628387451 1.130927562713623 0 92 162
-3.4464447498321533 6.983363628387451 1.193342685699463 0 97 157
-3.4464447498321533 7.483363628387451 0.9315195083618164 0 76 178
-3.4464447498321533 7.983363628387451 0.873354434967041 0 72 182
-3.4464447498321533 8.48336410522461 0.8761887550354004 0 72 182
-3.4464447498321533 8.98336410522461 0.4203615188598633 0 35 219
-2.9464447498321533 -10.51663589477539 1.786855697631836 0 145 109
-2.9464447498321533 -10.01663589477539 2.515260696411133 0 203 51
-2.9464447498321533 -9.51663589477539 3.5201053619384766 45 209 0
-2.9464447498321533 -9.01663589477539 3.735734462738037 72 182 0
-2.9464447498321533 -8.51663589477539 3.9975576400756836 105 149 0
-2.9464447498321533 -8.01663589477539 4.305350303649902 143 111 0
-2.9464447498321533 -7.516636371612549 4.4751691818237305 164 90 0
-2.9464447498321533 -7.016636371612549 4.442644119262695 160 94 0
-2.9464447498321533 -6.516636371612549 4.469856262207031 164 90 0
-2.9464447498321533 -6.016636371612549 4.560432434082031 175 79 0
-2.9464447498321533 -5.516636371612549 4.31146240234375 144 110 0
-2.9464447498321533 -5.016636371612549 4.308629989624023 144 110 0
-2.9464447498321533 -4.516636371612549 4.478448867797852 165 89 0
-2.9464447498321533 -4.016636371612549 4.312926292419434 144 110 0
-2.9464447498321533 -3.516636371612549 3.567694664001465 51 203 0
-2.9464447498321533 4.483363628387451 0.34958648681640625 0 29 225
-2.9464447498321533 4.983363628387451 0.3170623779296875 0 27 227
-2.9464447498321533 5.483363628387451 0.4076385498046875 0 34 220
-2.9464447498321533 5.983363628387451 0.07430459558963776 0 7 247
-2.9464447498321533 6.483363628387451 0.01189042255282402 0 2 252
-2.4464447498321533 -11.01663589477539 1.5065555572509766 0 122 132
-2.4464447498321533 -10.51663589477539 2.0295467376708984 0 164 90
-2.4464447498321533 -10.01663589477539 3.008962631225586 0 243 11
-2.4464447498321533 -9.51663589477539 3.422297477722168 33 221 0
-2.4464447498321533 -9.01663589477539 3.83563232421875 85 169 0
-2.4464447498321533 -8.51663589477539 4.00115442276001 105 149 0
-2.4464447498321533 -8.01663589477539 4.1666765213012695 126 128 0
-2.4464447498321533 -7.516636371612549 4.332198143005371 147 107 0
-2.4464447498321533 -7.016636371612549 4.3946123123168945 154 100 0
-2.4464447498321533 -6.516636371612549 4.42713737487793 158 96 0
-2.4464447498321533 -6.016636371612549 4.429970741271973 159 95 0
-2.4464447498321533 -5.516636371612549 4.168147563934326 126 128 0
-2.4464447498321533 -5.016636371612549 4.459356307983398 162 92 0
-2.4464447498321533 -4.516636371612549 4.792689323425293 204 50 0
-2.4464447498321533 -4.016636371612549 4.257485389709473 137 117 0
-2.4464447498321533 -3.516636371612549 4.290010452270508 141 113 0
-2.4464447498321533 -3.016636371612549 4.231846332550049 134 120 0
-2.4464447498321533 -2.516636371612549 3.5810885429382324 53 201 0
-1.9464448690414429 -10.51663589477539 1.4341363906860352 0 117 137
-1.9464448690414429 -10.01663589477539 2.4686403274536133 0 200 54
-1.9464448690414429 -9.51663589477539 3.7819576263427734 78 176 0
-1.9464448690414429 -9.01663589477539 3.6164355278015137 57 197 0
-1.9464448690414429 -8.51663589477539 4.008928298950195 106 148 0
-1.9464448690414429 -8.01663589477539 4.178747653961182 127 127 0
-1.9464448690414429 -7.516636371612549 4.394377708435059 154 100 0
-1.9464448690414429 -7.016636371612549 4.452541351318359 162 92 0
-1.9464448690414429 -6.516636371612549 4.479752540588379 165 89 0
-1.9464448690414429 -6.016636371612549 4.476919174194336 165 89 0
-1.9464448690414429 -5.516636371612549 4.38386344909668 153 101 0
-1.9464448690414429 -5.016636371612549 4.29080867767334 141 113 0
-1.9464448690414429 -4.516636371612549 4.258283615112305 137 117 0
-1.9464448690414429 -4.016636371612549 4.225759506225586 133 121 0
-1.9464448690414429 -3.516636371612549 4.487582206726074 166 88 0
-1.9464448690414429 -3.016636371612549 4.425167083740234 158 96 0
-1.9464448690414429 -2.516636371612549 3.738361358642578 73 181 0
-1.4464448690414429 -11.01663589477539 1.1256494522094727 0 92 162
-1.4464448690414429 -10.51663589477539 1.3746185302734375 0 112 142
-1.4464448690414429 -10.01663589477539 2.3047733306884766 0 187 67
-1.4464448690414429 -9.51663589477539 3.234928607940674 10 244 0
-1.4464448690414429 -9.01663589477539 3.3279833793640137 22 232 0
-1.4464448690414429 -8.51663589477539 4.073215484619141 114 140 0
-1.4464448690414429 -8.01663589477539 4.166270732879639 126 128 0
-1.4464448690414429 -7.516636371612549 4.331792831420898 147 107 0
-1.4464448690414429 -7.016636371612549 4.364317893981934 151 103 0
-1.4464448690414429 -6.516636371612549 5.05112361907959 236 18 0
-1.4464448690414429 -6.016636371612549 4.400365829467773 155 99 0
-1.4464448690414429 -5.516636371612549 4.432890892028809 159 95 0
-1.4464448690414429 -5.016636371612549 4.68186092376709 190 64 0
-1.4464448690414429 -4.516636371612549 4.374067306518555 152 102 0
-1.4464448690414429 -4.016636371612549 4.436481475830078 160 94 0
-1.4464448690414429 -3.516636371612549 4.409269332885742 156 98 0
-1.4464448690414429 -3.016636371612549 4.19364070892334 129 125 0
-1.4464448690414429 -2.516636371612549 4.400600433349609 155 99 0
-1.4464448690414429 -2.016636371612549 4.310024261474609 144 110 0
-1.4464448690414429 -1.5166362524032593 4.048201560974121 111 143 0
-0.9464448690414429 -11.01663589477539 0.7196674346923828 0 59 195
-0.9464448690414429 -10.01663589477539 2.022472381591797 0 164 90
-0.9464448690414429 -9.51663589477539 2.777010440826416 0 224 30
-0.9464448690414429 -9.01663589477539 3.5578694343566895 50 204 0
-0.9464448690414429 -8.51663589477539 3.7276883125305176 71 183 0
-0.9464448690414429 -8.01663589477539 4.120182514190674 120 134 0
-0.9464448690414429 -7.516636371612549 3.913222312927246 94 160 0
-0.9464448690414429 -7.016636371612549 4.448426246643066 161 93 0
-0.9464448690414429 -6.516636371612549 4.539002418518066 172 82 0
-0.9464448690414429 -6.016636371612549 4.536168098449707 172 82 0
-0.9464448690414429 -5.516636371612549 4.4737548828125 164 90 0
-0.9464448690414429 -5.016636371612549 4.470920562744141 164 90 0
-0.9464448690414429 -4.516636371612549 5.199326515197754 255 0 0
-0.9464448690414429 -4.016636371612549 4.607510566711426 181 73 0
-0.9464448690414429 -3.516636371612549 4.545095443725586 173 81 0
-0.9464448690414429 -3.016636371612549 4.379573822021484 152 102 0
-0.9464448690414429 -2.516636371612549 4.470149993896484 164 90 0
-0.9464448690414429 -2.016636371612549 4.497361183166504 167 87 0
-0.9464448690414429 -1.5166362524032593 4.084026336669922 116 138 0
-0.9464448690414429 -1.0166362524032593 3.3676156997680664 27 227 0
-0.4464448392391205 -10.51663589477539 1.6436443328857422 0 133 121
-0.4464448392391205 -10.01663589477539 1.676168441772461 0 136 118
-0.4464448392391205 -9.51663589477539 2.5037693977355957 0 203 51
-0.4464448392391205 -9.01663589477539 3.160125732421875 1 253 0
-0.4464448392391205 -8.51663589477539 3.647437572479248 61 193 0
-0.4464448392391205 -8.01663589477539 4.06077241897583 113 141 0
-0.4464448392391205 -7.516636371612549 4.267732620239258 139 115 0
-0.4464448392391205 -7.016636371612549 4.360787391662598 150 104 0
-0.4464448392391205 -6.516636371612549 4.4538421630859375 162 92 0
-0.4464448392391205 -6.016636371612549 4.486367225646973 166 88 0
-0.4464448392391205 -5.516636371612549 4.548781394958496 174 80 0
-0.4464448392391205 -5.016636371612549 4.839990615844727 210 44 0
-0.4464448392391205 -4.516636371612549 4.487058639526367 166 88 0
-0.4464448392391205 -4.016636371612549 3.9057064056396484 93 161 0
-0.4464448392391205 -3.516636371612549 4.7064714431762695 193 61 0
-0.4464448392391205 -3.016636371612549 4.536652565002441 172 82 0
-0.4464448392391205 -2.516636371612549 4.743612289428711 198 56 0
-0.4464448392391205 -2.016636371612549 4.318202972412109 145 109 0
-0.4464448392391205 -1.5166362524032593 4.321035385131836 145 109 0
-0.4464448392391205 -1.0166362524032593 4.262871742248535 138 116 0
-0.4464448392391205 -0.5166362524032593 4.001048564910889 105 149 0
0.05355514958500862 -10.01663589477539 1.4891924858093262 0 121 133
0.05355514958500862 -9.51663589477539 2.2175984382629395 0 180 74
0.05355514958500862 -9.01663589477539 2.8683557510375977 0 232 22
0.05355514958500862 -8.51663589477539 3.427102565765381 34 220 0
0.05355514958500862 -8.01663589477539 3.985849380493164 103 151 0
0.05355514958500862 -7.516636371612549 4.15566873550415 125 129 0
0.05355514958500862 -7.016636371612549 4.548161506652832 173 81 0
0.05355514958500862 -6.516636371612549 4.455106735229492 162 92 0
0.05355514958500862 -6.016636371612549 4.545682907104492 173 81 0
0.05355514958500862 -5.516636371612549 4.572894096374512 177 77 0
0.05355514958500862 -5.016636371612549 4.631058692932129 184 70 0
0.05355514958500862 -4.516636371612549 4.658270835876465 187 67 0
0.05355514958500862 -4.016636371612549 4.6554365158081055 187 67 0
0.05355514958500862 -3.516636371612549 4.652602195739746 186 68 0
0.05355514958500862 -3.016636371612549 4.590188980102539 179 75 0
0.05355514958500862 -2.516636371612549 4.527774810791016 171 83 0
0.05355514958500862 -2.016636371612549 4.4952497482299805 167 87 0
0.05355514958500862 -1.5166362524032593 4.3297271728515625 146 108 0
0.05355514958500862 -1.0166362524032593 4.637520790100098 185 69 0
0.05355514958500862 -0.5166362524032593 3.7324085235595703 72 182 0
0.05355514958500862 -0.016636280342936516 3.399075508117676 30 224 0
0.5535551309585571 -10.01663589477539 1.974726676940918 0 160 94
0.5535551309585571 -9.51663589477539 2.037140369415283 0 165 89
0.5535551309585571 -9.01663589477539 2.916853427886963 0 236 18
0.5535551309585571 -8.51663589477539 3.404165744781494 31 223 0
0.5535551309585571 -8.01663589477539 4.120575428009033 120 134 0
0.5535551309585571 -7.516636371612549 4.093364715576172 117 137 0
0.5535551309585571 -7.016636371612549 4.544130325317383 173 81 0
0.5535551309585571 -6.516636371612549 4.546964645385742 173 81 0
0.5535551309585571 -6.016636371612549 4.549797058105469 174 80 0
0.5535551309585571 -5.516636371612549 4.522585868835449 170 84 0
0.5535551309585571 -5.016636371612549 4.6156415939331055 182 72 0
0.5535551309585571 -4.516636371612549 4.678055763244629 190 64 0
0.5535551309585571 -4.016636371612549 4.587479591369629 178 76 0
0.5535551309585571 -3.516636371612549 4.7530012130737305 199 55 0
0.5535551309585571 -3.016636371612549 4.846056938171387 211 43 0
0.5535551309585571 -2.516636371612549 4.493125915527344 167 87 0
0.5535551309585571 -2.016636371612549 4.586180686950684 178 76 0
0.5535551309585571 -1.5166362524032593 4.495604515075684 167 87 0
0.5535551309585571 -1.0166362524032593 4.3257856369018555 146 108 0
0.5535551309585571 -0.5166362524032593 3.6492323875427246 62 192 0
0.5535551309585571 -0.016636280342936516 4.207051753997803 131 123 0
0.5535551309585571 0.48336371779441833 3.8145575523376465 82 172 0
0.5535551309585571 0.9833637475967407 3.1380057334899902 0 253 1
1.0535551309585571 -9.51663589477539 1.8828396797180176 0 153 101
1.0535551309585571 -9.01663589477539 2.418043613433838 0 196 58
1.0535551309585571 -8.51663589477539 3.0945963859558105 0 250 4
1.0535551309585571 -8.01663589477539 3.629800319671631 59 195 0
1.0535551309585571 -7.516636371612549 4.140212535858154 123 131 0
1.0535551309585571 -7.016636371612549 4.310031890869141 144 110 0
1.0535551309585571 -6.516636371612549 4.479850769042969 165 89 0
1.0535551309585571 -6.016636371612549 4.5380144119262695 172 82 0
1.0535551309585571 -5.516636371612549 4.6285905838012695 183 71 0
1.0535551309585571 -5.016636371612549 4.7191667556762695 195 59 0
1.0535551309585571 -4.516636371612549 4.65675163269043 187 67 0
1.0535551309585571 -4.016636371612549 5.009683609008789 231 23 0
1.0535551309585571 -3.516636371612549 4.6763505935668945 189 65 0
1.0535551309585571 -3.016636371612549 4.7035627365112305 193 61 0
1.0535551309585571 -2.516636371612549 4.761726379394531 200 54 0
1.0535551309585571 -2.016636371612549 4.554766654968262 174 80 0
1.0535551309585571 -1.5166362524032593 4.522241592407227 170 84 0
1.0535551309585571 -1.0166362524032593 4.273272514343262 139 115 0
1.0535551309585571 -0.5166362524032593 4.2704386711120605 139 115 0
1.0535551309585571 -0.016636280342936516 4.1773834228515625 127 127 0
1.0535551309585571 0.48336371779441833 4.114968299865723 120 134 0
1.0535551309585571 0.9833637475967407 3.6276564598083496 59 195 0
1.5535551309585571 -10.01663589477539 0.5608773231506348 0 46 208
1.5535551309585571 -9.51663589477539 0.8942112922668457 0 73 181
1.5535551309585571 -9.01663589477539 2.2378077507019043 0 181 73
1.5535551309585571 -8.51663589477539 3.1927103996276855 5 249 0
1.5535551309585571 -8.01663589477539 3.7845263481140137 78 176 0
1.5535551309585571 -7.516636371612549 4.197861671447754 130 124 0
1.5535551309585571 -7.016636371612549 4.139697551727295 123 131 0
1.5535551309585571 -6.516636371612549 4.473030090332031 164 90 0
1.5535551309585571 -6.016636371612549 4.806363105773926 206 48 0
1.5535551309585571 -5.516636371612549 4.590734481811523 179 75 0
1.5535551309585571 -5.016636371612549 4.683789253234863 190 64 0
1.5535551309585571 -4.516636371612549 4.6256256103515625 183 71 0
1.5535551309585571 -4.016636371612549 4.874595642089844 214 40 0
1.5535551309585571 -3.516636371612549 4.784019470214844 203 51 0
1.5535551309585571 -3.016636371612549 4.786853790283203 203 51 0
1.5535551309585571 -2.516636371612549 4.78968620300293 204 50 0
1.5535551309585571 -2.016636371612549 4.619867324829102 182 72 0
1.5535551309585571 -1.5166362524032593 4.450048446655273 161 93 0
1.5535551309585571 -1.0166362524032593 4.482573509216309 165 89 0
1.5535551309585571 -0.5166362524032593 4.391997337341309 154 100 0
1.5535551309585571 -0.016636280342936516 4.2221784591674805 133 121 0
1.5535551309585571 0.48336371779441833 4.254702568054199 137 117 0
1.5535551309585571 0.9833637475967407 3.90177059173584 93 161 0
1.5535551309585571 1.4833637475967407 3.8111953735351562 82 172 0
1.5535551309585571 1.9833637475967407 3.355367660522461 25 229 0
2.0535552501678467 -9.01663589477539 1.7670702934265137 0 143 111
2.0535552501678467 -8.51663589477539 2.98628568649292 0 241 13
2.0535552501678467 -8.01663589477539 3.740823745727539 73 181 0
2.0535552501678467 -7.516636371612549 3.9564523696899414 100 154 0
2.0535552501678467 -7.016636371612549 4.607210159301758 181 73 0
2.0535552501678467 -6.516636371612549 4.273876667022705 139 115 0
2.0535552501678467 -6.016636371612549 4.626808166503906 183 71 0
2.0535552501678467 -5.516636371612549 4.68497371673584 190 64 0
2.0535552501678467 -5.016636371612549 4.775548934936523 202 52 0
2.0535552501678467 -4.516636371612549 4.743024826049805 198 56 0
2.0535552501678467 -4.016636371612549 4.833600044250488 209 45 0
2.0535552501678467 -3.516636371612549 4.860811233520508 212 42 0
2.0535552501678467 -3.016636371612549 4.798397064208984 205 49 0
2.0535552501678467 -2.516636371612549 4.5494279861450195 174 80 0
2.0535552501678467 -2.016636371612549 4.719246864318848 195 59 0
2.0535552501678467 -1.5166362524032593 4.470277786254883 164 90 0
2.0535552501678467 -1.0166362524032593 4.56085205078125 175 79 0
2.0535552501678467 -0.5166362524032593 4.395330429077148 154 100 0
2.0535552501678467 -0.016636280342936516 4.422542572021484 158 96 0
2.0535552501678467 0.48336371779441833 4.131333351135254 122 132 0
2.0535552501678467 0.9833637475967407 4.038278579711914 110 144 0
2.0535552501678467 1.4833637475967407 3.9758644104003906 102 152 0
2.0535552501678467 1.9833637475967407 3.5625295639038086 51 203 0
2.0535552501678467 2.483363628387451 2.7891993522644043 0 225 29
2.5535552501678467 -9.01663589477539 2.58416748046875 0 209 45
2.5535552501678467 -8.51663589477539 2.64658260345459 0 214 40
2.5535552501678467 -8.01663589477539 3.6014842987060547 56 198 0
2.5535552501678467 -7.516636371612549 3.892693519592285 92 162 0
2.5535552501678467 -7.016636371612549 4.380005836486816 153 101 0
2.5535552501678467 -6.516636371612549 4.473061561584473 164 90 0
2.5535552501678467 -6.016636371612549 4.475894927978516 164 90 0
2.5535552501678467 -5.516636371612549 4.5689496994018555 176 78 0
2.5535552501678467 -5.016636371612549 4.662005424499512 188 66 0
2.5535552501678467 -4.516636371612549 4.953213691711426 224 30 0
2.5535552501678467 -4.016636371612549 4.956047058105469 224 30 0
2.5535552501678467 -3.516636371612549 4.563554763793945 175 79 0
2.5535552501678467 -3.016636371612549 4.89688777923584 217 37 0
2.5535552501678467 -2.516636371612549 4.80631160736084 206 48 0
2.5535552501678467 -2.016636371612549 4.86872673034668 213 41 0
2.5535552501678467 -1.5166362524032593 4.476232528686523 165 89 0
2.5535552501678467 -1.0166362524032593 4.641754150390625 185 69 0
2.5535552501678467 -0.5166362524032593 4.426125526428223 158 96 0
2.5535552501678467 -0.016636280342936516 5.082481384277344 240 14 0
2.5535552501678467 0.48336371779441833 4.327943801879883 146 108 0
2.5535552501678467 0.9833637475967407 3.8175315856933594 83 171 0
2.5535552501678467 1.4833637475967407 4.150864601135254 124 130 0
2.5535552501678467 1.9833637475967407 3.8890414237976074 91 163 0
2.5535552501678467 2.483363628387451 3.7192225456237793 70 184 0
2.5535552501678467 2.983363628387451 3.3267292976379395 21 233 0
3.0535552501678467 -8.51663589477539 2.445145606994629 0 198 56
3.0535552501678467 -8.01663589477539 3.147568702697754 0 254 0
3.0535552501678467 -7.516636371612549 3.6316256523132324 59 195 0
3.0535552501678467 -7.016636371612549 4.308177947998047 144 110 0
3.0535552501678467 -6.516636371612549 4.335389137268066 147 107 0
3.0535552501678467 -6.016636371612549 4.551018714904785 174 80 0
3.0535552501678467 -5.516636371612549 4.385496139526367 153 101 0
3.0535552501678467 -5.016636371612549 4.693289756774902 192 62 0
3.0535552501678467 -4.516636371612549 4.955112457275391 224 30 0
3.0535552501678467 -4.016636371612549 4.892698287963867 216 38 0
3.0535552501678467 -3.516636371612549 4.799643516540527 205 49 0
3.0535552501678467 -3.016636371612549 4.857807159423828 212 42 0
3.0535552501678467 -2.516636371612549 4.650847434997559 186 68 0
3.0535552501678467 -2.016636371612549 4.741423606872559 198 56 0
3.0535552501678467 -1.5166362524032593 4.575901985168457 177 77 0
3.0535552501678467 -1.0166362524032593 4.603113174438477 180 74 0
3.0535552501678467 -0.5166362524032593 4.3119049072265625 144 110 0
3.0535552501678467 -0.016636280342936516 4.339116096496582 147 107 0
3.0535552501678467 0.48336371779441833 4.306591987609863 143 111 0
3.0535552501678467 0.9833637475967407 4.244177341461182 136 118 0
3.0535552501678467 1.4833637475967407 4.151121616363525 124 130 0
3.0535552501678467 1.9833637475967407 3.9855995178222656 103 151 0
3.0535552501678467 2.483363628387451 3.892544746398926 92 162 0
3.0535552501678467 2.983363628387451 3.6435747146606445 61 193 0
3.0535552501678467 3.483363628387451 3.5505194664001465 49 205 0
3.0535552501678467 3.983363628387451 2.777190685272217 0 224 30
3.5535552501678467 -8.51663589477539 2.346531391143799 0 190 64
3.5535552501678467 -8.01663589477539 3.0333385467529297 0 245 9
3.5535552501678467 -7.516636371612549 3.4466733932495117 36 218 0
3.5535552501678467 -7.016636371612549 4.103029727935791 118 136 0
3.5535552501678467 -6.516636371612549 4.394238471984863 154 100 0
3.5535552501678467 -6.016636371612549 4.559759140014648 175 79 0
3.5535552501678467 -5.516636371612549 4.592284202575684 179 75 0
3.5535552501678467 -5.016636371612549 4.685340881347656 191 63 0
3.5535552501678467 -4.516636371612549 4.747754096984863 198 56 0
3.5535552501678467 -4.016636371612549 4.780279159545898 202 52 0
3.5535552501678467 -3.516636371612549 4.842693328857422 210 44 0
3.5535552501678467 -3.016636371612549 4.935748100280762 222 32 0
3.5535552501678467 -2.516636371612549 4.877584457397461 214 40 0
3.5535552501678467 -2.016636371612549 4.88041877746582 215 39 0
3.5535552501678467 -1.5166362524032593 4.664789199829102 188 66 0
3.5535552501678467 -1.0166362524032593 4.637577056884766 185 69 0
3.5535552501678467 -0.5166362524032593 4.547001838684082 173 81 0
3.5535552501678467 -0.016636280342936516 4.640056610107422 185 69 0
3.5535552501678467 0.48336371779441833 4.332263946533203 147 107 0
3.5535552501678467 0.9833637475967407 4.162444591522217 125 129 0
3.5535552501678467 1.4833637475967407 4.255499362945557 137 117 0
3.5535552501678467 1.9833637475967407 4.164923667907715 126 128 0
3.5535552501678467 2.483363628387451 4.074348449707031 114 140 0
3.5535552501678467 2.983363628387451 3.812525749206543 82 172 0
3.5535552501678467 3.483363628387451 3.785313606262207 79 175 0
3.5535552501678467 3.983363628387451 3.2039613723754883 6 248 0
3.5535552501678467 4.483363628387451 3.2364864349365234 10 244 0
4.053555011749268 -8.01663589477539 2.6058335304260254 0 211 43
4.053555011749268 -7.516636371612549 3.187185287475586 4 250 0
4.053555011749268 -7.016636371612549 3.671241283416748 64 190 0
4.053555011749268 -6.516636371612549 4.127068519592285 121 133 0
4.053555011749268 -6.016636371612549 4.4800004959106445 165 89 0
4.053555011749268 -5.516636371612549 4.538164138793945 172 82 0
4.053555011749268 -5.016636371612549 4.628740310668945 183 71 0
4.053555011749268 -4.516636371612549 4.596216201782227 179 75 0
4.053555011749268 -4.016636371612549 4.654380798339844 187 67 0
4.053555011749268 -3.516636371612549 4.824199676513672 208 46 0
4.053555011749268 -3.016636371612549 4.658677101135254 187 67 0
4.053555011749268 -2.516636371612549 4.749253273010254 198 56 0
4.053555011749268 -2.016636371612549 4.583731651306152 178 76 0
4.053555011749268 -1.5166362524032593 4.551206588745117 174 80 0
4.053555011749268 -1.0166362524032593 4.344246864318848 148 106 0
4.053555011749268 -0.5166362524032593 4.137287616729736 122 132 0
4.053555011749268 -0.016636280342936516 4.399110794067383 155 99 0
4.053555011749268 0.48336371779441833 4.396276473999023 155 99 0
4.053555011749268 0.9833637475967407 4.3338623046875 147 107 0
4.053555011749268 1.4833637475967407 4.240806579589844 135 119 0
4.053555011749268 1.9833637475967407 4.147751331329346 124 130 0
4.053555011749268 2.483363628387451 4.0853376388549805 116 138 0
4.053555011749268 2.983363628387451 3.9198155403137207 95 159 0
4.053555011749268 3.483363628387451 3.857400417327881 87 167 0
4.053555011749268 3.983363628387451 3.764345645904541 76 178 0
4.053555011749268 4.483363628387451 3.5988235473632812 55 199 0
4.053555011749268 4.983363628387451 3.185488700866699 4 250 0
4.553555011749268 -8.01663589477539 2.9588875770568848 0 239 15
4.553555011749268 -7.516636371612549 2.99141263961792 0 242 12
4.553555011749268 -7.016636371612549 3.792177677154541 79 175 0
4.553555011749268 -6.516636371612549 4.083386421203613 116 138 0
4.553555011749268 -6.016636371612549 4.496721267700195 167 87 0
4.553555011749268 -5.516636371612549 4.559136390686035 175 79 0
4.553555011749268 -5.016636371612549 4.621550559997559 183 71 0
4.553555011749268 -4.516636371612549 4.714605331420898 194 60 0
4.553555011749268 -4.016636371612549 4.747130393981934 198 56 0
4.553555011749268 -3.516636371612549 4.809544563293457 206 48 0
4.553555011749268 -3.016636371612549 4.7823333740234375 203 51 0
4.553555011749268 -2.516636371612549 4.755121231079102 199 55 0
4.553555011749268 -2.016636371612549 4.9206438064575195 220 34 0
4.553555011749268 -1.5166362524032593 4.658820152282715 187 67 0
4.553555011749268 -1.0166362524032593 4.568244934082031 176 78 0
4.553555011749268 -0.5166362524032593 4.510080337524414 169 85 0
4.553555011749268 -0.016636280342936516 4.5724945068359375 176 78 0
4.553555011749268 0.48336371779441833 4.4819183349609375 165 89 0
4.553555011749268 0.9833637475967407 4.484752655029297 166 88 0
4.553555011749268 1.4833637475967407 4.394176483154297 154 100 0
4.553555011749268 1.9833637475967407 4.336012840270996 147 107 0
4.553555011749268 2.483363628387451 4.1203837394714355 120 134 0
4.553555011749268 2.983363628387451 2.8070664405822754 0 227 27
4.553555011749268 3.483363628387451 3.964057445526123 101 153 0
4.553555011749268 3.983363628387451 3.936845302581787 97 157 0
4.553555011749268 4.483363628387451 3.8462696075439453 86 168 0
4.553555011749268 4.983363628387451 3.493337631225586 42 212 0
4.553555011749268 5.483363628387451 2.764932632446289 0 224 30
5.053555011749268 -7.516636371612549 2.680055618286133 0 217 37
5.053555011749268 -7.016636371612549 3.3566083908081055 25 229 0
5.053555011749268 -6.516636371612549 3.915355682373047 95 159 0
5.053555011749268 -6.016636371612549 4.425766944885254 158 96 0
5.053555011749268 -5.516636371612549 4.5163421630859375 169 85 0
5.053555011749268 -5.016636371612549 4.423287391662598 158 96 0
5.053555011749268 -4.516636371612549 4.776219367980957 202 52 0
5.053555011749268 -4.016636371612549 4.743694305419922 198 56 0
