ply
format ascii 1.0
element vertex 715
property float x
property float y
property float z
property uchar red
property uchar green
property uchar blue
end_header
-8.338868501890556 -6.2810575074686925 -1.3715198688108248 0 41 213
-8.338868501890556 -5.2810575074686925 -1.5479608230191988 0 14 240
-8.338868501890556 -4.7810575074686925 -0.36957699580972614 0 197 57
-8.338868501890556 -4.2810575074686925 0.043758327524014096 7 247 0
-8.338868501890556 -3.7810575074686925 0.04659217075521527 8 246 0
-8.338868501890556 -3.2810575074686925 0.1090063400667387 18 236 0
-8.338868501890556 -2.7810575074686925 0.20206111149007855 35 219 0
-8.338868501890556 -2.2810579843058507 -0.013567989309481998 0 252 2
-8.338868501890556 -1.7810579843058507 0.018957073251553158 3 251 0
-8.338868501890556 -1.2810579843058507 0.5419472999971586 94 160 0
-8.338868501890556 -0.7810579843058507 0.6350020714204985 110 144 0
-8.338868501890556 -0.2810579843058507 0.7280573196809965 126 128 0
-8.338868501890556 0.21894201569414928 0.7904724426668364 137 117 0
-8.338868501890556 0.7189420156941493 0.6998962707918364 121 133 0
-8.338868501890556 1.2189420156941493 0.7027301140230375 122 132 0
-8.338868501890556 1.7189420156941493 0.6755184479158598 117 137 0
-8.338868501890556 2.2189420156941493 0.6483063049715239 112 142 0
-8.338868501890556 2.7189420156941493 0.47848742679769574 83 171 0
-8.338868501890556 3.2189420156941493 0.08599322513753949 14 240 0
-8.338868501890556 3.718942134903439 -0.4519968680936617 0 184 70
-7.838868501890556 -5.7810575074686925 -1.1165776900846285 0 81 173
-7.838868501890556 -5.2810575074686925 -0.6325216941434664 0 156 98
-7.838868501890556 -4.7810575074686925 0.20169108585531292 35 219 0
-7.838868501890556 -4.2810575074686925 0.1392773933809477 24 230 0
-7.838868501890556 -3.7810575074686925 0.35490601734335003 61 193 0
-7.838868501890556 -3.2810575074686925 0.38211816028768597 66 188 0
-7.838868501890556 -2.7810575074686925 0.3792843170564848 66 188 0
-7.838868501890556 -2.2810579843058507 0.37645142749960003 65 189 0
-7.838868501890556 -1.7810579843058507 0.1694912262361723 29 225 0
-7.838868501890556 -1.2810579843058507 0.7046951599519926 122 132 0
-7.838868501890556 -0.7810579843058507 0.7628592796724516 132 122 0
-7.838868501890556 -0.2810579843058507 1.2186860390108305 212 42 0
-7.838868501890556 0.21894201569414928 0.885353023568936 154 100 0
-7.838868501890556 0.7189420156941493 0.943517143289395 164 90 0
-7.838868501890556 1.2189420156941493 0.38569825367147503 67 187 0
-7.838868501890556 1.7189420156941493 0.693491394082852 120 134 0
-7.838868501890556 2.2189420156941493 0.690658027688809 120 134 0
-7.838868501890556 2.7189420156941493 0.6282433815401274 109 145 0
-7.838868501890556 3.2189420156941493 -0.27686888500039997 0 211 43
-7.338868501890556 -6.2810575074686925 -0.9592767409879488 0 105 149
-7.338868501890556 -5.7810575074686925 -1.0498529128629488 0 91 163
-7.338868501890556 -5.2810575074686925 -0.11969763561075153 0 236 18
-7.338868501890556 -4.7810575074686925 -0.4726296119291109 0 181 73
-7.338868501890556 -4.2810575074686925 0.35497039035970746 61 193 0
-7.338868501890556 -3.7810575074686925 0.3874954529207426 67 187 0
-7.338868501890556 -3.2810575074686925 0.6364650078218657 110 144 0
-7.338868501890556 -2.7810575074686925 0.5458893127840239 95 159 0
-7.338868501890556 -2.2810579843058507 0.578414375345059 100 154 0
-7.338868501890556 -1.7810579843058507 0.5512022324007231 95 159 0
-7.338868501890556 -1.2810579843058507 0.9645370788973051 167 87 0
-7.338868501890556 -0.7810579843058507 0.9373254127901274 163 91 0
-7.338868501890556 -0.2810579843058507 0.999740058938809 173 81 0
-7.338868501890556 0.21894201569414928 0.7841100044649321 136 118 0
-7.338868501890556 0.7189420156941493 0.8771662063997465 152 102 0
-7.338868501890556 1.2189420156941493 1.0426883049410063 181 73 0
-7.338868501890556 1.7189420156941493 0.7348951645296293 127 127 0
-7.338868501890556 2.2189420156941493 0.3424014397066313 59 195 0
-7.338868501890556 2.7189420156941493 0.6757354088228422 117 137 0
-7.338868501890556 3.2189420156941493 0.1916779823702055 33 221 0
-7.338868501890556 3.718942134903439 -0.7837839774686617 0 133 121
-6.838868501890556 -6.2810575074686925 -1.4727178268033785 0 25 229
-6.838868501890556 -5.7810575074686925 -0.8219595603544039 0 127 127
-6.838868501890556 -5.2810575074686925 -0.21862799449747028 0 220 34
-6.838868501890556 -4.7810575074686925 -0.19141585155313434 0 225 29
-6.838868501890556 -4.2810575074686925 0.36733144001180706 63 191 0
-6.838868501890556 -3.7810575074686925 0.5371503181856352 93 161 0
-6.838868501890556 -3.2810575074686925 0.5343159981172758 92 162 0
-6.838868501890556 -2.7810575074686925 0.7041353531282621 122 132 0
-6.838868501890556 -2.2810579843058507 0.9197654076021391 160 94 0
-6.838868501890556 -1.7810579843058507 0.9779290504854399 170 84 0
-6.838868501890556 -1.2810579843058507 1.0051411934297758 174 80 0
-6.838868501890556 -0.7810579843058507 1.0633053131502348 185 69 0
-6.838868501890556 -0.2810579843058507 1.000890190164395 174 80 0
-6.838868501890556 0.21894201569414928 1.059054309884854 184 70 0
-6.838868501890556 0.7189420156941493 0.8935322113435942 155 99 0
-6.838868501890556 1.2189420156941493 0.9207443542879301 160 94 0
-6.838868501890556 1.7189420156941493 0.7137841530245024 124 130 0
-6.838868501890556 2.2189420156941493 0.5482620544832426 95 159 0
-6.838868501890556 2.7189420156941493 0.45520728305990277 79 175 0
-6.838868501890556 3.2189420156941493 -0.10261160655801715 0 239 15
-6.838868501890556 3.718942134903439 -0.875940864523105 0 118 136
-6.338868501890556 -6.7810575074686925 -0.8702517203885836 0 119 135
-6.338868501890556 -6.2810575074686925 -1.13207489772623 0 78 176
-6.338868501890556 -5.7810575074686925 -0.4452686957914156 0 185 69
-6.338868501890556 -5.2810575074686925 -0.11193472667520465 0 237 17
-6.338868501890556 -4.7810575074686925 0.1792730636995512 31 223 0
-6.338868501890556 -4.2810575074686925 0.5126070328157621 89 165 0
-6.338868501890556 -3.7810575074686925 0.5154403992098051 89 165 0
-6.338868501890556 -3.2810575074686925 0.7644104309480864 133 121 0
-6.338868501890556 -2.7810575074686925 0.7969350166719633 138 116 0
-6.338868501890556 -2.2810579843058507 0.8899902649324614 154 100 0
-6.338868501890556 -1.7810579843058507 0.9524053879183012 165 89 0
-6.338868501890556 -1.2810579843058507 1.2857384033601957 223 31 0
-6.338868501890556 -0.7810579843058507 0.9779452629488188 170 84 0
-6.338868501890556 -0.2810579843058507 1.4652571030061918 255 0 0
-6.338868501890556 0.21894201569414928 1.0727643318575102 186 68 0
-6.338868501890556 0.7189420156941493 0.9029440231722075 157 97 0
-6.338868501890556 1.2189420156941493 0.9057783432405668 157 97 0
-6.338868501890556 1.7189420156941493 0.8476142235201078 147 107 0
-6.338868501890556 2.2189420156941493 0.5857910461824614 101 153 0
-6.338868501890556 2.7189420156941493 0.3239683456819731 56 198 0
-6.338868501890556 3.2189420156941493 -0.2793636970121187 0 211 43
-6.338868501890556 3.718942134903439 -0.37948281093423786 0 195 59
-6.338868501890556 4.218942134903439 -1.0560355834562105 0 90 164
-5.838868501890556 -6.7810575074686925 -0.8011556319791597 0 130 124
-5.838868501890556 -6.2810575074686925 -1.0923648528653902 0 85 169
-5.838868501890556 -5.7810575074686925 -0.5110126189786715 0 175 79
-5.838868501890556 -5.2810575074686925 0.09231942371542035 16 238 0
-5.838868501890556 -4.7810575074686925 0.029905254403896908 5 249 0
-5.838868501890556 -4.2810575074686925 0.6112570114534575 106 148 0
-5.838868501890556 -3.7810575074686925 0.6694211311739164 116 138 0
-5.838868501890556 -3.2810575074686925 0.7275852508943754 126 128 0
-5.838868501890556 -2.7810575074686925 0.8974041290682035 156 98 0
-5.838868501890556 -2.2810579843058507 0.9879803009432035 171 83 0
-5.838868501890556 -1.7810579843058507 0.9554552383821684 166 88 0
-5.838868501890556 -1.2810579843058507 1.1252741165559965 195 59 0
-5.838868501890556 -0.7810579843058507 1.1224412269991118 195 59 0
-5.838868501890556 -0.2810579843058507 1.0293850250642973 179 75 0
-5.838868501890556 0.21894201569414928 0.8638634033601957 150 104 0
-5.838868501890556 0.7189420156941493 0.7708081550996977 134 120 0
-5.838868501890556 1.2189420156941493 0.6777533836763578 117 137 0
-5.838868501890556 1.7189420156941493 0.8933820076387602 155 99 0
-5.838868501890556 2.2189420156941493 -0.03677279277627887 0 249 5
-5.838868501890556 2.7189420156941493 -0.03960568233316364 0 248 6
-5.838868501890556 3.2189420156941493 -0.5974245719510836 0 162 92
-5.338868501890556 -7.2810575074686925 -1.0075126342374605 0 98 156
-5.338868501890556 -6.7810575074686925 -0.841991012533359 0 124 130
-5.338868501890556 -6.2810575074686925 -0.3912239722806734 0 194 60
-5.338868501890556 -5.7810575074686925 -0.32880980296914997 0 203 51
-5.338868501890556 -5.2810575074686925 0.26300614551717816 45 209 0
-5.338868501890556 -4.7810575074686925 0.4285282440584379 74 180 0
-5.338868501890556 -4.2810575074686925 0.5940503425996977 103 151 0
-5.338868501890556 -3.7810575074686925 0.6265754051607328 109 145 0
-5.338868501890556 -3.2810575074686925 0.7920970268648344 137 117 0
-5.338868501890556 -2.7810575074686925 0.8851522751253325 154 100 0
-5.338868501890556 -2.2810579843058507 1.335919315378018 232 22 0
-5.338868501890556 -1.7810579843058507 0.8518623657625395 148 106 0
-5.338868501890556 -1.2810579843058507 0.9142760582369047 159 95 0
-5.338868501890556 -0.7810579843058507 1.163246089975186 202 52 0
-5.338868501890556 -0.2810579843058507 0.9934272118013578 172 82 0
-5.338868501890556 0.21894201569414928 1.025952274362393 178 76 0
-5.338868501890556 0.7189420156941493 0.9987401314180571 173 81 0
-5.338868501890556 1.2189420156941493 1.0015730209749418 174 80 0
-5.338868501890556 1.7189420156941493 0.6486410446565825 112 142 0
-5.338868501890556 2.2189420156941493 -0.07976395412271442 0 242 12
-5.338868501890556 2.7189420156941493 -0.3415866546232027 0 201 53
-5.338868501890556 3.2189420156941493 0.2502292938631254 43 211 0
-5.338868501890556 3.718942134903439 -0.17518097682779254 0 227 27
-4.838868501890556 -6.7810575074686925 -0.6897149734098238 0 147 107
-4.838868501890556 -6.2810575074686925 -0.38192183299844684 0 195 59
-4.838868501890556 -5.7810575074686925 -0.4443369559842867 0 185 69
-4.838868501890556 -5.2810575074686925 0.20642131046468792 35 219 0
-4.838868501890556 -4.7810575074686925 0.37624018863851605 65 189 0
-4.838868501890556 -4.2810575074686925 0.684033329049893 119 135 0
-4.838868501890556 -3.7810575074686925 0.7746090240877348 134 120 0
-4.838868501890556 -3.2810575074686925 0.9444283790987211 164 90 0
-4.838868501890556 -2.7810575074686925 0.6954583473604399 121 133 0
-4.838868501890556 -2.2810579843058507 1.0032510109346586 174 80 0
-4.838868501890556 -1.7810579843058507 1.0304631538789946 179 75 0
-4.838868501890556 -1.2810579843058507 1.2002820320528227 208 46 0
-4.838868501890556 -0.7810579843058507 1.2274941749971586 213 41 0
-4.838868501890556 -0.2810579843058507 0.8141593285005766 141 113 0
-4.838868501890556 0.21894201569414928 0.9839782066744047 171 83 0
-4.838868501890556 0.7189420156941493 0.8909234352510649 155 99 0
-4.838868501890556 1.2189420156941493 0.7254013367098051 126 128 0
-4.838868501890556 1.7189420156941493 0.27463525013143597 47 207 0
-4.838868501890556 2.2189420156941493 -0.016573970754794498 0 252 2
-4.838868501890556 2.7189420156941493 -0.8704696349698824 0 119 135
-4.838868501890556 3.2189420156941493 -1.4622858218747896 0 27 227
-4.338868501890556 -7.2810575074686925 -0.6394596747953218 0 155 99
-4.338868501890556 -6.7810575074686925 -0.6666708640653414 0 151 103
-4.338868501890556 -6.2810575074686925 -0.41770178600137653 0 190 64
-4.338868501890556 -5.7810575074686925 -0.004366939504794498 0 254 0
-4.338868501890556 -5.2810575074686925 0.28684228138143597 49 205 0
-4.338868501890556 -4.7810575074686925 0.5358123131197172 93 161 0
-4.338868501890556 -4.2810575074686925 0.6288670845430571 109 145 0
-4.338868501890556 -3.7810575074686925 0.7219232864778715 125 129 0
-4.338868501890556 -3.2810575074686925 0.8149780579012114 141 113 0
-4.338868501890556 -2.7810575074686925 0.8773922272127348 152 102 0
-4.338868501890556 -2.2810579843058507 0.9398073501985746 163 91 0
-4.338868501890556 -1.7810579843058507 1.0328621216219145 179 75 0
-4.338868501890556 -1.2810579843058507 0.9746980019014555 169 85 0
-4.338868501890556 -0.7810579843058507 0.5188712425630766 90 164 0
-4.338868501890556 -0.2810579843058507 1.0766901321809965 187 67 0
-4.338868501890556 0.21894201569414928 1.0494779892366606 182 72 0
-4.338868501890556 0.7189420156941493 0.9913143463533598 172 82 0
-4.338868501890556 1.2189420156941493 0.9331502266329008 162 92 0
-4.338868501890556 1.7189420156941493 0.9059380836885649 157 97 0
-4.338868501890556 2.2189420156941493 -0.12856489940469684 0 234 20
-4.338868501890556 2.7189420156941493 -1.163068836172275 0 74 180
-4.338868501890556 3.2189420156941493 -1.1006546668607515 0 83 171
-3.838868501890556 -6.7810575074686925 -0.6752815894681734 0 149 105
-3.838868501890556 -6.2810575074686925 -0.32234961314981403 0 204 50
-3.838868501890556 -5.7810575074686925 -0.01455694957559528 0 252 2
-3.838868501890556 -5.2810575074686925 0.043607170144863705 7 247 0
-3.838868501890556 -4.7810575074686925 0.3965391464632231 69 185 0
-3.838868501890556 -4.2810575074686925 0.7043322868746 122 132 0
-3.838868501890556 -3.7810575074686925 0.5388101883333403 93 161 0
-3.838868501890556 -3.2810575074686925 0.7086290665071684 123 131 0
-3.838868501890556 -2.7810575074686925 0.8784484215181547 152 102 0
-3.838868501890556 -2.2810579843058507 1.0482672996919828 182 72 0
-3.838868501890556 -1.7810579843058507 1.1064314194124418 192 62 0
-3.838868501890556 -1.2810579843058507 0.9409093208711821 163 91 0
-3.838868501890556 -0.7810579843058507 1.1107281990450102 193 61 0
-3.838868501890556 -0.2810579843058507 1.0483140297334868 182 72 0
-3.838868501890556 0.21894201569414928 1.218133384744473 211 43 0
-3.838868501890556 0.7189420156941493 0.660314018289395 114 140 0
-3.838868501890556 1.2189420156941493 0.4113454170625883 71 183 0
-3.838868501890556 1.7189420156941493 0.16237538532430706 28 226 0
-3.838868501890556 2.2189420156941493 -0.5828567199308199 0 164 90
-3.838868501890556 2.7189420156941493 0.09369605259115277 16 238 0
-3.338868501890556 -6.7810575074686925 -0.649523799856357 0 153 101
-3.338868501890556 -6.2810575074686925 -0.19875771327798786 0 224 30
-3.338868501890556 -5.7810575074686925 0.05021231846029339 8 246 0
-3.338868501890556 -5.2810575074686925 0.34142010883504925 59 195 0
-3.338868501890556 -4.7810575074686925 0.4344763107698637 75 179 0
-3.338868501890556 -4.2810575074686925 0.49689000324422894 86 168 0
-3.338868501890556 -3.7810575074686925 0.7038502045076567 122 132 0
-3.338868501890556 -3.2810575074686925 0.7662643738191801 133 121 0
-3.338868501890556 -2.7810575074686925 0.9732240982454496 169 85 0
-3.338868501890556 -2.2810579843058507 0.9460124321382719 164 90 0
-3.338868501890556 -1.7810579843058507 1.0084270782869535 175 79 0
-3.338868501890556 -1.2810579843058507 1.0112604446809965 175 79 0
-3.338868501890556 -0.7810579843058507 1.1043161697786528 192 62 0
-3.338868501890556 -0.2810579843058507 0.9344963379305082 162 92 0
-3.338868501890556 0.21894201569414928 1.0275520630281645 178 76 0
-3.338868501890556 0.7189420156941493 0.85773223118002 149 105 0
-3.338868501890556 1.2189420156941493 0.6421031303804594 111 143 0
-3.338868501890556 1.7189420156941493 0.24961035923177777 43 211 0
-3.338868501890556 2.2189420156941493 -0.6679707221586031 0 151 103
-2.838868501890556 -6.7810575074686925 -1.3624118022519869 0 43 211
-2.838868501890556 -6.2810575074686925 -0.32790858074014606 0 203 51
-2.838868501890556 -5.7810575074686925 0.025023395578213314 4 250 0
-2.838868501890556 -5.2810575074686925 0.24065345005209027 41 213 0
-2.838868501890556 -4.7810575074686925 0.4104723282259184 71 183 0
-2.838868501890556 -4.2810575074686925 0.5802912063997465 100 154 0
-2.838868501890556 -3.7810575074686925 0.7501100845735746 130 124 0
-2.838868501890556 -3.2810575074686925 0.8406862564485746 146 108 0
-2.838868501890556 -2.7810575074686925 0.9312624283235746 162 92 0
-2.838868501890556 -2.2810579843058507 0.9584740944307524 166 88 0
-2.838868501890556 -1.7810579843058507 1.174103195230313 204 50 0
-2.838868501890556 -1.2810579843058507 1.1415781326692778 198 56 0
-2.838868501890556 -0.7810579843058507 1.048523361245938 182 72 0
-2.838868501890556 -0.2810579843058507 1.0159982986849028 176 78 0
-2.838868501890556 0.21894201569414928 0.7670292206209379 133 121 0
-2.838868501890556 0.7189420156941493 0.5180591888826567 90 164 0
-2.838868501890556 1.2189420156941493 -0.3095408134061617 0 206 48
-2.838868501890556 1.7189420156941493 -0.600749557455234 0 161 93
-2.338868501890556 -7.2810575074686925 -1.149950807531528 0 76 178
-2.338868501890556 -6.7810575074686925 -0.9844289474088472 0 101 153
-2.338868501890556 -6.2810575074686925 -0.32807261272256794 0 203 51
-2.338868501890556 -5.7810575074686925 0.1592392273348051 27 227 0
-2.338868501890556 -5.2810575074686925 0.3247613258760649 56 198 0
-2.338868501890556 -4.7810575074686925 0.4178170509737211 72 182 0
-2.338868501890556 -4.2810575074686925 0.5833391495149809 101 153 0
-2.338868501890556 -3.7810575074686925 0.9166721649568754 159 95 0
-2.338868501890556 -3.2810575074686925 0.8260959930818754 143 111 0
-2.338868501890556 -2.7810575074686925 0.7679323501985746 133 121 0
-2.338868501890556 -2.2810579843058507 0.9748920746248442 169 85 0
-2.338868501890556 -1.7810579843058507 1.007416183511563 175 79 0
-2.338868501890556 -1.2810579843058507 1.1004723854463774 191 63 0
-2.338868501890556 -0.7810579843058507 0.930653030435391 161 93 0
-2.338868501890556 -0.2810579843058507 0.9631771393221098 167 87 0
-2.338868501890556 0.21894201569414928 0.9050130196016508 157 97 0
-2.338868501890556 0.7189420156941493 0.7351941414278227 127 127 0
-2.338868501890556 1.2189420156941493 0.3822621651094633 66 188 0
-2.338868501890556 1.7189420156941493 -0.451950614889316 0 184 70
-2.338868501890556 2.2189420156941493 -1.546545808752231 0 14 240
-1.8388684422859112 -6.7810575074686925 -1.0688968352872652 0 88 166
-1.8388684422859112 -6.2810575074686925 -0.510150020559482 0 175 79
-1.8388684422859112 -5.7810575074686925 -0.05432278438394489 0 246 8
-1.8388684422859112 -5.2810575074686925 0.25347035602743206 44 210 0
-1.8388684422859112 -4.7810575074686925 0.4232892342012602 73 181 0
-1.8388684422859112 -4.2810575074686925 0.36087506488973675 62 192 0
-1.8388684422859112 -3.7810575074686925 0.7533683128755766 131 123 0
-1.8388684422859112 -3.2810575074686925 0.9231881447237211 160 94 0
-1.8388684422859112 -2.7810575074686925 0.7162284202974516 124 130 0
-1.8388684422859112 -2.2810579843058507 1.1720551796358305 203 51 0
-1.8388684422859112 -1.7810579843058507 1.1992673225801664 208 46 0
-1.8388684422859112 -1.2810579843058507 0.7485002823274809 130 124 0
-1.8388684422859112 -0.7810579843058507 0.9183201141756254 159 95 0
-1.8388684422859112 -0.2810579843058507 0.6693500824373442 116 138 0
-1.8388684422859112 0.21894201569414928 0.666516239206143 115 139 0
-1.8388684422859112 0.7189420156941493 0.45955603794271527 79 175 0
-1.8388684422859112 1.2189420156941493 -0.3137727431852144 0 206 48
-1.8388684422859112 1.7189420156941493 -1.2439277820188326 0 61 193
-1.3388684720882336 -7.2810575074686925 -1.085619991262607 0 86 168
-1.3388684720882336 -6.7810575074686925 -1.2554388694364351 0 59 195
-1.3388684720882336 -6.2810575074686925 -0.2516828231412691 0 215 39
-1.3388684720882336 -5.7810575074686925 0.23562901691610394 41 213 0
-1.3388684720882336 -5.2810575074686925 0.23846333698446331 41 213 0
-1.3388684720882336 -4.7810575074686925 0.4039854355257231 70 184 0
-1.3388684720882336 -4.2810575074686925 0.5695070572298246 99 155 0
-1.3388684720882336 -3.7810575074686925 0.5723404236238676 99 155 0
-1.3388684720882336 -3.2810575074686925 1.2286962814729887 213 41 0
-1.3388684720882336 -2.7810575074686925 0.7728690452974516 134 120 0
-1.3388684720882336 -2.2810579843058507 0.775703365365811 134 120 0
-1.3388684720882336 -1.7810579843058507 1.0669121094148832 185 69 0
-1.3388684720882336 -1.2810579843058507 0.8970932312410551 156 98 0
-1.3388684720882336 -0.7810579843058507 1.2304262466829496 214 40 0
-1.3388684720882336 -0.2810579843058507 0.8774942703645903 152 102 0
-1.3388684720882336 0.21894201569414928 0.8502821274202543 147 107 0
-1.3388684720882336 0.7189420156941493 0.3662251778047758 63 191 0
-1.3388684720882336 1.2189420156941493 -0.4146338157254976 0 190 64
-1.3388684720882336 1.7189420156941493 -1.2220378570157808 0 64 190
-1.3388684720882336 2.2189420156941493 -1.2802017383176607 0 55 199
-0.8388684683629434 -6.7810575074686925 -0.9676099471647066 0 104 150
-0.8388684683629434 -6.2810575074686925 -0.5117827109891695 0 175 79
-0.8388684683629434 -5.7810575074686925 0.21662228779012738 37 217 0
-0.8388684683629434 -5.2810575074686925 0.2137893982332426 37 217 0
-0.8388684683629434 -4.7810575074686925 0.24100106434042035 41 213 0
-0.8388684683629434 -4.2810575074686925 0.33157723621542035 57 197 0
-0.8388684683629434 -3.7810575074686925 0.724070007364102 126 128 0
-0.8388684683629434 -3.2810575074686925 0.9858931847017485 171 83 0
-0.8388684683629434 -2.7810575074686925 0.9533681221407133 165 89 0
-0.8388684683629434 -2.2810579843058507 0.9208430595796782 160 94 0
-0.8388684683629434 -1.7810579843058507 0.7553214378755766 131 123 0
-0.8388684683629434 -1.2810579843058507 0.9709510155122953 168 86 0
-0.8388684683629434 -0.7810579843058507 0.7219809837740141 125 129 0
-0.8388684683629434 -0.2810579843058507 0.6894563980501371 119 135 0
-0.8388684683629434 0.21894201569414928 0.2761210747163969 48 206 0
-0.8388684683629434 0.7189420156941493 -0.41068465038125934 0 191 63
-0.8388684683629434 1.2189420156941493 -1.264579837759189 0 58 196
-0.8388684683629434 1.7189420156941493 -1.5979138068754 0 6 248
-0.3388684422859113 -7.2810575074686925 -0.8174615554410738 0 127 127
-0.3388684422859113 -6.7810575074686925 -0.724406784017734 0 142 112
-0.3388684422859113 -6.2810575074686925 -0.16658789439981403 0 229 25
-0.3388684422859113 -5.7810575074686925 0.12462132648641644 21 233 0
-0.3388684422859113 -5.2810575074686925 0.18703501896078167 32 222 0
-0.3388684422859113 -4.7810575074686925 0.2800902672212797 48 206 0
-0.3388684422859113 -4.2810575074686925 0.4456123657625395 77 177 0
-0.3388684422859113 -3.7810575074686925 0.6945823975008207 120 134 0
-0.3388684422859113 -3.2810575074686925 0.9015421219270903 156 98 0
-0.3388684422859113 -2.7810575074686925 0.8743299789827543 152 102 0
-0.3388684422859113 -2.2810579843058507 0.8471183128755766 147 107 0
-0.3388684422859113 -1.7810579843058507 0.8796433754366118 153 101 0
-0.3388684422859113 -1.2810579843058507 0.8524312324922758 148 106 0
-0.3388684422859113 -0.7810579843058507 0.8252190895479399 143 111 0
-0.3388684422859113 0.21894201569414928 0.5359472580354887 93 161 0
-0.3388684422859113 0.7189420156941493 -0.3531637839872164 0 200 54
-0.3388684422859113 1.2189420156941493 -1.1873768024045748 0 70 184
-0.3388684422859113 1.7189420156941493 -0.8961678199369234 0 115 139
0.16113149810944394 -6.7810575074686925 -0.7027717284757418 0 145 109
0.16113149810944394 -6.2810575074686925 -0.3949785880643648 0 193 61
0.16113149810944394 -5.7810575074686925 0.28157418445760785 49 205 0
0.16113149810944394 -5.2810575074686925 -0.2057376555997652 0 222 32
0.16113149810944394 -4.7810575074686925 0.21967213825399456 38 216 0
0.16113149810944394 -4.2810575074686925 0.012712413827725033 2 252 0
0.16113149810944394 -3.7810575074686925 0.5714592285555082 99 155 0
0.16113149810944394 -3.2810575074686925 0.7870883293550688 136 118 0
0.16113149810944394 -2.7810575074686925 0.75456422046835 131 123 0
0.16113149810944394 -2.2810579843058507 0.6921490974825102 120 134 0
0.16113149810944394 -1.7810579843058507 0.629735405008145 109 145 0
0.16113149810944394 -1.2810579843058507 0.6569461174410063 114 140 0
0.16113149810944394 -0.7810579843058507 0.32361310199911175 56 198 0
0.16113149810944394 -0.2810579843058507 0.2305583305757719 40 214 0
0.16113149810944394 0.21894201569414928 -0.327260559042148 0 204 50
0.16113149810944394 0.7189420156941493 -1.181156700094394 0 71 183
0.16113149810944394 1.2189420156941493 -1.5944917850095552 0 6 248
0.6611314981094439 -7.2810575074686925 -0.8047147445279879 0 129 125
0.6611314981094439 -6.7810575074686925 -0.5135060004789156 0 175 79
0.6611314981094439 -6.2810575074686925 -0.18017298503702106 0 226 28
0.6611314981094439 -5.7810575074686925 0.11103623584920941 19 235 0
0.6611314981094439 -5.2810575074686925 0.14356129841024456 24 230 0
0.6611314981094439 -4.7810575074686925 0.2059749908846098 35 219 0
0.6611314981094439 -4.2810575074686925 0.45494502262289105 79 175 0
0.6611314981094439 -3.7810575074686925 0.5480012245577055 95 159 0
0.6611314981094439 -3.2810575074686925 0.37818139270956097 65 189 0
0.6611314981094439 -2.7810575074686925 0.7115153618257719 123 131 0
0.6611314981094439 -2.2810579843058507 0.684303218881436 119 135 0
0.6611314981094439 -1.7810579843058507 0.376510078470059 65 189 0
0.6611314981094439 -1.2810579843058507 0.7098430939119535 123 131 0
0.6611314981094439 -0.7810579843058507 0.44802039341146527 77 177 0
0.6611314981094439 -0.2810579843058507 -0.08718401714151325 0 241 13
0.6611314981094439 1.2189420156941493 -1.55805784984415 0 12 242
1.161131498109444 -6.7810575074686925 -0.632340019186191 0 156 98
1.161131498109444 -6.2810575074686925 -0.2794075660306734 0 211 43
1.161131498109444 -5.7810575074686925 0.028385097543545346 4 250 0
1.161131498109444 -5.2810575074686925 0.19820540622884808 34 220 0
1.161131498109444 -4.7810575074686925 0.032683307687588314 5 249 0
1.161131498109444 -4.2810575074686925 0.4580931015413481 79 175 0
1.161131498109444 -3.7810575074686925 0.5486692734163481 95 159 0
1.161131498109444 -3.2810575074686925 0.48625415043050824 84 170 0
1.161131498109444 -2.7810575074686925 0.5134662933748442 89 165 0
1.161131498109444 -2.2810579843058507 0.5716304130953032 99 155 0
1.161131498109444 -1.7810579843058507 0.23829739765340863 41 213 0
1.161131498109444 -1.2810579843058507 0.26550811008626996 46 208 0
1.161131498109444 -0.7810579843058507 0.20309441761190472 35 219 0
1.161131498109444 -0.2810579843058507 -0.1302385978299898 0 234 20
1.161131498109444 0.7189420156941493 -1.610470836599521 0 4 250
1.661131498109444 -7.2810575074686925 -0.7564578704435152 0 137 117
1.661131498109444 -6.7810575074686925 -0.5909367255765718 0 163 91
1.661131498109444 -6.2810575074686925 -0.1776009254056734 0 227 27
1.661131498109444 -5.7810575074686925 -0.012079780538730045 0 253 1
1.661131498109444 -5.2810575074686925 0.4012560196321684 69 185 0
1.661131498109444 -4.7810575074686925 0.18562644199544964 32 222 0
1.661131498109444 -4.2810575074686925 0.3511480636995512 61 193 0
1.661131498109444 -3.7810575074686925 0.44420331196004925 77 177 0
1.661131498109444 -3.2810575074686925 0.4169921226900297 72 182 0
1.661131498109444 -2.7810575074686925 0.2471722908418852 43 211 0
1.661131498109444 -2.2810579843058507 0.5383810348909575 93 161 0
1.661131498109444 -1.7810579843058507 0.44780533985311566 77 177 0
1.661131498109444 -1.2810579843058507 0.18598216251546917 32 222 0
1.661131498109444 -0.7810579843058507 0.15877145008260785 27 227 0
1.661131498109444 -0.2810579843058507 -0.2337227515775484 0 218 36
1.661131498109444 0.21894201569414928 -0.9882608108121675 0 101 153
1.661131498109444 0.7189420156941493 -1.0464249305326265 0 92 162
2.161131498109444 -6.7810575074686925 -0.65827757640665 0 152 102
2.161131498109444 -6.2810575074686925 -0.3504849128324312 0 200 54
2.161131498109444 -5.7810575074686925 -0.042691772421054264 0 248 6
2.161131498109444 -5.2810575074686925 -0.2916608504850191 0 209 45
2.161131498109444 -4.7810575074686925 -0.029837673147372623 0 250 4
2.161131498109444 -4.2810575074686925 0.02832644657308636 4 250 0
2.161131498109444 -3.7810575074686925 0.38125842289144574 66 188 0
2.161131498109444 -3.2810575074686925 0.4394220657747465 76 178 0
2.161131498109444 -2.7810575074686925 0.3770074196260649 65 189 0
2.161131498109444 -2.2810579843058507 0.6388301201265532 111 143 0
2.161131498109444 -1.7810579843058507 0.22549527362997113 39 215 0
2.161131498109444 -1.2810579843058507 0.25270741657430706 43 211 0
2.161131498109444 -0.7810579843058507 -0.16062790675943317 0 230 24
2.161131498109444 -0.2810579843058507 -0.8474336318570894 0 123 131
2.661131498109444 -7.2810575074686925 -0.8977027587491793 0 115 139
2.661131498109444 -6.7810575074686925 -0.606494014700107 0 160 94
2.661131498109444 -6.2810575074686925 -0.27316099925821247 0 212 42
2.661131498109444 -5.7810575074686925 -0.180104797323398 0 226 28
2.661131498109444 -5.2810575074686925 -0.014582698782138248 0 252 2
2.661131498109444 -4.7810575074686925 0.15093939975912152 26 228 0
2.661131498109444 -4.2810575074686925 0.24399417118246136 42 212 0
2.661131498109444 -3.7810575074686925 0.4095162697237211 71 183 0
2.661131498109444 -3.2810575074686925 0.5750383682649809 100 154 0
2.661131498109444 -2.7810575074686925 0.8240084000032621 143 111 0
2.661131498109444 -2.2810579843058507 0.5621852226656157 97 157 0
2.661131498109444 -1.7810579843058507 0.5040211029451567 87 167 0
2.661131498109444 -1.2810579843058507 0.242197448770352 42 212 0
2.661131498109444 -0.7810579843058507 -0.11073357387369098 0 237 17
2.661131498109444 -0.2810579843058507 -0.5947910003263277 0 162 92
2.661131498109444 0.21894201569414928 -1.3231967143613619 0 49 205
3.161131498109444 -6.2810575074686925 -0.08556563182657184 0 241 13
3.161131498109444 -5.7810575074686925 -0.1786208800870699 0 227 27
3.161131498109444 -5.2810575074686925 -0.008802001913241764 0 253 1
3.161131498109444 -4.7810575074686925 0.04936211780721722 8 246 0
3.161131498109444 -4.2810575074686925 0.13993828968221722 24 230 0
3.161131498109444 -3.7810575074686925 0.4017609901827055 69 185 0
3.161131498109444 -3.2810575074686925 0.617390090982266 107 147 0
3.161131498109444 -2.7810575074686925 0.644602233926602 112 142 0
3.161131498109444 -2.2810579843058507 0.6120771713655668 106 148 0
3.161131498109444 -1.7810579843058507 0.08908742145711956 15 239 0
3.161131498109444 -1.2810579843058507 -0.0764346770841402 0 243 11
3.161131498109444 -0.7810579843058507 -0.40976769252603473 0 191 63
3.161131498109444 -0.2810579843058507 -1.0965738944608492 0 84 170
3.661131498109444 -6.7810575074686925 -0.6067348174649996 0 160 94
3.661131498109444 -6.2810575074686925 -0.3155255965787691 0 205 49
3.661131498109444 -5.7810575074686925 -0.15000397487466754 0 231 23
3.661131498109444 -5.2810575074686925 -0.1174798659879488 0 236 18
3.661131498109444 -4.7810575074686925 -0.08495480342691364 0 241 13
3.661131498109444 -4.2810575074686925 0.2483791656892973 43 211 0
3.661131498109444 -3.7810575074686925 0.34143441394979535 59 195 0
3.661131498109444 -3.2810575074686925 0.6326431579988676 110 144 0
3.661131498109444 -2.7810575074686925 0.6054310150545317 105 149 0
3.661131498109444 -2.2810579843058507 0.43561213688070355 75 179 0
3.661131498109444 -1.7810579843058507 0.08268016056234417 14 240 0
3.661131498109444 -1.2810579843058507 0.055468017618008236 9 245 0
3.661131498109444 -0.7810579843058507 -0.454943721731357 0 184 70
3.661131498109444 -0.2810579843058507 -0.7167668990690035 0 143 111
3.661131498109444 0.21894201569414928 -1.4191897563535494 0 34 220
4.161131498109444 -6.2810575074686925 -0.6425247840482515 0 155 99
4.161131498109444 -5.7810575074686925 -0.15846878810708942 0 230 24
4.161131498109444 -5.2810575074686925 -0.49180180354898395 0 178 76
4.161131498109444 -4.7810575074686925 -0.43363768382852497 0 187 67
4.161131498109444 -4.2810575074686925 -0.21800858302896442 0 221 33
4.161131498109444 -3.7810575074686925 0.2660483665865141 46 208 0
4.161131498109444 -3.2810575074686925 0.29326003269369183 51 203 0
4.161131498109444 -2.7810575074686925 0.04429000095541058 7 247 0
4.161131498109444 -2.2810579843058507 -0.018123691518954654 0 252 2
4.161131498109444 -1.7810579843058507 -0.18364579006021442 0 226 28
4.161131498109444 -1.2810579843058507 -0.09306961818521442 0 240 14
4.161131498109444 -0.7810579843058507 -0.6508889846402925 0 153 101
4.161131498109444 -0.2810579843058507 -0.38906580730264606 0 194 60
4.661131498109444 -6.2810575074686925 -0.7896056823331636 0 132 122
4.661131498109444 -5.7810575074686925 -0.3762708358365816 0 196 58
4.661131498109444 -5.2810575074686925 -0.40348154826944294 0 192 62
4.661131498109444 -4.7810575074686925 -0.4616466216642183 0 183 71
4.661131498109444 -4.2810575074686925 -0.42912155910318317 0 188 66
4.661131498109444 -3.7810575074686925 -0.2635999373990816 0 213 41
4.661131498109444 -3.2810575074686925 -0.26076561733072223 0 214 40
4.661131498109444 -2.7810575074686925 -0.25793272777383747 0 214 40
4.661131498109444 -2.2810579843058507 -0.2254076652128023 0 219 35
4.661131498109444 -1.7810579843058507 -0.19288260265176715 0 224 30
4.661131498109444 -1.2810579843058507 -0.25104672237222614 0 215 39
4.661131498109444 -0.7810579843058507 -0.21852165981119098 0 221 33
4.661131498109444 -0.2810579843058507 -0.8692799262601656 0 119 135
4.661131498109444 0.21894201569414928 -1.3796916656095308 0 40 214
5.161131498109444 -5.7810575074686925 -0.9261699370939058 0 110 144
5.161131498109444 -5.2810575074686925 -0.4703427009183687 0 181 73
5.161131498109444 -4.7810575074686925 -0.9933329276639742 0 100 154
5.161131498109444 -4.2810575074686925 -0.9961667708951754 0 100 154
5.161131498109444 -3.7810575074686925 -1.0892220191556734 0 85 169
5.161131498109444 -3.2810575074686925 -0.14285284801309528 0 232 22
5.161131498109444 -2.7810575074686925 -0.8296600036222261 0 125 129
5.161131498109444 -2.2810579843058507 -0.6140299491483492 0 159 95
5.161131498109444 -1.7810579843058507 -0.5234537772733492 0 173 81
5.161131498109444 -1.2810579843058507 -0.4652896575528902 0 182 72
5.161131498109444 -0.7810579843058507 -0.5583458594877047 0 168 86
5.161131498109444 -0.2810579843058507 -1.1161637954313082 0 81 173
5.161131498109444 0.21894201569414928 -1.2092197589475435 0 66 188
5.161131498109444 0.7189420156941493 -1.5004277877408785 0 21 233
5.661131498109444 -5.2810575074686925 -0.8504615478116793 0 122 132
5.661131498109444 -4.7810575074686925 -1.0660906486112398 0 89 165
5.661131498109444 -4.2810575074686925 -1.0933027915555757 0 84 170
5.661131498109444 -3.7810575074686925 -1.090469901998691 0 85 169
5.661131498109444 -3.2810575074686925 -1.3060987643796724 0 51 203
5.661131498109444 -2.7810575074686925 -0.8927636794645113 0 116 138
5.661131498109444 -2.2810579843058507 -0.7272415809232515 0 141 113
5.661131498109444 -1.7810579843058507 -0.520281856496982 0 174 80
5.661131498109444 -1.2810579843058507 -0.5174489669400972 0 174 80
5.661131498109444 -0.7810579843058507 -0.4849239043790621 0 179 75
5.661131498109444 -0.2810579843058507 -0.7005530051786226 0 146 108
5.661131498109444 0.21894201569414928 -0.7277646712858004 0 141 113
5.661131498109444 0.7189420156941493 -0.6952396087247652 0 146 108
5.661131498109444 1.2189420156941493 -0.6924067191678804 0 147 107
5.661131498109444 1.7189420156941493 -0.7505708388883394 0 138 116
5.661131498109444 2.2189420156941493 -1.2857747726041597 0 54 200
5.661131498109444 2.7189420156941493 -1.1927188090879244 0 69 185
5.661131498109444 4.718942134903439 -1.4061396770078463 0 36 218
5.661131498109444 5.21894211720831 -1.4033067874509615 0 36 218
5.661131498109444 5.7189421051011164 -1.3408919028837007 0 46 208
5.661131498109444 6.218942134903439 -1.175369804342441 0 72 182
5.661131498109444 6.718942134903439 -1.4371927432615084 0 31 223
5.661131498109444 7.218942134903439 -1.607012813528232 0 4 250
5.661131498109444 8.21894201569415 -1.6113098315793795 0 4 250
5.661131498109444 8.71894201569415 -1.6385217361051363 0 0 254
5.661131498109444 10.21894201569415 -1.0450206451017183 0 92 162
5.661131498109444 10.71894201569415 -0.7538119010526461 0 137 117
5.661131498109444 11.21894201569415 -0.660756652792148 0 152 102
5.661131498109444 11.71894201569415 -1.0532499007779879 0 91 163
5.661131498109444 12.71894201569415 -0.9871450118619722 0 101 153
6.161131498109444 -4.2810575074686925 -1.5767188720304293 0 9 245
6.161131498109444 -3.7810575074686925 -1.6391328029233736 0 0 255
6.161131498109444 -3.2810575074686925 -1.5809686832029146 0 9 245
6.161131498109444 -2.7810575074686925 -1.4111498050290865 0 35 219
6.161131498109444 -2.2810579843058507 -1.0186558417875093 0 96 158
6.161131498109444 -1.7810579843058507 -1.1117118053037447 0 82 172
6.161131498109444 -1.2810579843058507 -0.6863017730314058 0 148 106
6.161131498109444 -0.7810579843058507 -0.12755495830362262 0 235 19
6.161131498109444 -0.2810579843058507 -0.4187637023526949 0 189 65
6.161131498109444 0.21894201569414928 -0.3281880073148531 0 203 51
6.161131498109444 0.7189420156941493 -0.15836865230386676 0 230 24
6.161131498109444 1.2189420156941493 -0.16120201869790973 0 229 25
6.161131498109444 1.7189420156941493 -0.254257743795566 0 215 39
6.161131498109444 2.2189420156941493 -0.3166719131070894 0 205 49
6.161131498109444 2.7189420156941493 -0.008878772695712467 0 253 1
6.161131498109444 3.2189420156941493 -0.9139905623990816 0 112 142
6.161131498109444 3.718942134903439 -0.5214968375760836 0 173 81
6.161131498109444 4.218942134903439 -0.7704668693143648 0 135 119
6.161131498109444 4.718942134903439 -0.34505659862344684 0 201 53
6.161131498109444 5.21894211720831 -0.3478909186918062 0 200 54
6.161131498109444 5.7189421051011164 -0.2573147468168062 0 214 40
6.161131498109444 6.218942134903439 -0.23010260387247028 0 219 35
6.161131498109444 6.718942134903439 -0.26262766643350544 0 214 40
6.161131498109444 7.218942134903439 -0.3556829146940035 0 199 55
6.161131498109444 7.718942015694149 -0.562642639120273 0 167 87
6.161131498109444 8.21894201569415 -0.30081993861978473 0 208 46
6.161131498109444 8.71894201569415 -0.130999629934482 0 234 20
6.161131498109444 9.21894201569415 -0.6888189963895601 0 147 107
6.161131498109444 9.71894201569415 -0.1536145858365816 0 231 23
6.161131498109444 10.21894201569415 -0.06303889079873981 0 245 9
6.161131498109444 10.71894201569415 -0.12545401378457965 0 235 19
6.161131498109444 11.21894201569415 -0.3744235686857027 0 196 58
6.161131498109444 11.71894201569415 -0.6233926467496675 0 158 96
6.161131498109444 12.21894201569415 -0.8723626784879488 0 119 135
6.161131498109444 12.71894201569415 -0.904887741048984 0 114 140
6.161131498109444 13.21894201569415 -1.1118477038938326 0 82 172
6.161131498109444 13.718942492531308 -1.4030557326871675 0 36 218
6.661131498109444 -3.2810575074686925 -1.4759708098966402 0 25 229
6.661131498109444 -2.7810575074686925 -1.443445747335605 0 30 224
6.661131498109444 -2.2810579843058507 -1.1101127318937105 0 82 172
6.661131498109444 -1.7810579843058507 -0.9445906333524507 0 108 146
6.661131498109444 -1.2810579843058507 -0.7376309089261812 0 140 114
6.661131498109444 -0.7810579843058507 -0.5306716613370699 0 172 82
6.661131498109444 -0.2810579843058507 -0.23946291728799762 0 217 37
6.661131498109444 0.21894201569414928 0.09387009815389691 16 238 0
6.661131498109444 0.7189420156941493 0.2593921966951567 45 209 0
6.661131498109444 1.2189420156941493 0.4663523979585844 81 173 0
6.661131498109444 1.7189420156941493 0.5594071693819243 97 157 0
6.661131498109444 2.2189420156941493 0.5321959801119047 92 162 0
6.661131498109444 2.7189420156941493 0.47403233722860394 82 172 0
6.661131498109444 3.2189420156941493 0.4768652267854887 82 172 0
6.661131498109444 3.718942134903439 0.5392803497713285 93 161 0
6.661131498109444 4.218942134903439 0.6016940422456938 104 150 0
6.661131498109444 4.718942134903439 0.543530399362393 94 160 0
6.661131498109444 5.21894211720831 0.2817072220247465 49 205 0
6.661131498109444 5.7189421051011164 0.34412139133626996 59 195 0
6.661131498109444 6.218942134903439 0.3766464538973051 65 189 0
6.661131498109444 6.718942134903439 0.3494343109529692 60 194 0
6.661131498109444 7.218942134903439 0.2912701912325102 50 204 0
6.661131498109444 7.718942015694149 0.32379525379354535 56 198 0
6.661131498109444 8.21894201569415 0.26563113407308636 46 208 0
6.661131498109444 8.71894201569415 0.23841899112875042 41 213 0
6.661131498109444 9.21894201569415 0.44537919239217816 77 177 0
6.661131498109444 9.71894201569415 0.18355601505453167 31 223 0
6.661131498109444 10.21894201569415 0.15634434894735394 27 227 0
6.661131498109444 10.71894201569415 -0.013475006063632389 0 252 2
6.661131498109444 11.21894201569415 -0.36640698238199176 0 197 57
6.661131498109444 11.71894201569415 -0.5362258605558199 0 171 83
6.661131498109444 12.21894201569415 -0.8891578368741793 0 116 138
6.661131498109444 12.71894201569415 -1.0589767150480074 0 90 164
6.661131498109444 13.21894201569415 -1.2746067695218843 0 56 198
6.661131498109444 13.718942492531308 -1.4444258861142916 0 30 224
7.161131974946602 -2.7810575074686925 -1.583382671316318 0 8 246
7.161131974946602 -2.2810579843058507 -1.3215597323972506 0 49 205
7.161131974946602 -1.7810579843058507 -1.105930870016269 0 82 172
7.161131974946602 -1.2810579843058507 -0.8903008155423922 0 116 138
7.161131974946602 -0.7810579843058507 -0.720481937368564 0 142 112
7.161131974946602 -0.2810579843058507 -0.11714989467447223 0 236 18
7.161131974946602 0.21894201569414928 -0.05898577495401325 0 245 9
7.161131974946602 0.7189420156941493 0.5917720146578032 102 152 0
7.161131974946602 1.2189420156941493 0.2584380455415922 44 210 0
7.161131974946602 1.7189420156941493 1.0658430405061918 185 69 0
7.161131974946602 2.2189420156941493 1.3276662178438383 231 23 0
7.161131974946602 2.7189420156941493 0.9143313713472563 159 95 0
7.161131974946602 3.2189420156941493 0.941543037454434 163 91 0
7.161131974946602 3.718942134903439 0.8791283913057524 152 102 0
7.161131974946602 4.218942134903439 0.8762950249117094 152 102 0
7.161131974946602 4.718942134903439 0.9035062141817289 157 97 0
7.161131974946602 5.21894211720831 0.10274117664510785 17 237 0
7.161131974946602 5.7189421051011164 0.6840934105318266 119 135 0
7.161131974946602 6.218942134903439 0.6812600441377836 118 136 0
7.161131974946602 6.718942134903439 0.618845397989102 107 147 0
7.161131974946602 7.218942134903439 0.5257901497286039 91 163 0
7.161131974946602 7.718942015694149 0.5229563064974028 91 163 0
7.161131974946602 8.21894201569415 0.5811204262178618 101 153 0
7.161131974946602 8.71894201569415 0.4880651779573637 84 170 0
7.161131974946602 9.21894201569415 0.45554011539632855 79 175 0
7.161131974946602 9.71894201569415 0.1643323250215727 28 226 0
7.161131974946602 10.21894201569415 0.07127612308675824 12 242 0
7.161131974946602 10.71894201569415 -0.1356826476651949 0 233 21
7.161131974946602 11.21894201569415 -0.42689186855142536 0 188 66
7.161131974946602 11.71894201569415 -0.6758619002897066 0 149 105
7.161131974946602 12.21894201569415 -0.8828216247159761 0 117 137
7.161131974946602 12.71894201569415 -1.2161548785764498 0 65 189
7.661131974946602 -2.7810575074686925 -1.6228848151761812 0 2 252
7.661131974946602 -2.2810579843058507 -1.4573627166349215 0 28 226
7.661131974946602 -1.7810579843058507 -1.3643077067930025 0 42 212
7.661131974946602 -1.2810579843058507 -0.9509726218778414 0 107 147
7.661131974946602 -0.7810579843058507 -0.7854510001737398 0 132 122
7.661131974946602 -0.2810579843058507 0.04214900211507855 7 247 0
7.661131974946602 0.21894201569414928 0.5999683685701567 104 150 0
7.661131974946602 0.7189420156941493 0.8911771126192289 155 99 0
7.661131974946602 1.2189420156941493 1.0981373138826567 191 63 0
7.661131974946602 1.7189420156941493 1.3050960846346098 227 27 0
7.661131974946602 2.2189420156941493 1.214520389596768 211 43 0
7.661131974946602 2.7189420156941493 1.2173542328279692 211 43 0
7.661131974946602 3.2189420156941493 1.1267780609529692 196 58 0
7.661131974946602 3.718942134903439 1.0995663948457914 191 63 0
7.661131974946602 4.218942134903439 1.072355205575772 186 68 0
7.661131974946602 4.718942134903439 1.014191085855313 176 78 0
7.661131974946602 5.21894211720831 0.7063969917696196 122 132 0
7.661131974946602 5.7189421051011164 0.799453193704434 139 115 0
7.661131974946602 6.218942134903439 0.708877021829434 123 131 0
7.661131974946602 6.718942134903439 0.6507133789461332 113 141 0
7.661131974946602 7.218942134903439 0.4808940239351469 83 171 0
7.661131974946602 8.21894201569415 0.3851451225679594 67 187 0
7.661131974946602 8.71894201569415 0.3269810028475004 56 198 0
7.661131974946602 9.21894201569415 0.1571611709993559 27 227 0
7.661131974946602 9.71894201569415 -0.012657707174472232 0 253 1
7.661131974946602 10.21894201569415 -0.22828680797403278 0 219 35
7.661131974946602 10.71894201569415 -0.3981056861478609 0 193 61
7.661131974946602 11.71894201569415 -0.7319327048856539 0 141 113
7.661131974946602 12.21894201569415 -1.2159898929197115 0 65 189
7.661131974946602 12.71894201569415 -1.5689218692380709 0 10 244
8.161131974946603 -1.2810579843058507 -1.5077357940274996 0 20 234
8.161131974946603 -0.7810579843058507 -1.2459128551084322 0 61 193
8.161131974946603 -0.2810579843058507 -0.5175066642362398 0 174 80
8.161131974946603 0.21894201569414928 0.2633523292940336 45 209 0
8.161131974946603 0.7189420156941493 0.5711449928682524 99 155 0
8.161131974946603 1.2189420156941493 0.8789381332796293 152 102 0
8.161131974946603 1.7189420156941493 1.1867312736910063 206 48 0
8.161131974946603 2.2189420156941493 1.3565501518648344 236 18 0
8.161131974946603 2.7189420156941493 1.0653414078157621 185 69 0
8.161131974946603 3.2189420156941493 1.155917102853604 201 53 0
8.161131974946603 3.718942134903439 1.062862331430264 184 70 0
8.161131974946603 4.218942134903439 0.8973402328890043 156 98 0
8.161131974946603 4.718942134903439 0.8945063896578032 155 99 0
8.161131974946603 5.21894211720831 0.6032971687715727 104 150 0
8.161131974946603 5.7189421051011164 0.6004642792146879 104 150 0
8.161131974946603 6.218942134903439 0.3514942474764067 61 193 0
8.161131974946603 6.718942134903439 0.28907912449056683 50 204 0
8.161131974946603 7.218942134903439 -0.0021286658841890294 0 254 0
8.161131974946603 7.718942015694149 0.0250820465486723 4 250 0
8.161131974946603 8.21894201569415 -0.42568356319253864 0 188 66
8.161131974946603 8.71894201569415 -0.33510786815469684 0 202 52
8.161131974946603 9.21894201569415 -0.367632930715732 0 197 57
8.161131974946603 9.71894201569415 -0.7009659461576265 0 145 109
8.161131974946603 10.21894201569415 -0.7037997893888277 0 145 109
8.161131974946603 10.71894201569415 -0.8693218879300875 0 119 135
8.161131974946603 11.21894201569415 -1.0348439864713472 0 94 160
8.161131974946603 11.71894201569415 -1.2418027572233004 0 61 193
8.161131974946603 12.21894201569415 -1.5751367263395113 0 9 245
8.661131974946603 -0.2810579843058507 -1.0315838508207125 0 94 160
8.661131974946603 0.21894201569414928 -0.5808177642423433 0 164 90
8.661131974946603 0.7189420156941493 -0.2474837951261324 0 216 38
8.661131974946603 1.2189420156941493 0.0014862366121488613 0 254 0
8.661131974946603 1.7189420156941493 0.2504553146761137 43 211 0
8.661131974946603 2.2189420156941493 0.41597741321737347 72 182 0
8.661131974946603 2.7189420156941493 0.4783920593660551 83 171 0
8.661131974946603 3.2189420156941493 0.4511803932588774 78 176 0
8.661131974946603 3.718942134903439 1.0429963417452055 181 73 0
8.661131974946603 4.218942134903439 0.4842490501802641 84 170 0
8.661131974946603 4.718942134903439 0.48708337024862347 84 170 0
8.661131974946603 5.21894211720831 0.45987122730428753 80 174 0
8.661131974946603 5.7189421051011164 0.19804804996664105 34 220 0
8.661131974946603 6.218942134903439 0.13988440708334027 24 230 0
8.661131974946603 6.718942134903439 -0.02993494792764606 0 250 4
8.661131974946603 7.218942134903439 -0.08809859081094684 0 241 13
8.661131974946603 7.718942015694149 -0.25791794582193317 0 214 40
