ply
format ascii 1.0
element vertex 713
property float x
property float y
property float z
property uchar red
property uchar green
property uchar blue
end_header
9.838868025053397 1.2189420156941493 -0.15705435947591959 27 227 0
9.838868025053397 1.7189420156941493 -0.24763005451376138 43 211 0
9.838868025053397 2.2189420156941493 -0.21510499195272623 37 217 0
9.838868025053397 2.7189420156941493 -0.24231713489706216 42 212 0
9.838868025053397 3.2189420156941493 -0.03535741047079265 6 248 0
9.838868025053397 3.718942134903439 1.1715138606626303 0 72 182
9.338868025053397 -5.7810575074686925 1.2200797252256186 0 65 189
9.338868025053397 -4.7810575074686925 0.28824669643228357 0 210 44
9.338868025053397 -4.2810575074686925 0.9906697921354086 0 100 154
9.338868025053397 -3.7810575074686925 0.1899047545987875 0 225 29
9.338868025053397 -3.2810575074686925 0.700316970785311 0 146 108
9.338868025053397 -2.7810575074686925 1.2816687278348715 0 55 199
9.338868025053397 -2.2810579843058507 0.7943559341031821 0 131 123
9.338868025053397 -1.7810579843058507 0.7915225677091391 0 131 123
9.338868025053397 -1.2810579843058507 0.7886887244779379 0 132 122
9.338868025053397 -0.7810579843058507 -0.3433284111421793 59 195 0
9.338868025053397 -0.2810579843058507 0.1407275847989828 0 233 21
9.338868025053397 0.21894201569414928 -0.45108836368734534 78 176 0
9.338868025053397 0.7189420156941493 -0.23545830921346836 40 214 0
9.338868025053397 1.2189420156941493 -0.4424180336397379 76 178 0
9.338868025053397 1.7189420156941493 -0.4452523537080973 77 177 0
9.338868025053397 2.2189420156941493 -0.3870882339876383 67 187 0
9.338868025053397 2.7189420156941493 -0.41961234287435706 73 181 0
9.338868025053397 3.2189420156941493 -0.06668036655599766 11 243 0
9.338868025053397 3.718942134903439 1.246513669927767 0 61 193
8.838868501890556 -5.2810575074686925 0.9066758803922446 0 113 141
8.838868501890556 -4.7810575074686925 0.8160997085172446 0 128 126
8.838868501890556 -4.2810575074686925 0.2808957748014243 0 211 43
8.838868501890556 -3.7810575074686925 0.31341988368814305 0 206 48
8.838868501890556 -3.2810575074686925 -0.03951209263021635 6 248 0
8.838868501890556 -2.7810575074686925 -0.006987030069181194 1 253 0
8.838868501890556 -2.2810579843058507 0.15853459163492037 0 230 24
8.838868501890556 -1.7810579843058507 0.36549479289834813 0 198 56
8.838868501890556 -1.2810579843058507 0.14986569209878756 0 231 23
8.838868501890556 -0.7810579843058507 -0.5266870804231851 91 163 0
8.838868501890556 -0.2810579843058507 -0.5238541908663004 91 163 0
8.838868501890556 0.21894201569414928 -0.614429409066984 106 148 0
8.838868501890556 0.7189420156941493 -0.611596042672941 106 148 0
8.838868501890556 1.2189420156941493 -0.6388081856172769 111 143 0
8.838868501890556 1.7189420156941493 -0.6359743423860758 110 144 0
8.838868501890556 2.2189420156941493 -0.5735601730745523 99 155 0
8.838868501890556 2.7189420156941493 -0.4080380745332925 71 183 0
8.838868501890556 3.2189420156941493 -0.31498234943563624 54 200 0
8.838868501890556 3.718942134903439 0.45834690852945165 0 183 71
8.338868501890556 -6.2810575074686925 1.3715198688108237 0 41 213
8.338868501890556 -5.2810575074686925 1.5479608230191977 0 14 240
8.338868501890556 -4.7810575074686925 0.36957699580972514 0 197 57
8.338868501890556 -4.2810575074686925 -0.043758327524015116 7 247 0
8.338868501890556 -3.7810575074686925 -0.04659217075521629 8 246 0
8.338868501890556 -3.2810575074686925 -0.10900634006673973 18 236 0
8.338868501890556 -2.7810575074686925 -0.20206111149007958 35 219 0
8.338868501890556 -2.2810579843058507 0.013567989309480976 0 252 2
8.338868501890556 -1.7810579843058507 -0.018957073251554178 3 251 0
8.338868501890556 -1.2810579843058507 -0.5419472999971596 94 160 0
8.338868501890556 -0.7810579843058507 -0.6350020714204995 110 144 0
8.338868501890556 -0.2810579843058507 -0.7280573196809975 126 128 0
8.338868501890556 0.21894201569414928 -0.7904724426668374 137 117 0
8.338868501890556 0.7189420156941493 -0.6998962707918374 121 133 0
8.338868501890556 1.2189420156941493 -0.7027301140230385 122 132 0
8.338868501890556 1.7189420156941493 -0.6755184479158608 117 137 0
8.338868501890556 2.2189420156941493 -0.6483063049715249 112 142 0
8.338868501890556 2.7189420156941493 -0.47848742679769674 83 171 0
8.338868501890556 3.2189420156941493 -0.08599322513754051 14 240 0
8.338868501890556 3.718942134903439 0.4519968680936607 0 184 70
7.838868501890556 -5.7810575074686925 1.1165776900846276 0 81 173
7.838868501890556 -5.2810575074686925 0.6325216941434654 0 156 98
7.838868501890556 -4.7810575074686925 -0.2016910858553139 35 219 0
7.838868501890556 -4.2810575074686925 -0.13927739338094866 24 230 0
7.838868501890556 -3.7810575074686925 -0.354906017343351 61 193 0
7.838868501890556 -3.2810575074686925 -0.3821181602876869 66 188 0
7.838868501890556 -2.7810575074686925 -0.37928431705648574 66 188 0
7.838868501890556 -2.2810579843058507 -0.376451427499601 65 189 0
7.838868501890556 -1.7810579843058507 -0.16949122623617327 29 225 0
7.838868501890556 -1.2810579843058507 -0.7046951599519936 122 132 0
7.838868501890556 -0.7810579843058507 -0.7628592796724526 132 122 0
7.838868501890556 -0.2810579843058507 -1.2186860390108314 212 42 0
7.838868501890556 0.21894201569414928 -0.885353023568937 154 100 0
7.838868501890556 0.7189420156941493 -0.943517143289396 164 90 0
7.838868501890556 1.2189420156941493 -0.385698253671476 67 187 0
7.838868501890556 1.7189420156941493 -0.693491394082853 120 134 0
7.838868501890556 2.2189420156941493 -0.69065802768881 120 134 0
7.838868501890556 2.7189420156941493 -0.6282433815401284 109 145 0
7.838868501890556 3.2189420156941493 0.276868885000399 0 211 43
7.338868501890556 -6.2810575074686925 0.9592767409879479 0 105 149
7.338868501890556 -5.7810575074686925 1.049852912862948 0 91 163
7.338868501890556 -5.2810575074686925 0.11969763561075063 0 236 18
7.338868501890556 -4.7810575074686925 0.47262961192911 0 181 73
7.338868501890556 -4.2810575074686925 -0.35497039035970834 61 193 0
7.338868501890556 -3.7810575074686925 -0.3874954529207435 67 187 0
7.338868501890556 -3.2810575074686925 -0.6364650078218665 110 144 0
7.338868501890556 -2.7810575074686925 -0.5458893127840247 95 159 0
7.338868501890556 -2.2810579843058507 -0.5784143753450599 100 154 0
7.338868501890556 -1.7810579843058507 -0.551202232400724 95 159 0
7.338868501890556 -1.2810579843058507 -0.964537078897306 167 87 0
7.338868501890556 -0.7810579843058507 -0.9373254127901283 163 91 0
7.338868501890556 -0.2810579843058507 -0.9997400589388099 173 81 0
7.338868501890556 0.21894201569414928 -0.784110004464933 136 118 0
7.338868501890556 0.7189420156941493 -0.8771662063997474 152 102 0
7.338868501890556 1.2189420156941493 -1.0426883049410072 181 73 0
7.338868501890556 1.7189420156941493 -0.7348951645296302 127 127 0
7.338868501890556 2.2189420156941493 -0.34240143970663217 59 195 0
7.338868501890556 2.7189420156941493 -0.6757354088228431 117 137 0
7.338868501890556 3.2189420156941493 -0.1916779823702064 33 221 0
7.338868501890556 3.718942134903439 0.7837839774686608 0 133 121
6.838868501890556 -6.2810575074686925 1.4727178268033776 0 25 229
6.838868501890556 -5.7810575074686925 0.821959560354403 0 127 127
6.838868501890556 -5.2810575074686925 0.21862799449746945 0 220 34
6.838868501890556 -4.7810575074686925 0.1914158515531335 0 225 29
6.838868501890556 -4.2810575074686925 -0.3673314400118079 63 191 0
6.838868501890556 -3.7810575074686925 -0.5371503181856361 93 161 0
6.838868501890556 -3.2810575074686925 -0.5343159981172767 92 162 0
6.838868501890556 -2.7810575074686925 -0.704135353128263 122 132 0
6.838868501890556 -2.2810579843058507 -0.91976540760214 160 94 0
6.838868501890556 -1.7810579843058507 -0.9779290504854408 170 84 0
6.838868501890556 -1.2810579843058507 -1.0051411934297767 174 80 0
6.838868501890556 -0.7810579843058507 -1.0633053131502357 185 69 0
6.838868501890556 -0.2810579843058507 -1.0008901901643958 174 80 0
6.838868501890556 0.21894201569414928 -1.0590543098848548 184 70 0
6.838868501890556 0.7189420156941493 -0.8935322113435951 155 99 0
6.838868501890556 1.2189420156941493 -0.920744354287931 160 94 0
6.838868501890556 1.7189420156941493 -0.7137841530245033 124 130 0
6.838868501890556 2.2189420156941493 -0.5482620544832435 95 159 0
6.838868501890556 2.7189420156941493 -0.4552072830599036 79 175 0
6.838868501890556 3.2189420156941493 0.10261160655801632 0 239 15
6.838868501890556 3.718942134903439 0.8759408645231042 0 118 136
6.338868501890556 -6.7810575074686925 0.8702517203885828 0 119 135
6.338868501890556 -6.2810575074686925 1.1320748977262294 0 78 176
6.338868501890556 -5.7810575074686925 0.4452686957914148 0 185 69
6.338868501890556 -5.2810575074686925 0.11193472667520388 0 237 17
6.338868501890556 -4.7810575074686925 -0.17927306369955198 31 223 0
6.338868501890556 -4.2810575074686925 -0.5126070328157629 89 165 0
6.338868501890556 -3.7810575074686925 -0.5154403992098059 89 165 0
6.338868501890556 -3.2810575074686925 -0.7644104309480871 133 121 0
6.338868501890556 -2.7810575074686925 -0.7969350166719641 138 116 0
6.338868501890556 -2.2810579843058507 -0.8899902649324621 154 100 0
6.338868501890556 -1.7810579843058507 -0.952405387918302 165 89 0
6.338868501890556 -1.2810579843058507 -1.2857384033601964 223 31 0
6.338868501890556 -0.7810579843058507 -0.9779452629488196 170 84 0
6.338868501890556 -0.2810579843058507 -1.4652571030061925 255 0 0
6.338868501890556 0.21894201569414928 -1.0727643318575109 186 68 0
6.338868501890556 0.7189420156941493 -0.9029440231722082 157 97 0
6.338868501890556 1.2189420156941493 -0.9057783432405676 157 97 0
6.338868501890556 1.7189420156941493 -0.8476142235201086 147 107 0
6.338868501890556 2.2189420156941493 -0.5857910461824621 101 153 0
6.338868501890556 2.7189420156941493 -0.32396834568197386 56 198 0
6.338868501890556 3.2189420156941493 0.27936369701211794 0 211 43
6.338868501890556 3.718942134903439 0.3794828109342371 0 195 59
6.338868501890556 4.218942134903439 1.0560355834562098 0 90 164
5.838868501890556 -6.7810575074686925 0.8011556319791591 0 130 124
5.838868501890556 -6.2810575074686925 1.0923648528653895 0 85 169
5.838868501890556 -5.7810575074686925 0.5110126189786708 0 175 79
5.838868501890556 -5.2810575074686925 -0.09231942371542107 16 238 0
5.838868501890556 -4.7810575074686925 -0.029905254403897623 5 249 0
5.838868501890556 -4.2810575074686925 -0.6112570114534581 106 148 0
5.838868501890556 -3.7810575074686925 -0.6694211311739171 116 138 0
5.838868501890556 -3.2810575074686925 -0.7275852508943761 126 128 0
5.838868501890556 -2.7810575074686925 -0.8974041290682042 156 98 0
5.838868501890556 -2.2810579843058507 -0.9879803009432042 171 83 0
5.838868501890556 -1.7810579843058507 -0.9554552383821691 166 88 0
5.838868501890556 -1.2810579843058507 -1.1252741165559972 195 59 0
5.838868501890556 -0.7810579843058507 -1.1224412269991124 195 59 0
5.838868501890556 -0.2810579843058507 -1.029385025064298 179 75 0
5.838868501890556 0.21894201569414928 -0.8638634033601964 150 104 0
5.838868501890556 0.7189420156941493 -0.7708081550996984 134 120 0
5.838868501890556 1.2189420156941493 -0.6777533836763585 117 137 0
5.838868501890556 1.7189420156941493 -0.8933820076387609 155 99 0
5.838868501890556 2.2189420156941493 0.03677279277627816 0 249 5
5.838868501890556 2.7189420156941493 0.039605682333162924 0 248 6
5.838868501890556 3.2189420156941493 0.5974245719510829 0 162 92
5.338868501890556 -7.2810575074686925 1.0075126342374598 0 98 156
5.338868501890556 -6.7810575074686925 0.8419910125333583 0 124 130
5.338868501890556 -6.2810575074686925 0.39122397228067274 0 194 60
5.338868501890556 -5.7810575074686925 0.3288098029691493 0 203 51
5.338868501890556 -5.2810575074686925 -0.2630061455171788 45 209 0
5.338868501890556 -4.7810575074686925 -0.4285282440584386 74 180 0
5.338868501890556 -4.2810575074686925 -0.5940503425996984 103 151 0
5.338868501890556 -3.7810575074686925 -0.6265754051607335 109 145 0
5.338868501890556 -3.2810575074686925 -0.7920970268648351 137 117 0
5.338868501890556 -2.7810575074686925 -0.8851522751253331 154 100 0
5.338868501890556 -2.2810579843058507 -1.3359193153780187 232 22 0
5.338868501890556 -1.7810579843058507 -0.8518623657625402 148 106 0
5.338868501890556 -1.2810579843058507 -0.9142760582369054 159 95 0
5.338868501890556 -0.7810579843058507 -1.1632460899751866 202 52 0
5.338868501890556 -0.2810579843058507 -0.9934272118013585 172 82 0
5.338868501890556 0.21894201569414928 -1.0259522743623937 178 76 0
5.338868501890556 0.7189420156941493 -0.9987401314180577 173 81 0
5.338868501890556 1.2189420156941493 -1.0015730209749425 174 80 0
5.338868501890556 1.7189420156941493 -0.6486410446565831 112 142 0
5.338868501890556 2.2189420156941493 0.07976395412271377 0 242 12
5.338868501890556 2.7189420156941493 0.34158665462320204 0 201 53
5.338868501890556 3.2189420156941493 -0.2502292938631261 43 211 0
5.338868501890556 3.718942134903439 0.17518097682779188 0 227 27
4.838868501890556 -6.7810575074686925 0.6897149734098232 0 147 107
4.838868501890556 -6.2810575074686925 0.38192183299844623 0 195 59
4.838868501890556 -5.7810575074686925 0.4443369559842861 0 185 69
4.838868501890556 -5.2810575074686925 -0.2064213104646885 35 219 0
4.838868501890556 -4.7810575074686925 -0.37624018863851666 65 189 0
4.838868501890556 -4.2810575074686925 -0.6840333290498936 119 135 0
4.838868501890556 -3.7810575074686925 -0.7746090240877354 134 120 0
4.838868501890556 -3.2810575074686925 -0.9444283790987217 164 90 0
4.838868501890556 -2.7810575074686925 -0.6954583473604404 121 133 0
4.838868501890556 -2.2810579843058507 -1.0032510109346593 174 80 0
4.838868501890556 -1.7810579843058507 -1.0304631538789952 179 75 0
4.838868501890556 -1.2810579843058507 -1.2002820320528234 208 46 0
4.838868501890556 -0.7810579843058507 -1.2274941749971593 213 41 0
4.838868501890556 -0.2810579843058507 -0.8141593285005772 141 113 0
4.838868501890556 0.21894201569414928 -0.9839782066744053 171 83 0
4.838868501890556 0.7189420156941493 -0.8909234352510654 155 99 0
4.838868501890556 1.2189420156941493 -0.7254013367098057 126 128 0
4.838868501890556 1.7189420156941493 -0.2746352501314366 47 207 0
4.838868501890556 2.2189420156941493 0.016573970754793905 0 252 2
4.838868501890556 2.7189420156941493 0.8704696349698818 0 119 135
4.838868501890556 3.2189420156941493 1.462285821874789 0 27 227
4.338868501890556 -7.2810575074686925 0.6394596747953213 0 155 99
4.338868501890556 -6.7810575074686925 0.6666708640653408 0 151 103
4.338868501890556 -6.2810575074686925 0.417701786001376 0 190 64
4.338868501890556 -5.7810575074686925 0.004366939504793966 0 254 0
4.338868501890556 -5.2810575074686925 -0.2868422813814365 49 205 0
4.338868501890556 -4.7810575074686925 -0.5358123131197178 93 161 0
4.338868501890556 -4.2810575074686925 -0.6288670845430576 109 145 0
4.338868501890556 -3.7810575074686925 -0.7219232864778721 125 129 0
4.338868501890556 -3.2810575074686925 -0.8149780579012119 141 113 0
4.338868501890556 -2.7810575074686925 -0.8773922272127354 152 102 0
4.338868501890556 -2.2810579843058507 -0.9398073501985752 163 91 0
4.338868501890556 -1.7810579843058507 -1.032862121621915 179 75 0
4.338868501890556 -1.2810579843058507 -0.9746980019014561 169 85 0
4.338868501890556 -0.7810579843058507 -0.5188712425630772 90 164 0
4.338868501890556 -0.2810579843058507 -1.076690132180997 187 67 0
4.338868501890556 0.21894201569414928 -1.049477989236661 182 72 0
4.338868501890556 0.7189420156941493 -0.9913143463533604 172 82 0
4.338868501890556 1.2189420156941493 -0.9331502266329014 162 92 0
4.338868501890556 1.7189420156941493 -0.9059380836885654 157 97 0
4.338868501890556 2.2189420156941493 0.12856489940469631 0 234 20
4.338868501890556 2.7189420156941493 1.1630688361722745 0 74 180
4.338868501890556 3.2189420156941493 1.100654666860751 0 83 171
3.838868501890556 -6.7810575074686925 0.675281589468173 0 149 105
3.838868501890556 -6.2810575074686925 0.3223496131498136 0 204 50
3.838868501890556 -5.7810575074686925 0.01455694957559481 0 252 2
3.838868501890556 -5.2810575074686925 -0.04360717014486418 7 247 0
3.838868501890556 -4.7810575074686925 -0.3965391464632235 69 185 0
3.838868501890556 -4.2810575074686925 -0.7043322868746005 122 132 0
3.838868501890556 -3.7810575074686925 -0.5388101883333407 93 161 0
3.838868501890556 -3.2810575074686925 -0.7086290665071688 123 131 0
3.838868501890556 -2.7810575074686925 -0.8784484215181552 152 102 0
3.838868501890556 -2.2810579843058507 -1.0482672996919833 182 72 0
3.838868501890556 -1.7810579843058507 -1.1064314194124423 192 62 0
3.838868501890556 -1.2810579843058507 -0.9409093208711825 163 91 0
3.838868501890556 -0.7810579843058507 -1.1107281990450106 193 61 0
3.838868501890556 -0.2810579843058507 -1.0483140297334872 182 72 0
3.838868501890556 0.21894201569414928 -1.2181333847444735 211 43 0
3.838868501890556 0.7189420156941493 -0.6603140182893954 114 140 0
3.838868501890556 1.2189420156941493 -0.41134541706258876 71 183 0
3.838868501890556 1.7189420156941493 -0.16237538532430754 28 226 0
3.838868501890556 2.2189420156941493 0.5828567199308194 0 164 90
3.838868501890556 2.7189420156941493 -0.09369605259115324 16 238 0
3.338868501890556 -6.7810575074686925 0.6495237998563566 0 153 101
3.338868501890556 -6.2810575074686925 0.19875771327798744 0 224 30
3.338868501890556 -5.7810575074686925 -0.0502123184602938 8 246 0
3.338868501890556 -5.2810575074686925 -0.34142010883504964 59 195 0
3.338868501890556 -4.7810575074686925 -0.4344763107698641 75 179 0
3.338868501890556 -4.2810575074686925 -0.49689000324422933 86 168 0
3.338868501890556 -3.7810575074686925 -0.7038502045076571 122 132 0
3.338868501890556 -3.2810575074686925 -0.7662643738191806 133 121 0
3.338868501890556 -2.7810575074686925 -0.9732240982454501 169 85 0
3.338868501890556 -2.2810579843058507 -0.9460124321382724 164 90 0
3.338868501890556 -1.7810579843058507 -1.008427078286954 175 79 0
3.338868501890556 -1.2810579843058507 -1.011260444680997 175 79 0
3.338868501890556 -0.7810579843058507 -1.1043161697786532 192 62 0
3.338868501890556 -0.2810579843058507 -0.9344963379305087 162 92 0
3.338868501890556 0.21894201569414928 -1.027552063028165 178 76 0
3.338868501890556 0.7189420156941493 -0.8577322311800204 149 105 0
3.338868501890556 1.2189420156941493 -0.6421031303804599 111 143 0
3.338868501890556 1.7189420156941493 -0.24961035923177818 43 211 0
3.338868501890556 2.2189420156941493 0.6679707221586026 0 151 103
2.838868501890556 -6.7810575074686925 1.3624118022519864 0 43 211
2.838868501890556 -6.2810575074686925 0.3279085807401457 0 203 51
2.838868501890556 -5.7810575074686925 -0.02502339557821366 4 250 0
2.838868501890556 -5.2810575074686925 -0.24065345005209063 41 213 0
2.838868501890556 -4.7810575074686925 -0.4104723282259187 71 183 0
2.838868501890556 -4.2810575074686925 -0.5802912063997469 100 154 0
2.838868501890556 -3.7810575074686925 -0.750110084573575 130 124 0
2.838868501890556 -3.2810575074686925 -0.840686256448575 146 108 0
2.838868501890556 -2.7810575074686925 -0.931262428323575 162 92 0
2.838868501890556 -2.2810579843058507 -0.9584740944307527 166 88 0
2.838868501890556 -1.7810579843058507 -1.1741031952303134 204 50 0
2.838868501890556 -1.2810579843058507 -1.1415781326692782 198 56 0
2.838868501890556 -0.7810579843058507 -1.0485233612459384 182 72 0
2.838868501890556 -0.2810579843058507 -1.0159982986849032 176 78 0
2.838868501890556 0.21894201569414928 -0.7670292206209383 133 121 0
2.838868501890556 0.7189420156941493 -0.518059188882657 90 164 0
2.838868501890556 1.2189420156941493 0.30954081340616135 0 206 48
2.838868501890556 1.7189420156941493 0.6007495574552336 0 161 93
2.338868501890556 -7.2810575074686925 1.1499508075315277 0 76 178
2.338868501890556 -6.7810575074686925 0.9844289474088469 0 101 153
2.338868501890556 -6.2810575074686925 0.32807261272256766 0 203 51
2.338868501890556 -5.7810575074686925 -0.1592392273348054 27 227 0
2.338868501890556 -5.2810575074686925 -0.32476132587606515 56 198 0
2.338868501890556 -4.7810575074686925 -0.4178170509737214 72 182 0
2.338868501890556 -4.2810575074686925 -0.5833391495149812 101 153 0
2.338868501890556 -3.7810575074686925 -0.9166721649568758 159 95 0
2.338868501890556 -3.2810575074686925 -0.8260959930818758 143 111 0
2.338868501890556 -2.7810575074686925 -0.767932350198575 133 121 0
2.338868501890556 -2.2810579843058507 -0.9748920746248445 169 85 0
2.338868501890556 -1.7810579843058507 -1.0074161835115631 175 79 0
2.338868501890556 -1.2810579843058507 -1.1004723854463776 191 63 0
2.338868501890556 -0.7810579843058507 -0.9306530304353914 161 93 0
2.338868501890556 -0.2810579843058507 -0.9631771393221101 167 87 0
2.338868501890556 0.21894201569414928 -0.9050130196016511 157 97 0
2.338868501890556 0.7189420156941493 -0.735194141427823 127 127 0
2.338868501890556 1.2189420156941493 -0.3822621651094636 66 188 0
2.338868501890556 1.7189420156941493 0.4519506148893157 0 184 70
2.338868501890556 2.2189420156941493 1.5465458087522308 0 14 240
1.8388684422859114 -6.7810575074686925 1.068896835287265 0 88 166
1.8388684422859112 -6.2810575074686925 0.5101500205594818 0 175 79
1.8388684422859112 -5.7810575074686925 0.05432278438394467 0 246 8
1.8388684422859112 -5.2810575074686925 -0.2534703560274323 44 210 0
1.8388684422859112 -4.7810575074686925 -0.4232892342012604 73 181 0
1.8388684422859112 -4.2810575074686925 -0.360875064889737 62 192 0
1.8388684422859112 -3.7810575074686925 -0.7533683128755768 131 123 0
1.838868442285911 -3.2810575074686925 -0.9231881447237213 160 94 0
1.8388684422859112 -2.7810575074686925 -0.7162284202974518 124 130 0
1.838868442285911 -2.2810579843058507 -1.1720551796358307 203 51 0
1.838868442285911 -1.7810579843058507 -1.1992673225801667 208 46 0
1.8388684422859112 -1.2810579843058507 -0.7485002823274811 130 124 0
1.838868442285911 -0.7810579843058507 -0.9183201141756256 159 95 0
1.8388684422859112 -0.2810579843058507 -0.6693500824373444 116 138 0
1.8388684422859112 0.21894201569414928 -0.6665162392061432 115 139 0
1.8388684422859112 0.7189420156941493 -0.4595560379427155 79 175 0
1.8388684422859112 1.2189420156941493 0.3137727431852142 0 206 48
1.8388684422859114 1.7189420156941493 1.2439277820188324 0 61 193
1.3388684720882338 -7.2810575074686925 1.0856199912626068 0 86 168
1.3388684720882338 -6.7810575074686925 1.255438869436435 0 59 195
1.3388684720882336 -6.2810575074686925 0.25168282314126894 0 215 39
1.3388684720882336 -5.7810575074686925 -0.2356290169161041 41 213 0
1.3388684720882336 -5.2810575074686925 -0.23846333698446348 41 213 0
1.3388684720882336 -4.7810575074686925 -0.40398543552572325 70 184 0
1.3388684720882336 -4.2810575074686925 -0.5695070572298248 99 155 0
1.3388684720882336 -3.7810575074686925 -0.5723404236238677 99 155 0
1.3388684720882333 -3.2810575074686925 -1.228696281472989 213 41 0
1.3388684720882336 -2.7810575074686925 -0.7728690452974517 134 120 0
1.3388684720882336 -2.2810579843058507 -0.7757033653658111 134 120 0
1.3388684720882333 -1.7810579843058507 -1.0669121094148835 185 69 0
1.3388684720882336 -1.2810579843058507 -0.8970932312410552 156 98 0
1.3388684720882333 -0.7810579843058507 -1.2304262466829499 214 40 0
1.3388684720882336 -0.2810579843058507 -0.8774942703645904 152 102 0
1.3388684720882336 0.21894201569414928 -0.8502821274202544 147 107 0
1.3388684720882336 0.7189420156941493 -0.366225177804776 63 191 0
1.3388684720882336 1.2189420156941493 0.41463381572549746 0 190 64
1.3388684720882338 1.7189420156941493 1.2220378570157806 0 64 190
1.3388684720882338 2.2189420156941493 1.2802017383176605 0 55 199
0.8388684683629435 -6.7810575074686925 0.9676099471647065 0 104 150
0.8388684683629435 -6.2810575074686925 0.5117827109891694 0 175 79
0.8388684683629434 -5.7810575074686925 -0.2166222877901275 37 217 0
0.8388684683629434 -5.2810575074686925 -0.21378939823324272 37 217 0
0.8388684683629434 -4.7810575074686925 -0.24100106434042046 41 213 0
0.8388684683629434 -4.2810575074686925 -0.33157723621542046 57 197 0
0.8388684683629433 -3.7810575074686925 -0.7240700073641021 126 128 0
0.8388684683629433 -3.2810575074686925 -0.9858931847017486 171 83 0
0.8388684683629433 -2.7810575074686925 -0.9533681221407134 165 89 0
0.8388684683629433 -2.2810579843058507 -0.9208430595796783 160 94 0
0.8388684683629433 -1.7810579843058507 -0.7553214378755767 131 123 0
0.8388684683629433 -1.2810579843058507 -0.9709510155122955 168 86 0
0.8388684683629433 -0.7810579843058507 -0.7219809837740142 125 129 0
0.8388684683629433 -0.2810579843058507 -0.6894563980501373 119 135 0
0.8388684683629434 0.21894201569414928 -0.276121074716397 48 206 0
0.8388684683629434 0.7189420156941493 0.41068465038125923 0 191 63
0.8388684683629435 1.2189420156941493 1.264579837759189 0 58 196
0.8388684683629436 1.7189420156941493 1.5979138068754 0 6 248
0.3388684422859114 -7.2810575074686925 0.8174615554410738 0 127 127
0.3388684422859114 -6.7810575074686925 0.724406784017734 0 142 112
0.3388684422859113 -6.2810575074686925 0.166587894399814 0 229 25
0.3388684422859113 -5.7810575074686925 -0.12462132648641648 21 233 0
0.3388684422859113 -5.2810575074686925 -0.1870350189607817 32 222 0
0.33886844228591123 -4.7810575074686925 -0.2800902672212798 48 206 0
0.33886844228591123 -4.2810575074686925 -0.44561236576253954 77 177 0
0.3388684422859112 -3.7810575074686925 -0.6945823975008207 120 134 0
0.3388684422859112 -3.2810575074686925 -0.9015421219270903 156 98 0
0.3388684422859112 -2.7810575074686925 -0.8743299789827543 152 102 0
0.3388684422859112 -2.2810579843058507 -0.8471183128755766 147 107 0
0.3388684422859112 -1.7810579843058507 -0.8796433754366118 153 101 0
0.3388684422859112 -1.2810579843058507 -0.8524312324922758 148 106 0
0.3388684422859112 -0.7810579843058507 -0.8252190895479399 143 111 0
0.33886844228591123 0.21894201569414928 -0.5359472580354887 93 161 0
0.33886844228591134 0.7189420156941493 0.3531637839872163 0 200 54
0.33886844228591145 1.2189420156941493 1.1873768024045748 0 70 184
0.3388684422859114 1.7189420156941493 0.8961678199369234 0 115 139
-0.16113149810944385 -6.7810575074686925 0.7027717284757418 0 145 109
-0.16113149810944388 -6.2810575074686925 0.3949785880643648 0 193 61
-0.16113149810944397 -5.7810575074686925 -0.28157418445760785 49 205 0
-0.1611314981094439 -5.2810575074686925 0.20573765559976523 0 222 32
-0.16113149810944397 -4.7810575074686925 -0.21967213825399454 38 216 0
-0.16113149810944394 -4.2810575074686925 -0.012712413827725014 2 252 0
-0.16113149810944402 -3.7810575074686925 -0.5714592285555082 99 155 0
-0.16113149810944402 -3.2810575074686925 -0.7870883293550688 136 118 0
-0.16113149810944402 -2.7810575074686925 -0.75456422046835 131 123 0
-0.16113149810944402 -2.2810579843058507 -0.6921490974825102 120 134 0
-0.16113149810944402 -1.7810579843058507 -0.629735405008145 109 145 0
-0.16113149810944402 -1.2810579843058507 -0.6569461174410063 114 140 0
-0.16113149810944397 -0.7810579843058507 -0.32361310199911175 56 198 0
-0.16113149810944397 -0.2810579843058507 -0.23055833057577188 40 214 0
-0.1611314981094439 0.21894201569414928 0.327260559042148 0 204 50
-0.1611314981094438 0.7189420156941493 1.181156700094394 0 71 183
-0.16113149810944374 1.2189420156941493 1.5944917850095552 0 6 248
-0.6611314981094438 -7.2810575074686925 0.804714744527988 0 129 125
-0.6611314981094438 -6.7810575074686925 0.5135060004789157 0 175 79
-0.6611314981094439 -6.2810575074686925 0.18017298503702114 0 226 28
-0.6611314981094439 -5.7810575074686925 -0.11103623584920932 19 235 0
-0.6611314981094439 -5.2810575074686925 -0.14356129841024448 24 230 0
-0.6611314981094439 -4.7810575074686925 -0.20597499088460972 35 219 0
-0.661131498109444 -4.2810575074686925 -0.454945022622891 79 175 0
-0.661131498109444 -3.7810575074686925 -0.5480012245577054 95 159 0
-0.6611314981094439 -3.2810575074686925 -0.3781813927095609 65 189 0
-0.661131498109444 -2.7810575074686925 -0.7115153618257718 123 131 0
-0.661131498109444 -2.2810579843058507 -0.6843032188814359 119 135 0
-0.6611314981094439 -1.7810579843058507 -0.37651007847005896 65 189 0
-0.661131498109444 -1.2810579843058507 -0.7098430939119534 123 131 0
-0.6611314981094439 -0.7810579843058507 -0.4480203934114652 77 177 0
-0.6611314981094439 -0.2810579843058507 0.08718401714151333 0 241 13
-0.6611314981094437 1.2189420156941493 1.55805784984415 0 12 242
-1.161131498109444 -6.7810575074686925 0.6323400191861911 0 156 98
-1.161131498109444 -6.2810575074686925 0.27940756603067357 0 211 43
-1.161131498109444 -5.7810575074686925 -0.028385097543545203 4 250 0
-1.161131498109444 -5.2810575074686925 -0.19820540622884794 34 220 0
-1.161131498109444 -4.7810575074686925 -0.032683307687588176 5 249 0
-1.161131498109444 -4.2810575074686925 -0.4580931015413479 79 175 0
-1.161131498109444 -3.7810575074686925 -0.548669273416348 95 159 0
-1.161131498109444 -3.2810575074686925 -0.48625415043050807 84 170 0
-1.161131498109444 -2.7810575074686925 -0.5134662933748441 89 165 0
-1.161131498109444 -2.2810579843058507 -0.571630413095303 99 155 0
-1.161131498109444 -1.7810579843058507 -0.2382973976534085 41 213 0
-1.161131498109444 -1.2810579843058507 -0.2655081100862698 46 208 0
-1.161131498109444 -0.7810579843058507 -0.20309441761190458 35 219 0
-1.161131498109444 -0.2810579843058507 0.13023859782998995 0 234 20
-1.1611314981094438 0.7189420156941493 1.6104708365995213 0 4 250
-1.661131498109444 -7.2810575074686925 0.7564578704435154 0 137 117
-1.661131498109444 -6.7810575074686925 0.5909367255765721 0 163 91
-1.661131498109444 -6.2810575074686925 0.1776009254056736 0 227 27
-1.661131498109444 -5.7810575074686925 0.012079780538730248 0 253 1
-1.661131498109444 -5.2810575074686925 -0.40125601963216817 69 185 0
-1.661131498109444 -4.7810575074686925 -0.18562644199544945 32 222 0
-1.661131498109444 -4.2810575074686925 -0.351148063699551 61 193 0
-1.661131498109444 -3.7810575074686925 -0.44420331196004903 77 177 0
-1.661131498109444 -3.2810575074686925 -0.4169921226900295 72 182 0
-1.661131498109444 -2.7810575074686925 -0.247172290841885 43 211 0
-1.661131498109444 -2.2810579843058507 -0.5383810348909572 93 161 0
-1.661131498109444 -1.7810579843058507 -0.44780533985311544 77 177 0
-1.661131498109444 -1.2810579843058507 -0.18598216251546898 32 222 0
-1.661131498109444 -0.7810579843058507 -0.15877145008260765 27 227 0
-1.661131498109444 -0.2810579843058507 0.2337227515775486 0 218 36
-1.6611314981094438 0.21894201569414928 0.9882608108121678 0 101 153
-1.6611314981094438 0.7189420156941493 1.0464249305326268 0 92 162
-2.161131498109444 -6.7810575074686925 0.6582775764066502 0 152 102
-2.161131498109444 -6.2810575074686925 0.3504849128324315 0 200 54
-2.161131498109444 -5.7810575074686925 0.04269177242105453 0 248 6
-2.161131498109444 -5.2810575074686925 0.2916608504850194 0 209 45
-2.161131498109444 -4.7810575074686925 0.029837673147372887 0 250 4
-2.161131498109444 -4.2810575074686925 -0.028326446573086098 4 250 0
-2.161131498109444 -3.7810575074686925 -0.38125842289144546 66 188 0
-2.161131498109444 -3.2810575074686925 -0.43942206577474624 76 178 0
-2.161131498109444 -2.7810575074686925 -0.3770074196260646 65 189 0
-2.161131498109444 -2.2810579843058507 -0.6388301201265529 111 143 0
-2.161131498109444 -1.7810579843058507 -0.22549527362997085 39 215 0
-2.161131498109444 -1.2810579843058507 -0.2527074165743068 43 211 0
-2.161131498109444 -0.7810579843058507 0.16062790675943345 0 230 24
-2.161131498109444 -0.2810579843058507 0.8474336318570896 0 123 131
-2.661131498109444 -7.2810575074686925 0.8977027587491796 0 115 139
-2.661131498109444 -6.7810575074686925 0.6064940147001073 0 160 94
-2.661131498109444 -6.2810575074686925 0.2731609992582128 0 212 42
-2.661131498109444 -5.7810575074686925 0.18010479732339835 0 226 28
-2.661131498109444 -5.2810575074686925 0.014582698782138574 0 252 2
-2.661131498109444 -4.7810575074686925 -0.15093939975912118 26 228 0
-2.661131498109444 -4.2810575074686925 -0.24399417118246103 42 212 0
-2.661131498109444 -3.7810575074686925 -0.4095162697237208 71 183 0
-2.661131498109444 -3.2810575074686925 -0.5750383682649806 100 154 0
-2.661131498109444 -2.7810575074686925 -0.8240084000032618 143 111 0
-2.661131498109444 -2.2810579843058507 -0.5621852226656153 97 157 0
-2.661131498109444 -1.7810579843058507 -0.5040211029451563 87 167 0
-2.661131498109444 -1.2810579843058507 -0.24219744877035165 42 212 0
-2.661131498109444 -0.7810579843058507 0.1107335738736913 0 237 17
-2.661131498109444 -0.2810579843058507 0.594791000326328 0 162 92
-2.661131498109444 0.21894201569414928 1.323196714361362 0 49 205
-3.161131498109444 -6.2810575074686925 0.08556563182657223 0 241 13
-3.161131498109444 -5.7810575074686925 0.17862088008707028 0 227 27
-3.161131498109444 -5.2810575074686925 0.00880200191324215 0 253 1
-3.161131498109444 -4.7810575074686925 -0.04936211780721683 8 246 0
-3.161131498109444 -4.2810575074686925 -0.13993828968221683 24 230 0
-3.161131498109444 -3.7810575074686925 -0.4017609901827051 69 185 0
-3.161131498109444 -3.2810575074686925 -0.6173900909822657 107 147 0
-3.161131498109444 -2.7810575074686925 -0.6446022339266017 112 142 0
-3.161131498109444 -2.2810579843058507 -0.6120771713655665 106 148 0
-3.161131498109444 -1.7810579843058507 -0.08908742145711918 15 239 0
-3.161131498109444 -1.2810579843058507 0.07643467708414059 0 243 11
-3.161131498109444 -0.7810579843058507 0.4097676925260351 0 191 63
-3.161131498109444 -0.2810579843058507 1.0965738944608496 0 84 170
-3.661131498109444 -6.7810575074686925 0.606734817465 0 160 94
-3.661131498109444 -6.2810575074686925 0.31552559657876955 0 205 49
-3.661131498109444 -5.7810575074686925 0.150003974874668 0 231 23
-3.661131498109444 -5.2810575074686925 0.11747986598794924 0 236 18
-3.661131498109444 -4.7810575074686925 0.08495480342691408 0 241 13
-3.661131498109444 -4.2810575074686925 -0.24837916568929685 43 211 0
-3.661131498109444 -3.7810575074686925 -0.3414344139497949 59 195 0
-3.661131498109444 -3.2810575074686925 -0.6326431579988672 110 144 0
-3.661131498109444 -2.7810575074686925 -0.6054310150545312 105 149 0
-3.661131498109444 -2.2810579843058507 -0.4356121368807031 75 179 0
-3.661131498109444 -1.7810579843058507 -0.08268016056234373 14 240 0
-3.661131498109444 -1.2810579843058507 -0.055468017618007785 9 245 0
-3.661131498109444 -0.7810579843058507 0.45494372173135744 0 184 70
-3.661131498109444 -0.2810579843058507 0.7167668990690039 0 143 111
-3.661131498109444 0.21894201569414928 1.4191897563535498 0 34 220
-4.161131498109444 -6.2810575074686925 0.6425247840482521 0 155 99
-4.161131498109444 -5.7810575074686925 0.15846878810708992 0 230 24
-4.161131498109444 -5.2810575074686925 0.49180180354898445 0 178 76
-4.161131498109444 -4.7810575074686925 0.43363768382852547 0 187 67
-4.161131498109444 -4.2810575074686925 0.21800858302896492 0 221 33
-4.161131498109444 -3.7810575074686925 -0.2660483665865136 46 208 0
-4.161131498109444 -3.2810575074686925 -0.29326003269369133 51 203 0
-4.161131498109444 -2.7810575074686925 -0.044290000955410073 7 247 0
-4.161131498109444 -2.2810579843058507 0.018123691518955164 0 252 2
-4.161131498109444 -1.7810579843058507 0.18364579006021492 0 226 28
-4.161131498109444 -1.2810579843058507 0.09306961818521493 0 240 14
-4.161131498109444 -0.7810579843058507 0.6508889846402931 0 153 101
-4.161131498109444 -0.2810579843058507 0.38906580730264656 0 194 60
-4.661131498109444 -6.2810575074686925 0.7896056823331642 0 132 122
-4.661131498109444 -5.7810575074686925 0.37627083583658216 0 196 58
-4.661131498109444 -5.2810575074686925 0.4034815482694435 0 192 62
-4.661131498109444 -4.7810575074686925 0.4616466216642189 0 183 71
-4.661131498109444 -4.2810575074686925 0.4291215591031837 0 188 66
-4.661131498109444 -3.7810575074686925 0.26359993739908216 0 213 41
-4.661131498109444 -3.2810575074686925 0.2607656173307228 0 214 40
-4.661131498109444 -2.7810575074686925 0.257932727773838 0 214 40
-4.661131498109444 -2.2810579843058507 0.2254076652128029 0 219 35
-4.661131498109444 -1.7810579843058507 0.19288260265176774 0 224 30
-4.661131498109444 -1.2810579843058507 0.2510467223722267 0 215 39
-4.661131498109444 -0.7810579843058507 0.21852165981119157 0 221 33
-4.661131498109444 -0.2810579843058507 0.8692799262601661 0 119 135
-4.661131498109444 0.21894201569414928 1.3796916656095315 0 40 214
-5.161131498109444 -5.7810575074686925 0.9261699370939065 0 110 144
-5.161131498109444 -5.2810575074686925 0.4703427009183693 0 181 73
-5.161131498109444 -4.7810575074686925 0.9933329276639749 0 100 154
-5.161131498109444 -4.2810575074686925 0.996166770895176 0 100 154
-5.161131498109444 -3.7810575074686925 1.089222019155674 0 85 169
-5.161131498109444 -3.2810575074686925 0.14285284801309592 0 232 22
-5.161131498109444 -2.7810575074686925 0.8296600036222268 0 125 129
-5.161131498109444 -2.2810579843058507 0.6140299491483499 0 159 95
-5.161131498109444 -1.7810579843058507 0.5234537772733499 0 173 81
-5.161131498109444 -1.2810579843058507 0.4652896575528908 0 182 72
-5.161131498109444 -0.7810579843058507 0.5583458594877053 0 168 86
-5.161131498109444 -0.2810579843058507 1.1161637954313088 0 81 173
-5.161131498109444 0.21894201569414928 1.2092197589475442 0 66 188
-5.161131498109444 0.7189420156941493 1.5004277877408791 0 21 233
-5.661131498109444 -5.2810575074686925 0.8504615478116799 0 122 132
-5.661131498109444 -4.7810575074686925 1.0660906486112405 0 89 165
-5.661131498109444 -4.2810575074686925 1.0933027915555764 0 84 170
-5.661131498109444 -3.7810575074686925 1.0904699019986916 0 85 169
-5.661131498109444 -3.2810575074686925 1.306098764379673 0 51 203
-5.661131498109444 -2.7810575074686925 0.892763679464512 0 116 138
-5.661131498109444 -2.2810579843058507 0.7272415809232522 0 141 113
-5.661131498109444 -1.7810579843058507 0.5202818564969827 0 174 80
-5.661131498109444 -1.2810579843058507 0.5174489669400979 0 174 80
-5.661131498109444 -0.7810579843058507 0.48492390437906274 0 179 75
-5.661131498109444 -0.2810579843058507 0.7005530051786233 0 146 108
-5.661131498109444 0.21894201569414928 0.727764671285801 0 141 113
-5.661131498109444 0.7189420156941493 0.6952396087247659 0 146 108
-5.661131498109444 1.2189420156941493 0.6924067191678811 0 147 107
-5.661131498109444 1.7189420156941493 0.7505708388883401 0 138 116
-5.661131498109444 2.2189420156941493 1.2857747726041604 0 54 200
-5.661131498109444 2.7189420156941493 1.192718809087925 0 69 185
-5.661131498109444 4.718942134903439 1.406139677007847 0 36 218
-5.661131498109444 5.21894211720831 1.4033067874509622 0 36 218
-5.661131498109444 5.7189421051011164 1.3408919028837014 0 46 208
-5.661131498109444 6.218942134903439 1.1753698043424416 0 72 182
-5.661131498109444 6.718942134903439 1.437192743261509 0 31 223
-5.661131498109444 7.218942134903439 1.6070128135282327 0 4 250
-5.661131498109444 8.21894201569415 1.6113098315793801 0 4 250
-5.661131498109444 8.71894201569415 1.638521736105137 0 0 254
-5.661131498109444 10.21894201569415 1.045020645101719 0 92 162
-5.661131498109444 10.71894201569415 0.7538119010526467 0 137 117
-5.661131498109444 11.21894201569415 0.6607566527921487 0 152 102
-5.661131498109444 11.71894201569415 1.0532499007779885 0 91 163
-5.661131498109444 12.71894201569415 0.9871450118619729 0 101 153
-6.161131498109444 -4.2810575074686925 1.57671887203043 0 9 245
-6.161131498109444 -3.7810575074686925 1.6391328029233743 0 0 255
-6.161131498109444 -3.2810575074686925 1.5809686832029153 0 9 245
-6.161131498109444 -2.7810575074686925 1.4111498050290872 0 35 219
-6.161131498109444 -2.2810579843058507 1.01865584178751 0 96 158
-6.161131498109444 -1.7810579843058507 1.1117118053037454 0 82 172
-6.161131498109444 -1.2810579843058507 0.6863017730314066 0 148 106
-6.161131498109444 -0.7810579843058507 0.12755495830362337 0 235 19
-6.161131498109444 -0.2810579843058507 0.41876370235269567 0 189 65
-6.161131498109444 0.21894201569414928 0.32818800731485387 0 203 51
-6.161131498109444 0.7189420156941493 0.1583686523038675 0 230 24
-6.161131498109444 1.2189420156941493 0.16120201869791048 0 229 25
-6.161131498109444 1.7189420156941493 0.25425774379556676 0 215 39
-6.161131498109444 2.2189420156941493 0.3166719131070902 0 205 49
-6.161131498109444 2.7189420156941493 0.008878772695713221 0 253 1
-6.161131498109444 3.2189420156941493 0.9139905623990824 0 112 142
-6.161131498109444 3.718942134903439 0.5214968375760843 0 173 81
-6.161131498109444 4.218942134903439 0.7704668693143656 0 135 119
-6.161131498109444 4.718942134903439 0.3450565986234476 0 201 53
-6.161131498109444 5.21894211720831 0.347890918691807 0 200 54
-6.161131498109444 5.7189421051011164 0.257314746816807 0 214 40
-6.161131498109444 6.218942134903439 0.23010260387247103 0 219 35
-6.161131498109444 6.718942134903439 0.2626276664335062 0 214 40
-6.161131498109444 7.218942134903439 0.35568291469400426 0 199 55
-6.161131498109444 7.718942015694149 0.5626426391202738 0 167 87
-6.161131498109444 8.21894201569415 0.3008199386197855 0 208 46
-6.161131498109444 8.71894201569415 0.13099962993448275 0 234 20
-6.161131498109444 9.21894201569415 0.6888189963895609 0 147 107
-6.161131498109444 9.71894201569415 0.15361458583658236 0 231 23
-6.161131498109444 10.21894201569415 0.06303889079874056 0 245 9
-6.161131498109444 10.71894201569415 0.1254540137845804 0 235 19
-6.161131498109444 11.21894201569415 0.3744235686857035 0 196 58
-6.161131498109444 11.71894201569415 0.6233926467496683 0 158 96
-6.161131498109444 12.21894201569415 0.8723626784879496 0 119 135
-6.161131498109444 12.71894201569415 0.9048877410489847 0 114 140
-6.161131498109444 13.21894201569415 1.1118477038938333 0 82 172
-6.161131498109444 13.718942492531308 1.4030557326871682 0 36 218
-6.661131498109444 -3.2810575074686925 1.475970809896641 0 25 229
-6.661131498109444 -2.7810575074686925 1.443445747335606 0 30 224
-6.661131498109444 -2.2810579843058507 1.1101127318937114 0 82 172
-6.661131498109444 -1.7810579843058507 0.9445906333524515 0 108 146
-6.661131498109444 -1.2810579843058507 0.737630908926182 0 140 114
-6.661131498109444 -0.7810579843058507 0.5306716613370707 0 172 82
-6.661131498109444 -0.2810579843058507 0.23946291728799843 0 217 37
-6.661131498109444 0.21894201569414928 -0.09387009815389609 16 238 0
-6.661131498109444 0.7189420156941493 -0.25939219669515584 45 209 0
-6.661131498109444 1.2189420156941493 -0.4663523979585836 81 173 0
-6.661131498109444 1.7189420156941493 -0.5594071693819235 97 157 0
-6.661131498109444 2.2189420156941493 -0.5321959801119039 92 162 0
-6.661131498109444 2.7189420156941493 -0.4740323372286031 82 172 0
-6.661131498109444 3.2189420156941493 -0.4768652267854879 82 172 0
-6.661131498109444 3.718942134903439 -0.5392803497713278 93 161 0
-6.661131498109444 4.218942134903439 -0.601694042245693 104 150 0
-6.661131498109444 4.718942134903439 -0.5435303993623922 94 160 0
-6.661131498109444 5.21894211720831 -0.2817072220247457 49 205 0
-6.661131498109444 5.7189421051011164 -0.3441213913362691 59 195 0
-6.661131498109444 6.218942134903439 -0.3766464538973043 65 189 0
-6.661131498109444 6.718942134903439 -0.34943431095296834 60 194 0
-6.661131498109444 7.218942134903439 -0.29127019123250936 50 204 0
-6.661131498109444 7.718942015694149 -0.3237952537935445 56 198 0
-6.661131498109444 8.21894201569415 -0.26563113407308553 46 208 0
-6.661131498109444 8.71894201569415 -0.23841899112874962 41 213 0
-6.661131498109444 9.21894201569415 -0.4453791923921773 77 177 0
-6.661131498109444 9.71894201569415 -0.18355601505453087 31 223 0
-6.661131498109444 10.21894201569415 -0.15634434894735313 27 227 0
-6.661131498109444 10.71894201569415 0.013475006063633204 0 252 2
-6.661131498109444 11.21894201569415 0.3664069823819926 0 197 57
-6.661131498109444 11.71894201569415 0.5362258605558207 0 171 83
-6.661131498109444 12.21894201569415 0.88915783687418 0 116 138
-6.661131498109444 12.71894201569415 1.0589767150480083 0 90 164
-6.661131498109444 13.21894201569415 1.2746067695218852 0 56 198
-6.661131498109444 13.718942492531308 1.4444258861142925 0 30 224
-7.161131974946602 -2.7810575074686925 1.5833826713163188 0 8 246
-7.161131974946602 -2.2810579843058507 1.3215597323972514 0 49 205
-7.161131974946602 -1.7810579843058507 1.10593087001627 0 82 172
-7.161131974946602 -1.2810579843058507 0.890300815542393 0 116 138
-7.161131974946602 -0.7810579843058507 0.7204819373685649 0 142 112
-7.161131974946602 -0.2810579843058507 0.1171498946744731 0 236 18
-7.161131974946602 0.21894201569414928 0.05898577495401412 0 245 9
-7.161131974946602 0.7189420156941493 -0.5917720146578023 102 152 0
-7.161131974946602 1.2189420156941493 -0.25843804554159133 44 210 0
-7.161131974946602 1.7189420156941493 -1.065843040506191 185 69 0
-7.161131974946602 2.2189420156941493 -1.3276662178438374 231 23 0
-7.161131974946602 2.7189420156941493 -0.9143313713472554 159 95 0
-7.161131974946602 3.2189420156941493 -0.9415430374544331 163 91 0
-7.161131974946602 3.718942134903439 -0.8791283913057515 152 102 0
-7.161131974946602 4.218942134903439 -0.8762950249117085 152 102 0
-7.161131974946602 4.718942134903439 -0.903506214181728 157 97 0
-7.161131974946602 5.21894211720831 -0.10274117664510697 17 237 0
-7.161131974946602 5.7189421051011164 -0.6840934105318257 119 135 0
-7.161131974946602 6.218942134903439 -0.6812600441377827 118 136 0
-7.161131974946602 6.718942134903439 -0.6188453979891011 107 147 0
-7.161131974946602 7.218942134903439 -0.525790149728603 91 163 0
-7.161131974946602 7.718942015694149 -0.5229563064974019 91 163 0
-7.161131974946602 8.21894201569415 -0.5811204262178609 101 153 0
-7.161131974946602 8.71894201569415 -0.4880651779573628 84 170 0
-7.161131974946602 9.21894201569415 -0.45554011539632766 79 175 0
-7.161131974946602 9.71894201569415 -0.1643323250215718 28 226 0
-7.161131974946602 10.21894201569415 -0.07127612308675736 12 242 0
-7.161131974946602 10.71894201569415 0.13568264766519578 0 233 21
-7.161131974946602 11.21894201569415 0.42689186855142625 0 188 66
-7.161131974946602 11.71894201569415 0.6758619002897075 0 149 105
-7.161131974946602 12.21894201569415 0.882821624715977 0 117 137
-7.161131974946602 12.71894201569415 1.2161548785764507 0 65 189
-7.661131974946602 -2.7810575074686925 1.622884815176182 0 2 252
-7.661131974946602 -2.2810579843058507 1.4573627166349223 0 28 226
-7.661131974946602 -1.7810579843058507 1.3643077067930034 0 42 212
-7.661131974946602 -1.2810579843058507 0.9509726218778423 0 107 147
-7.661131974946602 -0.7810579843058507 0.7854510001737407 0 132 122
-7.661131974946602 -0.2810579843058507 -0.04214900211507761 7 247 0
-7.661131974946602 0.21894201569414928 -0.5999683685701558 104 150 0
-7.661131974946602 0.7189420156941493 -0.891177112619228 155 99 0
-7.661131974946602 1.2189420156941493 -1.0981373138826558 191 63 0
-7.661131974946602 1.7189420156941493 -1.305096084634609 227 27 0
-7.661131974946602 2.2189420156941493 -1.2145203895967671 211 43 0
-7.661131974946602 2.7189420156941493 -1.2173542328279683 211 43 0
-7.661131974946602 3.2189420156941493 -1.1267780609529683 196 58 0
-7.661131974946602 3.718942134903439 -1.0995663948457906 191 63 0
-7.661131974946602 4.218942134903439 -1.072355205575771 186 68 0
-7.661131974946602 4.718942134903439 -1.014191085855312 176 78 0
-7.661131974946602 5.21894211720831 -0.7063969917696187 122 132 0
-7.661131974946602 5.7189421051011164 -0.7994531937044331 139 115 0
-7.661131974946602 6.218942134903439 -0.7088770218294331 123 131 0
-7.661131974946602 6.718942134903439 -0.6507133789461323 113 141 0
-7.661131974946602 7.218942134903439 -0.48089402393514596 83 171 0
-7.661131974946602 8.21894201569415 -0.38514512256795846 67 187 0
-7.661131974946602 8.71894201569415 -0.3269810028474995 56 198 0
-7.661131974946602 9.21894201569415 -0.15716117099935495 27 227 0
-7.661131974946602 9.71894201569415 0.012657707174473171 0 253 1
-7.661131974946602 10.21894201569415 0.22828680797403372 0 219 35
-7.661131974946602 10.71894201569415 0.39810568614786185 0 193 61
-7.661131974946602 11.71894201569415 0.7319327048856548 0 141 113
-7.661131974946602 12.21894201569415 1.2159898929197124 0 65 189
