ply
format ascii 1.0
element vertex 727
property float x
property float y
property float z
property uchar red
property uchar green
property uchar blue
end_header
-5.611751242927039 4.620391609117148 -1.6120434425785186 0 125 129
-5.611751242927039 5.120391609117148 -1.7026196144535186 0 118 136
-5.611751242927039 5.620391609117148 -1.7298317573978546 0 115 139
-5.611751242927039 6.120391609117148 -1.6973066948368194 0 118 136
-5.611751242927039 6.620391609117148 -1.6944733284427764 0 118 136
-5.611751242927039 7.120391609117148 -1.6320586822940948 0 123 131
-5.611751242927039 7.620391609117148 -1.599534573407376 0 126 128
-5.611751242927039 8.12039160911715 -1.657698693127835 0 121 133
-5.611751242927039 8.62039160911715 -1.8275175713016631 0 108 146
-5.611751242927039 9.12039160911715 -2.283344330640042 0 71 183
-5.611751242927039 9.62039160911715 -2.8420916222049835 0 26 228
-5.111751242927039 -8.379607914045692 0.8303412772701142 103 151 0
-5.111751242927039 -7.379607914045693 0.9035376884029267 112 142 0
-5.111751242927039 -6.879607914045693 0.9007043220088837 112 142 0
-5.111751242927039 -6.379607914045693 0.8978704787776826 111 143 0
-5.111751242927039 -5.879607914045693 0.8354563094661591 103 151 0
-5.111751242927039 -5.379608390882852 0.7730416633174775 96 158 0
-5.111751242927039 -4.879608390882852 0.710627494005954 88 166 0
-5.111751242927039 -4.379608390882852 0.5036672927425263 62 192 0
-5.111751242927039 -3.8796083908828516 0.09033244624594428 11 243 0
-5.111751242927039 -3.3796083908828516 0.027918276934420838 3 251 0
-5.111751242927039 -2.8796083908828516 -0.3054147385074737 0 230 24
-5.111751242927039 -2.3796083908828516 -0.47093636021157526 0 217 37
-5.111751242927039 -1.8796083908828516 -0.8042703293277862 0 190 64
-5.111751242927039 -1.3796083908828516 -0.8071036957218292 0 190 64
-5.111751242927039 -0.8796083908828516 -1.14043766483804 0 163 91
-5.111751242927039 -0.3796083908828516 -1.23349243626138 0 155 99
-5.111751242927039 0.12039160911714841 -1.326547684521878 0 148 106
-5.111751242927039 0.620391728326438 -1.235971512646878 0 155 99
-5.111751242927039 1.120391728326438 -1.2388053558780792 0 155 99
-5.111751242927039 1.620391728326438 -1.068986477704251 0 169 85
-5.111751242927039 2.1203917003867607 -1.1314006470157745 0 164 90
-5.111751242927039 2.6203916985241156 -1.2969227455570342 0 150 104
-5.111751242927039 3.120391728326438 -1.5458923004581573 0 130 124
-5.111751242927039 3.620391728326438 -1.3760734222843292 0 144 110
-5.111751242927039 4.120391728326438 -1.3488617561771514 0 146 108
-5.111751242927039 4.620391609117148 -1.2582855843021514 0 153 101
-5.111751242927039 5.120391609117148 -1.4238076828434112 0 140 114
-5.111751242927039 5.620391609117148 -1.4563327454044463 0 137 117
-5.111751242927039 6.120391609117148 -1.4888573311283233 0 135 119
-5.111751242927039 6.620391609117148 -1.4616456650211456 0 137 117
-5.111751242927039 7.120391609117148 -1.5547004364444854 0 130 124
-5.111751242927039 7.620391609117148 -1.201768460126126 0 158 96
-5.111751242927039 8.12039160911715 -1.4507384918644073 0 138 116
-5.111751242927039 8.62039160911715 -1.4832635544254424 0 135 119
-5.111751242927039 9.12039160911715 -1.6487856529667022 0 122 132
-5.111751242927039 9.62039160911715 -2.7009473465397003 0 37 217
-5.111751242927039 10.12039160911715 -2.7037807129337432 0 37 217
-5.111751242927039 10.620392085954308 -2.7968364380313995 0 30 224
-5.111751242927039 11.120392085954308 -3.130169442297423 0 3 251
-4.611751242927039 -8.379607914045692 0.6438054420040009 80 174 0
-4.611751242927039 -7.379607914045693 1.0631446219966767 132 122 0
-4.611751242927039 -6.879607914045693 0.8475155211971162 105 149 0
-4.611751242927039 -6.379607914045693 0.8800405837581513 109 145 0
-4.611751242927039 -5.879607914045693 0.7894644118831513 98 156 0
-4.611751242927039 -5.379608390882852 0.6196445800350068 77 177 0
-4.611751242927039 -4.879608390882852 0.6521696425960419 81 173 0
-4.611751242927039 -4.379608390882852 0.4365405417964814 54 200 0
-4.611751242927039 -3.8796083908828516 0.43937343135336615 54 200 0
-4.611751242927039 -3.3796083908828516 0.6048955298946259 75 179 0
-4.611751242927039 -2.8796083908828516 0.09448426738241889 11 243 0
-4.611751242927039 -2.3796083908828516 -0.6079383514835479 0 206 48
-4.611751242927039 -1.8796083908828516 -0.9608703278019073 0 177 77
-4.611751242927039 -1.3796083908828516 -0.9580364845707061 0 178 76
-4.611751242927039 -0.8796083908828516 -1.1278563164188506 0 164 90
-4.611751242927039 -0.3796083908828516 -1.2184315346195342 0 157 97
-4.611751242927039 0.12039160911714841 -1.1859074257328155 0 159 95
-4.611751242927039 0.620391728326438 -1.2440715454532745 0 155 99
-4.611751242927039 1.120391728326438 -1.0371113441898467 0 171 83
-4.611751242927039 1.620391728326438 -0.9440565727665069 0 179 75
-4.611751242927039 2.1203917003867607 -0.9412227295353057 0 179 75
-4.611751242927039 2.6203916985241156 -1.3970494888736846 0 142 112
-4.611751242927039 3.120391728326438 -0.9837146423771026 0 175 79
-4.611751242927039 3.620391728326438 -1.0742903374149444 0 168 86
-4.611751242927039 4.120391728326438 -1.0714564941837432 0 168 86
-4.611751242927039 4.620391609117148 -1.1620326660587432 0 161 93
-4.611751242927039 5.120391609117148 -1.252608361096585 0 154 100
-4.611751242927039 5.620391609117148 -1.1595535896732452 0 161 93
-4.611751242927039 6.120391609117148 -1.3751826904728057 0 144 110
-4.611751242927039 6.620391609117148 -1.209660591931546 0 157 97
-4.611751242927039 7.120391609117148 -1.236872734875882 0 155 99
-4.611751242927039 7.620391609117148 -1.2950363777591827 0 150 104
-4.611751242927039 8.12039160911715 -1.3532004974796417 0 146 108
-4.611751242927039 8.62039160911715 -1.3804126404239776 0 144 110
-4.611751242927039 9.12039160911715 -1.6422353409244659 0 123 131
-4.611751242927039 9.62039160911715 -1.609710755200589 0 125 129
-4.611751242927039 10.12039160911715 -2.5272913597538116 0 51 203
-4.611751242927039 10.620392085954308 -3.1306236296906116 0 3 251
-4.611751242927039 11.120392085954308 -2.7172885559513213 0 36 218
-4.611751242927039 11.620392085954308 -3.1426985770477893 0 2 252
-4.111751242927039 -8.879607914045692 -1.3820367477848174 0 143 111
-4.111751242927039 -7.879607914045693 0.3264545775936005 40 214 0
-4.111751242927039 -7.379607914045693 0.7518643714473603 93 161 0
-4.111751242927039 -6.879607914045693 0.8424405433223603 104 150 0
-4.111751242927039 -6.379607914045693 0.9006046630428193 112 142 0
-4.111751242927039 -5.879607914045693 0.927816329149997 115 139 0
-4.111751242927039 -5.379608390882852 0.8654026366756318 107 147 0
-4.111751242927039 -4.879608390882852 0.9235662795589326 114 140 0
-4.111751242927039 -4.379608390882852 0.4728006698177216 58 196 0
-4.111751242927039 -3.8796083908828516 0.8257316924617646 102 152 0
-4.111751242927039 -3.3796083908828516 0.37496560588339545 46 208 0
-4.111751242927039 -2.8796083908828516 0.2819103576228974 35 219 0
-4.111751242927039 -2.3796083908828516 -0.13142448887368463 0 244 10
-4.111751242927039 -1.8796083908828516 -0.9047537468387725 0 182 72
-4.111751242927039 -1.3796083908828516 -1.3180885933353546 0 149 105
-4.111751242927039 -0.8796083908828516 -1.6092973373844268 0 125 129
-4.111751242927039 -0.3796083908828516 -1.8162575386478546 0 109 145
-4.111751242927039 0.12039160911714841 -1.8487826012088897 0 106 148
-4.111751242927039 0.620391728326438 -3.0556536190225723 0 9 245
-4.111751242927039 1.120391728326438 -1.7113404892398956 0 117 137
-4.111751242927039 1.620391728326438 -1.3584085129215362 0 145 109
-4.111751242927039 2.1203917003867607 -0.9329987190677764 0 180 74
-4.111751242927039 2.6203916985241156 -0.8424225471927764 0 187 67
-4.111751242927039 3.120391728326438 -0.8452554367496612 0 187 67
-4.111751242927039 3.620391728326438 -0.907670559735501 0 182 72
-4.111751242927039 4.120391728326438 -0.9700847290470245 0 177 77
-4.111751242927039 4.620391609117148 -1.135606350751126 0 163 91
-4.111751242927039 5.120391609117148 -1.1681314133121612 0 161 93
-4.111751242927039 5.620391609117148 -1.1709657333805206 0 160 94
-4.111751242927039 6.120391609117148 -1.2333794258548858 0 155 99
-4.111751242927039 6.620391609117148 -1.206167759747708 0 158 96
-4.111751242927039 7.120391609117148 -1.238692345471585 0 155 99
-4.111751242927039 7.620391609117148 -1.3011065147831085 0 150 104
-4.111751242927039 8.12039160911715 -1.3336315773441436 0 147 107
-4.111751242927039 8.62039160911715 -1.2754674576236846 0 152 102
-4.111751242927039 9.12039160911715 -1.3079925201847198 0 149 105
-4.111751242927039 9.62039160911715 -1.4735146187259796 0 136 118
-4.111751242927039 10.12039160911715 -1.4153504990055206 0 141 113
-4.111751242927039 10.620392085954308 -1.6643205307438018 0 121 133
-4.111751242927039 11.120392085954308 -2.4376493118717315 0 59 195
-3.6117512429270393 -8.879607914045692 -0.8835535667850616 0 183 71
-3.6117512429270393 -8.379607914045692 -1.5343104027225616 0 131 123
-3.6117512429270393 -7.879607914045693 0.2916144706294892 36 218 0
-3.6117512429270393 -7.379607914045693 0.540583548693454 67 187 0
-3.6117512429270393 -6.879607914045693 0.7895535804317353 98 156 0
-3.6117512429270393 -6.379607914045693 0.8519687034175751 106 148 0
-3.6117512429270393 -5.879607914045693 0.9143823958919404 113 141 0
-3.6117512429270393 -5.379608390882852 0.9469074584529755 117 137 0
-3.6117512429270393 -4.879608390882852 0.9794325210140107 121 133 0
-3.6117512429270393 -4.379608390882852 0.9212684012935517 114 140 0
-3.6117512429270393 -3.8796083908828516 1.0143236495540497 126 128 0
-3.6117512429270393 -3.3796083908828516 0.8445042945430634 105 149 0
-3.6117512429270393 -2.8796083908828516 0.6288742400691865 78 176 0
-3.6117512429270393 -2.3796083908828516 -0.021882595868313537 0 253 1
-3.6117512429270393 -1.8796083908828516 -1.1679874084903838 0 161 93
-3.6117512429270393 -1.3796083908828516 -1.5933976791813018 0 126 128
-3.6117512429270393 -0.8796083908828516 -1.6839733742191436 0 119 135
-3.6117512429270393 -0.3796083908828516 -1.94579655155679 0 98 156
-3.6117512429270393 0.12039160911714841 -2.253589691968167 0 73 181
-3.6117512429270393 0.620391728326438 -1.7305985115482452 0 115 139
-3.6117512429270393 1.120391728326438 -1.9462285660221221 0 98 156
-3.6117512429270393 1.620391728326438 -2.004392685742581 0 93 161
-3.6117512429270393 2.1203917003867607 -1.5536256454898956 0 130 124
-3.6117512429270393 2.6203916985241156 -1.220292630048001 0 156 98
-3.6117512429270393 3.120391728326438 -1.0547705315067413 0 170 84
-3.6117512429270393 3.620391728326438 -0.80580049976846 0 190 64
-3.6117512429270393 4.120391728326438 -1.113593640179837 0 165 89
-3.6117512429270393 4.620391609117148 -0.8223853729679229 0 188 66
-3.6117512429270393 5.120391609117148 -0.7599707268192413 0 193 61
-3.6117512429270393 5.620391609117148 -0.9755993507816436 0 176 78
-3.6117512429270393 6.120391609117148 -1.033764424176419 0 171 83
-3.6117512429270393 6.620391609117148 -0.620429577679837 0 205 49
-3.6117512429270393 7.120391609117148 -1.1791754387333038 0 160 94
-3.6117512429270393 7.620391609117148 -1.1466503761722686 0 162 92
-3.6117512429270393 8.12039160911715 -1.2372265480472686 0 155 99
-3.6117512429270393 8.62039160911715 -1.3278027199222686 0 148 106
-3.6117512429270393 9.12039160911715 -1.680734696240628 0 119 135
-3.6117512429270393 9.62039160911715 -1.2673993729068878 0 153 101
-3.6117512429270393 10.12039160911715 -1.2348743103458526 0 155 99
-3.6117512429270393 10.620392085954308 -1.793621601910794 0 110 144
-3.6117512429270393 11.120392085954308 -2.0092507027103546 0 93 161
-3.6117512429270393 11.620392085954308 -2.843463482709134 0 26 228
-3.11175100450846 -8.379607914045692 -1.4164415024234893 0 141 113
-3.11175100450846 -7.879607914045693 -0.6619034431888702 0 201 53
-3.11175100450846 -7.379607914045693 0.14550155177572943 18 236 0
-3.11175100450846 -6.879607914045693 1.180004058031833 146 108 0
-3.11175100450846 -6.379607914045693 0.8887953139827607 110 144 0
-3.11175100450846 -5.879607914045693 0.9793714858577607 121 133 0
-3.11175100450846 -5.379608390882852 1.149190840868747 143 111 0
-3.11175100450846 -4.879608390882852 1.146357474474704 142 112 0
-3.11175100450846 -4.379608390882852 1.17356961741904 146 108 0
-3.11175100450846 -3.8796083908828516 1.1410445548580048 142 112 0
-3.11175100450846 -3.3796083908828516 1.1085194922969697 137 117 0
-3.11175100450846 -2.8796083908828516 0.7751864768550751 96 158 0
-3.11175100450846 -2.3796083908828516 0.2173675872371552 27 227 0
-3.11175100450846 -1.8796083908828516 -1.7328596733524444 0 115 139
-3.11175100450846 -1.3796083908828516 -1.9226513527347686 0 100 154
-3.11175100450846 -0.8796083908828516 -2.2559853218509796 0 73 181
-3.11175100450846 0.12039160911714841 -2.708318295331204 0 37 217
-3.11175100450846 0.620391728326438 -2.711151661725247 0 37 217
-3.11175100450846 1.120391728326438 -2.9181116096689346 0 20 234
-3.11175100450846 1.620391728326438 -2.6562886856510284 0 41 213
-3.11175100450846 2.1203917003867607 -2.6290765427066924 0 43 211
-3.11175100450846 2.6203916985241156 -2.2365832947208526 0 75 179
-3.11175100450846 3.120391728326438 -1.9287906311466338 0 100 154
-3.11175100450846 3.620391728326438 -1.347438397259915 0 146 108
-3.11175100450846 4.120391728326438 -1.3799634598209503 0 144 110
-3.11175100450846 4.620391609117148 -0.9545536659671905 0 178 76
-3.11175100450846 5.120391609117148 -0.9573865555240753 0 178 76
-3.11175100450846 5.620391609117148 -1.2485952995731475 0 154 100
-3.11175100450846 6.120391609117148 -1.1904316566898467 0 159 95
-3.11175100450846 6.620391609117148 -1.3559537552311065 0 146 108
-3.11175100450846 7.120391609117148 -1.521475376935208 0 132 122
-3.11175100450846 7.620391609117148 -1.5540004394962432 0 130 124
-3.11175100450846 8.12039160911715 -1.6164146088077667 0 125 129
-3.11175100450846 8.62039160911715 -1.678828301282132 0 120 134
-3.11175100450846 9.12039160911715 -1.7412434242679717 0 115 139
-3.11175100450846 9.62039160911715 -1.5714245460941436 0 128 126
-3.11175100450846 10.12039160911715 -1.6644793175174835 0 121 133
-3.11175100450846 10.620392085954308 -1.5739036224796417 0 128 126
-3.11175100450846 11.120392085954308 -2.528806748242581 0 51 203
-2.61175100450846 -8.879607914045692 -0.8675842903568389 0 185 69
-2.61175100450846 -8.379607914045692 -1.4027887009098174 0 142 112
-2.61175100450846 -7.879607914045693 0.25176328196982123 31 223 0
-2.61175100450846 -7.379607914045693 1.0525292731807587 131 123 0
-2.61175100450846 -6.879607914045693 0.5684723235652802 70 184 0
-2.61175100450846 -6.379607914045693 0.8596815444515107 106 148 0
-2.61175100450846 -5.879607914045693 0.8922056533382294 111 143 0
-2.61175100450846 -5.379608390882852 1.099165377764499 136 118 0
-2.61175100450846 -4.879608390882852 1.1316904403255341 140 114 0
-2.61175100450846 -4.379608390882852 1.2247456885860322 152 102 0
-2.61175100450846 -3.8796083908828516 1.1975335456416962 149 105 0
-2.61175100450846 -3.3796083908828516 1.2300586082027314 153 101 0
-2.61175100450846 -2.8796083908828516 1.2028464652583954 149 105 0
-2.61175100450846 -2.3796083908828516 1.1122702933833954 138 116 0
-2.61175100450846 -1.8796083908828516 0.6868604995296357 85 169 0
-2.61175100450846 -1.3796083908828516 -1.7862816475345733 0 111 143
-2.61175100450846 -0.8796083908828516 -2.593686642499173 0 46 208
-2.61175100450846 -0.3796083908828516 -3.1288905650391223 0 3 251
-2.61175100450846 4.120391728326438 -2.1424337051822784 0 82 172
-2.61175100450846 4.620391609117148 -2.4042564056827667 0 61 193
-2.61175100450846 5.120391609117148 -1.630927624554837 0 123 131
-2.61175100450846 5.620391609117148 -1.5685134552433135 0 128 126
-2.61175100450846 6.120391609117148 -1.5957255981876495 0 126 128
-2.61175100450846 6.620391609117148 -1.5632005356266143 0 129 125
-2.61175100450846 7.120391609117148 -1.6537767075016143 0 122 132
-2.61175100450846 7.620391609117148 -1.6212516449405792 0 124 130
-2.61175100450846 8.12039160911715 -1.711827339978421 0 117 137
-2.61175100450846 8.62039160911715 -2.019620480389798 0 92 162
-2.61175100450846 9.12039160911715 -1.957205357403958 0 97 157
-2.61175100450846 9.62039160911715 -2.2190285347416046 0 76 178
-2.61175100450846 10.12039160911715 -2.27719360813638 0 72 182
-2.61175100450846 10.620392085954308 -2.2743592880680206 0 72 182
-2.61175100450846 11.120392085954308 -2.7301865242435577 0 35 219
-2.11175100450846 -8.379607914045692 -1.363692345471585 0 145 109
-2.11175100450846 -7.879607914045693 -0.6352873466922881 0 203 51
-2.11175100450846 -7.379607914045693 0.3695573188350556 45 209 0
-2.11175100450846 -6.879607914045693 0.5851864196346162 72 182 0
-2.11175100450846 -6.379607914045693 0.8470095969722626 105 149 0
-2.11175100450846 -5.879607914045693 1.1548022605464814 143 111 0
-2.11175100450846 -5.379608390882852 1.3246211387203095 164 90 0
-2.11175100450846 -4.879608390882852 1.2920960761592744 160 94 0
-2.11175100450846 -4.379608390882852 1.3193082191036103 164 90 0
-2.11175100450846 -3.8796083908828516 1.4098843909786103 175 79 0
-2.11175100450846 -3.3796083908828516 1.160914359240329 144 110 0
-2.11175100450846 -2.8796083908828516 1.1580819465206025 144 110 0
-2.11175100450846 -2.3796083908828516 1.3279008246944306 165 89 0
-2.11175100450846 -1.8796083908828516 1.1623782493160126 144 110 0
-2.11175100450846 -1.3796083908828516 0.4171466208980439 51 203 0
-2.11175100450846 6.620391609117148 -2.8009615562870147 0 29 225
-2.11175100450846 7.120391609117148 -2.8334856651737335 0 27 227
-2.11175100450846 7.620391609117148 -2.7429094932987335 0 34 220
-2.11175100450846 8.12039160911715 -3.076243447513783 0 7 247
-2.11175100450846 8.62039160911715 -3.138657620550597 0 2 252
-1.6117510045084604 -8.879607914045692 -1.6439924858524444 0 122 132
-1.6117510045084604 -8.379607914045692 -1.1210013054325225 0 164 90
-1.6117510045084604 -7.879607914045693 -0.14158541187783502 0 243 11
-1.6117510045084604 -7.379607914045693 0.271749434618747 33 221 0
-1.6117510045084604 -6.879607914045693 0.685084281115329 85 169 0
-1.6117510045084604 -6.379607914045693 0.8506063796565888 105 149 0
-1.6117510045084604 -5.879607914045693 1.0161284781978486 126 128 0
-1.6117510045084604 -5.379608390882852 1.1816500999019501 147 107 0
-1.6117510045084604 -4.879608390882852 1.2440642692134736 154 100 0
-1.6117510045084604 -4.379608390882852 1.2765893317745087 158 96 0
-1.6117510045084604 -3.8796083908828516 1.2794226981685517 159 95 0
-1.6117510045084604 -3.3796083908828516 1.0175995208309052 126 128 0
-1.6117510045084604 -2.8796083908828516 1.3088082648799775 162 92 0
-1.6117510045084604 -2.3796083908828516 1.642141280321872 204 50 0
-1.6117510045084604 -1.8796083908828516 1.1069373466060517 137 117 0
-1.6117510045084604 -1.3796083908828516 1.1394624091670869 141 113 0
-1.6117510045084604 -0.8796083908828516 1.0812982894466279 134 120 0
-1.6117510045084604 -0.3796083908828516 0.43054049983481146 53 201 0
-1.11175112371775 -8.379607914045692 -1.7164116524173858 0 117 137
-1.11175112371775 -7.879607914045693 -0.6819077156498077 0 200 54
-1.11175112371775 -7.379607914045693 0.6314095832393525 78 176 0
-1.11175112371775 -6.879607914045693 0.4658874846980927 57 197 0
-1.11175112371775 -6.379607914045693 0.8583802558467744 106 148 0
-1.11175112371775 -5.879607914045693 1.0281996108577607 127 127 0
-1.11175112371775 -5.379608390882852 1.2438296653316376 154 100 0
-1.11175112371775 -4.879608390882852 1.3019933082149384 162 92 0
-1.11175112371775 -4.379608390882852 1.329204497484958 165 89 0
-1.11175112371775 -3.8796083908828516 1.326371131090915 165 89 0
-1.11175112371775 -3.3796083908828516 1.2333154059932587 153 101 0
-1.11175112371775 -2.8796083908828516 1.1402606345699189 141 113 0
-1.11175112371775 -2.3796083908828516 1.1077355720088837 137 117 0
-1.11175112371775 -1.8796083908828516 1.075211463122165 133 121 0
-1.11175112371775 -1.3796083908828516 1.3370341636226533 166 88 0
-1.11175112371775 -0.8796083908828516 1.2746190406368134 158 96 0
-1.11175112371775 -0.3796083908828516 0.5878133155391572 73 181 0
-0.61175112371775 -8.879607914045692 -2.0248985908939483 0 92 162
-0.61175112371775 -8.379607914045692 -1.7759295128299835 0 112 142
-0.61175112371775 -7.879607914045693 -0.8457747124149444 0 187 67
-0.61175112371775 -7.379607914045693 0.08438056483725287 10 244 0
-0.61175112371775 -6.879607914045693 0.1774353362605927 22 232 0
-0.61175112371775 -6.379607914045693 0.9226674415157197 114 140 0
-0.61175112371775 -5.879607914045693 1.0157226897762177 126 128 0
-0.61175112371775 -5.379608390882852 1.1812447883174775 147 107 0
-0.61175112371775 -4.879608390882852 1.2137698508785126 151 103 0
-0.61175112371775 -4.379608390882852 1.9005755759761689 236 18 0
-0.61175112371775 -3.8796083908828516 1.2498177863643525 155 99 0
-0.61175112371775 -3.3796083908828516 1.2823428489253876 159 95 0
-0.61175112371775 -2.8796083908828516 1.5313128806636689 190 64 0
-0.61175112371775 -2.3796083908828516 1.2235192634151337 152 102 0
-0.61175112371775 -1.8796083908828516 1.2859334327266572 160 94 0
-0.61175112371775 -1.3796083908828516 1.2587212897823212 156 98 0
-0.61175112371775 -0.8796083908828516 1.0430926658199189 129 125 0
-0.61175112371775 -0.3796083908828516 1.2500523902461884 155 99 0
-0.61175112371775 0.12039160911714841 1.1594762183711884 144 110 0
-0.61175112371775 0.620391728326438 0.8976535178707001 111 143 0
-0.11175112371774998 -8.879607914045692 -2.430880608411038 0 59 195
-0.11175112371774998 -7.879607914045693 -1.128075661511624 0 164 90
-0.11175112371774998 -7.379607914045693 -0.37353760227700494 0 224 30
-0.11175112371774998 -6.879607914045693 0.4073213912532685 50 204 0
-0.11175112371774998 -6.379607914045693 0.5771402694270966 71 183 0
-0.11175112371774998 -5.879607914045693 0.9696344710872529 120 134 0
-0.11175112371774998 -5.379608390882852 0.7626742698238251 94 160 0
-0.11175112371774998 -4.879608390882852 1.2978782035396454 161 93 0
-0.11175112371774998 -4.379608390882852 1.3884543754146454 172 82 0
-0.11175112371774998 -3.8796083908828516 1.385620055346286 172 82 0
-0.11175112371774998 -3.3796083908828516 1.323206839709079 164 90 0
-0.11175112371774998 -2.8796083908828516 1.3203725196407197 164 90 0
-0.11175112371774998 -2.3796083908828516 2.048778472094333 255 0 0
-0.11175112371774998 -1.8796083908828516 1.4569625236080048 181 73 0
-0.11175112371774998 -1.3796083908828516 1.394547400622165 173 81 0
-0.11175112371774998 -0.8796083908828516 1.2290257789180634 152 102 0
-0.11175112371774998 -0.3796083908828516 1.3196019507930634 164 90 0
-0.11175112371774998 0.12039160911714841 1.346813140063083 167 87 0
-0.11175112371774998 0.620391728326438 0.9334782935665009 116 138 0
-0.11175112371774998 1.120391728326438 0.21706765666464545 27 227 0
0.3882489060845724 -8.379607914045692 -1.5069037102176788 0 133 121
0.3882489060845724 -7.879607914045693 -1.47437960133096 0 136 118
0.3882489060845724 -7.379607914045693 -0.6467786453678253 0 203 51
0.3882489060845724 -6.879607914045693 0.009577689318454041 1 253 0
0.3882489060845724 -6.379607914045693 0.4968895293758271 61 193 0
0.3882489060845724 -5.879607914045693 0.9102243758724091 113 141 0
0.3882489060845724 -5.379608390882852 1.1171845771358369 139 115 0
0.3882489060845724 -4.879608390882852 1.2102393485591767 150 104 0
0.3882489060845724 -4.379608390882852 1.3032941199825165 162 92 0
0.3882489060845724 -3.8796083908828516 1.3358191825435517 166 88 0
0.3882489060845724 -3.3796083908828516 1.3982333518550751 174 80 0
0.3882489060845724 -2.8796083908828516 1.6894425727413056 210 44 0
0.3882489060845724 -2.3796083908828516 1.3365105964229462 166 88 0
0.3882489060845724 -1.8796083908828516 0.7551583625362275 93 161 0
0.3882489060845724 -1.3796083908828516 1.5559234000728486 193 61 0
0.3882489060845724 -0.8796083908828516 1.3861045218990204 172 82 0
0.3882489060845724 -0.3796083908828516 1.59306424632529 198 56 0
0.3882489060845724 0.12039160911714841 1.1676549293086884 145 109 0
0.3882489060845724 0.620391728326438 1.170487342028415 145 109 0
0.3882489060845724 1.120391728326438 1.1123236991451142 138 116 0
0.3882489060845724 1.620391728326438 0.8505005218074677 105 149 0
0.8882488949087015 -7.879607914045693 -1.6613555572940948 0 121 133
0.8882488949087015 -7.379607914045693 -0.9329496048404815 0 180 74
0.8882488949087015 -6.879607914045693 -0.2821922920658233 0 232 22
0.8882488949087015 -6.379607914045693 0.2765545226619599 34 220 0
0.8882488949087015 -5.879607914045693 0.8353013373897431 103 151 0
0.8882488949087015 -5.379608390882852 1.0051206924007294 125 129 0
0.8882488949087015 -4.879608390882852 1.397613463549411 173 81 0
0.8882488949087015 -4.379608390882852 1.3045586921260712 162 92 0
0.8882488949087015 -3.8796083908828516 1.3951348640010712 173 81 0
0.8882488949087015 -3.3796083908828516 1.4223460532710908 177 77 0
0.8882488949087015 -2.8796083908828516 1.480510649828708 184 70 0
0.8882488949087015 -2.3796083908828516 1.5077227927730439 187 67 0
0.8882488949087015 -1.8796083908828516 1.5048884727046845 187 67 0
0.8882488949087015 -1.3796083908828516 1.5020541526363251 186 68 0
0.8882488949087015 -0.8796083908828516 1.439640936999118 179 75 0
0.8882488949087015 -0.3796083908828516 1.3772267676875947 171 83 0
0.8882488949087015 0.12039160911714841 1.3447017051265595 167 87 0
0.8882488949087015 0.620391728326438 1.1791791297481415 146 108 0
0.8882488949087015 1.120391728326438 1.4869727469966767 185 69 0
0.8882488949087015 1.620391728326438 0.5818604804561494 72 182 0
0.8882488949087015 2.1203917003867607 0.24852746501425482 30 224 0
1.38824887628225 -7.879607914045693 -1.175821366162503 0 160 94
1.38824887628225 -7.379607914045693 -1.1134076736881378 0 165 89
1.38824887628225 -6.879607914045693 -0.23369461521645807 0 236 18
1.38824887628225 -6.379607914045693 0.2536177016780732 31 223 0
1.38824887628225 -5.879607914045693 0.9700273849056122 120 134 0
1.38824887628225 -5.379608390882852 0.9428166724727509 117 137 0
1.38824887628225 -4.879608390882852 1.3935822822139619 173 81 0
1.38824887628225 -4.379608390882852 1.3964166022823212 173 81 0
1.38824887628225 -3.8796083908828516 1.3992490150020478 174 80 0
1.38824887628225 -3.3796083908828516 1.3720378257320283 170 84 0
1.38824887628225 -2.8796083908828516 1.4650935508296845 182 72 0
1.38824887628225 -2.3796083908828516 1.527507720141208 190 64 0
1.38824887628225 -1.8796083908828516 1.436931548266208 178 76 0
1.38824887628225 -1.3796083908828516 1.6024531699703095 199 55 0
1.38824887628225 -0.8796083908828516 1.6955088950679658 211 43 0
1.38824887628225 -0.3796083908828516 1.3425778724239228 167 87 0
1.38824887628225 0.12039160911714841 1.4356326438472626 178 76 0
1.38824887628225 0.620391728326438 1.3450564719722626 167 87 0
1.38824887628225 1.120391728326438 1.1752375937984345 146 108 0
1.38824887628225 1.620391728326438 0.49868434443930365 62 192 0
1.38824887628225 2.1203917003867607 1.0565037108943818 131 123 0
1.38824887628225 2.6203916985241156 0.6640095092342255 82 172 0
1.38824887628225 3.120391728326438 -0.012542309613430724 0 253 1
1.88824887628225 -7.379607914045693 -1.2677083633854034 0 153 101
1.88824887628225 -6.879607914045693 -0.7325044296695831 0 196 58
1.88824887628225 -6.379607914045693 -0.05595165714761041 0 250 4
1.88824887628225 -5.879607914045693 0.4792522765682099 59 195 0
1.88824887628225 -5.379608390882852 0.9896644927547333 123 131 0
1.88824887628225 -4.879608390882852 1.1594838477657197 144 110 0
1.88824887628225 -4.379608390882852 1.3293027259395478 165 89 0
1.88824887628225 -3.8796083908828516 1.3874663688228486 172 82 0
1.88824887628225 -3.3796083908828516 1.4780425406978486 183 71 0
1.88824887628225 -2.8796083908828516 1.5686187125728486 195 59 0
1.88824887628225 -2.3796083908828516 1.5062035895870087 187 67 0
1.88824887628225 -1.8796083908828516 1.859135565905368 231 23 0
1.88824887628225 -1.3796083908828516 1.5258025504634736 189 65 0
1.88824887628225 -0.8796083908828516 1.5530146934078095 193 61 0
1.88824887628225 -0.3796083908828516 1.6111783362911103 200 54 0
1.88824887628225 0.12039160911714841 1.4042186118648408 174 80 0
1.88824887628225 0.620391728326438 1.3716935493038056 170 84 0
1.88824887628225 1.120391728326438 1.1227244712398408 139 115 0
1.88824887628225 1.620391728326438 1.1198906280086396 139 115 0
1.88824887628225 2.1203917003867607 1.0268353797481415 127 127 0
1.88824887628225 2.6203916985241156 0.9644202567623017 120 134 0
1.88824887628225 3.120391728326438 0.47710841670492865 59 195 0
2.3882488762822502 -7.879607914045693 -2.589670719952786 0 46 208
2.3882488762822502 -7.379607914045693 -2.2563367508365753 0 73 181
2.3882488762822502 -6.879607914045693 -0.9127402924015167 0 181 73
2.3882488762822502 -6.379607914045693 0.04216235652426459 5 249 0
2.3882488762822502 -5.879607914045693 0.6339783050105927 78 176 0
2.3882488762822502 -5.379608390882852 1.047313628344333 130 124 0
2.3882488762822502 -4.879608390882852 0.989149508623874 123 131 0
2.3882488762822502 -4.379608390882852 1.3224820472286103 164 90 0
2.3882488762822502 -3.8796083908828516 1.6558150626705048 206 48 0
2.3882488762822502 -3.3796083908828516 1.4401864387081025 179 75 0
2.3882488762822502 -2.8796083908828516 1.5332412101314423 190 64 0
2.3882488762822502 -2.3796083908828516 1.4750775672481415 183 71 0
2.3882488762822502 -1.8796083908828516 1.7240475989864228 214 40 0
2.3882488762822502 -1.3796083908828516 1.6334714271114228 203 51 0
2.3882488762822502 -0.8796083908828516 1.6363057471797822 203 51 0
2.3882488762822502 -0.3796083908828516 1.6391381598995087 204 50 0
2.3882488762822502 0.12039160911714841 1.4693192817256806 182 72 0
2.3882488762822502 0.620391728326438 1.2995004035518525 161 93 0
2.3882488762822502 1.120391728326438 1.3320254661128876 165 89 0
2.3882488762822502 1.620391728326438 1.2414492942378876 154 100 0
2.3882488762822502 2.1203917003867607 1.0716304160640595 133 121 0
2.3882488762822502 2.6203916985241156 1.1041545249507783 137 117 0
2.3882488762822502 3.120391728326438 0.7512225486324189 93 161 0
2.3882488762822502 3.620391728326438 0.6606473304317353 82 172 0
2.3882488762822502 4.120391728326438 0.20481961741903998 25 229 0
2.88824899549154 -6.879607914045693 -1.3834777496769073 0 143 111
2.88824899549154 -6.379607914045693 -0.16426235661050104 0 241 13
2.88824899549154 -5.879607914045693 0.5902757026241181 73 181 0
2.88824899549154 -5.379608390882852 0.8059043265865204 100 154 0
2.88824899549154 -4.879608390882852 1.4566621161983369 181 73 0
2.88824899549154 -4.379608390882852 1.1233286239192841 139 115 0
2.88824899549154 -3.8796083908828516 1.4762601234004853 183 71 0
2.88824899549154 -3.3796083908828516 1.5344256736324189 190 64 0
2.88824899549154 -2.8796083908828516 1.6250008918331025 202 52 0
2.88824899549154 -2.3796083908828516 1.5924767829463837 198 56 0
2.88824899549154 -1.8796083908828516 1.6830520011470673 209 45 0
2.88824899549154 -1.3796083908828516 1.7102631904170869 212 42 0
2.88824899549154 -0.8796083908828516 1.6478490211055634 205 49 0
2.88824899549154 -0.3796083908828516 1.3988799430415986 174 80 0
2.88824899549154 0.12039160911714841 1.5686988212154267 195 59 0
2.88824899549154 0.620391728326438 1.3197297431514619 164 90 0
2.88824899549154 1.120391728326438 1.410304007677829 175 79 0
2.88824899549154 1.620391728326438 1.2447823859737275 154 100 0
2.88824899549154 2.1203917003867607 1.2719945289180634 158 96 0
2.88824899549154 2.6203916985241156 0.980785308031833 122 132 0
2.88824899549154 3.120391728326438 0.8877305366084931 110 144 0
2.88824899549154 3.620391728326438 0.8253163672969697 102 152 0
2.88824899549154 4.120391728326438 0.41198152080038764 51 203 0
2.88824899549154 4.620391609117148 -0.36134869083901666 0 225 29
3.38824899549154 -6.879607914045693 -0.566380562634671 0 209 45
3.38824899549154 -6.379607914045693 -0.5039654396488311 0 214 40
3.38824899549154 -5.879607914045693 0.45093625560263373 56 198 0
3.38824899549154 -5.379608390882852 0.7421454764888642 92 162 0
3.38824899549154 -4.879608390882852 1.2294577933833954 153 101 0
3.38824899549154 -4.379608390882852 1.3225135184810517 164 90 0
3.38824899549154 -3.8796083908828516 1.3253468848750947 164 90 0
3.38824899549154 -3.3796083908828516 1.4184016562984345 176 78 0
3.38824899549154 -2.8796083908828516 1.5114573813960908 188 66 0
3.38824899549154 -2.3796083908828516 1.8026656486080048 224 30 0
3.38824899549154 -1.8796083908828516 1.8054990150020478 224 30 0
3.38824899549154 -1.3796083908828516 1.4130067206905244 175 79 0
3.38824899549154 -0.8796083908828516 1.7463397361324189 217 37 0
3.38824899549154 -0.3796083908828516 1.6557635642574189 206 48 0
3.38824899549154 0.12039160911714841 1.7181786872432587 213 41 0
3.38824899549154 0.620391728326438 1.3256844855831025 165 89 0
3.38824899549154 1.120391728326438 1.491206107287204 185 69 0
3.38824899549154 1.620391728326438 1.2755774833248017 158 96 0
3.38824899549154 2.1203917003867607 1.9319333411739228 240 14 0
3.38824899549154 2.6203916985241156 1.1773957587764619 146 108 0
3.38824899549154 3.120391728326438 0.6669835425899384 83 171 0
3.38824899549154 3.620391728326438 1.000316558031833 124 130 0
3.38824899549154 4.120391728326438 0.7384933806941865 91 163 0
3.38824899549154 4.620391609117148 0.5686745025203583 70 184 0
3.38824899549154 5.120391609117148 0.1761812545345185 21 233 0
3.88824899549154 -6.379607914045693 -0.705402436108792 0 198 56
3.88824899549154 -5.879607914045693 -0.0029793404056670525 0 254 0
3.88824899549154 -5.379608390882852 0.48107760920981146 59 195 0
3.88824899549154 -4.879608390882852 1.157629904894626 144 110 0
3.88824899549154 -4.379608390882852 1.1848410941646454 147 107 0
3.88824899549154 -3.8796083908828516 1.4004706718013642 174 80 0
3.88824899549154 -3.3796083908828516 1.2349480964229462 153 101 0
3.88824899549154 -2.8796083908828516 1.5427417136714814 192 62 0
3.88824899549154 -2.3796083908828516 1.8045644141719697 224 30 0
3.88824899549154 -1.8796083908828516 1.7421502448604462 216 38 0
3.88824899549154 -1.3796083908828516 1.6490954734371064 205 49 0
3.88824899549154 -0.8796083908828516 1.7072591163204072 212 42 0
3.88824899549154 -0.3796083908828516 1.5002993918941376 186 68 0
3.88824899549154 0.12039160911714841 1.5908755637691376 198 56 0
3.88824899549154 0.620391728326438 1.425353942065036 177 77 0
3.88824899549154 1.120391728326438 1.4525651313350556 180 74 0
3.88824899549154 1.620391728326438 1.1613568641231415 144 110 0
3.88824899549154 2.1203917003867607 1.188568053393161 147 107 0
3.88824899549154 2.6203916985241156 1.1560439445064423 143 111 0
3.88824899549154 3.120391728326438 1.0936292983577607 136 118 0
3.88824899549154 3.620391728326438 1.0005735732601044 124 130 0
3.88824899549154 4.120391728326438 0.8350514747188447 103 151 0
3.88824899549154 4.620391609117148 0.7419967032955048 92 162 0
3.88824899549154 5.120391609117148 0.4930266715572236 61 193 0
3.88824899549154 5.620391609117148 0.3999714232967255 49 205 0
3.88824899549154 6.120391609117148 -0.37335735783120416 0 224 30
4.38824899549154 -6.379607914045693 -0.8040166519596221 0 190 64
4.38824899549154 -5.879607914045693 -0.11720949635049127 0 245 9
4.38824899549154 -5.379608390882852 0.29612535014609076 36 218 0
4.38824899549154 -4.879608390882852 0.9524816848323701 118 136 0
4.38824899549154 -4.379608390882852 1.2436904288814423 154 100 0
4.38824899549154 -3.8796083908828516 1.4092110969112275 175 79 0
4.38824899549154 -3.3796083908828516 1.4417361594722626 179 75 0
4.38824899549154 -2.8796083908828516 1.5347928382442353 191 63 0
4.38824899549154 -2.3796083908828516 1.5972060538814423 198 56 0
4.38824899549154 -1.8796083908828516 1.6297311164424775 202 52 0
4.38824899549154 -1.3796083908828516 1.692145285754001 210 44 0
4.38824899549154 -0.8796083908828516 1.7852000571773408 222 32 0
4.38824899549154 -0.3796083908828516 1.72703641429404 214 40 0
4.38824899549154 0.12039160911714841 1.7298707343623994 215 39 0
4.38824899549154 0.620391728326438 1.5142411567256806 188 66 0
4.38824899549154 1.120391728326438 1.4870290137813447 185 69 0
4.38824899549154 1.620391728326438 1.396453795580661 173 81 0
4.38824899549154 2.1203917003867607 1.489508567004001 185 69 0
4.38824899549154 2.6203916985241156 1.1817159034297822 147 107 0
4.38824899549154 3.120391728326438 1.0118965484187958 125 129 0
4.38824899549154 3.620391728326438 1.1049513198421357 137 117 0
4.38824899549154 4.120391728326438 1.0143756248042939 126 128 0
4.38824899549154 4.620391609117148 0.9238004066036103 114 140 0
4.38824899549154 5.120391609117148 0.661977706103122 82 172 0
4.38824899549154 5.620391609117148 0.6347655631587861 79 175 0
4.38824899549154 6.120391609117148 0.05341332927206732 6 248 0
4.38824899549154 6.620391609117148 0.08593839183310248 10 244 0
4.888248757072961 -5.879607914045693 -0.5447145126773956 0 211 43
4.888248757072961 -5.379608390882852 0.03663724437216498 4 250 0
4.888248757072961 -4.879608390882852 0.5206932403133271 64 190 0
4.888248757072961 -4.379608390882852 0.9765204764888642 121 133 0
4.888248757072961 -3.8796083908828516 1.3294524528072236 165 89 0
4.888248757072961 -3.3796083908828516 1.3876160956905244 172 82 0
4.888248757072961 -2.8796083908828516 1.4781922675655244 183 71 0
4.888248757072961 -2.3796083908828516 1.4456681586788056 179 75 0
4.888248757072961 -1.8796083908828516 1.5038327552364228 187 67 0
4.888248757072961 -1.3796083908828516 1.673651633410251 208 46 0
4.888248757072961 -0.8796083908828516 1.508129058031833 187 67 0
4.888248757072961 -0.3796083908828516 1.598705229906833 198 56 0
4.888248757072961 0.12039160911714841 1.4331836082027314 178 76 0
4.888248757072961 0.620391728326438 1.4006585456416962 174 80 0
4.888248757072961 1.120391728326438 1.1936988212154267 148 106 0
4.888248757072961 1.620391728326438 0.9867395736263154 122 132 0
4.888248757072961 2.1203917003867607 1.2485627509639619 155 99 0
4.888248757072961 2.6203916985241156 1.2457284308956025 155 99 0
4.888248757072961 3.120391728326438 1.183314261584079 147 107 0
4.888248757072961 3.620391728326438 1.0902585364864228 135 119 0
4.888248757072961 4.120391728326438 0.9972032882259247 124 130 0
4.888248757072961 4.620391609117148 0.9347895957515595 116 138 0
4.888248757072961 5.120391609117148 0.7692674972102997 95 159 0
4.888248757072961 5.620391609117148 0.7068523742244599 87 167 0
4.888248757072961 6.120391609117148 0.6137976028011201 76 178 0
4.888248757072961 6.620391609117148 0.4482755042598603 55 199 0
4.888248757072961 7.120391609117148 0.03494065776327826 4 250 0
5.388248757072961 -5.879607914045693 -0.1916604660465362 0 239 15
5.388248757072961 -5.379608390882852 -0.15913540348550104 0 242 12
5.388248757072961 -4.879608390882852 0.6416296340511201 79 175 0
5.388248757072961 -4.379608390882852 0.9328383781001923 116 138 0
5.388248757072961 -3.8796083908828516 1.3461732245967744 167 87 0
5.388248757072961 -3.3796083908828516 1.4085883475826142 175 79 0
5.388248757072961 -2.8796083908828516 1.4710025168941376 183 71 0
5.388248757072961 -2.3796083908828516 1.5640572883174775 194 60 0
5.388248757072961 -1.8796083908828516 1.5965823508785126 198 56 0
5.388248757072961 -1.3796083908828516 1.658996520190036 206 48 0
5.388248757072961 -0.8796083908828516 1.6317853309200165 203 51 0
5.388248757072961 -0.3796083908828516 1.6045731879756806 199 55 0
5.388248757072961 0.12039160911714841 1.7700957633540986 220 34 0
5.388248757072961 0.620391728326438 1.5082721091792939 187 67 0
5.388248757072961 1.120391728326438 1.4176968909786103 176 78 0
5.388248757072961 1.620391728326438 1.359532294420993 169 85 0
5.388248757072961 2.1203917003867607 1.4219464637325165 176 78 0
5.388248757072961 2.6203916985241156 1.3313702918575165 165 89 0
5.388248757072961 3.120391728326438 1.334204611925876 166 88 0
5.388248757072961 3.620391728326438 1.243628440050876 154 100 0
5.388248757072961 4.120391728326438 1.1854647971675751 147 107 0
5.388248757072961 4.620391609117148 0.9698356963680146 120 134 0
5.388248757072961 5.120391609117148 -0.34348160252114557 0 227 27
5.388248757072961 5.620391609117148 0.8135094024227021 101 153 0
5.388248757072961 6.120391609117148 0.7862972594783662 97 157 0
5.388248757072961 6.620391609117148 0.6957215644405244 86 168 0
5.388248757072961 7.120391609117148 0.342789588122165 42 212 0
5.388248757072961 7.620391609117148 -0.3856154106571319 0 224 30
5.888248757072961 -5.379608390882852 -0.47049242481728815 0 217 37
5.888248757072961 -4.879608390882852 0.2060603477046845 25 229 0
5.888248757072961 -4.379608390882852 0.7648076392696259 95 159 0
5.888248757072961 -3.8796083908828516 1.275218901781833 158 96 0
5.888248757072961 -3.3796083908828516 1.3657941199825165 169 85 0
5.888248757072961 -2.8796083908828516 1.2727393485591767 158 96 0
5.888248757072961 -2.3796083908828516 1.625671324877536 202 52 0
5.888248757072961 -1.8796083908828516 1.593146262316501 198 56 0
5.888248757072961 -1.3796083908828516 1.530731139330661 190 64 0
5.888248757072961 -0.8796083908828516 1.5278987266109345 190 64 0
5.888248757072961 -0.3796083908828516 1.6184748984859345 201 53 0
5.888248757072961 0.12039160911714841 1.0606555320308564 132 122 0
5.888248757072961 0.620391728326438 1.4531487800166962 180 74 0
5.888248757072961 1.120391728326438 1.4206246711299775 176 78 0
5.888248757072961 1.620391728326438 1.417790351061618 176 78 0
5.888248757072961 2.1203917003867607 1.3553761817500947 168 86 0
5.888248757072961 2.6203916985241156 1.189854560045993 148 106 0
5.888248757072961 3.120391728326438 1.2480182029292939 155 99 0
5.888248757072961 3.620391728326438 0.447253642229831 55 199 0
5.888248757072961 4.120391728326438 1.098010478167331 136 118 0
5.888248757072961 4.620391609117148 1.0049557067439912 125 129 0
5.888248757072961 5.120391609117148 1.0021213866756318 124 130 0
5.888248757072961 5.620391609117148 0.5887865401790497 73 181 0
5.888248757072961 6.120391609117148 0.850609240679538 105 149 0
5.888248757072961 6.620391609117148 0.601639685778415 74 180 0
5.888248757072961 7.120391609117148 0.07864945903280951 9 245 0
5.888248757072961 7.620391609117148 -1.0631757400943878 0 169 85
6.388248757072961 -5.379608390882852 -0.7343207024051788 0 195 59
6.388248757072961 -4.879608390882852 0.29366439357260443 36 218 0
6.388248757072961 -4.379608390882852 0.8166546203182099 101 153 0
6.388248757072961 -3.8796083908828516 1.267420706896579 157 97 0
6.388248757072961 -3.3796083908828516 1.3604754783199189 169 85 0
6.388248757072961 -2.8796083908828516 1.4535312034175751 180 74 0
6.388248757072961 -2.3796083908828516 1.5159453727290986 188 66 0
6.388248757072961 -1.8796083908828516 1.4253692008540986 177 77 0
6.388248757072961 -1.3796083908828516 1.3981570579097626 174 80 0
6.388248757072961 -0.8796083908828516 1.5636796332881806 194 60 0
6.388248757072961 -0.3796083908828516 1.536468444018161 191 63 0
6.388248757072961 0.12039160911714841 1.539301810412204 191 63 0
6.388248757072961 0.620391728326438 1.542135176806247 191 63 0
6.388248757072961 1.120391728326438 1.54496854320029 192 62 0
6.388248757072961 1.620391728326438 1.45439237132529 181 73 0
6.388248757072961 2.1203917003867607 1.4271811820552704 177 77 0
6.388248757072961 2.6203916985241156 0.1138643600032685 14 240 0
6.388248757072961 3.120391728326438 1.292247710375583 160 94 0
6.388248757072961 3.620391728326438 1.324772772936618 164 90 0
6.388248757072961 4.120391728326438 1.234196601061618 153 101 0
6.388248757072961 4.620391609117148 1.0643772460506318 132 122 0
6.388248757072961 5.120391609117148 0.97380155101279 121 133 0
6.388248757072961 5.620391609117148 0.946589408068454 117 137 0
6.388248757072961 6.120391609117148 0.9193772651241181 114 140 0
6.388248757072961 6.620391609117148 0.4089664794490693 50 204 0
6.388248757072961 7.120391609117148 0.10117333903769232 12 242 0
6.388248757072961 7.620391609117148 -0.5495844505741241 0 210 44
6.388248757072961 8.12039160911715 -0.5170593880130889 0 213 41
6.388248757072961 8.62039160911715 -2.2847114227726104 0 71 183
6.888248757072961 -4.879608390882852 -0.8301516197635772 0 188 66
6.888248757072961 -4.379608390882852 0.3261412955806611 40 214 0
6.888248757072961 -3.8796083908828516 0.8613457061336396 107 147 0
6.888248757072961 -3.3796083908828516 1.2867564536617158 160 94 0
6.888248757072961 -2.8796083908828516 1.3139676429317353 163 91 0
6.888248757072961 -2.3796083908828516 1.2814435340450165 159 95 0
6.888248757072961 -1.8796083908828516 1.634375510363376 203 51 0
6.888248757072961 -1.3796083908828516 0.8336095191524384 103 151 0
6.888248757072961 -0.8796083908828516 1.003429351000583 124 130 0
6.888248757072961 -0.3796083908828516 1.3959225989864228 173 81 0
6.888248757072961 0.12039160911714841 1.4864987708614228 185 69 0
6.888248757072961 0.620391728326438 1.4836644507930634 184 70 0
6.888248757072961 1.120391728326438 1.5108765937373994 188 66 0
6.888248757072961 1.620391728326438 1.3453540183589814 167 87 0
6.888248757072961 2.1203917003867607 1.2829408027217744 159 95 0
6.888248757072961 2.6203916985241156 1.4985694266841767 186 68 0
6.888248757072961 3.120391728326438 1.4361552573726533 178 76 0
6.888248757072961 3.620391728326438 1.2706336356685517 158 96 0
6.888248757072961 4.120391728326438 0.8198665954158662 102 152 0
6.888248757072961 4.620391609117148 0.5286573745296357 65 189 0
6.888248757072961 5.120391609117148 0.7904815055415986 98 156 0
6.888248757072961 5.620391609117148 0.6249594070003388 77 177 0
6.888248757072961 6.120391609117148 0.45943730845907904 57 197 0
6.888248757072961 6.620391609117148 0.04610246196249701 5 249 0
6.888248757072961 7.120391609117148 -0.6703086517765167 0 201 53
6.888248757072961 7.620391609117148 -1.9589176796390655 0 97 157
6.888248757072961 8.12039160911715 -3.0251794330789687 0 11 243
7.388248757072961 -4.379608390882852 0.06762927546957709 8 246 0
7.388248757072961 -3.8796083908828516 0.4809645988033173 59 195 0
7.388248757072961 -3.3796083908828516 1.2261952735469697 152 102 0
7.388248757072961 -2.8796083908828516 1.3917178489253876 173 81 0
7.388248757072961 -2.3796083908828516 1.301142630724704 161 93 0
7.388248757072961 -1.8796083908828516 1.210566458849704 150 104 0
7.388248757072961 -1.3796083908828516 1.119990286974704 139 115 0
7.388248757072961 -0.8796083908828516 1.1824044562862275 147 107 0
7.388248757072961 -0.3796083908828516 1.2149295188472626 151 103 0
7.388248757072961 0.12039160911714841 1.1877173759029267 147 107 0
7.388248757072961 0.620391728326438 1.190551695971286 148 106 0
7.388248757072961 1.120391728326438 1.2529658652828095 155 99 0
7.388248757072961 1.620391728326438 1.2557992316768525 156 98 0
7.388248757072961 2.1203917003867607 1.3488540031001923 167 87 0
7.388248757072961 2.6203916985241156 1.13322537913779 141 113 0
7.388248757072961 3.120391728326438 0.9634065009639619 119 135 0
7.388248757072961 3.620391728326438 0.6556133605525849 81 173 0
7.388248757072961 4.120391728326438 0.43998330607870795 54 200 0
7.388248757072961 4.620391609117148 0.4428176261470673 55 199 0
7.388248757072961 5.120391609117148 0.5358723975704072 66 188 0
7.388248757072961 5.620391609117148 -0.11488539204140924 0 245 9
7.388248757072961 6.120391609117148 -0.3767085693790557 0 224 30
7.388248757072961 6.620391609117148 -0.7692013405277374 0 193 61
7.388248757072961 7.120391609117148 0.3071483947322724 38 216 0
7.388248757072961 7.620391609117148 -2.343609394879544 0 66 188
7.888248757072961 -3.8796083908828516 0.1081275321529267 13 241 0
7.888248757072961 -3.3796083908828516 0.2779464103267548 34 220 0
7.888248757072961 -2.8796083908828516 0.7337736465022919 91 163 0
7.888248757072961 -2.3796083908828516 1.159184394030368 144 110 0
7.888248757072961 -1.8796083908828516 0.7084173537776826 88 166 0
7.888248757072961 -1.3796083908828516 0.6758922912166474 84 170 0
7.888248757072961 -0.8796083908828516 1.159949240832126 144 110 0
7.888248757072961 -0.3796083908828516 0.6369594909236787 79 175 0
7.888248757072961 0.12039160911714841 0.4714373923824189 58 196 0
7.888248757072961 0.620391728326438 0.5296015121028779 65 189 0
7.888248757072961 1.120391728326438 0.2806314803645966 34 220 0
