ply
format ascii 1.0
element vertex 722
property float x
property float y
property float z
end_header
0.006495047826319934 -0.012680807150900364 -0.004313955083489417
0.006495047826319934 -0.012062231078743935 -0.004507259931415319
0.006495047826319934 -0.011443655006587505 -0.00470056477934122
0.006495047826319934 -0.01082507986575365 -0.004583519883453845
0.006495047826319934 -0.010206503793597221 -0.004542888607829808
0.006495047826319934 -0.009587927721440792 -0.004852176643908023
0.006495047826319934 -0.008969351649284363 -0.005084142554551362
0.006495047826319934 -0.008350775577127934 -0.005121135152876376
0.006495047826319934 -0.007732199504971504 -0.0050805038772523394
0.006495047826319934 -0.007113623432815075 -0.005195849575102328
0.006495047826319934 -0.006495047826319933 -0.005232843570411204
0.006495047826319934 -0.005876471754163504 -0.0052698361687362185
0.006495047826319933 -0.004639319609850645 -0.0010069942800328127
0.006495047826319933 -0.004020744003355503 -0.002110006054863333
0.006495047826319933 -0.003402167931199074 -0.00292421132326126
0.006495047826319933 -0.0027835918590426445 -0.0034646152053028336
0.006495047826319933 -0.002165015786886215 -0.0022528734989464274
0.006495047826319933 -0.0015464399475604296 -0.002908730646595358
0.006495047826319933 -0.0009278639336116612 -0.002405394334346055
0.006495047826319933 -0.00030928797787055373 -0.0011547032045200458
0.006495047826319933 0.00030928797787055373 -0.0020101279951632014
0.006495047826319933 0.0009278639336116612 -0.002550531877204775
0.006495047826319933 0.0015464399475604296 -0.0010971652809530488
0.006495047826319933 0.002165015786886215 -0.0017143833683803669
0.006495047826319933 0.0027835918590426445 -0.0020236712880432597
0.006495047826319933 0.003402167931199074 -0.0021390172187238923
0.006495047826319933 0.004639319609850645 -0.0013849419774487606
0.006495047826319933 0.005257895682007074 -0.0018102129688486448
0.006495047826319933 0.006495047826319933 -0.0008662464097142212
0.005876471754163504 -0.01701083965599537 -0.0029682477470487348
0.005876471754163504 -0.016392262652516365 -0.0030852919444441787
0.005876471754163504 -0.01577368751168251 -0.0028146656695753327
0.005876471754163504 -0.015155111439526081 -0.0021588089875876895
0.005876471754163504 -0.014536535367369652 -0.0032951878383755675
0.0058764717541635045 -0.013917959295213223 -0.0051522734574973575
0.0058764717541635045 -0.013299383223056793 -0.005231294315308332
0.0058764717541635045 -0.012680807150900364 -0.005348338279873132
0.0058764717541635045 -0.012062231078743935 -0.005465381778776645
0.0058764717541635045 -0.011443655006587505 -0.005389273632317781
0.0058764717541635045 -0.01082507986575365 -0.004733416251838206
0.0058764717541635045 -0.010206503793597221 -0.004921847488731145
0.0058764717541635045 -0.009587927721440792 -0.005110279656946658
0.0058764717541635045 -0.008969351649284363 -0.00515091186389327
0.0058764717541635045 -0.008350775577127934 -0.005035566166043281
0.0058764717541635045 -0.007732199504971504 -0.00495945569127798
0.0058764717541635045 -0.007113623432815075 -0.004844109993427991
0.0058764717541635045 -0.006495047826319933 -0.00441883923485875
0.0058764717541635045 -0.005876471754163504 -0.003916691988706588
0.005876471754163504 -0.005257895682007074 -0.0025151148438453666
0.005876471754163504 -0.004639319609850645 -0.00121441192459315
0.005876471754163504 -0.004020744003355503 -0.0024605926591902963
0.005876471754163504 -0.003402167931199074 -0.0030673996079713097
0.005876471754163504 -0.0027835918590426445 -0.0024501816369593135
0.005876471754163504 -0.002165015786886215 -0.0012662175577133887
0.005876471754163504 -0.0015464399475604296 -0.0022353045642375937
0.005876471754163504 -0.0009278639336116612 -0.0009346010629087679
0.005876471754163504 -0.00030928797787055373 -0.0019227938028052443
0.005876471754163504 0.0009278639336116612 -0.002151082968339323
0.005876471754163504 0.0015464399475604296 -0.0016489364206790918
0.005876471754163504 0.002165015786886215 -0.0009151201229542486
0.005876471754163504 0.0027835918590426445 -0.0020887218415737143
0.005876471754163504 0.003402167931199074 -0.0017794338054955
0.005876471754163504 0.004020744003355503 -0.0013541628140956157
0.005876471754163504 0.005876471754163504 -0.001494478317908942
0.005876471754163504 0.006495047826319933 -0.001069207210093736
0.005257895682007074 -0.01577368751168251 -0.0017600390128791326
0.005257895682007074 -0.015155111439526081 -0.002454748377203941
0.005257895682007074 -0.014536535367369652 -0.0031106055248528715
0.005257895682007074 -0.013917959295213223 -0.0035358765162527557
0.005257895682007075 -0.013299383223056793 -0.0038451643195003267
0.005257895682007075 -0.012680807150900364 -0.004115791525691747
0.005257895682007075 -0.012062231078743935 -0.00419190153479576
0.005257895682007075 -0.011443655006587505 -0.004423867911100387
0.005257895682007075 -0.01082507986575365 -0.004655833821743726
0.005257895682007075 -0.010206503793597221 -0.004771179519593715
0.005257895682007075 -0.009587927721440792 -0.004886525217443704
0.005257895682007075 -0.008969351649284363 -0.005001870915293693
0.005257895682007075 -0.008350775577127934 -0.005195176228880881
0.005257895682007075 -0.007732199504971504 -0.0036261023487895723
0.005257895682007075 -0.007113623432815075 -0.004204850643873214
0.005257895682007075 -0.006495047826319933 -0.004591460339725017
0.005257895682007075 -0.005876471754163504 -0.004784765187650918
0.005257895682007075 -0.005257895682007074 -0.004821759182959794
0.005257895682007075 -0.004639319609850645 -0.004781125579029321
0.005257895682007074 -0.004020744003355503 -0.003450550371780991
0.005257895682007074 -0.003402167931199074 -0.0019971828442066904
0.005257895682007074 -0.0027835918590426445 -0.0013629662571474903
0.005257895682007074 -0.002165015786886215 -0.002425015671178698
0.005257895682007074 -0.0015464399475604296 -0.001134675927460193
0.005257895682007074 -0.0009278639336116612 -0.0020729000680148597
0.005257895682007074 0.00030928797787055373 -0.0021786515135318037
0.005257895682007074 0.0015464399475604296 -0.0013739783316850656
0.005257895682007074 0.002165015786886215 -0.001799249206669628
0.005257895682007074 0.003402167931199074 -0.0012669278075918549
0.005257895682007074 0.004020744003355503 -0.0015375547809526318
0.005257895682007074 0.005257895682007074 -0.0016999308718368405
0.004639319609850645 -0.016392262652516365 -0.0013449648395180696
0.004639319609850645 -0.01577368751168251 -0.0033847377635538574
0.004639319609850645 -0.015155111439526081 -0.0031914326827973123
0.004639319609850645 -0.014536535367369652 -0.0034132909495383497
0.004639319609850645 -0.013917959295213223 -0.0031426639761775728
0.004639319609850645 -0.013299383223056793 -0.0026405164971947666
0.004639319609850645 -0.012680807150900364 -0.0017850924050435417
0.004639319609850645 -0.012062231078743935 -0.0027293832972645755
0.004639319609850645 -0.011443655006587505 -0.002211157931014895
0.004639319609850646 -0.01082507986575365 -0.004074697382748126
0.004639319609850646 -0.010206503793597221 -0.005357098300009965
0.004639319609850646 -0.009587927721440792 -0.0054361182264983645
0.004639319609850646 -0.008969351649284363 -0.005242813378572463
0.004639319609850646 -0.008350775577127934 -0.005205819383263587
0.004639319609850646 -0.007732199504971504 -0.005012514535337686
0.004639319609850646 -0.007113623432815075 -0.004664565902203321
0.004639319609850646 -0.006495047826319933 -0.004355277866125106
0.004639319609850646 -0.005876471754163504 -0.00423993170261383
0.004639319609850646 -0.005257895682007074 -0.0038146609440445896
0.004639319609850645 -0.004639319609850645 -0.0029592378996312614
0.004639319609850645 -0.004020744003355503 -0.0017356252064928406
0.004639319609850645 -0.003402167931199074 -0.002741143805906176
0.004639319609850645 -0.0027835918590426445 -0.0017202064627781504
0.004639319609850645 -0.0015464399475604296 -0.0014894020278006786
0.004639319609850645 -0.0009278639336116612 -0.0018426561728119844
0.004639319609850645 0.00030928797787055373 -0.0018352774204686278
0.004639319609850645 0.0015464399475604296 -0.0020334334112703796
0.004639319609850645 0.002165015786886215 -0.0015312856994569295
0.004639319609850645 0.003402167931199074 -0.0017294416902586811
0.004639319609850645 0.004020744003355503 -0.0012272951425984495
0.004639319609850645 0.005876471754163504 -0.001396667794324457
0.004020744003355503 -0.016392262652516365 -0.001490645576268434
0.004020744003355503 -0.01577368751168251 -0.0021078628487884994
0.004020744003355503 -0.015155111439526081 -0.002610009396448731
0.004020744003355504 -0.014536535367369652 -0.003984129521995782
0.004020744003355503 -0.013917959295213223 -0.002489457372575998
0.004020744003355503 -0.013299383223056793 -0.003223274368792772
0.004020744003355504 -0.012680807150900364 -0.0036098842974752183
0.004020744003355503 -0.012062231078743935 -0.0029083278495818372
0.004020744003355503 -0.011443655006587505 -0.002211157931014895
0.004020744003355503 -0.01082507986575365 -0.0031170733273029323
0.004020744003355503 -0.010206503793597221 -0.002424837555736303
0.004020744003355504 -0.009587927721440792 -0.0037627632264047857
0.004020744003355504 -0.008969351649284363 -0.004341510124504565
0.004020744003355504 -0.008350775577127934 -0.004534814972430467
0.004020744003355504 -0.007732199504971504 -0.004844103008508681
0.004020744003355504 -0.007113623432815075 -0.0048810956068336955
0.004020744003355503 -0.005876471754163504 -0.0020983694121241565
0.004020744003355503 -0.005257895682007074 -0.0032013799063861366
0.004020744003355504 -0.004639319609850645 -0.003935195505619048
0.004020744003355503 -0.004020744003355503 -0.002835011342540383
0.004020744003355503 -0.003402167931199074 -0.003260282333940267
0.004020744003355503 -0.0027835918590426445 -0.0017656114650890227
0.004020744003355503 -0.002165015786886215 -0.0013768075732514258
0.004020744003355503 -0.0015464399475604296 -0.00256077223457396
0.004020744003355503 -0.0009278639336116612 -0.0011894794879481192
0.004020744003355503 0.00030928797787055373 -0.002063237829133868
0.004020744003355503 0.0015464399475604296 -0.0016719202976673837
0.004020744003355503 0.003402167931199074 -0.0009752294281497592
0.004020744003355503 0.004020744003355503 -0.0013231785269454117
0.004020744003355503 0.007113623432815075 -0.0009931706590577956
0.003402167931199074 -0.01701083965599537 -0.0010260345879942174
0.0034021679311990742 -0.016392262652516365 -0.0019430930260568853
0.0034021679311990742 -0.01577368751168251 -0.0037179717328399415
0.0034021679311990742 -0.015155111439526081 -0.0034473447594791646
0.0034021679311990742 -0.014536535367369652 -0.003371235681697726
0.0034021679311990742 -0.013917959295213223 -0.0031779306009411807
0.0034021679311990742 -0.013299383223056793 -0.002791320206597447
0.0034021679311990742 -0.012680807150900364 -0.003738739294931292
0.0034021679311990742 -0.012062231078743935 -0.0030828840099275108
0.0034021679311990742 -0.011443655006587505 -0.004413458984345198
0.0034021679311990742 -0.01082507986575365 -0.0037576025351881977
0.0034021679311990747 -0.010206503793597221 -0.0053351144306361675
0.0034021679311990747 -0.009587927721440792 -0.005414134357124567
0.0034021679311990742 -0.008969351649284363 -0.005220829509198666
0.0034021679311990742 -0.008350775577127934 -0.0051447199657559395
0.0034021679311990742 -0.007732199504971504 -0.00526176393032074
0.0034021679311990742 -0.007113623432815075 -0.005029798019677401
0.0034021679311990742 -0.006495047826319933 -0.004836493171751499
0.0034021679311990742 -0.005876471754163504 -0.00460452726110816
0.0034021679311990742 -0.005257895682007074 -0.004372561350464821
0.0034021679311990742 -0.004639319609850645 -0.003947290126234293
0.0034021679311990742 -0.004020744003355503 -0.0035220191348344083
0.0034021679311990742 -0.003402167931199074 -0.002981615252792835
0.0034021679311990742 -0.0027835918590426445 -0.0018378878012299533
0.0034021679311990742 -0.002165015786886215 -0.0032501416280865665
0.0034021679311990742 -0.0015464399475604296 -0.002594283781945705
0.003402167931199074 -0.0009278639336116612 -0.0011418329086154695
0.0034021679311990742 -0.00030928797787055373 -0.0023925241548568006
0.0034021679311990742 0.0009278639336116612 -0.00210182461887598
0.0034021679311990742 0.002165015786886215 -0.0020899542141705747
0.003402167931199074 0.0027835918590426445 -0.0014727379893884058
0.003402167931199074 0.004020744003355503 -0.0017462561372667547
0.003402167931199074 0.004639319609850645 -0.0014756291639059778
0.003402167931199074 0.005257895682007074 -0.0009734826744534071
0.0027835918590426445 -0.016392262652516365 -0.001537723001092672
0.002783591859042645 -0.01577368751168251 -0.002434515859931707
0.002783591859042645 -0.015155111439526081 -0.002859786851331591
0.002783591859042645 -0.014536535367369652 -0.0030917527619749303
0.002783591859042645 -0.013917959295213223 -0.0033623797353357072
0.002783591859042645 -0.013299383223056793 -0.003399372566491365
0.002783591859042645 -0.012680807150900364 -0.0038246435578912492
0.002783591859042645 -0.012062231078743935 -0.004249914549291134
0.002783591859042645 -0.011443655006587505 -0.004520541522651911
0.002783591859042645 -0.01082507986575365 -0.004791168496012688
0.002783591859042645 -0.010206503793597221 -0.004984472878277302
0.002783591859042645 -0.009587927721440792 -0.005021465942263603
0.002783591859042645 -0.008969351649284363 -0.004331274889409542
0.002783591859042645 -0.008350775577127934 -0.0022823347244411703
0.002783591859042645 -0.007732199504971504 -0.0035059475339949127
0.002783591859042645 -0.007113623432815075 -0.004123165272176266
0.002783591859042645 -0.006495047826319933 -0.004509775433689356
0.002783591859042645 -0.005876471754163504 -0.004741741344332695
0.002783591859042645 -0.005257895682007074 -0.004817850422114134
0.002783591859042645 -0.004639319609850645 -0.002999403281137347
0.002783591859042645 -0.004020744003355503 -0.003578151343390345
0.002783591859042645 -0.003402167931199074 -0.002441771794110536
0.002783591859042645 -0.0027835918590426445 -0.00317558879032731
0.002783591859042645 -0.002165015786886215 -0.0036008595488965507
0.0027835918590426445 -0.0015464399475604296 -0.0010385060450062151
0.002783591859042645 -0.0009278639336116612 -0.0020181385334581132
0.002783591859042645 -0.00030928797787055373 -0.0019522344227880235
0.002783591859042645 0.00030928797787055373 -0.0024543807376176115
0.0027835918590426445 0.0009278639336116612 -0.0011640409938991065
0.0027835918590426445 0.002165015786886215 -0.0012844655429944392
0.0027835918590426445 0.004639319609850645 -0.0012836043024435635
0.0027835918590426445 0.005876471754163504 -0.0011625650804489847
0.002165015786886215 -0.016392262652516365 -0.0016991144511848686
0.0021650157868862156 -0.01577368751168251 -0.003195542143657803
0.0021650157868862156 -0.015155111439526081 -0.0034840377047657962
0.0021650157868862156 -0.014536535367369652 -0.003290732856839895
0.0021650157868862156 -0.013917959295213223 -0.0030974277760833497
0.0021650157868862156 -0.013299383223056793 -0.002826800802722573
0.0021650157868862156 -0.012680807150900364 -0.004606395028531551
0.0021650157868862156 -0.012062231078743935 -0.004794827196747065
0.0021650157868862156 -0.011443655006587505 -0.0049118720926344395
0.0021650157868862156 -0.01082507986575365 -0.004874878097325563
0.0021650157868862156 -0.010206503793597221 -0.004759531002491713
0.0021650157868862156 -0.009587927721440792 -0.0048765758983790874
0.0021650157868862156 -0.008969351649284363 -0.004800467751920223
0.0021650157868862156 -0.008350775577127934 -0.004568501841276884
0.0021650157868862156 -0.007732199504971504 -0.004375196993350983
0.0021650157868862156 -0.007113623432815075 -0.003949925769120455
0.0021650157868862156 -0.006495047826319933 -0.0032552161719650026
0.0021650157868862156 -0.005876471754163504 -0.002275582635775208
0.002165015786886215 -0.005257895682007074 -0.0010519698262214658
0.0021650157868862156 -0.004639319609850645 -0.0025460980832576747
0.0021650157868862156 -0.004020744003355503 -0.002389605855569243
0.0021650157868862156 -0.003402167931199074 -0.002578037558123469
0.0021650157868862156 -0.0027835918590426445 -0.003678222885355353
0.0021650157868862156 -0.002165015786886215 -0.003061006078496575
0.0021650157868862156 -0.0015464399475604296 -0.0024822587147355075
0.0021650157868862156 -0.0009278639336116612 -0.0019035105360671876
0.002165015786886215 0.00030928797787055373 -0.0016628013690933583
0.002165015786886215 0.0015464399475604296 -0.0014549106126651166
0.002165015786886215 0.003402167931199074 -0.0016464858781546352
0.002165015786886215 0.004020744003355503 -0.0011060808319598434
0.002165015786886215 0.005876471754163504 -0.0009298964287154374
0.002165015786886215 0.007732199504971504 -0.001022602431476116
0.0015464399475604298 -0.016392262652516365 -0.0015078812139108775
0.0015464399475604298 -0.01577368751168251 -0.0021637389436364174
0.00154643994756043 -0.015155111439526081 -0.0027424858417361975
0.00154643994756043 -0.014536535367369652 -0.0031290960032492876
0.00154643994756043 -0.013917959295213223 -0.0029072375036776066
0.00154643994756043 -0.013299383223056793 -0.003255186602473259
0.00154643994756043 -0.012680807150900364 -0.0036031354684382677
0.00154643994756043 -0.012062231078743935 -0.0039510843344032764
0.0015464399475604302 -0.011443655006587505 -0.004606942180544138
0.0015464399475604302 -0.01082507986575365 -0.004643934778869152
0.0015464399475604298 -0.009587927721440792 -0.002303058747202158
0.00154643994756043 -0.008969351649284363 -0.0029202760197222233
0.00154643994756043 -0.008350775577127934 -0.0037344812881201506
0.00154643994756043 -0.007732199504971504 -0.004274887032806873
0.0015464399475604302 -0.007113623432815075 -0.004622836131602526
0.0015464399475604302 -0.006495047826319933 -0.00465982872992754
0.0015464399475604302 -0.005876471754163504 -0.004735937807708979
0.00154643994756043 -0.005257895682007074 -0.0032412679865956306
0.00154643994756043 -0.004639319609850645 -0.0037434149999171495
0.00154643994756043 -0.004020744003355503 -0.002721562050282955
0.00154643994756043 -0.003402167931199074 -0.0033774191979318857
0.00154643994756043 -0.0027835918590426445 -0.003725368296727538
0.0015464399475604298 -0.002165015786886215 -0.002230697311460972
0.0015464399475604298 -0.0015464399475604296 -0.0009001219877973197
0.0009278639336116613 -0.01701083965599537 -0.001155380974523723
0.0009278639336116614 -0.016392262652516365 -0.0020392530132085085
0.0009278639336116616 -0.01577368751168251 -0.0031594412866979837
0.0009278639336116616 -0.015155111439526081 -0.0031613821629434824
0.0009278639336116615 -0.014536535367369652 -0.002774772234261036
0.0009278639336116614 -0.013917959295213223 -0.0021960234735161066
0.0009278639336116613 -0.013299383223056793 -0.0010930122807621954
0.0009278639336116618 -0.012062231078743935 -0.0049508558586239815
0.0009278639336116618 -0.011443655006587505 -0.00499148853123188
0.0009278639336116618 -0.01082507986575365 -0.005179920699447393
0.0009278639336116618 -0.010206503793597221 -0.005368351936340332
0.0009278639336116618 -0.009587927721440792 -0.005485396832227707
0.0009278639336116618 -0.008969351649284363 -0.005176108796149492
0.0009278639336116618 -0.008350775577127934 -0.004905481822788715
0.0009278639336116617 -0.007732199504971504 -0.0046348548494279385
0.0009278639336116617 -0.007113623432815075 -0.004441550001502037
0.0009278639336116617 -0.006495047826319933 -0.00417092302814126
0.0009278639336116616 -0.005876471754163504 -0.003977618180215359
0.0009278639336116616 -0.005257895682007074 -0.0036296690814197063
0.0009278639336116616 -0.004639319609850645 -0.003127520903944969
0.0009278639336116614 -0.004020744003355503 -0.0021892983932048082
0.0009278639336116616 -0.003402167931199074 -0.003479638136923313
0.0009278639336116616 -0.0027835918590426445 -0.0031316892709583044
0.0009278639336116615 -0.002165015786886215 -0.00270641827955842
0.0009278639336116614 -0.0015464399475604296 -0.0018922124290838835
0.0009278639336116616 -0.0009278639336116612 -0.003142903558909893
0.0009278639336116615 -0.00030928797787055373 -0.0028336162213236094
0.0009278639336116615 0.00030928797787055373 -0.002485667122527957
0.0009278639336116615 0.0009278639336116612 -0.0024876079987734556
0.0009278639336116614 0.0015464399475604296 -0.002100998070091009
0.0009278639336116614 0.002165015786886215 -0.0015605930238962171
0.0009278639336116613 0.0027835918590426445 -0.0009818460093811152
0.0003092879778705539 -0.01701083965599537 -0.0013960885116830468
0.000309287977870554 -0.016392262652516365 -0.0023343113716691732
0.00030928797787055406 -0.01577368751168251 -0.0027209213003516197
0.0003092879778705541 -0.015155111439526081 -0.0032230690121650696
0.00030928797787055417 -0.014536535367369652 -0.0034936959855258465
0.00030928797787055417 -0.013917959295213223 -0.0036870010662823915
0.0003092879778705542 -0.013299383223056793 -0.0038023467641323805
0.0003092879778705542 -0.012680807150900364 -0.003878456074744463
0.0003092879778705542 -0.012062231078743935 -0.004071760922670364
0.00030928797787055433 -0.011443655006587505 -0.00476647075265646
0.0003092879778705541 -0.01082507986575365 -0.0033131036907434464
0.0003092879778705542 -0.010206503793597221 -0.004007812589406967
0.0003092879778705542 -0.009587927721440792 -0.0038907688576728106
0.0003092879778705543 -0.008969351649284363 -0.004238717723637819
0.0003092879778705543 -0.008350775577127934 -0.004314826801419258
0.0003092879778705543 -0.007732199504971504 -0.004351820796728134
0.0003092879778705543 -0.007113623432815075 -0.004467166494578123
0.0003092879778705543 -0.006495047826319933 -0.004388145636767149
0.0003092879778705541 -0.005876471754163504 -0.0028934753499925137
0.00030928797787055417 -0.005257895682007074 -0.0033956216648221016
0.000309287977870554 -0.004639319609850645 -0.0020243290346115828
0.00030928797787055406 -0.004020744003355503 -0.002603077795356512
0.0003092879778705541 -0.003402167931199074 -0.0030283487867563963
0.0003092879778705539 -0.0027835918590426445 -0.0015336773358285427
0.00030928797787055406 -0.002165015786886215 -0.0026366885285824537
0.0003092879778705539 -0.0015464399475604296 -0.0013463487848639488
0.0003092879778705539 -0.0009278639336116612 -0.0011648214422166348
-0.0003092879778705536 -0.017629414796829224 -0.000929960748180747
-0.00030928797787055335 -0.01701083965599537 -0.003037257120013237
-0.0003092879778705533 -0.016392262652516365 -0.003418983891606331
-0.00030928797787055335 -0.01577368751168251 -0.0030710347928106785
-0.0003092879778705534 -0.015155111439526081 -0.002568888943642378
-0.00030928797787055324 -0.014536535367369652 -0.0038195806555449963
-0.0003092879778705533 -0.013917959295213223 -0.003626275807619095
-0.00030928797787055335 -0.013299383223056793 -0.0030090578366070986
-0.0003092879778705534 -0.012680807150900364 -0.002468652790412307
-0.0003092879778705532 -0.012062231078743935 -0.004209140315651894
-0.0003092879778705532 -0.011443655006587505 -0.004211082588881254
-0.00030928797787055324 -0.01082507986575365 -0.004095735494047403
-0.00030928797787055324 -0.010206503793597221 -0.003786447225138545
-0.0003092879778705533 -0.009587927721440792 -0.0035931423772126436
-0.00030928797787055335 -0.008969351649284363 -0.003052737796679139
-0.0003092879778705532 -0.008350775577127934 -0.004424030426889658
-0.0003092879778705532 -0.007732199504971504 -0.004347921349108219
-0.00030928797787055324 -0.007113623432815075 -0.004077294375747442
-0.00030928797787055324 -0.006495047826319933 -0.004040300380438566
-0.0003092879778705533 -0.005876471754163504 -0.0036150296218693256
-0.00030928797787055335 -0.005257895682007074 -0.0031128826085478067
-0.00030928797787055346 -0.004639319609850645 -0.002379066776484251
-0.00030928797787055357 -0.004020744003355503 -0.0012760551180690527
-0.00030928797787055346 -0.003402167931199074 -0.002223474904894829
-0.00030928797787055357 -0.0027835918590426445 -0.0012025386095046997
-0.0003092879778705534 -0.002165015786886215 -0.002533114515244961
-0.00030928797787055357 -0.0015464399475604296 -0.0013893869472667575
-0.0003092879778705535 -0.00030928797787055373 -0.0016341477166861296
-0.00030928797787055335 0.003402167931199074 -0.0028776153922080994
-0.000927863933611661 -0.01701083965599537 -0.0018563936464488508
-0.0009278639336116609 -0.016392262652516365 -0.002836026018485427
-0.0009278639336116608 -0.01577368751168251 -0.0032226359471678734
-0.0009278639336116608 -0.015155111439526081 -0.003531923983246088
-0.0009278639336116609 -0.014536535367369652 -0.002281232737004757
-0.0009278639336116609 -0.013917959295213223 -0.002898450242355466
-0.0009278639336116608 -0.013299383223056793 -0.0034388545900583267
-0.0009278639336116608 -0.012680807150900364 -0.0037094815634191036
-0.0009278639336116608 -0.012062231078743935 -0.0036304618697613478
-0.0009278639336116608 -0.011443655006587505 -0.003823766950517893
-0.0009278639336116607 -0.01082507986575365 -0.004017071798443794
-0.0009278639336116607 -0.010206503793597221 -0.004132417496293783
-0.0009278639336116607 -0.009587927721440792 -0.004169411491602659
-0.0009278639336116607 -0.008969351649284363 -0.004245520569384098
-0.0009278639336116607 -0.008350775577127934 -0.004360866732895374
-0.0009278639336116607 -0.007732199504971504 -0.0045928326435387135
-0.0009278639336116607 -0.007113623432815075 -0.004708178341388702
-0.0009278639336116608 -0.006495047826319933 -0.0032548115123063326
-0.0009278639336116607 -0.005876471754163504 -0.004234444350004196
-0.0009278639336116609 -0.005257895682007074 -0.0026155652012676
-0.000927863933611661 -0.004639319609850645 -0.0014419635990634563
-0.0009278639336116611 -0.004020744003355503 -0.001241200836375356
-0.0009278639336116611 -0.003402167931199074 -0.0011398649075999858
-0.000927863933611661 -0.00030928797787055373 -0.0014245456550270321
-0.0009278639336116611 0.002165015786886215 -0.0009495030390098692
-0.0015464399475604294 -0.017629414796829224 -0.0016855204012244942
-0.0015464399475604294 -0.01701083965599537 -0.0022306712344288826
-0.0015464399475604291 -0.016392262652516365 -0.003044681390747428
-0.0015464399475604294 -0.01577368751168251 -0.002504276344552636
-0.0015464399475604291 -0.015155111439526081 -0.00379461538977921
-0.0015464399475604291 -0.014536535367369652 -0.002980410121381283
-0.0015464399475604294 -0.013917959295213223 -0.0025938001926988363
-0.0015464399475604291 -0.013299383223056793 -0.003965092822909355
-0.0015464399475604291 -0.012680807150900364 -0.003733126912266016
-0.0015464399475604291 -0.012062231078743935 -0.003462499938905239
-0.0015464399475604291 -0.011443655006587505 -0.003269194858148694
-0.0015464399475604291 -0.01082507986575365 -0.0029212457593530416
-0.001546439947560429 -0.010206503793597221 -0.004700840916484594
-0.001546439947560429 -0.009587927721440792 -0.004741472192108631
-0.001546439947560429 -0.008969351649284363 -0.004704479593783617
-0.001546439947560429 -0.008350775577127934 -0.004589133895933628
-0.001546439947560429 -0.007732199504971504 -0.004591074772179127
-0.0015464399475604291 -0.007113623432815075 -0.004204464610666037
-0.0015464399475604291 -0.006495047826319933 -0.0039724987000226974
-0.0015464399475604291 -0.005876471754163504 -0.003585888771340251
-0.0015464399475604291 -0.005257895682007074 -0.003045483026653528
-0.0015464399475604294 -0.004639319609850645 -0.0023896258790045977
-0.0015464399475604291 -0.004020744003355503 -0.0036799656227231026
-0.0015464399475604291 -0.003402167931199074 -0.0036429716274142265
-0.0015464399475604291 -0.0027835918590426445 -0.003449666779488325
-0.0015464399475604291 -0.002165015786886215 -0.00325636169873178
-0.0015464399475604291 -0.0015464399475604296 -0.003024395788088441
-0.0015464399475604294 -0.0009278639336116612 -0.002127604093402624
-0.0015464399475604294 -0.00030928797787055373 -0.0015103867044672372
-0.002165015786886215 -0.017629414796829224 -0.0012740422971546652
-0.0021650157868862148 -0.01701083965599537 -0.002336091827601195
-0.0021650157868862148 -0.016392262652516365 -0.0029919489752501254
-0.0021650157868862148 -0.01577368751168251 -0.002098684431985021
-0.0021650157868862148 -0.015155111439526081 -0.0032016960904002194
-0.0021650157868862148 -0.014536535367369652 -0.00370384193956852
-0.0021650157868862148 -0.013917959295213223 -0.004359699785709381
-0.0021650157868862148 -0.013299383223056793 -0.0029884071554988627
-0.0021650157868862148 -0.012680807150900364 -0.0032976949587464337
-0.0021650157868862148 -0.012062231078743935 -0.003684305120259524
-0.0021650157868862148 -0.011443655006587505 -0.0039162710309028625
-0.0021650157868862148 -0.01082507986575365 -0.004264220129698515
-0.0021650157868862148 -0.010206503793597221 -0.004457524977624416
-0.0021650157868862148 -0.009587927721440792 -0.0044168937020003796
-0.0021650157868862148 -0.008969351649284363 -0.004228461533784866
-0.0021650157868862148 -0.008350775577127934 -0.004499088507145643
-0.0021650157868862148 -0.007732199504971504 -0.004692393355071545
-0.0021650157868862148 -0.007113623432815075 -0.004768501501530409
-0.0021650157868862148 -0.006495047826319933 -0.004805495031177998
-0.0021650157868862148 -0.005876471754163504 -0.004842488095164299
-0.0021650157868862148 -0.005257895682007074 -0.0031823904719203715
-0.002165015786886215 -0.004639319609850645 -0.001646310091018677
-0.0021650157868862148 -0.004020744003355503 -0.002543101785704494
-0.002165015786886215 -0.003402167931199074 -0.0012527621584013107
-0.002165015786886215 -0.0027835918590426445 -0.0015012630028650167
-0.002165015786886215 0.00030928797787055373 -0.001098129199817777
-0.0021650157868862148 0.003402167931199074 -0.002451391657814384
-0.002783591859042644 -0.017629414796829224 -0.002123458776623011
-0.002783591859042644 -0.01701083965599537 -0.0025809181388467555
-0.002783591859042644 -0.016392262652516365 -0.0030957891140133147
-0.002783591859042644 -0.01577368751168251 -0.00410130899399519
-0.002783591859042644 -0.015155111439526081 -0.0035609044134616856
-0.002783591859042644 -0.014536535367369652 -0.0029821556527167563
-0.002783591859042644 -0.013917959295213223 -0.004193897824734449
-0.002783591859042644 -0.013299383223056793 -0.0036151511594653134
-0.002783591859042644 -0.012680807150900364 -0.002352588810026646
-0.002783591859042644 -0.012062231078743935 -0.0033905650489032273
-0.002783591859042644 -0.011443655006587505 -0.0021669517736881976
-0.002783591859042644 -0.01082507986575365 -0.003417643485590816
-0.002783591859042644 -0.010206503793597221 -0.004871009383350611
-0.002783591859042644 -0.009587927721440792 -0.004523060284554958
-0.002783591859042644 -0.008969351649284363 -0.004329755436629057
-0.002783591859042644 -0.008350775577127934 -0.004097789525985718
-0.002783591859042644 -0.007732199504971504 -0.0038658233825117354
-0.002783591859042644 -0.007113623432815075 -0.0035178745165467267
-0.002783591859042644 -0.006495047826319933 -0.0029391276184469466
-0.0027835918590426445 -0.005876471754163504 -0.0016765659675002102
-0.002783591859042644 -0.005257895682007074 -0.002173446817323566
-0.002783591859042644 -0.004639319609850645 -0.003463787026703358
-0.002783591859042644 -0.004020744003355503 -0.00284657021984458
-0.002783591859042644 -0.003402167931199074 -0.0021518596913665537
-0.0027835918590426445 -0.0027835918590426445 -0.0009282488026656214
-0.0027835918590426445 -0.002165015786886215 -0.0015624647494405512
-0.002783591859042644 -0.0015464399475604296 -0.0027742064557969574
-0.002783591859042644 -0.0009278639336116612 -0.002387596527114511
-0.0027835918590426445 -0.00030928797787055373 -0.0015321718528866772
-0.003402167931199074 -0.017629414796829224 -0.0015057699056342248
-0.0034021679311990734 -0.01701083965599537 -0.0027683314401656394
-0.0034021679311990734 -0.016392262652516365 -0.0033470783382654194
-0.0034021679311990734 -0.01577368751168251 -0.00416128383949399
-0.0034021679311990734 -0.015155111439526081 -0.0045865545980632305
-0.0034021679311990734 -0.014536535367369652 -0.0034129547420889144
-0.0034021679311990734 -0.013917959295213223 -0.00414677057415247
-0.0034021679311990734 -0.013299383223056793 -0.0045333802700042725
-0.0034021679311990734 -0.012680807150900364 -0.003321637632325292
-0.0034021679311990734 -0.012062231078743935 -0.003900384530425072
-0.0034021679311990734 -0.011443655006587505 -0.0028276592493057255
-0.0034021679311990734 -0.01082507986575365 -0.0037244502454996113
-0.0034021679311990734 -0.010206503793597221 -0.004226598422974348
-0.0034021679311990734 -0.009587927721440792 -0.003788993461057544
-0.0034021679311990734 -0.008969351649284363 -0.004214264452457428
-0.0034021679311990734 -0.008350775577127934 -0.004446230363100767
-0.0034021679311990734 -0.007732199504971504 -0.004561576060950756
-0.0034021679311990734 -0.007113623432815075 -0.004676922224462032
-0.003402167931199074 -0.005876471754163504 -0.001318499795161188
-0.003402167931199074 -0.005257895682007074 -0.0013239406980574135
-0.003402167931199074 -0.004639319609850645 -0.0012226041872054343
-0.0034021679311990734 -0.004020744003355503 -0.002560527995228768
-0.0034021679311990734 -0.003402167931199074 -0.0030626757070422177
-0.0034021679311990734 -0.0027835918590426445 -0.0036414226051419978
-0.0034021679311990734 -0.002165015786886215 -0.00397847592830658
-0.0034021679311990734 -0.0015464399475604296 -0.0038614307995885615
-0.004020744003355503 -0.018247991800308228 -0.0010565192205831413
-0.004020744003355503 -0.017629414796829224 -0.0020370087586343293
-0.004020744003355502 -0.01701083965599537 -0.00416830275207758
-0.004020744003355502 -0.016392262652516365 -0.0038590144831687216
-0.004020744003355503 -0.01577368751168251 -0.003044808749109507
-0.004020744003355502 -0.015155111439526081 -0.004295500926673413
-0.004020744003355502 -0.014536535367369652 -0.005469101946800948
-0.004020744003355502 -0.013917959295213223 -0.005275796633213759
-0.004020744003355502 -0.013299383223056793 -0.0050051696598529824
-0.004020744003355502 -0.012680807150900364 -0.004657221026718617
-0.004020744003355502 -0.012062231078743935 -0.004155074246227742
-0.004020744003355503 -0.011443655006587505 -0.0031754411756992344
-0.004020744003355502 -0.01082507986575365 -0.004546734038740397
-0.004020744003355502 -0.010206503793597221 -0.0042761070653796205
-0.004020744003355502 -0.009587927721440792 -0.003928157966583968
-0.004020744003355503 -0.008969351649284363 -0.0027045451570302252
-0.004020744003355502 -0.008350775577127934 -0.004075837321579457
-0.004020744003355503 -0.007732199504971504 -0.0034970904234796767
-0.004020744003355503 -0.007113623432815075 -0.0025588679127395157
-0.004020744003355503 -0.006495047826319933 -0.0013749038334935908
-0.004020744003355503 -0.005876471754163504 -0.002682571997866035
-0.004020744003355503 -0.005257895682007074 -0.003137378487735987
-0.004020744003355503 -0.004639319609850645 -0.002403562190011144
-0.004020744003355503 -0.004020744003355503 -0.00125983520410955
-0.004020744003355503 -0.003402167931199074 -0.002265353919938207
-0.004020744003355503 -0.002165015786886215 -0.0017075567739084367
-0.004020744003355503 -0.0009278639336116612 -0.001226309454068542
-0.004020744003355503 -0.00030928797787055373 -0.002438051858916879
-0.004020744003355503 0.00030928797787055373 -0.0020514419302344327
-0.004020744003355503 0.0009278639336116612 -0.0015492942184209828
-0.004020744003355503 0.0015464399475604296 -0.001047147787176073
-0.004639319609850645 -0.017629414796829224 -0.001417445950210095
-0.004639319609850645 -0.01701083965599537 -0.002561172936111689
-0.004639319609850644 -0.016392262652516365 -0.0037049003876745705
-0.004639319609850644 -0.01577368751168251 -0.0043607582338154325
-0.004639319609850644 -0.015155111439526081 -0.004862904082983733
-0.004639319609850644 -0.014536535367369652 -0.005133530590683223
-0.004639319609850644 -0.013917959295213223 -0.005404157564044
-0.004639319609850644 -0.013299383223056793 -0.0043995711021125325
-0.004639319609850645 -0.012680807150900364 -0.002998190931975842
-0.004639319609850644 -0.012062231078743935 -0.0041012014262378224
-0.004639319609850644 -0.011443655006587505 -0.0046416069380939015
-0.004639319609850644 -0.01082507986575365 -0.004678600933402778
-0.004639319609850644 -0.010206503793597221 -0.004456741735339166
-0.004639319609850644 -0.009587927721440792 -0.004997146781533957
-0.004639319609850644 -0.008969351649284363 -0.003666570875793696
-0.004639319609850644 -0.008350775577127934 -0.004206974059343339
-0.004639319609850644 -0.007732199504971504 -0.004593584220856429
-0.004639319609850644 -0.007113623432815075 -0.004941533319652081
-0.004639319609850644 -0.006495047826319933 -0.00497852684929967
-0.004639319609850644 -0.005876471754163504 -0.004899507388472558
-0.004639319609850645 -0.005257895682007074 -0.0012407200410962111
-0.004639319609850645 -0.004639319609850645 -0.002424684120342136
-0.004639319609850644 -0.004020744003355503 -0.003910796716809274
-0.004639319609850644 -0.003402167931199074 -0.004104101564735175
-0.004639319609850644 -0.0027835918590426445 -0.004102160688489676
-0.004639319609850645 -0.002165015786886215 -0.002501204609870911
-0.004639319609850645 -0.0015464399475604296 -0.0031886151991784577
-0.004639319609850644 -0.0009278639336116612 -0.00410362845286727
-0.005257895682007074 -0.017629414796829224 -0.0027370450552552943
-0.005257895682007074 -0.01701083965599537 -0.0026047318242490296
-0.005257895682007074 -0.016392262652516365 -0.0032582376152276997
-0.0052578956820070735 -0.01577368751168251 -0.0043584220111370095
-0.0052578956820070735 -0.015155111439526081 -0.003741204040125013
-0.0052578956820070735 -0.014536535367369652 -0.005194571800529958
-0.0052578956820070735 -0.013917959295213223 -0.004846623167395593
-0.0052578956820070735 -0.013299383223056793 -0.004190765321254731
-0.005257895682007074 -0.012680807150900364 -0.002967152744531632
-0.005257895682007074 -0.012062231078743935 -0.0017435401678085334
-0.0052578956820070735 -0.011443655006587505 -0.004166762810200454
-0.0052578956820070735 -0.01082507986575365 -0.005327249877154828
-0.0052578956820070735 -0.010206503793597221 -0.004940640181303025
-0.0052578956820070735 -0.009587927721440792 -0.004708673804998399
-0.0052578956820070735 -0.008969351649284363 -0.004283403046429158
-0.0052578956820070735 -0.008350775577127934 -0.003742998465895653
-0.005257895682007074 -0.007732199504971504 -0.0028875744901597504
-0.0052578956820070735 -0.007113623432815075 -0.004099315963685513
-0.0052578956820070735 -0.006495047826319933 -0.003558911615982652
-0.005257895682007074 -0.005876471754163504 -0.00282509601674974
-0.005257895682007074 -0.005257895682007074 -0.0014871703460812575
-0.005257895682007074 -0.004639319609850645 -0.0022603902034461503
-0.005257895682007074 -0.004020744003355503 -0.0032294779084622864
-0.005257895682007074 -0.003402167931199074 -0.0025347685441374783
-0.005257895682007074 -0.0027835918590426445 -0.002109497552737594
-0.005257895682007074 -0.002165015786886215 -0.0010064857779070741
-0.005257895682007074 -0.0015464399475604296 -0.0013108232524245984
-0.005257895682007074 0.00030928797787055373 -0.0017990504857152707
-0.005257895682007074 0.0009278639336116612 -0.001258644741028548
-0.005876471754163504 -0.017629414796829224 -0.001128657022491098
-0.005876471754163504 -0.01701083965599537 -0.0018624739022925503
-0.005876471754163504 -0.016392262652516365 -0.003125036135315896
-0.005876471754163503 -0.01577368751168251 -0.0040632588788867005
-0.005876471754163503 -0.015155111439526081 -0.0048774643801152715
-0.005876471754163503 -0.014536535367369652 -0.005302735138684512
-0.005876471754163503 -0.013917959295213223 -0.0044204392470419416
-0.005876471754163504 -0.013299383223056793 -0.002534184604883195
-0.005876471754163503 -0.012680807150900364 -0.0037577971816062936
-0.005876471754163503 -0.012062231078743935 -0.004452506080269814
-0.005876471754163503 -0.011443655006587505 -0.00495465286076069
-0.005876471754163503 -0.01082507986575365 -0.0038182735443115243
-0.005876471754163503 -0.010206503793597221 -0.004552089143544436
-0.005876471754163503 -0.009587927721440792 -0.0049386993050575265
-0.005876471754163503 -0.008969351649284363 -0.005132003687322141
-0.005876471754163504 -0.008350775577127934 -0.0016054988373070962
-0.005876471754163504 -0.007732199504971504 -0.0026264362968504438
-0.005876471754163504 -0.007113623432815075 -0.0021888313349336394
-0.005876471754163504 -0.006495047826319933 -0.003250880166888238
-0.005876471754163503 -0.005876471754163504 -0.003868098137900234
-0.005876471754163503 -0.005257895682007074 -0.004216047003865243
-0.005876471754163504 -0.004639319609850645 -0.0027213755529373893
-0.005876471754163504 -0.004020744003355503 -0.0032617808319628247
-0.005876471754163503 -0.003402167931199074 -0.0036097296979278335
-0.005876471754163504 -0.0027835918590426445 -0.0009093029075302191
-0.005876471754163504 -0.002165015786886215 -0.0021329156588763007
-0.005876471754163504 -0.0015464399475604296 -0.0008822238305583604
-0.005876471754163504 -0.0009278639336116612 -0.0017790156416594989
-0.005876471754163503 -0.00030928797787055373 -0.003931180573999883
-0.005876471754163503 0.00030928797787055373 -0.003574892645701767
-0.006495047826319933 -0.017629414796829224 -0.0016141848172992477
-0.006495047826319932 -0.01701083965599537 -0.003928535617887975
-0.006495047826319932 -0.016392262652516365 -0.003930475097149611
-0.006495047826319933 -0.01577368751168251 -0.003274618647992612
-0.006495047826319932 -0.015155111439526081 -0.004647921770811082
-0.006495047826319932 -0.014536535367369652 -0.005423483438789845
-0.006495047826319932 -0.013917959295213223 -0.0049982122145593175
-0.006495047826319932 -0.013299383223056793 -0.004650263581424952
-0.006495047826319933 -0.012680807150900364 -0.0034662988036870965
-0.006495047826319933 -0.012062231078743935 -0.0022823347244411716
-0.006495047826319932 -0.011443655006587505 -0.004231336526572705
-0.006495047826319932 -0.01082507986575365 -0.00535367475822568
-0.006495047826319932 -0.010206503793597221 -0.005044386722147466
-0.006495047826319932 -0.009587927721440792 -0.004465640056878329
-0.006495047826319932 -0.008969351649284363 -0.003731823060661555
-0.006495047826319933 -0.008350775577127934 -0.0024311207234859475
-0.006495047826319933 -0.007732199504971504 -0.0031352299265563497
-0.006495047826319932 -0.007113623432815075 -0.004671309608966113
-0.006495047826319932 -0.006495047826319933 -0.004323360510170461
-0.006495047826319932 -0.005876471754163504 -0.0038212148938328036
-0.006495047826319933 -0.005257895682007074 -0.0033190667163580665
-0.006495047826319933 -0.004639319609850645 -0.0029324572533369073
-0.006495047826319933 -0.004020744003355503 -0.0023920515086501845
-0.006495047826319933 -0.003402167931199074 -0.0010179331293329605
-0.006495047826319933 -0.0027835918590426445 -0.0018771416507661351
-0.006495047826319933 -0.0015464399475604296 -0.0014356491155922422
-0.007113623432815075 -0.01701083965599537 -0.002045406959950925
-0.007113623432815074 -0.016392262652516365 -0.003626445773988963
-0.007113623432815074 -0.01577368751168251 -0.004360261373221875
-0.007113623432815074 -0.015155111439526081 -0.005016118753701449
-0.007113623432815074 -0.014536535367369652 -0.005325406789779664
-0.007113623432815074 -0.013917959295213223 -0.005440752487629653
-0.007113623432815074 -0.013299383223056793 -0.0040752673521637925
-0.007113623432815075 -0.012680807150900364 -0.002175328554585577
-0.007113623432815075 -0.012062231078743935 -0.0034378906711936006
-0.007113623432815074 -0.011443655006587505 -0.004334682598710061
-0.007113623432815074 -0.01082507986575365 -0.0048750857822597035
-0.007113623432815074 -0.010206503793597221 -0.005223034415394069
-0.007113623432815074 -0.009587927721440792 -0.00541633926331997
-0.007113623432815074 -0.008969351649284363 -0.0037676524370908746
-0.007113623432815075 -0.008350775577127934 -0.0012782501289621004
-0.007113623432815075 -0.007732199504971504 -0.0026523696724325427
-0.007113623432815074 -0.007113623432815075 -0.003673305269330741
-0.007113623432815074 -0.006495047826319933 -0.004098576493561269
-0.007113623432815074 -0.005876471754163504 -0.004446525126695634
-0.007113623432815074 -0.005257895682007074 -0.0045226356014609346
-0.007113623432815075 -0.004639319609850645 -0.002862537046894432
-0.007113623432815075 -0.004020744003355503 -0.003364684060215951
-0.007113623432815074 -0.003402167931199074 -0.0036739720962941655
-0.007113623432815074 -0.0027835918590426445 -0.004622628446668387
-0.007113623432815075 -0.002165015786886215 -0.0028041815385222444
-0.007113623432815075 -0.0015464399475604296 -0.001968408701941372
-0.007113623432815075 -0.0009278639336116612 -0.002718521049246193
-0.007113623432815074 -0.00030928797787055373 -0.0037338146939873704
-0.007113623432815075 0.00030928797787055373 -0.001004369114525617
-0.007113623432815075 0.0009278639336116612 -0.003190178656950594
-0.007113623432815075 0.0015464399475604296 -0.0028680386021733293
-0.007732199504971504 -0.017629414796829224 -0.0017300934996455916
-0.007732199504971504 -0.01701083965599537 -0.001926099765114487
-0.007732199504971504 -0.016392262652516365 -0.0024801790714263925
-0.007732199504971503 -0.01577368751168251 -0.00377051834948361
-0.007732199504971503 -0.015155111439526081 -0.005348030012100936
-0.007732199504971503 -0.014536535367369652 -0.005000081378966571
-0.007732199504971503 -0.013917959295213223 -0.004613471683114768
-0.007732199504971503 -0.013299383223056793 -0.004034724552184344
-0.007732199504971503 -0.012680807150900364 -0.005406016949564219
-0.007732199504971503 -0.012062231078743935 -0.0051353899762034425
-0.007732199504971503 -0.011443655006587505 -0.00451817223802209
-0.007732199504971503 -0.01082507986575365 -0.0038234635721892127
-0.007732199504971504 -0.010206503793597221 -0.0026394994929432878
-0.007732199504971504 -0.009587927721440792 -0.0029840958304703244
-0.007732199504971503 -0.008969351649284363 -0.004644194617867471
-0.007732199504971503 -0.008350775577127934 -0.0041037891060113916
-0.007732199504971503 -0.007732199504971504 -0.003601641859859229
-0.007732199504971504 -0.007113623432815075 -0.0026220083236694345
-0.007732199504971504 -0.006495047826319933 -0.0017252172110602268
-0.007732199504971504 -0.005876471754163504 -0.002779889153316618
-0.007732199504971504 -0.005257895682007074 -0.0018416651291772732
-0.007732199504971504 -0.004639319609850645 -0.0009448733180761347
-0.007732199504971504 -0.004020744003355503 -0.0016489825211465367
-0.007732199504971504 -0.0027835918590426445 -0.0012845793971791872
-0.007732199504971504 -0.0015464399475604296 -0.0009152817656286071
-0.008350775577127934 -0.01701083965599537 -0.0014487182488664996
-0.008350775577127934 -0.016392262652516365 -0.002592445584014059
-0.008350775577127934 -0.01577368751168251 -0.0036544962786138066
-0.008350775577127934 -0.015155111439526081 -0.004271713085472585
-0.008350775577127934 -0.014536535367369652 -0.004812117666006089
-0.008350775577127934 -0.013917959295213223 -0.0051214052364230165
-0.008350775577127934 -0.013299383223056793 -0.005236751399934293
-0.008350775577127934 -0.012680807150900364 -0.005352098494768144
-0.008350775577127934 -0.012062231078743935 -0.0054674441926181325
-0.008350775577127934 -0.011443655006587505 -0.0018461089348420512
-0.008350775577127934 -0.01082507986575365 -0.001924630836583675
-0.008350775577127934 -0.010206503793597221 -0.0017238686559721838
-0.008350775577127934 -0.009587927721440792 -0.0018023893935605894
-0.008350775577127934 -0.008969351649284363 -0.0021393275819718846
-0.008350775577127934 -0.007732199504971504 -0.0012902662856504332
-0.008350775577127934 -0.007113623432815075 -0.00112045358400792
-0.008969351649284363 -0.01701083965599537 -0.0029741788748651756
-0.008969351649284363 -0.016392262652516365 -0.0032626739703118814
-0.008969351649284363 -0.01577368751168251 -0.0023244514595717205
